# XYZ point cloud file
-0.015625 1.25 5.75
-0.015625 1.4375 5.5
-0.0625 1.8125 6.25
0.03125 1.5 6.375
0.03125 1.75 6.5
-0.3125 1.3125 3.75
-0.265625 1.3125 3.5
-0.25 1.125 3.5
-0.1875 1.0625 6.875
-0.1875 1.625 7.5
-0.234375 1.75 6.25
-0.25 1.125 4.25
-0.4375 1.5 4.25
-0.34375 1.625 4.5
-0.296875 1.75 6.25
-0.203125 1.5625 6.625
-0.25 1.4375 4.625
-0.171875 1.5625 4.25
-0.1875 1.125 4.75
-0.21875 1.1875 5.875
-0.640625 2.0625 1.875
-0.578125 1.4375 2.875
-0.328125 1.1875 4
0.0625 2.3125 5.375
-0.03125 2.125 5.625
0.046875 1.5625 6.5
-0.53125 1.1875 3.5
-0.390625 1.0625 4
-0.40625 1.25 4.25
-0.28125 0.5625 5.5
-0.34375 0.9375 5.25
-0.484375 0.8125 5.625
-0.21875 0.9375 4.375
-0.125 1.1875 4.125
-0.046875 1.5 5.125
-0.328125 1 3.25
-0.40625 0.875 4.25
-0.46875 1 4.5
-0.3125 1.3125 3.25
-0.375 1.625 4.25
-0.375 1.625 4.5
0.046875 1.1875 6.25
0.0625 1 6.375
-0.296875 0.8125 6.25
-0.125 1.0625 6.25
-0.1875 0.875 4
-0.421875 1 5.375
-0.28125 1.1875 4.875
-0.28125 1.1875 5.375
-0.375 0.875 6.125
-0.359375 1.3125 5.875
-0.453125 1.375 5.625
-0.484375 1.6875 6
-0.21875 0 3.125
-0.125 0.625 2.875
-0.078125 0.0625 5.5
-0.234375 1.125 5.25
-0.28125 1.125 4.25
-0.046875 1.75 2.125
-0.015625 0 2.625
0.28125 -0.375 2.375
-0.15625 -0.75 2.875
-0.40625 0.125 4.375
0.015625 0.75 3.125
-0.1875 0.75 6
-0.328125 0.5625 5
-0.078125 0.9375 7.375
0.03125 1.375 7.75
-0.078125 1.6875 6.625
-0.109375 1.75 5.875
0.0625 1.3125 6
-0.109375 0.5 3.75
-0.109375 0.6875 3.125
-0.203125 1.1875 3.375
-0.328125 0.9375 3.625
-0.34375 0.6875 4
-0.5 0.5 4
-0.1875 0.875 5.125
0.0625 1.1875 6.5
-0.234375 0.9375 6.125
-0.390625 1.125 5.125
-0.234375 0.9375 6.25
-0.140625 1.375 7.5
-0.296875 0.3125 3
-0.328125 0.5 2.75
-0.203125 0.375 3.125
-0.28125 0.8125 3.875
-0.34375 0.8125 3.75
-0.453125 0.75 3.875
0.125 -1.125 5.25
0.140625 -0.75 5.875
0.3125 -0.375 5.75
0.1875 -1.5625 5.5
0.203125 -1.5625 5.375
0.1875 -1.625 5.5
0.015625 -1.375 5
0.015625 -0.9375 4.125
0.234375 -1.375 5.625
0.15625 -1.9375 2.75
0.21875 -2.25 4.25
0.1875 -2.125 5.375
0.0625 -1.1875 4.125
0 -1.3125 3.125
0.015625 -1.6875 3.25
0.453125 -0.8125 4.375
0.4375 -0.75 4.125
0.28125 -0.4375 3.875
0.125 -1 5.125
0.140625 -1.125 6.75
0.359375 -0.9375 5.875
0.046875 -1.8125 3.25
-0.0625 -2 3
0.046875 -1.4375 3.5
0.140625 -2.0625 3.5
0.21875 -1.5625 3.125
0.296875 -2.0625 3.5
0.734375 -1 3.5
0.796875 -0.75 3.625
0.78125 -0.3125 3.5
0.421875 -0.75 3.25
0.546875 -1.125 2.625
0.578125 -0.9375 3.625
0.46875 -1.875 3
0.375 -1.75 3
0.453125 -1.6875 2.875
0.5625 -1.25 4.75
0.609375 -1.6875 4
0.546875 -1.4375 3.625
0.734375 -1.125 6
0.640625 -1 5.625
0.671875 -0.6875 4.125
0.6875 -1.0625 3.875
0.578125 -0.875 4.375
0.71875 -1.375 5.375
0.828125 -1.3125 4.5
0.71875 -1.625 4
0.609375 -1.625 3.75
0.6875 -1.5 4.375
0.796875 -1.5625 3.25
0.75 -1.3125 3.625
0.46875 -1.25 4.875
0.5 -1.5625 3.625
0.578125 -1.8125 2.5
0.5625 -2.1875 3
0.546875 -2 4.375
0.6875 -2.125 4
0.671875 -1.9375 3.75
0.46875 -1.625 3
0.515625 -1.625 3.5
0.6875 -1.8125 2.75
0.40625 -1.5625 4.25
0.421875 -2.0625 3.375
0.421875 -1.625 5.875
0.359375 -1.5625 4.375
0.640625 -1.5 4
0.546875 -1.1875 3.125
0.5 -1.5 3
0.546875 -1.9375 2.625
0.5625 -2.3125 2.875
0.484375 -1.4375 2.375
0.15625 -1.4375 2.5
0.203125 -1.4375 2.625
0.328125 -1.875 2.625
0.171875 -1.5 2.875
0.140625 -1.375 4.625
0.015625 -1.125 4.75
-0.046875 -1.6875 5.125
-0.03125 -1.75 4.75
0.1875 -1.25 4.375
0.40625 -1.4375 3.75
0.03125 -1.25 2.5
-0.046875 -1.125 2.625
0 -1.25 2.5
0.15625 -1.25 3
0.109375 -1.0625 4
0.046875 -1.4375 3.25
0.234375 -1.9375 4
0.09375 -2.25 3.5
0 -1.875 2.75
0.03125 -1.375 2.75
0.03125 -1.75 3.125
0.0625 -1.5 3.5
0.078125 -1.5 2.625
0.078125 -2 2.5
0 -2.0625 3.125
0.078125 -2.25 2.75
0.46875 -1.875 1.75
0.625 -2 3.375
0.609375 -1.75 4.375
0.234375 -1.75 3.875
0.0625 -1.5625 3.375
0.078125 -1.3125 2.625
0.234375 -1.3125 3.5
0.484375 -1.6875 2.375
-0.546875 2.8125 5.125
-0.546875 2.6875 4.375
-0.59375 2.5 4
-0.609375 3 5.875
-0.578125 2.5625 6.125
-0.609375 2.8125 7.125
-0.625 2.75 6.5
-0.65625 3 6.25
-0.625 3 5.5
-0.78125 1.375 4.5
-0.8125 1.5 4.5
-0.75 1.375 4.5
-0.8125 1.6875 4.125
-0.734375 1.75 5
-0.8125 2.0625 5.25
-1.125 1.9375 5
-0.90625 1.625 5.375
-0.75 1.3125 5.125
-0.78125 2.4375 4.875
-0.90625 2.6875 4.125
-0.96875 2.25 3.75
-0.59375 2.8125 4.625
-0.625 2.5 4.625
-0.703125 2.25 4.5
-0.859375 1.6875 5
-0.890625 1.8125 5.5
-0.828125 1.5625 5.75
-1.015625 1.6875 6
-0.984375 1.8125 5.5
-0.859375 1.8125 5.25
-0.671875 1.9375 4
-0.546875 2.5625 3.5
-0.578125 2.4375 3.5
-0.71875 2.1875 3.75
-0.578125 2.5 3.625
-0.5 2.0625 3.875
-1 1.5 6
-0.859375 1.1875 6.625
-0.75 1.1875 5.875
-1.15625 1.3125 5.875
-1.09375 1.375 6.125
-0.953125 1.25 6
-0.28125 2.9375 6.875
-0.453125 2.4375 7.25
-0.5 2.625 6.5
-0.53125 2.375 6.5
-0.484375 2.75 6.5
-0.65625 2.5 8
-0.859375 1.375 3.875
-0.609375 1 4.625
-0.59375 1.125 5.625
-0.453125 0.75 5.25
-0.453125 0.625 5.25
-0.390625 1.0625 5.5
-0.71875 1.6875 4.875
-0.703125 1.9375 5
-0.578125 1.625 5.25
-0.640625 2.125 4.25
-0.609375 2.1875 4.75
-0.40625 3.3125 5.75
-0.6875 0.4375 5.75
-0.640625 1.375 5.125
-0.765625 1.5625 5.375
-0.5625 1.5 4
-0.421875 1.1875 4.75
-0.375 1.25 4.625
-0.4375 1.0625 3.625
-0.484375 1.5 3.875
-0.296875 1.4375 3
-0.859375 1.5625 3.375
-0.84375 1.6875 2.75
-0.875 1.8125 3.75
-0.84375 1.9375 5.875
-1.03125 2.25 5.875
-1.234375 2 7.375
-1.34375 2.3125 5.75
-1.265625 2.3125 5.125
-1.109375 1.875 5.75
-0.5 1.8125 2.5
-0.46875 1.6875 1.5
-0.390625 1.4375 2.25
-0.390625 1.75 2.625
-0.28125 1.6875 3
-0.390625 2.125 3.5
-1.234375 1.9375 5.125
-1.140625 2.1875 4.375
-0.90625 2.375 4.375
-1.03125 2.5 5.375
-1.03125 2.625 5.875
-1.125 3.125 5.875
-0.875 1.3125 0.5
-0.96875 1.0625 1.5
-1 1.3125 2.625
-0.921875 1.125 2.75
-0.75 1.3125 2.75
-0.5625 1.25 2.75
-1.078125 2.75 6.625
-1.140625 3.1875 6.625
-1.4375 2.6875 5.25
-1.375 2.1875 6.125
-1.515625 2.125 5.75
-1.578125 1.625 4.75
-1.171875 2 3.125
-1.140625 1.875 2.625
-0.984375 1.6875 2.5
-0.96875 1.5625 3
-1.1875 1 2
-1.234375 1.0625 2.25
-1.359375 2.5625 5.25
-1.40625 2.375 5.5
-1.390625 1.8125 5.25
-1.265625 1.3125 5.125
-1.359375 1.125 4.875
-1.34375 1.875 4.5
-0.859375 1.6875 5
-0.9375 1.375 5.5
-0.875 1.375 5.375
-1.125 2.25 3.125
-1.125 2.3125 2.25
-1.171875 2.625 3.25
-1.015625 1.1875 4.75
-0.921875 1.75 4.25
-0.96875 2.25 4.875
-0.984375 2.125 5.75
-0.96875 2.125 5.375
-0.78125 1.9375 5.625
-0.640625 1.9375 5
-0.71875 2 5.25
-0.6875 2.0625 6.25
-0.390625 2.5625 4.625
-0.46875 2.75 4.875
-0.734375 2 5.25
-1.171875 2.3125 5.25
-1.015625 1.625 5
-1.203125 1.8125 5.125
-1.03125 1.125 5.25
-0.96875 1.5625 5.125
-0.875 1.75 4.75
-0.625 1.625 3.375
-0.671875 1.625 2.875
-0.609375 2 4.375
-0.546875 1.875 4.125
-0.578125 2.5 3.75
-0.515625 2.4375 3.75
-0.953125 1.5625 6.375
-0.984375 1.8125 6.25
-1.0625 1.25 5.25
-0.9375 1.4375 6.625
-0.921875 1.0625 6.5
-0.796875 1 6.375
-0.65625 1.875 3.375
-0.46875 1.5625 3.75
-0.484375 1.4375 3.75
-0.859375 1.125 7.125
-1 1.625 6.375
-0.796875 1.5 6.25
-0.453125 1.8125 3.75
-0.421875 1.75 4.125
-0.53125 1.5 3.75
-0.65625 2 3.625
-0.6875 2.4375 3.625
-0.65625 2.4375 3.875
-0.625 2.25 3.875
-0.625 1.875 3.875
-0.609375 1.5 3.5
-0.78125 1.375 7.125
-0.84375 1.25 6.875
-0.796875 1.3125 6.75
-0.734375 1.25 6.5
-0.796875 1.4375 6.625
-0.828125 1.375 6.625
-0.875 1.4375 6.625
-0.9375 1.5 6.375
-0.90625 1.5 6.75
-0.484375 2.3125 5.375
-0.484375 2.625 6
-0.546875 2.5625 5.375
-0.59375 2.0625 3.25
-0.546875 1.8125 3.75
-0.578125 2.5 4.25
-1.046875 1.375 5.375
-1.109375 1.5 6
-1.03125 1.1875 6.5
-1.09375 1.5 5.875
-1.078125 1.625 6.25
-1.078125 1.3125 6
-0.765625 1.9375 5.125
-0.859375 1.75 5.25
-0.796875 1.75 5.5
-0.28125 2.625 5.75
-0.515625 2.375 4.625
-0.625 2.1875 5.125
-1.078125 1.9375 5.25
-1.125 1.5 5.25
-1.125 1.625 5.625
-1.078125 2.3125 4.75
-1 2.375 4.625
-1.21875 2.4375 5.125
-1.015625 2.3125 3.5
-1.109375 2.125 3.25
-1.0625 2.375 2.25
-1.0625 1.75 4.125
-1.171875 1.5625 3.5
-1.21875 2.0625 3
-1.03125 2.5 3.75
-1.109375 2.0625 4.875
-1.109375 2.3125 5.5
-1.171875 1.375 4.375
-1.1875 1.1875 3.625
-1.015625 1.625 3.375
-0.84375 1.375 3
-0.984375 0.875 2.875
-1.078125 0.8125 3.25
-1 1.6875 3.375
-0.875 1.5 4.125
-0.78125 1.1875 4
-1.03125 2.0625 4.75
-1 1.625 4.125
-1.046875 1.9375 3.625
-1.390625 2.6875 5.5
-1.1875 1.625 5
-1.046875 2.0625 4.75
-0.53125 1.4375 2.75
-0.546875 1.625 2.5
-0.515625 1.5 3.5
-0.734375 1.1875 3.875
-0.78125 1.5 3.875
-0.625 1.25 3.875
-1.0625 2.3125 4.25
-1.09375 1.9375 5
-0.984375 2.0625 4.625
-1.078125 2.5625 4.75
-1.21875 2.375 4.25
-1.125 2.3125 4.375
-0.5625 2 3.5
-0.59375 2.1875 4.25
-0.53125 1.8125 4
-0.5625 1.6875 4
-0.484375 1.375 3.625
-0.609375 2.0625 4.25
-1.46875 1.9375 5.75
-1.15625 2.375 4.5
-1.34375 1.875 4.75
-1.375 2.375 6.5
-1.484375 2.3125 6.25
-1.359375 1.875 6.875
-0.71875 1.3125 5.25
-0.6875 1.4375 5.5
-0.71875 1.5625 4.875
-0.78125 2.125 3.625
-0.8125 1.8125 4.75
-0.875 1.6875 4
-1 1.875 5.875
-1.015625 1.9375 6.125
-1.28125 2.125 6.25
-0.75 1.8125 4.625
-0.734375 1.75 4.75
-0.6875 1.8125 4.375
-0.609375 3.125 6.75
-0.5625 2.9375 6.875
-0.59375 3.0625 7.375
-0.546875 2 5.875
-0.46875 2.4375 5
-0.421875 2.625 5.875
-0.828125 1.0625 5.625
-0.71875 1.625 4.75
-0.765625 1.5 4.25
-0.5625 0.875 6.375
-0.5625 0.9375 5.625
-0.65625 1.1875 6.25
-0.546875 3 6.75
-0.65625 2.6875 7.375
-0.609375 2.625 8
-0.625 2.8125 6.25
-0.609375 2.6875 6.5
-0.65625 2.8125 7.75
-0.578125 1.125 4
-0.4375 1.125 4.125
-0.578125 0.875 5.125
-0.75 1.375 4.5
-0.578125 1.1875 4.5
-0.515625 1.25 4.25
-0.703125 2.0625 4.875
-0.75 2.25 5
-0.8125 2 4.625
-0.75 2.0625 4.5
-0.59375 1.8125 4.75
-0.671875 2.0625 4.5
-0.8125 1.375 6.25
-0.84375 1.25 5.875
-0.78125 0.9375 5.5
-0.765625 1.25 5.75
-0.71875 1.3125 5.5
-0.796875 1.375 5.375
-0.8125 2.625 4.625
-0.734375 2.375 5
-0.78125 2.375 5.375
-0.78125 2.6875 5.25
-0.65625 2.75 5.5
-0.90625 2.4375 4.875
-0.75 1.25 5.75
-0.75 1.625 5.5
-0.8125 1.125 4.875
-0.921875 0.75 5
-0.8125 1.375 4.625
-0.75 1.5625 4.875
-0.640625 2.5625 5.75
-0.6875 2.3125 5
-0.6875 2.375 5.5
-0.78125 0.875 4.125
-0.6875 1.0625 4.25
-0.578125 1.3125 3.875
-0.8125 1.9375 2.75
-0.6875 2.1875 3.875
-0.953125 1.875 4.125
-0.96875 2.4375 0.125
-0.9375 2.125 0.25
-0.875 2.3125 0.25
-0.78125 1.9375 1.125
-0.734375 1.8125 2
-0.84375 2.4375 2
-0.78125 2.125 2
-0.71875 1.875 2.125
-0.84375 2.0625 2.125
-1.40625 1.125 2.125
-1.359375 1.5625 2.875
-1.34375 1.5 3
-1.265625 2.875 1.25
-1.359375 3 1.625
-1.21875 2.25 2.625
-1.265625 2.3125 0.25
-1.078125 2.3125 0.5
-0.90625 2.9375 0.75
-1.09375 1.125 3.125
-0.828125 0.6875 4.25
-1.03125 1.5 4.5
-1.25 1.6875 5
-1.296875 1.375 5.125
-1.40625 2.1875 3.75
-1.25 2.3125 4.875
-1.15625 2.1875 3.375
-1.21875 2.8125 2
-1.109375 1.875 1.875
-1.0625 2 2.625
-1.125 2.375 0.75
-1.265625 1.875 5.375
-1.109375 2.125 4.375
-1 1.6875 6.75
-0.875 1.75 5.75
-1.046875 2.0625 5.5
-1.4375 2.125 6.75
-1.046875 1.625 5.875
-1.15625 1.4375 5.25
-1 1.5625 4.625
-0.71875 2.25 4.375
-0.84375 1.625 2.75
-0.90625 2.125 2.375
-1 2.25 6.375
-1.125 2.1875 4.875
-1.34375 2.125 3.125
-1.390625 2.125 1.875
-1.5 2.5 1.5
-1.3125 1.75 1.25
-0.734375 1.8125 2.875
-0.59375 2 2.25
-0.59375 1.4375 2.125
-0.6875 1.4375 2.75
-1.03125 1.25 3.875
-0.96875 2.0625 4.25
-1.109375 2.1875 2
-1.265625 2.25 0.25
-1.109375 1 1.375
-1.1875 2 1.75
-1.546875 2 2.25
-1.703125 1.5625 2.625
-0.84375 2.75 0.75
-0.484375 2.5625 2.625
-0.40625 1.875 2.125
-0.546875 1.375 1
-0.578125 2.125 1.5
-0.515625 1.25 1.75
-1.375 2.1875 1.625
-1.46875 1.375 0.875
-1.515625 1.0625 1.125
-1.6875 1.4375 0.25
-1.46875 1.1875 1
-1.28125 2 -0.125
-0.171875 2.5625 -0.5
-0.15625 2.375 -1
0.03125 2.375 -1.625
-0.0625 2.3125 -0.5
-0.390625 2.5 1
-0.46875 2.1875 1.625
-1.59375 1.1875 0.5
-1.359375 1.625 0.125
-1.3125 2.125 0.75
-0.96875 1.6875 1.375
-1.0625 1.6875 2.625
-1.03125 1.3125 2.5
0.140625 1.5 2.875
0.046875 1.4375 1.875
0.09375 0.4375 1.875
0.109375 0.625 0
-0.0625 1.25 0.75
-0.03125 1.9375 0
-0.9375 2.0625 1.375
-0.765625 1 1
-0.875 0.6875 1.875
-0.90625 1.0625 3.875
-1.03125 1.875 3.75
-0.78125 1.5625 4.125
0.140625 0 3
0.234375 0.0625 2.25
0.34375 0.1875 1.875
0.40625 0.5625 2.75
0.359375 -0.0625 3.125
0.28125 -0.3125 1.125
-0.578125 1.25 2
-0.625 0.1875 2
-0.40625 0.1875 3.875
-0.390625 1 4.5
-0.53125 1.0625 4.25
-0.46875 0.6875 4.5
0.15625 -0.9375 3.25
0.046875 -0.625 3.375
0.015625 -0.5625 4
-0.03125 -0.125 5
0.296875 -0.1875 5.625
0.359375 0.125 5.125
0.390625 -0.25 4.375
0.234375 -0.375 3.625
0 -0.5625 2.75
-0.109375 -0.6875 3.375
0.03125 -0.3125 2.75
0.328125 -0.75 2.625
0.015625 0.25 2.75
0 -0.125 3.5
0 -0.0625 2.75
0.140625 -0.3125 2.25
0.09375 0.25 3
0.28125 -0.125 3.5
-0.265625 -0.375 2.375
-0.09375 -0.3125 3.375
-0.0625 -0.375 4.625
0.5 -1.125 0.75
0.515625 -0.9375 0.875
0.546875 -2.0625 0.375
-0.109375 -0.875 0.25
-0.171875 -0.8125 1.75
-0.140625 -1.5 2.375
0.078125 -0.4375 4.375
0.28125 -1.1875 3.625
0.203125 -1.5625 2.25
-0.203125 -2.3125 1.375
-0.1875 -1.625 1.875
-0.375 -0.5 4.25
0.46875 -1.1875 -2
0.09375 -1.25 -1.375
0 -0.8125 -1.875
0.3125 -1.875 2
0.453125 -2.375 1.875
0.71875 -2.3125 1.875
1.140625 -2.0625 2
0.765625 -1.125 3.375
0.4375 -1.6875 1.75
0.703125 -1.9375 1.25
0.96875 -2.25 1.375
0.625 -1.5 2
0.484375 -0.9375 4
0.546875 -0.3125 3.125
0.140625 -0.75 0.625
0.9375 -2.0625 4.5
0.96875 -1.4375 4
0.78125 -0.8125 3.375
0.6875 -1.25 2.5
0.859375 -1.75 1.125
0.765625 -1.375 1.25
0.890625 -2.25 5.875
0.828125 -1.875 5.25
0.796875 -2.0625 3
0.5625 -0.75 5.125
0.625 -0.875 5.125
0.640625 -1.0625 4.875
0.921875 -1.6875 1
1.046875 -1.875 0.375
1.015625 -1.75 1.875
0.78125 -1.875 2.125
0.59375 -1.5 2
0.734375 -1.4375 0.75
0.0625 0.25 4.125
0.3125 0 3.875
0.4375 -0.375 2.625
0.328125 -0.875 3.375
0.34375 -0.625 4.25
-0.046875 0.3125 4.625
0.640625 -1.625 1.125
0.4375 -0.75 2.625
0.203125 -0.5625 2
0.515625 -2.125 0.625
0.40625 -1 1.375
0.359375 -1.8125 2
-0.1875 0.125 0.25
0.015625 0.3125 1.25
0.015625 0.375 2.5
-0.265625 0.875 1.125
-0.171875 0.125 2.75
-0.171875 0 0.75
0.28125 -2.1875 2.625
0.4375 -1.75 3.375
0.46875 -2.0625 3.5
0.65625 -2.1875 2.5
0.65625 -2 4.5
0.390625 -2 4.25
-0.046875 -1 3
0.0625 -1.9375 3
0.28125 -1.6875 2.625
-0.046875 -0.6875 1.875
0.21875 -0.625 3
0.140625 -0.75 3.25
0.640625 -1.6875 2
0.515625 -2.125 2.125
0.609375 -2.1875 3.125
0.46875 -0.6875 3.5
0.640625 -0.75 3.25
0.4375 -0.375 3.375
-0.25 -0.0625 3.75
-0.03125 0.1875 2
-0.046875 -0.3125 2.25
-0.109375 -0.5 0.875
0.046875 -1.1875 0.375
0.390625 -0.875 1
-0.25 -1 2.125
-0.15625 -0.875 0.875
-0.125 -1.25 1.375
-0.03125 -0.4375 1.5
0.25 -0.625 2
0.25 -0.5 2.625
-0.25 -0.625 2.75
-0.25 0.625 4.375
-0.203125 0.5625 5.375
-0.21875 0.25 2.625
-0.0625 0.375 3.375
0.1875 0.0625 3.125
0.09375 0.125 2.375
0.015625 -0.625 3.625
-0.015625 0.125 1.75
-0.015625 1.5 5.375
-0.25 1.375 4.75
0.0625 1.0625 5.125
-0.046875 0.5 3.125
0.1875 0.75 3.25
0.28125 -0.3125 1.5
-0.078125 0.375 0.375
-0.140625 0.75 0.375
-0.03125 0.9375 0.5
-0.125 0.25 1.125
0.171875 1.25 1.125
-0.171875 0.5 1.75
-0.5625 0.8125 3.75
-0.484375 0.375 3
-0.3125 0.1875 3.125
-0.265625 0.375 3.625
-0.015625 0.875 4.125
-0.375 0.75 4.5
-0.25 0.5625 4
-0.3125 0.9375 5.875
-0.140625 1.125 5.25
-0.015625 -0.75 1.375
-0.015625 -0.9375 2.625
0.078125 -0.1875 2.375
-0.328125 0.875 2.75
-0.234375 1 4
-0.21875 0.6875 3.75
-0.140625 1.5 1.625
-0.1875 0.8125 3.125
0.0625 0.6875 2.875
-0.25 0.375 1.625
-0.140625 0.625 2
-0.234375 1.125 2.125
-0.453125 0.5 2.75
-0.390625 0.4375 2.75
-0.21875 0.125 4
-0.328125 0.9375 2.625
-0.46875 0.375 1.875
-0.25 0.5 2.875
0.015625 1.5625 3.625
0.0625 1.75 2.875
0 1.0625 2.875
-0.21875 0.6875 4.375
-0.453125 1.5625 3.25
-0.359375 1.375 4.5
0.671875 -2.625 -2.875
0.578125 -3.0625 -1.875
0.453125 -3.0625 -2.875
0.75 -2.1875 -5
0.53125 -2.375 -4.5
0.59375 -2.375 -4.75
0.890625 -2.3125 -5.125
1.203125 -2.75 -4.125
1.296875 -2.1875 -4
1.15625 -1.8125 -3.5
1.21875 -2.3125 -3.625
0.921875 -2.6875 -2.5
0.515625 -2.1875 -2.375
0.1875 -2.1875 -4
0.375 -3.0625 -1.5
0.25 -2.8125 -2.125
0.6875 -2.625 -2.125
0.484375 -2.25 -4
0.421875 -2.5 -3.5
0.328125 -3.125 -2.25
0.546875 -2.9375 -2.5
0.640625 -2.1875 -1.75
0.390625 -2.875 -1.375
0.4375 -2.5 -2.875
1.265625 -3 -4.375
1.09375 -2.25 -3.875
1.171875 -1 -3.5
0.90625 -2.1875 -2.75
0.796875 -1.4375 -2.75
0.578125 -2.25 -1.75
0.46875 -1.5625 -2.625
0.453125 -0.9375 -1.125
0.234375 -0.75 -1.75
0.125 -0.6875 -3.875
0.109375 -1.5625 -3.625
0.28125 -3.25 -2.875
0.390625 -1.9375 -0.375
0.390625 -0.9375 -1
0.453125 -0.8125 -2.125
0.609375 -2.125 -2
0.578125 -1.3125 -0.125
0.765625 -0.5625 1.5
0.546875 -0.9375 2.25
0.203125 -1.8125 0.875
0.40625 -2 0.5
0.015625 -1.125 1
-0.171875 -1.375 1.625
-0.46875 -1 1
-0.125 -0.625 -0.625
-0.140625 -1.375 1.5
0.15625 -0.5625 -0.625
0.5 -0.3125 2.75
0.3125 -0.4375 3.25
0.3125 -0.8125 1.375
0.171875 -0.9375 1.375
0.328125 -1.1875 2
0.0625 -1 1.75
0.203125 -0.5 3
0.03125 -0.5 1.75
-0.140625 -0.25 0.875
0.21875 -1.625 1.25
-0.140625 -1.375 1.25
-0.15625 -0.3125 1.375
-0.265625 1.4375 4.375
-0.234375 1.125 3.5
-0.578125 0.125 4
-0.0625 0.6875 1
-0.078125 0.9375 -1.25
0.03125 2.0625 0.5
0.390625 0.375 -0.875
0.03125 -0.0625 -0.125
0.328125 -0.1875 0.75
0.1875 0.375 1
0.0625 0.1875 1.125
-0.109375 0.3125 1.25
-1.3125 0.625 -1.25
-0.984375 0.8125 -1
-0.96875 1.0625 -2
-0.828125 0.8125 1
-0.296875 0.0625 1.75
-0.671875 0.1875 2
-1 2.25 0.375
-0.90625 2.0625 1.75
-1.109375 1.125 0.25
0.484375 -2.3125 -5.875
0.5 -2.1875 -5
0.25 -1.625 -3.625
0.109375 -2.375 -4.125
0.28125 -1.9375 -1.75
0.59375 -1.5 -2.375
0.6875 -0.875 -1.875
0.984375 -1.9375 -4.125
0.828125 -2 -3.875
0.40625 -3.0625 -3.375
0.265625 -3.3125 -2.125
0.21875 -3.125 -2.875
0.0625 -2.8125 -2.375
0.34375 -3.0625 -4.75
0.25 -2.75 -4.75
-1.0625 -0.5625 1.75
-0.9375 -0.5 0.375
-1.03125 -0.375 0.5
-0.78125 -0.125 2.5
-0.6875 1.25 0.75
-0.765625 1.0625 0.375
-0.78125 1.75 1.75
-0.84375 1.6875 4.875
-1.109375 0.625 2.75
-0.515625 0.4375 1.125
-0.34375 -0.125 1.125
-0.515625 0.1875 0.625
-1.109375 -0.0625 1.25
-1.296875 1.625 2.875
-0.75 0.125 0.75
-1.296875 0.125 0.875
-1.25 0 2.375
-1.34375 0.625 -0.5
-1.265625 1.8125 1.625
-1.015625 1.4375 -0.875
-0.890625 1.1875 2
-0.296875 -0.4375 0.625
-0.390625 -0.375 0.125
-0.84375 -0.4375 3.375
-0.640625 0.25 1.875
-0.59375 0.625 0.125
-0.265625 0.0625 0.75
0.015625 -0.75 -1.625
0.21875 -0.1875 -1.375
0.25 -1 -0.125
-0.5 -1.9375 0
-0.5625 -1.8125 0
0 -0.9375 -2.125
-0.546875 -0.6875 -1.625
-0.671875 1.125 -0.25
-0.84375 0.6875 -0.75
0.1875 -2.625 -5.125
0.171875 -1.875 -3.875
-0.140625 -2.4375 -2.625
-0.34375 -0.625 -3.375
0.046875 -1 -5.375
0.5 -0.625 -2.5
-0.171875 -2.625 -1.875
0.015625 -1.375 -1.375
0.171875 -0.9375 -3
-0.640625 0.9375 4.25
-0.703125 1.125 3
-0.640625 0.875 3.25
-0.3125 2.3125 1.25
-0.21875 2.9375 0.625
-0.390625 2.0625 1.125
-0.53125 1.1875 2
-0.953125 0.75 1.375
-0.765625 1.125 2.5
-1.59375 0.6875 3
-1.234375 0.875 1
-1.125 0.9375 0.25
-1.140625 1.625 1.25
-1.25 2.0625 1.75
-1.484375 1.5625 -1.125
-1.03125 1.125 0.875
-1.171875 1.4375 1
-1.578125 0.875 1.75
-0.734375 0.5625 2
-0.65625 0.8125 2
-0.671875 0.75 2.25
-0.453125 1.5625 1.375
-0.203125 0.9375 1
-0.328125 1 0.875
-0.40625 0.8125 1.25
-0.46875 0.75 3.125
-0.421875 0.125 3.75
-0.96875 0 -1
-1.234375 0.0625 -1.875
-1.21875 0.625 -1
-1.234375 -0.1875 -1
-1.359375 -0.125 -0.25
-1.359375 -0.0625 -0.125
-1.3125 -0.125 3.625
-0.953125 0.375 2.875
-0.859375 0 1.125
-0.609375 0.75 1.25
-0.421875 0.625 1.375
-0.703125 1 0.5
-0.515625 1.5625 -0.875
-0.015625 0.3125 -1.375
-0.15625 0.9375 -2.25
-0.15625 0.6875 -0.75
-0.421875 -0.25 -0.375
-0.71875 -0.0625 0.25
-0.59375 -1.375 0.75
-0.75 -0.375 2.25
-0.765625 -0.4375 1.75
-1.390625 -0.375 1.875
-1.3125 -0.5 1
-1.140625 0.25 0.125
-0.59375 0 0.875
-0.734375 -0.5 1.5
-0.5625 -0.8125 1.75
-0.15625 -0.8125 -1.375
-0.59375 -1.5 0.125
-0.859375 -0.75 -0.125
0.03125 0.625 0.375
-0.203125 0.5 0.625
0.140625 -0.125 -0.125
0.3125 -0.5 0.125
0.203125 -1.1875 -0.125
-0.03125 -0.9375 -0.125
-0.703125 -1.375 -3.75
-0.625 -1.625 -3
-0.96875 -1.125 -1.375
-1.109375 -1.1875 0.125
-1.1875 -0.625 0.25
-1.34375 -0.6875 0.125
-0.59375 -1.625 -1.625
-0.375 -1.125 -2.125
-0.21875 -1.6875 -1.875
0.203125 0 0.125
0.0625 -0.1875 0.125
0 -0.8125 0
0.390625 -0.25 -0.875
0.3125 0.0625 -1
0.25 0.3125 -2.375
0.1875 -0.9375 -3.125
0.140625 -0.5 0.125
-0.1875 -1.5 -2
-0.359375 -1.6875 -1.5
-0.59375 -1.625 -2.75
-0.421875 -1.6875 -3.25
-0.140625 -1.875 -4.875
-0.15625 -2.125 -2.125
-0.484375 -1.8125 -1.125
-0.875 -1.5 -0.875
-0.828125 -1.0625 -0.25
-1.046875 -0.875 -1.875
0.390625 -1.1875 -3.75
0.5 -1.125 -4.75
0.703125 -0.6875 -4.875
0.078125 -1 -1.125
0.15625 -0.875 -0.875
0 -1.0625 -1
-0.234375 -1.3125 -0.625
-0.3125 -0.875 -1.125
-0.171875 -0.5625 -1.75
0 -2 -1.25
-0.390625 -1.9375 -3
-0.390625 -2.3125 -3.75
-0.765625 0.625 3.625
-0.875 1.25 1.875
-0.84375 0.0625 2.25
-0.390625 -1 1.25
-0.75 -0.9375 1.375
-1.078125 0.25 0.5
-0.59375 1.625 1.75
-1.015625 1.3125 2.75
-0.953125 1 0
-0.59375 -0.1875 1.125
-0.953125 0.125 0.375
-1.375 0.1875 1.25
-0.9375 -0.125 -0.25
-0.546875 0.4375 1.125
-0.515625 0.5 -0.25
-0.578125 1.875 0.875
-0.5 1.25 1.75
-0.78125 1.125 3.875
-1.171875 0.5625 4.125
-1.09375 0.5625 1.875
-0.734375 0.125 1.75
-0.953125 0.0625 1.25
-1.015625 0.125 1.875
-1.078125 1.6875 1.875
-0.671875 0.875 2.5
-0.78125 1.4375 3.25
-0.734375 1.625 4.25
-1.21875 1.6875 3.125
-0.828125 1.1875 2.125
-0.6875 0.6875 1.375
-1.34375 0 1.625
-1.1875 0.625 0.125
-1.09375 0.5 0.625
-0.84375 0.6875 2.125
-0.765625 1.6875 1.625
-0.890625 1.6875 0.75
-0.9375 1.375 1.375
-0.75 0.8125 2.375
-1 2.3125 4.25
-0.90625 1.9375 3.25
-1.0625 2 3.25
-0.875 2.875 1.125
-1.125 0.6875 3.25
-0.90625 1.125 4.75
-1 1.5625 3.25
-0.609375 1.0625 2.5
-0.84375 1.5625 1.875
-0.65625 1.4375 1.5
-1.15625 1.5 3.125
-1.15625 1.6875 2.875
-1.109375 1.9375 1.5
-0.640625 1.75 2.25
-0.703125 2 2
-0.890625 2.375 1.875
-0.265625 0.6875 -1.25
-0.15625 1.6875 -0.75
-0.34375 1.8125 1
-1.328125 1.0625 0.75
-1.3125 0.4375 1.125
-1.5625 0.5 -0.5
-0.0625 1.0625 -0.125
-0.046875 1.5 0.75
0.1875 1.8125 0.125
0.015625 1.875 0.25
0.03125 1 -2.5
-0.3125 1.375 -0.375
-1.0625 -0.6875 -0.625
-1.03125 -0.4375 -1.875
-1.40625 -0.375 -1.125
-1 0.5625 -1.875
-1.203125 0.625 -0.5
-1.25 -0.25 -2.25
0.15625 1.625 0.5
-0.109375 1.625 1.25
-0.21875 1.5625 1.125
-0.328125 1.8125 0.125
-0.0625 0.75 0.375
0 0.9375 0
-1.265625 -0.5625 2
-1.03125 -0.875 1.375
-1.203125 -0.875 0.25
-1.171875 -0.6875 1
-1.359375 -0.125 -0.25
-1.40625 -0.625 0.5
-0.171875 0.8125 -0.5
-0.046875 -0.0625 -1.25
0.046875 -0.5625 0.125
-1.1875 -0.875 -1.875
-0.984375 -1.4375 -0.375
-1.1875 -1.25 -0.25
0.328125 -1.8125 -0.125
0.578125 -1.125 0.625
0.4375 -1.0625 0.75
0.734375 -0.875 -4.625
0.625 -0.9375 -4.25
0.625 -1.0625 -3.875
0.9375 -1.375 -2.75
0.65625 -1.125 -1.375
0.328125 -1.1875 0.625
-0.203125 -1.1875 -2.25
-0.109375 -0.875 -1.75
0.140625 -0.9375 -3.375
0.09375 -1.125 -3.5
0.109375 -1.5625 -4.5
0.171875 -1.0625 -5.375
-0.296875 0.25 2.25
-0.0625 -0.75 1.5
-0.1875 -0.6875 1.5
0.90625 -0.875 -0.75
0.65625 0.125 -1.125
0.75 0.5 -1.875
0.78125 0.25 0.875
0.828125 -0.1875 -0.75
0.40625 -0.1875 0.75
1.0625 -1.375 -2
0.765625 -1.25 -1.625
0.734375 -0.625 -2.125
-0.15625 -0.375 -2.625
0.203125 -0.5625 -3.375
0.046875 -0.125 -4.125
-0.625 -0.75 -1.375
-0.515625 -0.0625 -0.5
-0.375 1.0625 -0.375
-0.4375 0.625 -2.125
-0.5 0.5 -2.625
-0.265625 0.375 -2.5
0.109375 0.375 2.75
0.046875 0.375 4.25
-0.203125 -0.0625 0.25
-0.671875 -1.0625 0.875
-0.5625 -0.625 3.625
-0.609375 -0.1875 4.25
0.203125 0.9375 3.625
-0.03125 1.3125 2
-0.25 1 2.75
-0.0625 -0.5625 0.625
0.03125 -0.625 2.5
-0.078125 -1.4375 1.25
-0.375 -0.5 2.25
-0.296875 0.75 4.5
-0.03125 0.875 6
-0.265625 1 3.875
-0.171875 1.625 2.875
-0.5 1.3125 4.5
0.359375 0 -1.375
0.53125 0.4375 -2.5
0.828125 -0.4375 -2.25
0.84375 -0.5 -4.375
0.703125 -0.6875 -4.875
1.125 -1.1875 -4
0.90625 -1.0625 -4
0.515625 -0.5625 -4
0.546875 -0.9375 -2.375
-0.015625 -2.5 -3.5
-0.234375 -1.875 -4.375
0.1875 -1.8125 -2.75
0.03125 -1.8125 -4.375
-0.1875 -2 -4.125
-0.234375 -1.875 -1.5
-0.34375 -1.625 -1.875
-0.765625 -1.875 -3.375
-0.765625 -1.3125 -3.75
1.453125 -2.0625 -4.25
1.171875 -1.8125 -3.125
1.140625 -1.8125 -3.875
0.3125 -1.875 -2
0.203125 -2 -4.875
0.25 -2.5 -2.875
0.65625 -0.3125 -2.875
0.65625 -0.6875 -1.5
0.640625 -0.3125 -2.25
0.6875 -1.5 -4
0.890625 -2.4375 -4.125
0.9375 -2.0625 -4.75
0.078125 -2.1875 -4.625
-0.265625 -1.4375 -3
0.03125 -1 -1.375
-0.46875 -0.8125 -1.875
-0.203125 -1.875 -0.625
-0.078125 -2.375 -1.5
1.265625 -2.9375 -5.75
1.125 -3.9375 -5.5
1.4375 -2.25 -4.125
0.25 -2.875 -4.375
0.09375 -3.1875 -3
0.234375 -3.125 -2.25
0.3125 -0.375 -2.25
0.53125 -0.375 -1.625
0.421875 -0.375 -2.125
0.28125 0.25 -0.875
-0.09375 1.125 -1.5
-0.0625 0.1875 -0.5
-0.15625 1.1875 -1.125
-0.109375 1.375 0
-0.125 0.9375 -1.125
0.03125 0.625 -1.125
0 0.9375 -1.375
0.296875 0.3125 -0.5
-0.796875 -1.5 0.375
-1.15625 -1.375 -0.625
-1.125 -2.3125 2.25
-1.140625 -1.625 1.75
-1.140625 -2 2.125
-0.96875 -1.6875 2.875
-1.140625 -1.4375 3.5
-0.84375 -1.0625 -1.625
-0.984375 -0.625 -1.875
-0.796875 -1.125 -1.625
-0.96875 -0.6875 -1.625
-0.84375 -0.6875 -0.75
0.828125 0.125 -5.375
0.359375 0 -1.375
0.46875 0.1875 -1.5
0.484375 -0.9375 -1.375
0.3125 -0.0625 -0.875
0.546875 0.1875 -2.75
0.953125 -0.375 -4.25
0.859375 -0.25 -3.75
0.734375 -0.375 -3.75
-0.890625 -0.75 -1.125
-0.578125 -0.625 0.5
-0.875 -0.375 -0.75
-0.796875 -0.6875 -1
-0.796875 -1.0625 -3.125
-1.03125 -0.875 -3.625
-0.734375 -1 -2
-0.5625 -1.4375 0.125
-0.484375 -0.6875 -0.875
0.453125 -2 -2
0.390625 -0.75 1.125
0.40625 -0.8125 -2.125
0.828125 -0.875 -5.25
0.84375 -0.5625 -3.125
0.703125 -1.125 -3.125
0.390625 -1 -0.625
0.390625 -1.625 0.875
0.4375 -1.6875 -0.875
-0.71875 -0.9375 -1
-0.8125 -1.3125 -0.125
-0.96875 -1.1875 -1.625
-0.78125 -1.1875 0.375
-0.859375 -0.75 0.375
-0.78125 -0.75 -1.125
-0.890625 -1.375 1.125
-1.03125 -1.625 -0.5
-0.65625 -1.8125 0.125
0.296875 -1.375 -5.25
0.203125 -1.5625 -3.625
-0.03125 -1.875 -3.25
0.671875 -1.25 -2.625
0.6875 -1.0625 -4.25
0.734375 -0.5625 -4.125
0.921875 -0.9375 -4.375
0.828125 -0.8125 -5.375
0.828125 -0.75 -4.375
-0.703125 -0.75 -3.125
-0.875 -0.4375 -2.75
-0.9375 -1.1875 -3
-1.03125 -0.625 -4.5
-0.90625 -0.8125 -4.375
-0.796875 -0.9375 -1.875
-0.796875 -1.6875 0.125
-0.765625 -0.9375 -0.75
-0.796875 -1.75 -2.625
1.140625 -1 -4.375
1.21875 -0.4375 -1.875
0.8125 -0.5 -5.5
1.015625 -0.8125 -1.625
1.125 -0.9375 -3
0.96875 0.125 -3.375
1 -0.4375 -3.75
0.953125 -0.9375 -3.25
0.859375 -0.5 -4.625
-0.8125 -1.4375 -2
-0.78125 -1.6875 -1.5
-0.78125 -1.75 -0.25
-0.703125 -1.5 1.125
-0.65625 -0.9375 -0.25
-0.828125 -0.875 -0.625
-0.65625 -1.25 -2
-0.765625 -1.3125 -2.125
-0.484375 -1.0625 0.5
0.25 -0.1875 -5
0.9375 0.25 -3.25
0.84375 0.9375 -6.625
0.921875 0.3125 -6.625
0.734375 0.0625 -4.25
0.234375 -0.75 -4.375
0.203125 -0.1875 0.625
0.1875 -0.9375 -0.75
0.21875 -0.8125 -0.125
-0.578125 -1.1875 -2.875
-0.609375 -0.8125 -3.25
-0.640625 -0.6875 -2
-0.953125 -1 -3.375
-0.96875 -1.5625 -2
-0.890625 -1.625 -4
-0.921875 -1.1875 -2.375
-0.96875 -2.0625 -3.125
-0.71875 -0.625 -2.75
0.90625 -0.3125 -3.375
0.734375 -0.6875 -3.75
0.765625 -0.375 -3.375
0.875 -0.3125 -5.625
0.984375 0.125 -4
0.671875 0.25 -3.625
0.1875 -0.125 -2.75
0.140625 -0.1875 -2.625
0.109375 -0.4375 -1.375
-0.828125 -1.25 -3
-1.03125 -1.6875 -2.625
-1.0625 -0.9375 -3.625
-0.953125 -1.5 -3.125
-0.90625 -2.3125 -3
-0.9375 -1.25 -2.375
-0.640625 -1.125 0.25
-0.609375 -1.125 0.5
-0.796875 -0.8125 0.125
0.75 -1 -3.5
0.875 -0.9375 -3.625
0.984375 -0.75 -3.5
0.875 -1.375 -2.625
1.203125 -0.6875 -2.875
0.984375 -0.1875 -3.5
-0.6875 -0.6875 1.375
-0.6875 -1.125 -0.125
-0.640625 -1.125 -3.375
-0.671875 -1.0625 -2.75
-0.71875 -1.25 -1.125
-0.734375 -1.3125 -1.625
0.96875 -0.9375 -2.875
0.828125 -0.875 -3.75
0.71875 -1 -2.625
0.78125 -1.4375 -4.5
0.8125 -0.625 -5.25
1 -0.75 -5
-0.921875 -0.75 -4.125
-0.71875 -0.625 -3.75
-0.8125 -1.1875 -3.125
-0.84375 -1.25 -1.625
-0.90625 -0.875 -0.875
-0.8125 -1.1875 -1.125
0.828125 -0.4375 -2.75
0.703125 -0.6875 -4.25
0.609375 -0.75 -3.625
0.921875 -0.875 -3.5
0.71875 -1.1875 -3.625
0.84375 -0.8125 -3.375
-0.59375 -1.4375 -1.625
-0.78125 -1.625 -1.375
-0.765625 -1 -1.375
-0.625 -0.5625 -0.375
-0.640625 -0.8125 -0.25
-0.671875 -0.8125 -0.25
0.421875 -0.4375 -1.375
0.265625 -0.875 -1.875
0.5625 -0.9375 -2
0.46875 -1.125 -0.875
0.484375 0.6875 -1.375
0.609375 0.0625 -3.5
-0.78125 -1.375 -1.375
-0.578125 -1.375 -3.75
-0.90625 -1.5 -2.75
-1.109375 -0.9375 -2.125
-1.03125 -0.875 -0.875
-0.875 -0.5 -1.125
-0.125 0.75 -1.25
0.1875 0.5625 -1.75
0.1875 0.4375 -0.375
0.546875 0.0625 -3.5
0 0.6875 -4.125
0.265625 -0.4375 -3
-0.828125 -1.1875 0.375
-1.109375 -1.25 -0.375
-1 -1.25 -1
-1.265625 -2.1875 1.25
-1.171875 -1.75 0.625
-1.046875 -1.875 0.125
0.109375 -0.125 0
0.28125 0.125 1.625
0.359375 0.3125 -0.25
0.859375 -1.125 -0.875
0.859375 -1.25 -0.375
0.6875 -1.4375 -1
0.4375 -1.125 -0.375
0.46875 -0.5 -1.625
0.4375 -0.625 -1.25
-0.796875 0.1875 -1.25
-0.75 -0.4375 -2.375
-0.84375 -0.4375 -1
-0.734375 -0.5625 -0.625
-0.703125 -0.25 -1.5
-0.75 0.125 -1.125
-0.921875 0.75 -1.875
-1.078125 0 -0.625
-0.96875 -0.0625 -1.875
0.796875 -0.375 -0.625
0.65625 -0.75 -1.5
0.671875 -0.1875 -0.875
0.125 -0.9375 0.5
0.234375 -0.3125 0.375
0.421875 -0.8125 -1
-0.5625 -0.375 -2.625
-0.609375 -0.6875 -2.375
-0.6875 -0.0625 -2.5
-0.5 -1.25 -0.875
-0.484375 -0.6875 -2.25
-0.671875 -0.25 -1.875
0.375 0.4375 -0.75
0.265625 1.25 -0.25
0.1875 1.5 1.875
-1.03125 -0.125 -1.625
-1.015625 -0.0625 -1.25
-0.921875 -0.1875 -2.375
-0.078125 1.1875 -0.375
-0.09375 1.3125 -1.5
0.109375 1.0625 -1.375
-0.171875 1.125 0.25
-0.203125 0.875 -0.875
-0.046875 1 -1.75
-0.109375 1 0.375
-0.296875 1.5 -0.875
-0.125 0.9375 -0.625
-0.859375 -1.75 2.125
-1.421875 -0.875 0.5
-1.359375 -0.5625 -0.375
-1.015625 -0.8125 -1.125
-0.90625 -0.9375 -1.375
-1 -0.875 -1
-1.421875 -1.25 0.125
-1.25 -0.6875 1.375
-1.296875 -0.9375 1.375
0.109375 0 -1.75
0.046875 -0.75 -1.875
0.15625 -0.875 -2.125
0.125 -0.5625 -0.375
0.296875 -0.75 1.5
0.09375 0 -0.75
-0.515625 -1.1875 -2.5
-0.578125 -2.0625 -2.375
-0.734375 -1.9375 -2.75
-0.546875 -1.875 -2.25
-0.859375 -1.75 -2.75
-0.875 -1.3125 -2.75
0.125 -1.0625 -0.375
0.078125 -1.0625 -0.875
0.078125 -0.8125 -1.25
0.265625 -0.75 -0.625
0.234375 -0.0625 1
-0.21875 -0.4375 -0.125
0.21875 -1.1875 -1.125
0.40625 -0.9375 -0.625
0.40625 -1.1875 -0.625
-0.640625 -0.5 -2.125
-0.671875 -0.5625 -2.875
-0.578125 -0.25 -2.75
-0.5 -1.75 -3.75
-0.71875 -2.5 -3.5
-0.765625 -2.5 -2.5
-0.671875 -2.3125 -2.5
-0.71875 -2.5625 -3.625
-0.640625 -2.5 -3.375
0.265625 -0.625 0.875
0.296875 -0.8125 0.5
0.265625 0 -0.25
0.09375 0.0625 -0.5
-0.078125 -0.3125 0.25
0.078125 -0.4375 0.625
0.15625 -1.3125 -1.25
0.03125 -1.375 -1.125
-0.015625 -1.3125 -0.5
-1.109375 -1.8125 -2.625
-0.96875 -2.125 -2.875
-0.875 -2.375 -2.5
-0.5625 -2.25 -4.125
-0.65625 -2.875 -3.25
-0.609375 -2.5 -2.5
-0.703125 -2.375 -2.875
-0.84375 -2.6875 -2
-0.984375 -1.875 -2
0.25 -0.1875 -1
0.25 -0.5 -0.625
0.078125 -0.8125 -1.375
-0.046875 -1.0625 -1
-0.109375 -0.6875 0
0.125 0.0625 -0.25
0.265625 -0.5 0.625
0.140625 -0.125 0.625
0.046875 -0.3125 -0.125
-0.71875 -1.3125 -3.25
-0.859375 -1.3125 -2.625
-1.140625 -1.0625 -2.375
-1.203125 -1.875 -1.25
-1.046875 -1.75 -3
-1.109375 -1.125 -2.5
-0.984375 -1.6875 -1.875
-0.875 -2 -2.125
-0.796875 -2 -1.75
-0.015625 0.1875 -0.625
-0.140625 0.5 -0.25
-0.046875 0.6875 -0.875
-0.21875 0.5 -1.125
-0.171875 0.125 -1
-0.109375 0 -0.875
0.140625 -0.625 -1.625
0.03125 -0.3125 -1.75
0.078125 -0.125 -0.75
-0.90625 -1.6875 -0.5
-1.234375 -1.4375 -2.25
-1.140625 -1.1875 -2.5
-1.015625 -1.6875 -1.375
-1.140625 -1.25 -0.75
-1.03125 -0.5625 -1.75
-1.328125 -1 -0.875
-1.1875 -1.0625 -1.5
-0.875 -1.75 0.25
0.015625 0.25 -0.75
0 0.5625 -2.125
-0.140625 0.25 -0.625
-1.25 -1.75 -0.25
-0.984375 -1.4375 0.5
-0.921875 -1.75 -0.5
0.203125 1.625 1.875
0.1875 0.6875 -0.125
0.171875 0.6875 1.25
-1.21875 -0.8125 -0.875
-1.125 -0.8125 -0.5
-1.234375 -0.625 -0.75
0.265625 -0.1875 -2
0.078125 -0.0625 -1.75
0.21875 -0.6875 -1.625
-0.71875 -0.6875 -2.125
-0.78125 -0.5 -0.25
-0.8125 -0.3125 -1.375
0.3125 0 -4.125
0.234375 -0.3125 -3.375
0.40625 -0.375 -3.625
0.03125 0.375 0.5
-0.046875 -0.0625 -0.625
0.046875 -0.3125 -1.625
0.046875 0 -2.375
0.09375 -0.125 -4.5
0.15625 -0.375 -4.5
-0.875 -1.5 -0.75
-1.140625 -2.0625 -0.875
-1.0625 -2.0625 0.625
-1.15625 -1.9375 -1.125
-0.96875 -1.625 -0.75
-1.0625 -1.5 -1.25
-1.078125 -1.75 -1.25
-1.0625 -1.5 -1
-0.9375 -1.375 -0.5
0.21875 -1.25 -0.5
0.03125 -0.75 -1.25
0.078125 -0.625 0.25
0.078125 -0.25 -1.625
-0.15625 -0.375 -1.625
-0.078125 -0.3125 -0.625
-0.859375 -1.3125 -0.75
-0.9375 -1.625 -1
-0.859375 -1.25 -0.875
-1.125 -1.9375 -0.875
-1.171875 -1.75 -2.75
-1.234375 -1.4375 -2.75
0.328125 0.1875 -0.25
0.328125 -0.125 0.25
0.28125 -0.625 0.375
0.140625 -0.8125 -0.375
0.140625 -0.8125 -0.875
0.078125 -0.875 -0.25
-1.078125 -1.75 -1.625
-0.796875 -1.9375 -2.375
-0.859375 -1.9375 -2.25
-0.9375 -1.75 -2.5
-0.703125 -2.3125 -2.375
-0.6875 -2.375 -2.625
-0.0625 -1.3125 -0.625
0.078125 -1.1875 -1.5
0.109375 -1.3125 -1.25
0.046875 -1.5625 -1
0.03125 -1 -0.75
0.109375 -0.625 -0.375
-0.859375 -1.8125 -2.625
-0.875 -1.875 -3
-0.890625 -1.8125 -2.375
-0.796875 -1.8125 -1.75
-0.890625 -2 -2.875
-0.984375 -1.6875 -2.625
0.125 -0.8125 -2
0.234375 0.125 -1.75
0.265625 0.1875 -3.25
0.3125 -0.1875 -3.125
0.265625 -0.5 -2.875
0.078125 -0.875 -1.75
-0.625 -1.875 -0.625
-0.515625 -1.875 -0.75
-0.546875 -1.9375 -2
-0.65625 -1.5625 -1
-0.609375 -1.9375 -1.5
-0.75 -2.125 -2
0.1875 -0.8125 -1.5
0.4375 0.0625 -2.5
0.328125 -0.4375 -3.125
0.28125 -0.375 -2.125
0.296875 -0.5625 -2.75
0.296875 -0.25 -3.5
-0.59375 -1.5 -2
-0.65625 -1.5625 -1.5
-0.59375 -1.75 -0.625
-0.6875 -2.25 -0.5
-0.546875 -1.9375 -1.375
-0.6875 -1.8125 -2.375
0.359375 0.375 -5.125
0.515625 0.375 -4.375
0.53125 0.4375 -4
0.375 0.5 -5.125
0.28125 0.25 -3.625
0.3125 -0.125 -3
-0.59375 -1.5 -1.375
-0.671875 -1.8125 -2.625
-0.546875 -1.5625 -2.625
-0.78125 -1.125 -4.375
-0.78125 -1.1875 -3.5
-0.828125 -1.75 -3.25
0.71875 -0.1875 -1.625
0.640625 -0.625 -1.25
0.609375 -0.6875 -1.375
0.359375 0 -4.625
0.546875 -0.125 -3.5
0.65625 -0.25 -1.375
-1.171875 -1.3125 -0.5
-0.828125 -1 0.375
-0.6875 -1 -1.125
-1.015625 -1.3125 -1.875
-1.0625 -1.1875 -2.5
-0.890625 -1.6875 -2.25
0.78125 -1.3125 -3.625
0.8125 -1.125 -3.875
0.734375 -1.0625 -5.25
0.40625 -0.125 -1.5
0.6875 -0.25 -3.25
0.953125 -0.5625 -3.25
-0.75 -0.9375 -1.125
-0.65625 -1.4375 -1.75
-0.640625 -1.75 -2.625
-0.703125 -0.8125 -1.75
-0.5625 -0.8125 -1
-0.515625 -0.625 -0.875
0.703125 -0.8125 -4.625
0.671875 -0.9375 -4.75
0.6875 -0.875 -4.25
0.796875 -0.875 -3.875
0.6875 -1.125 -2.625
0.703125 -1.75 -3
-0.5625 -1.1875 -2.125
-0.71875 -1.875 -1.75
-0.671875 -1.625 -1.5
-0.765625 -1.1875 -1.625
-0.71875 -1.4375 -2.125
-0.796875 -1.4375 -2.25
0.953125 -1.0625 -4
0.96875 -1 -4.25
0.859375 -0.8125 -3.625
0.640625 -0.5625 -5
0.859375 -0.5 -4.375
1.046875 -0.75 -4.875
-0.53125 -1.25 -5
-0.875 -0.4375 -3.5
-0.75 -1.375 -3.125
-0.8125 -1.4375 -2.875
-0.796875 -1.1875 -2.375
-0.78125 -1 -2.875
1.0625 -0.5 -4.5
1.09375 -0.375 -4.5
0.828125 -0.3125 -4.5
0.96875 -1 -1.875
1.078125 -0.75 -3.125
0.96875 -1.125 -3.125
-0.625 -0.9375 1
-0.640625 -0.5625 -0.625
-0.6875 -0.9375 -2.125
-0.609375 -1.1875 0.25
-0.6875 -0.8125 0.75
-0.71875 -0.75 0.875
0.765625 -0.5 -4.25
0.921875 -0.3125 -4
0.8125 0 -3.75
-0.921875 -1.9375 -2.625
-0.96875 -1.9375 -2.75
-0.828125 -1.25 -1.625
0.28125 -0.125 -4.25
0.1875 -0.4375 -2.375
0.15625 -0.9375 -1.5
0.296875 0 -4.75
0.421875 0.25 -3.75
0.359375 0.875 -3
0.59375 0.875 -3.625
0.3125 0.375 -1.875
0.4375 0.5625 -2.125
-0.828125 -2.5625 -0.5
-0.953125 -2 -1.5
-0.9375 -1.875 -1.875
-0.8125 -2.25 -2.875
-0.640625 -2.6875 -3.375
-0.484375 -2.375 -2.75
-0.75 -1.9375 -1.75
-0.6875 -2.0625 -1.75
-0.796875 -1.875 -1.875
0.5 0.25 -5
0.359375 1.25 -3.125
0.296875 0.5 -2.625
0.765625 0.0625 -3
0.5625 0.5 -5.75
0.65625 -0.375 -5.375
0.609375 -0.1875 -4.875
0.734375 -0.3125 -5.125
0.75 0 -5
-0.90625 -2.0625 -0.5
-0.78125 -2.3125 -0.5
-0.84375 -1.4375 -1.5
-0.796875 -2.625 -1.875
-1.015625 -1.875 -1
-1.046875 -1.5 -1.125
-1.046875 -2 -0.625
-1.203125 -2 -1.375
-0.90625 -2.375 -1
0.6875 0.375 -3
0.453125 -0.25 -4
0.59375 -0.4375 -5.375
0.796875 -0.5 -3.75
0.6875 -0.5 -5.25
0.765625 -0.75 -4.625
0.609375 -0.875 -4.5
0.703125 -0.375 -3
0.828125 -0.25 -3.625
-1.015625 -2.125 -1.125
-0.984375 -1.6875 -0.5
-1.140625 -1.125 -0.75
-0.84375 -1 0
-0.84375 -1.25 -0.625
-0.84375 -1.75 -1.125
-0.828125 -1.9375 -0.75
-0.875 -1.375 -0.125
-1.0625 -1.375 -0.375
0.578125 -0.3125 -1.5
0.5625 0.25 -2.5
0.9375 -0.1875 -2.75
0.890625 -0.9375 -3.75
0.859375 -0.75 -4.25
0.984375 -0.5 -3
0.90625 -0.4375 -3.625
0.953125 -0.625 -3.375
0.734375 -0.8125 -4.125
-0.9375 -2 -1.25
-0.875 -1.75 -1.625
-0.5625 -1.125 -1.625
-0.515625 -1.25 -1.5
-0.703125 -1.6875 -1.125
-0.8125 -1.25 -0.5
-0.984375 -1.75 -0.5
-0.984375 -1.375 -0.75
-1.015625 -1.4375 -2.375
0.5625 0 -1.5
0.5 -0.0625 -1.5
0.625 -0.4375 -1.875
0.515625 0.125 -4.5
0.453125 0.1875 -3.75
0.5625 -0.0625 -4
-1.03125 -1.4375 0.125
-0.765625 -0.875 -1
-0.875 -1.125 -0.625
-0.96875 -1.5625 -3.375
-1.09375 -1.8125 -2.5
-1.0625 -1.5625 -2.5
0.203125 0.125 -3
0.28125 0.5 -4.125
0.328125 0.125 -4.125
-1 -1.75 -1.375
-1.25 -1.5 -0.625
-1.140625 -2.1875 -1.25
0.1875 -0.75 -1.75
0.1875 -0.3125 -3.125
0.203125 -0.4375 -3.25
-0.796875 -1.875 -1.625
-0.875 -2.0625 -2
-0.75 -0.9375 -1.125
0.5625 0.5625 -4.25
0.546875 0.125 -4.875
0.625 0.25 -4.875
-0.703125 -1.625 -2.5
-1.09375 -1.6875 -2.5
-0.78125 -1.625 -3
0.921875 -0.5625 -4.375
0.875 -0.6875 -2.75
0.859375 -0.5 -3.5
-0.671875 -1.3125 -1.5
-0.59375 -0.75 -2.5
-0.625 -0.8125 -1.25
0.984375 -1.5 -2
0.921875 -0.6875 -1.375
1.171875 -0.625 -3.5
-0.796875 -1.4375 -0.125
-0.59375 -0.5 -1.125
-0.765625 -1.3125 -2.125
0.828125 -0.875 -3.375
0.9375 -0.5625 -3.625
0.90625 -0.4375 -1
-0.703125 -0.875 -3
-0.59375 -0.625 -3.5
-0.84375 -1.25 -3
0.96875 -0.6875 -3.25
0.796875 -0.3125 -2.75
0.875 -1.0625 -4
-0.578125 -1.8125 -2
-0.59375 -1.4375 -3.25
-0.59375 -0.875 -2.5
1.234375 -0.5625 -4.75
1 -0.875 -5.625
1 -0.3125 -4.625
0.234375 -0.75 -3
0.5 -0.375 -3.25
0.515625 -0.1875 -3.875
0.53125 -0.4375 -3.625
0.71875 -0.375 -3.875
0.875 -0.5625 -4.375
-0.703125 -1 -2.375
-0.875 -1.9375 -3.625
-0.546875 -1.875 -3.875
-0.359375 -1.375 -1.5
-0.546875 -1.1875 -2
-0.453125 -0.8125 -2.125
-0.75 -0.8125 1.375
-0.5625 -1 1.375
-0.375 -1.5 1.25
0.5 -1.25 -5.125
0.46875 -1.1875 -6.25
0.46875 -1.25 -4.875
1.265625 -0.8125 -4.25
0.875 -1.125 -3.5
0.546875 -0.8125 -7.375
-0.75 -0.375 -3.375
-0.84375 -1.5 -2.875
-0.546875 -1 -2.875
-0.703125 -1.4375 -5.25
-0.8125 -1.375 -3.5
-0.75 -0.8125 -2.25
0.46875 -1.75 -3.75
0.34375 -1.4375 -3
0.328125 -1.8125 -3.75
0.421875 -1.9375 -2.75
0.078125 -1.5625 -2.625
0.375 -2.375 -4.25
-0.921875 -1.375 -1.875
-0.75 -1.25 -1.25
-0.703125 -1.25 -0.5
-0.796875 -1.6875 -0.5
-0.9375 -2.1875 -1.5
-1.0625 -2 -1.125
0.40625 -0.625 -2
0.625 -0.8125 -2.625
0.796875 -1.125 -3.125
0.359375 -1.875 -3.875
0.5 -2 -3.75
0.484375 -1.75 -2.25
-0.828125 -1.6875 -1.375
-0.96875 -1.875 -0.625
-0.859375 -1.4375 -1
-0.71875 -1.8125 -2
-0.875 -2.5 -2
-0.953125 -2.0625 -1
0.4375 -0.6875 -0.625
0.5625 -0.625 -0.125
0.28125 -1.0625 -0.375
0.609375 -0.5625 -3.125
0.734375 -0.875 -4.375
0.578125 -0.25 -2.25
-0.609375 -1.0625 -1.75
-0.484375 -1.25 -1
-0.53125 -1.75 -1.75
-0.890625 -1.4375 -2.75
-1.015625 -2.0625 -2.75
-0.75 -2.0625 -3
-0.0625 0.125 -2.125
0.046875 0.4375 -0.625
0.140625 0.375 -1.5
0.609375 -0.3125 -2.25
0.390625 -0.0625 -3.875
0.046875 0.25 -3.875
-0.796875 -1.625 1
-0.75 -1 -0.375
-1.21875 -0.6875 -2.5
-1.0625 -1.125 2.625
-1.0625 -1.4375 2.5
-0.953125 -1.5 1.375
0.859375 -0.125 -4.625
1.03125 -0.5 -3.625
0.96875 -0.125 -4.25
0.34375 0 -3.125
0 -0.4375 -1.625
-0.09375 0.25 -2.5
-0.890625 -1.25 -2
-1 -2.0625 -0.75
-0.734375 -2.0625 -1.5
-0.453125 -1.75 -0.5
-0.765625 -1.6875 -1.75
-1.109375 -1.9375 -3.375
0.390625 -1 -4.375
0.375 -0.5625 -5.25
0.1875 -1.625 -4.875
-0.671875 -0.9375 -0.875
-0.71875 -1.375 -0.875
-0.765625 -1.5625 -1.25
-0.15625 -0.125 -0.25
0.109375 -0.1875 -0.375
-0.03125 -0.1875 -0.375
-0.953125 -1.25 -2.875
-0.890625 -1.8125 -2
-1.203125 -1.4375 -1.375
0.578125 -0.3125 -3.375
0.75 0.3125 -3.625
0.828125 -0.5 -1.75
-0.234375 -2 -2.875
-0.4375 -1.6875 -2.625
-0.5625 -2.3125 -2.875
-0.828125 2.5625 4.25
-1.34375 1.6875 7.875
-0.546875 1.375 3.875
-1.28125 1.625 6
-0.109375 0.3125 3.25
-0.921875 1.5625 4.875
-0.359375 2.1875 3.625
-0.703125 0.9375 4.125
-0.5 1.375 5.625
-0.40625 1.25 4
-0.796875 1.9375 5.375
-0.9375 1.125 6.5
-0.640625 3.625 4.625
-0.734375 1.25 6.125
-0.3125 2.4375 6.375
-0.53125 1.1875 4
-0.390625 2.25 4.25
-0.65625 1.6875 3.875
-0.78125 2.6875 2.5
-0.859375 2.0625 3.875
-0.640625 2.5 3.375
-0.984375 1.5 5
-0.71875 2.5 6.125
-0.796875 0.875 5.625
-0.84375 2.125 4
-0.921875 1 6.5
-0.625 1.6875 3.125
-0.75 1.125 6.125
-0.71875 3 1.375
-1.140625 1.4375 3.75
-0.6875 1 4.5
-0.84375 1.0625 2.75
-0.609375 1.625 5.125
-0.984375 2 5.5
-0.5 2.5 5.125
-1.34375 1.875 5.5
-1.140625 1.9375 3.75
-1.203125 2.1875 5
-1.140625 1.6875 3.25
-0.96875 2.8125 3.5
-0.734375 1.625 4.25
-0.984375 1.25 1.75
-0.46875 1.375 2.375
-1.046875 1.6875 4.5
-0.6875 1.5625 4.375
-1.109375 1.9375 4.5
-1.109375 2.25 3.75
-1.25 2.5 6.125
-1.1875 2.5625 4.375
-1.265625 1.9375 6.875
-0.84375 2.0625 4.75
-1.3125 2.1875 6
-0.828125 2.25 6
-1.453125 2.3125 6.5
-0.765625 3.0625 5.125
-1.078125 1.4375 5.125
-1.015625 3.125 5.5
-0.859375 1.5625 6.375
-0.75 2.75 5.875
-1.0625 1.4375 6.75
-0.6875 2.8125 5.5
-1.28125 1.4375 6
-0.8125 2.9375 5.375
-1.0625 1.6875 6.125
-0.90625 2.25 4.25
-1.328125 1.875 7.875
-1.140625 2.6875 3.875
-1.046875 2.9375 4.25
0.109375 0.75 3.25
-0.25 1.125 4.75
-0.296875 1.75 5.5
0.21875 -1.625 4.625
-0.84375 2.4375 1.625
-0.921875 1.5 0.625
-0.203125 -1.0625 -1.875
-0.03125 -2.125 -3.875
0.546875 -2.6875 -4.625
0.40625 -1.875 -2.125
-0.21875 0.8125 3
-0.390625 0.5625 4.75
0.015625 -0.4375 2.375
0.234375 0.625 6.125
0.828125 -1.1875 5.125
-0.46875 -0.4375 1
0.3125 -1.1875 0
-0.09375 0.3125 2.625
1.078125 -1.375 1.875
0.25 -0.875 4.375
0.859375 -1.125 0.875
0.734375 -0.375 4.75
1.046875 -1.6875 4.5
0.046875 0.3125 2.5
-0.421875 0.9375 3.875
0.265625 1.4375 1.875
-0.765625 2.25 3.25
-0.359375 2.75 0.875
-1.1875 2.0625 2.875
-0.875 1.875 2
-1.546875 2.1875 0.625
-0.71875 2.3125 2.25
-1.65625 1.6875 2.375
-1.15625 1.8125 4.75
-1.234375 1.8125 2.25
-1.15625 2.9375 5
-1.609375 2.0625 5.5
-1.359375 2.375 4.5
-1.328125 1.875 3.125
-1.09375 3.125 2.75
-1.34375 1.125 2.75
-0.5 2.625 3.75
-1.1875 1.3125 4.625
-1.078125 2.5625 4.375
-0.859375 1.8125 6.5
-0.1875 2.875 6.5
-0.5 1.5 4.625
-0.625 1.6875 4.75
-0.375 1.25 4.625
-0.546875 0.9375 3.25
-0.96875 1.75 5.125
-0.28125 1.6875 1.75
-1.1875 2.5 7
-0.8125 1.5 1.25
-1.3125 0.9375 3.875
-1.1875 2.125 2.5
-1.453125 2 5
-1.015625 1.5 4.75
-0.84375 2 4.875
-0.703125 1.6875 3.25
-0.734375 0.875 6
0.09375 -1.5625 5.25
0.296875 -0.5 5.375
-0.0625 -0.5625 4
0.171875 -0.4375 3.25
0.203125 -2.1875 2.375
0.65625 -0.5 3.25
0.53125 -1.0625 4.75
0.65625 -1 4.625
0 1.5625 3.5
-0.203125 1.3125 4.875
-0.03125 2.1875 5.25
-0.390625 1.0625 4.75
-0.125 0.8125 5.125
-0.28125 1.75 3.875
-0.28125 1.1875 5.75
-0.171875 1.875 5.25
-0.40625 1.4375 2.75
-0.328125 0.9375 4.875
0.15625 1.3125 2.625
-0.890625 3 3.5
-0.390625 1.6875 1
-1.515625 1.9375 3.25
-0.765625 2.625 2.375
-1.46875 1 2.875
-0.921875 2.5 1.25
-2 1.25 2.75
-1.09375 1.9375 3.625
-1.015625 1.1875 4.625
-1.28125 3.625 3.25
-1.359375 2.0625 5
-1.109375 1.875 3.75
-1.3125 0.875 4.625
-1.140625 1.9375 4.375
-1.28125 0.75 4.375
0.125 1.125 6.875
-0.453125 0.9375 3.25
-0.359375 -0.0625 3.75
0.0625 1.8125 4.5
0.515625 -1.0625 5.5
-0.625 0 3.375
0.46875 -0.3125 5
-0.203125 -0.125 0.375
0.5625 -0.6875 2
0.4375 -0.875 2.375
0.28125 -0.4375 4.125
0.734375 -1.5625 3
0.90625 -1.5625 5.125
-0.53125 2.8125 3.625
-0.703125 3.125 3.875
-0.609375 2.375 4.5
-1.015625 1.8125 6
-0.703125 2.6875 5.5
-0.9375 2.5 4.75
-0.703125 2.625 4
-1.171875 1.5625 4.875
0.375 -0.875 5.75
0.03125 0.1875 2.375
-0.078125 0.6875 2.875
0.0625 1.25 5.125
-0.046875 0.75 3.375
-0.40625 1.6875 5.25
-0.21875 1 5.375
0.03125 1.6875 4.875
-0.328125 1.5 4.25
-0.015625 1.375 5.375
-0.171875 1.4375 5.125
-0.25 1.5 3.75
-0.359375 1.9375 5
-0.109375 2 4.375
-0.25 1.875 4.625
-0.28125 1.1875 4.75
0.046875 2 6.125
-0.1875 1.125 5.5
-0.0625 2.0625 5.625
-0.28125 1.3125 3.75
-0.09375 1.6875 5.875
-0.1875 1.1875 3.875
-0.09375 1.4375 5.875
-0.21875 1.5625 5.25
-0.25 -0.1875 3.75
-0.015625 1.8125 7.75
-0.453125 0.6875 5.25
-0.3125 1.125 4.25
-0.21875 0.75 5.5
-0.40625 1 5.125
-0.34375 0.625 3.25
-0.3125 1.1875 4.25
0.78125 -1 5.5
0.78125 -1.0625 3.625
0.53125 -1.5625 2.75
0.46875 -1.375 5.125
0.40625 -1.875 3.375
0.125 -0.9375 5.5
0.015625 -1.5625 2.5
-0.078125 -1.875 3
-0.078125 -1.875 4.375
0.125 -1.4375 3.125
0.59375 -1.6875 3.75
0.21875 -1.1875 3
0.671875 -2.0625 2.75
0.578125 -1.75 2.625
0.625 -1.9375 4.25
-0.671875 2.75 5.125
-0.90625 1.4375 5.125
-0.609375 2.875 7.875
-0.75 1.4375 4
-0.625 2.625 5.75
-1.09375 1.125 5.625
-0.5625 1.5 3.5
-0.859375 1.5 6.5
-0.875 1.6875 6.125
-1.09375 1.9375 5.125
-1.09375 1.8125 2.625
-1.234375 1.25 4.875
-1.1875 0.875 3
-1.4375 2.3125 5.375
-0.40625 1.25 2.625
-1.109375 2.625 5.25
-0.40625 1.5625 3.5
-1.34375 2.1875 5.75
-0.671875 1.8125 4.75
-0.6875 1.75 4.75
-0.65625 2.8125 7.25
-0.5 0.75 6
-0.625 2.25 5.25
-0.734375 1.75 5.25
-0.59375 1.9375 3.875
-0.96875 1.3125 5.875
-0.75 2.25 4
-0.703125 1.0625 7.625
-0.84375 2.3125 4.375
-0.796875 1.375 5.375
-0.59375 2.875 6.5
-0.53125 1.1875 5.75
-0.65625 1.1875 6.125
-0.703125 1.4375 4.5
-0.78125 2 4
-1.328125 2.125 6.75
-0.640625 1.3125 3.875
-1.0625 2.5 4.25
-0.65625 1.3125 3.625
-0.96875 2.25 4.625
-1.046875 2.1875 2.875
-0.984375 2.375 3.125
-0.6875 1.9375 5.5
-1.234375 2.1875 5.375
-0.421875 1.5625 3.625
-0.84375 1.5 6.375
-0.46875 2.375 5.375
-0.984375 1.625 6
-0.609375 2.375 6.75
-0.5 1.25 4
-0.65625 2.0625 5.625
-0.78125 1.0625 4.75
-0.78125 2.1875 0.25
-1.3125 1.4375 3.125
-1.1875 2.25 1.125
-1.15625 1.75 4.75
-1.0625 2.6875 1.125
-1.046875 2 5
-0.796875 2.3125 5.25
-1.265625 1.75 2.5
-0.546875 1.125 2.5
-1.078125 1.625 0.5
-0.59375 2 2
-1.515625 0.9375 0.375
0.140625 2.625 -0.625
-1.03125 2 2.75
0.21875 -0.1875 1
-0.8125 1.125 3.75
0.0625 0.1875 1.875
-0.828125 1.1875 4.125
-1.078125 0.0625 2.25
-0.96875 -0.375 2.125
0.59375 -3.0625 -2.875
0.359375 -1.3125 -0.5
0.953125 -1.6875 3.125
0.484375 -1.8125 -1.125
-0.28125 -0.375 2.625
0.5 0.0625 3.875
-0.109375 0.75 0.625
-1.265625 0.1875 -1.875
0.25 0.9375 1
-1.1875 -0.375 -0.875
0.203125 -0.0625 -0.875
-0.78125 -1.25 -3.375
0.671875 -0.875 -3.25
0 -3.0625 -2.5
0.5 0 0.125
-0.828125 0.625 -0.625
0.953125 -0.9375 -1.125
-0.453125 -0.5625 -1.5
1.015625 -0.0625 -3.375
-0.15625 -1.375 -2.625
0.890625 -2.125 -5.625
0.21875 -2.5625 -3
0.125 -0.5625 1.625
-0.203125 0.9375 4.625
-0.046875 -0.5625 2.75
0.21875 -0.1875 3.5
0.90625 -1.5625 0.875
-0.046875 -0.625 1
0.296875 -0.8125 4.625
-0.109375 0.1875 3.125
0.609375 -1.5 1
0 0.875 4.625
0.390625 -1.0625 2.625
-0.046875 -0.5625 0.125
0.25 -0.8125 3
0.0625 -0.125 3.625
0.46875 -2.1875 1.75
0.703125 -0.75 3
-0.046875 -0.25 0.875
-0.28125 1 4
-0.15625 0.6875 1.25
-0.296875 0.5 4
-0.09375 1.4375 1.875
-0.375 0.5625 3.75
0.234375 -1.5 0.875
-0.328125 -1.5 1.25
0.65625 -1.3125 -3
0.078125 -0.5625 -3.25
1.390625 -1.8125 -3.25
0.328125 -3 -1
0 -0.4375 0
-0.1875 -0.5 -1.625
-0.78125 0.25 3.25
-1.171875 1.125 0.375
-0.71875 0.875 1.125
-1.265625 1.8125 0.125
-0.390625 0.875 0.25
-0.828125 0.1875 2
-0.609375 1.75 1.625
-1.296875 0.6875 0.75
-0.609375 0.625 2.875
-1.40625 -0.25 3.125
-0.84375 0.4375 2.375
-0.90625 0.5 -0.625
-0.3125 1.5 -2.25
-1.25 -0.4375 -2.25
-0.109375 1.3125 -2.5
-1.25 -0.1875 2.25
-0.859375 0 1.125
-0.515625 -1.375 -0.375
-0.015625 -0.875 -2.125
-0.21875 -1.6875 -2.125
0.078125 0.0625 0.125
-1.046875 -1.25 -1
0.375 -0.1875 -3.125
-0.359375 -2.3125 -2.25
1.21875 -1.6875 -3.75
-0.0625 -2.3125 -4.75
-0.34375 1.125 0.875
-1.203125 -1.0625 -0.25
