# XYZ point cloud file
0.3189697265625 0.70697021484375 0.49750709533691406
0.347412109375 0.6724853515625 0.46209716796875
0.355712890625 0.676025390625 0.43629074096679688
0.323974609375 0.7646484375 0.48176956176757812
0.304443359375 0.7413330078125 0.5168304443359375
0.3311767578125 0.6669921875 0.4833984375
-0.5845947265625 -0.20404052734375 0.46571540832519531
-0.602294921875 -0.1754150390625 0.46006393432617188
-0.5946044921875 -0.22039794921875 0.4423675537109375
-0.558349609375 -0.22979736328125 0.4735565185546875
-0.5682373046875 -0.1865234375 0.4842681884765625
-0.587158203125 -0.16082763671875 0.47998237609863281
-0.61279296875 -0.187744140625 0.43767738342285156
-0.5692138671875 -0.2490234375 0.45232963562011719
-0.5474853515625 -0.21002197265625 0.49470901489257812
0.2559814453125 0.7991943359375 0.55138969421386719
0.2620849609375 0.810791015625 0.53506088256835938
0.229736328125 0.79608154296875 0.55936813354492188
0.249267578125 0.78302001953125 0.56266403198242188
0.280517578125 0.7962646484375 0.54031944274902344
0.283447265625 0.8076171875 0.522125244140625
0.2315673828125 0.80596923828125 0.54333877563476562
0.228515625 0.78289794921875 0.57399749755859375
0.268798828125 0.7794189453125 0.55224990844726562
-0.612060546875 -0.091796875 0.46163368225097656
-0.600341796875 -0.0626220703125 0.46624755859375
-0.6253662109375 -0.09808349609375 0.43647575378417969
-0.616455078125 -0.12042236328125 0.45647811889648438
-0.5943603515625 -0.08917236328125 0.48151397705078125
-0.586181640625 -0.05889892578125 0.488006591796875
-0.610595703125 -0.0648193359375 0.43948745727539062
-0.6290283203125 -0.12677001953125 0.43405342102050781
-0.5980224609375 -0.11273193359375 0.47775459289550781
0.1229248046875 0.7669677734375 0.58733558654785156
0.123046875 0.77447509765625 0.56564521789550781
0.0799560546875 0.75830078125 0.59268379211425781
0.1226806640625 0.7559814453125 0.6025238037109375
0.1668701171875 0.77685546875 0.57761764526367188
0.1654052734375 0.78570556640625 0.55651092529296875
0.08203125 0.76776123046875 0.57094955444335938
0.0806884765625 0.745361328125 0.60961151123046875
0.1669921875 0.76287841796875 0.59508514404296875
-0.554443359375 0.06292724609375 0.48106956481933594
-0.5369873046875 0.11151123046875 0.4821929931640625
-0.561279296875 0.0621337890625 0.452728271484375
-0.5701904296875 0.0155029296875 0.47519302368164062
-0.545654296875 0.06207275390625 0.50636482238769531
-0.5283203125 0.11102294921875 0.50799179077148438
-0.543212890625 0.11163330078125 0.45603370666503906
-0.577880859375 0.01416015625 0.44816207885742188
-0.560791015625 0.0159912109375 0.5001373291015625
-0.040283203125 0.73486328125 0.59921836853027344
-0.0401611328125 0.7451171875 0.57547187805175781
-0.0753173828125 0.725830078125 0.59490776062011719
-0.03662109375 0.7188720703125 0.61553192138671875
-0.0032958984375 0.739990234375 0.59790611267089844
-0.005859375 0.7513427734375 0.573333740234375
-0.0780029296875 0.73626708984375 0.57298469543457031
-0.0679931640625 0.7132568359375 0.61450958251953125
0.0001220703125 0.724853515625 0.61527633666992188
-0.4976806640625 0.2545166015625 0.49257659912109375
-0.486572265625 0.29095458984375 0.49838066101074219
-0.5067138671875 0.2550048828125 0.46473312377929688
-0.5096435546875 0.21142578125 0.49077987670898438
-0.4886474609375 0.24627685546875 0.51715278625488281
-0.4781494140625 0.28179931640625 0.52074050903320312
-0.4937744140625 0.2943115234375 0.46817779541015625
-0.517822265625 0.21075439453125 0.46223831176757812
-0.4986572265625 0.2081298828125 0.5142364501953125
-0.1474609375 0.67547607421875 0.59564781188964844
-0.153564453125 0.68341064453125 0.57387542724609375
-0.1591796875 0.6507568359375 0.59749794006347656
-0.1341552734375 0.66552734375 0.61453628540039062
-0.12841796875 0.6962890625 0.59655952453613281
-0.1343994140625 0.70599365234375 0.57311248779296875
-0.168212890625 0.656494140625 0.57421302795410156
-0.1453857421875 0.64007568359375 0.61661529541015625
-0.1165771484375 0.68475341796875 0.6136322021484375
-0.43505859375 0.365966796875 0.52009010314941406
-0.4107666015625 0.3787841796875 0.53630447387695312
-0.439208984375 0.37646484375 0.49101638793945312
-0.4560546875 0.34844970703125 0.50872039794921875
-0.427978515625 0.34906005859375 0.54502105712890625
-0.4051513671875 0.36126708984375 0.55594062805175781
-0.4139404296875 0.389892578125 0.50586509704589844
-0.462890625 0.35601806640625 0.48233604431152344
-0.445068359375 0.3316650390625 0.53725433349609375
-0.1668701171875 0.540771484375 0.61379241943359375
-0.1766357421875 0.5423583984375 0.591339111328125
-0.164306640625 0.50018310546875 0.62126922607421875
-0.156005859375 0.5372314453125 0.63346672058105469
-0.17041015625 0.579833984375 0.60465049743652344
-0.1781005859375 0.5841064453125 0.58025360107421875
-0.174072265625 0.5010986328125 0.59712409973144531
-0.149658203125 0.49700927734375 0.6439056396484375
-0.158447265625 0.5755615234375 0.62640380859375
-0.320556640625 0.37750244140625 0.57274055480957031
-0.2880859375 0.3712158203125 0.59020614624023438
-0.3212890625 0.38861083984375 0.549652099609375
-0.351806640625 0.3818359375 0.558837890625
-0.319091796875 0.3641357421875 0.59204292297363281
-0.28857421875 0.3558349609375 0.60790061950683594
-0.288818359375 0.37939453125 0.56447029113769531
-0.3541259765625 0.392822265625 0.53551483154296875
-0.3507080078125 0.365966796875 0.57896804809570312
-0.1646728515625 0.40484619140625 0.62894821166992188
-0.1728515625 0.4072265625 0.60778045654296875
-0.1697998046875 0.38336181640625 0.63184165954589844
-0.1534423828125 0.40234375 0.64715194702148438
-0.1622314453125 0.43096923828125 0.6279296875
-0.1680908203125 0.43353271484375 0.60730552673339844
-0.1756591796875 0.38800048828125 0.60846900939941406
-0.159912109375 0.3765869140625 0.64852523803710938
-0.151123046875 0.42950439453125 0.64660072326660156
-0.2139892578125 0.3526611328125 0.62178230285644531
-0.196044921875 0.35809326171875 0.62593269348144531
-0.216796875 0.36163330078125 0.60091781616210938
-0.2342529296875 0.355712890625 0.6190338134765625
-0.2115478515625 0.34246826171875 0.63866043090820312
-0.1881103515625 0.34716796875 0.64616966247558594
-0.19970703125 0.36444091796875 0.60426712036132812
-0.23291015625 0.36187744140625 0.59588241577148438
-0.234130859375 0.3448486328125 0.63425827026367188
-0.107177734375 0.52252197265625 0.65058708190917969
-0.0899658203125 0.51708984375 0.64038467407226562
-0.1055908203125 0.5498046875 0.64609909057617188
-0.123291015625 0.52740478515625 0.65402603149414062
-0.107666015625 0.492919921875 0.65364837646484375
-0.0928955078125 0.49151611328125 0.64262199401855469
-0.0853271484375 0.5404052734375 0.63798141479492188
-0.12109375 0.560791015625 0.6454620361328125
-0.120849609375 0.49481201171875 0.65724563598632812
-0.3155517578125 0.30572509765625 0.60456657409667969
-0.33740234375 0.3026123046875 0.59022712707519531
-0.3143310546875 0.28582763671875 0.60071563720703125
-0.2889404296875 0.3021240234375 0.61872100830078125
-0.31640625 0.32489013671875 0.60793685913085938
-0.342529296875 0.32733154296875 0.59472274780273438
-0.3333740234375 0.28131103515625 0.58819770812988281
-0.29150390625 0.2857666015625 0.61461639404296875
-0.28955078125 0.31976318359375 0.62290191650390625
-0.08056640625 0.6163330078125 0.63147735595703125
-0.060302734375 0.5972900390625 0.62811660766601562
-0.0633544921875 0.63214111328125 0.63004112243652344
-0.1026611328125 0.63433837890625 0.63232803344726562
-0.088623046875 0.5972900390625 0.63578414916992188
-0.0689697265625 0.58367919921875 0.63069915771484375
-0.0460205078125 0.61041259765625 0.62477684020996094
-0.0877685546875 0.65216064453125 0.63191032409667969
-0.11181640625 0.61279296875 0.63430404663085938
-0.3958740234375 0.28045654296875 0.56323814392089844
-0.410400390625 0.267822265625 0.55578804016113281
-0.383056640625 0.25872802734375 0.56302452087402344
-0.377197265625 0.292236328125 0.5718841552734375
-0.4095458984375 0.30584716796875 0.5640106201171875
-0.4232177734375 0.2891845703125 0.55608749389648438
-0.3973388671875 0.24407958984375 0.55786895751953125
-0.369384765625 0.2701416015625 0.57122802734375
-0.3880615234375 0.3162841796875 0.57297897338867188
-0.0028076171875 0.66351318359375 0.62752151489257812
0.0263671875 0.67205810546875 0.62546920776367188
-0.0152587890625 0.6822509765625 0.63155746459960938
-0.0264892578125 0.65435791015625 0.630157470703125
0.0111083984375 0.6453857421875 0.61864280700683594
0.0369873046875 0.65234375 0.61552619934082031
0.0142822265625 0.6895751953125 0.6305389404296875
-0.0426025390625 0.67303466796875 0.63212966918945312
-0.0087890625 0.63543701171875 0.62247467041015625
-0.4501953125 0.2027587890625 0.54583358764648438
-0.464111328125 0.2186279296875 0.54482460021972656
-0.462890625 0.17095947265625 0.54317855834960938
-0.4364013671875 0.1845703125 0.54518318176269531
-0.43603515625 0.2279052734375 0.548492431640625
-0.4517822265625 0.247802734375 0.54886817932128906
-0.4761962890625 0.185546875 0.542205810546875
-0.448486328125 0.1568603515625 0.54225730895996094
-0.4237060546875 0.206787109375 0.54876708984375
0.122802734375 0.703125 0.60708999633789062
0.1571044921875 0.7122802734375 0.59429550170898438
0.1209716796875 0.72186279296875 0.61037826538085938
0.090087890625 0.693359375 0.6085205078125
0.1265869140625 0.68548583984375 0.5972442626953125
0.15478515625 0.69329833984375 0.58954620361328125
0.1605224609375 0.7313232421875 0.600555419921875
0.0858154296875 0.71246337890625 0.61878585815429688
0.0927734375 0.6749267578125 0.60356521606445312
-0.5078125 0.054443359375 0.53037261962890625
-0.520751953125 0.05902099609375 0.52834320068359375
-0.522216796875 0.01458740234375 0.52467536926269531
-0.4925537109375 0.0511474609375 0.52918624877929688
-0.4908447265625 0.0972900390625 0.53725624084472656
-0.505615234375 0.1043701171875 0.53572845458984375
-0.53857421875 0.015869140625 0.52234268188476562
-0.508056640625 0.0128173828125 0.52475547790527344
-0.47802734375 0.09112548828125 0.53426933288574219
0.2303466796875 0.72088623046875 0.5689239501953125
0.245361328125 0.7130126953125 0.5614776611328125
0.238037109375 0.743896484375 0.56955146789550781
0.2137451171875 0.72442626953125 0.57923698425292969
0.2236328125 0.69976806640625 0.56612968444824219
0.2369384765625 0.69110107421875 0.56011390686035156
0.2542724609375 0.73602294921875 0.56034469604492188
0.218994140625 0.744140625 0.57861900329589844
0.2044677734375 0.70281982421875 0.57043647766113281
-0.543701171875 -0.07025146484375 0.51338577270507812
-0.5621337890625 -0.0753173828125 0.50972938537597656
-0.5438232421875 -0.0894775390625 0.51279830932617188
-0.5301513671875 -0.06597900390625 0.51699066162109375
-0.54150390625 -0.0477294921875 0.51556777954101562
-0.5577392578125 -0.05224609375 0.51364707946777344
-0.5616455078125 -0.0960693359375 0.50765228271484375
-0.527099609375 -0.0848388671875 0.52133941650390625
-0.527587890625 -0.0472412109375 0.51931190490722656
0.278076171875 0.65655517578125 0.53600692749023438
0.2860107421875 0.62713623046875 0.53491973876953125
0.2882080078125 0.67608642578125 0.52703666687011719
0.268798828125 0.681884765625 0.54362106323242188
0.269775390625 0.6383056640625 0.543792724609375
0.27685546875 0.61126708984375 0.5432891845703125
0.3001708984375 0.64453125 0.52072715759277344
0.2794189453125 0.70318603515625 0.53970718383789062
0.2587890625 0.6595458984375 0.54817771911621094
-0.5155029296875 -0.14324951171875 0.52723503112792969
-0.5330810546875 -0.15484619140625 0.51703834533691406
-0.498291015625 -0.16107177734375 0.54167366027832031
-0.497802734375 -0.13543701171875 0.53933525085449219
-0.5286865234375 -0.12615966796875 0.5202789306640625
-0.5467529296875 -0.13519287109375 0.50863075256347656
-0.513671875 -0.1729736328125 0.52777290344238281
-0.4837646484375 -0.14935302734375 0.55466651916503906
-0.5133056640625 -0.118408203125 0.5273284912109375
0.28955078125 0.5245361328125 0.53951263427734375
0.2825927734375 0.4891357421875 0.54514694213867188
0.3050537109375 0.53387451171875 0.52404594421386719
0.29248046875 0.56268310546875 0.53505325317382812
0.2747802734375 0.51629638671875 0.55229949951171875
0.2689208984375 0.480712890625 0.55689620971679688
0.2987060546875 0.492919921875 0.52916908264160156
0.3074951171875 0.5726318359375 0.51925468444824219
0.27880859375 0.55010986328125 0.54837226867675781
-0.4222412109375 -0.18170166015625 0.59414291381835938
-0.43896484375 -0.2003173828125 0.58462905883789062
-0.3922119140625 -0.179443359375 0.61404609680175781
-0.409912109375 -0.163330078125 0.60181427001953125
-0.452392578125 -0.1767578125 0.5768890380859375
-0.46630859375 -0.1962890625 0.56473731994628906
-0.4046630859375 -0.19964599609375 0.6038970947265625
-0.3798828125 -0.16064453125 0.62558937072753906
-0.4393310546875 -0.16241455078125 0.58681869506835938
0.2484130859375 0.38134765625 0.57168769836425781
0.2320556640625 0.351318359375 0.58869361877441406
0.2608642578125 0.37841796875 0.55924415588378906
0.263916015625 0.41497802734375 0.56090354919433594
0.2366943359375 0.383056640625 0.58353614807128906
0.221923828125 0.35711669921875 0.59553909301757812
0.24267578125 0.3424072265625 0.57805252075195312
0.279541015625 0.4168701171875 0.54776382446289062
0.250732421875 0.4127197265625 0.571868896484375
-0.2967529296875 -0.1475830078125 0.65904617309570312
-0.302734375 -0.16522216796875 0.65310478210449219
-0.261962890625 -0.12890625 0.6718597412109375
-0.2904052734375 -0.13116455078125 0.662689208984375
-0.3280029296875 -0.16143798828125 0.64730072021484375
-0.3382568359375 -0.18231201171875 0.63915252685546875
-0.2626953125 -0.14715576171875 0.66567039489746094
-0.2628173828125 -0.11346435546875 0.67400169372558594
-0.3209228515625 -0.14453125 0.65472793579101562
0.1546630859375 0.27117919921875 0.64564132690429688
0.124755859375 0.2509765625 0.66228103637695312
0.1630859375 0.24981689453125 0.6429290771484375
0.18212890625 0.29620361328125 0.6266021728515625
0.147216796875 0.290283203125 0.64185905456542969
0.119140625 0.2772216796875 0.65539360046386719
0.1334228515625 0.21942138671875 0.66964340209960938
0.190185546875 0.2796630859375 0.61878585815429688
0.1737060546875 0.31304931640625 0.62880325317382812
-0.167236328125 -0.04296875 0.70244407653808594
-0.152587890625 -0.0572509765625 0.70644569396972656
-0.1385498046875 -0.00665283203125 0.70791244506835938
-0.1815185546875 -0.02880859375 0.69815444946289062
-0.19970703125 -0.07391357421875 0.69131851196289062
-0.1922607421875 -0.08984375 0.69155502319335938
-0.116943359375 -0.02349853515625 0.7197113037109375
-0.1590576171875 0.00396728515625 0.69972991943359375
-0.20947265625 -0.06024169921875 0.69120979309082031
0.047119140625 0.22576904296875 0.67643928527832031
0.049072265625 0.25933837890625 0.66853904724121094
0.0205078125 0.22747802734375 0.668792724609375
0.045166015625 0.19317626953125 0.68466567993164062
0.0728759765625 0.22857666015625 0.67796897888183594
0.0699462890625 0.2589111328125 0.66854095458984375
0.0303955078125 0.25927734375 0.66222763061523438
0.0157470703125 0.188232421875 0.67646980285644531
0.077880859375 0.1923828125 0.6923065185546875
-0.0997314453125 0.080810546875 0.69538497924804688
-0.09814453125 0.10406494140625 0.68335533142089844
-0.1279296875 0.08251953125 0.68861770629882812
-0.1048583984375 0.05487060546875 0.70624923706054688
-0.07177734375 0.0760498046875 0.70652198791503906
-0.0667724609375 0.10626220703125 0.6897430419921875
-0.12646484375 0.1021728515625 0.68126487731933594
-0.13134765625 0.0595703125 0.69604301452636719
-0.0777587890625 0.0455322265625 0.72223663330078125
-0.1085205078125 0.411865234375 0.65832328796386719
-0.110107421875 0.4378662109375 0.65736961364746094
-0.123291015625 0.40618896484375 0.66283416748046875
-0.1090087890625 0.38739013671875 0.66041183471679688
-0.094482421875 0.41650390625 0.65339088439941406
-0.0953369140625 0.4410400390625 0.65143203735351562
-0.1220703125 0.433349609375 0.66025161743164062
-0.127685546875 0.37786865234375 0.66293716430664062
-0.0914306640625 0.39556884765625 0.65417671203613281
-0.2215576171875 0.291748046875 0.64653968811035156
-0.217041015625 0.31072998046875 0.65159988403320312
-0.241943359375 0.29791259765625 0.63889312744140625
-0.2291259765625 0.273193359375 0.63921165466308594
-0.204345703125 0.28662109375 0.65182685852050781
-0.1949462890625 0.3095703125 0.65688514709472656
-0.2374267578125 0.3145751953125 0.64379310607910156
-0.2481689453125 0.27960205078125 0.63296127319335938
-0.2130126953125 0.2657470703125 0.64457893371582031
-0.0836181640625 0.3272705078125 0.65804672241210938
-0.09326171875 0.34625244140625 0.65793037414550781
-0.1024169921875 0.31134033203125 0.65887451171875
-0.0714111328125 0.30938720703125 0.65578460693359375
-0.065185546875 0.34149169921875 0.65325546264648438
-0.0740966796875 0.356689453125 0.65365219116210938
-0.1175537109375 0.33258056640625 0.66288185119628906
-0.0889892578125 0.29278564453125 0.65857887268066406
-0.05224609375 0.3251953125 0.65591239929199219
-0.1610107421875 0.24822998046875 0.65769004821777344
-0.1446533203125 0.270751953125 0.659698486328125
-0.17529296875 0.2647705078125 0.65734291076660156
-0.175048828125 0.22918701171875 0.65195846557617188
-0.14794921875 0.2303466796875 0.65795135498046875
-0.132080078125 0.25067138671875 0.65642166137695312
-0.1610107421875 0.29034423828125 0.65996170043945312
-0.1871337890625 0.24365234375 0.65197563171386719
-0.164306640625 0.2108154296875 0.65566253662109375
-0.03125 0.25604248046875 0.65761947631835938
-0.0146484375 0.2418212890625 0.65790939331054688
-0.016845703125 0.28057861328125 0.65743827819824219
-0.0421142578125 0.27239990234375 0.65657424926757812
-0.0479736328125 0.23095703125 0.65839576721191406
-0.030029296875 0.20977783203125 0.66062164306640625
-0.0015869140625 0.2708740234375 0.65491867065429688
-0.027587890625 0.294189453125 0.65789413452148438
-0.063720703125 0.25006103515625 0.65494918823242188
-0.1168212890625 0.1708984375 0.66382598876953125
-0.138671875 0.15850830078125 0.663177490234375
-0.107177734375 0.14990234375 0.66925811767578125
-0.0936279296875 0.18524169921875 0.66080093383789062
-0.12744140625 0.19219970703125 0.65980911254882812
-0.1446533203125 0.17742919921875 0.65974235534667969
-0.1319580078125 0.138427734375 0.66644668579101562
-0.0799560546875 0.16033935546875 0.6628265380859375
-0.1055908203125 0.2093505859375 0.65775680541992188
0.3624267578125 -0.455322265625 0.72085762023925781
0.3580322265625 -0.4488525390625 0.73244476318359375
0.3504638671875 -0.46820068359375 0.73422622680664062
0.367431640625 -0.46533203125 0.70813179016113281
0.3721923828125 -0.441650390625 0.70966720581054688
0.3668212890625 -0.4349365234375 0.72357368469238281
0.34814453125 -0.46014404296875 0.74207496643066406
0.3531494140625 -0.48040771484375 0.72217369079589844
0.3795166015625 -0.45037841796875 0.69313240051269531
0.3076171875 -0.50494384765625 0.77140426635742188
0.3232421875 -0.49505615234375 0.75974845886230469
0.31396484375 -0.4891357421875 0.77457809448242188
0.2935791015625 -0.51373291015625 0.785308837890625
0.3035888671875 -0.5234375 0.76646232604980469
0.3203125 -0.5120849609375 0.75167655944824219
0.3255615234375 -0.48138427734375 0.76503753662109375
0.2982177734375 -0.4951171875 0.78524017333984375
0.2855224609375 -0.534423828125 0.78162765502929688
0.4002685546875 -0.402587890625 0.682281494140625
0.388427734375 -0.3975830078125 0.70108604431152344
0.3931884765625 -0.41387939453125 0.6902008056640625
0.4090576171875 -0.41070556640625 0.66219902038574219
0.4029541015625 -0.3887939453125 0.67850875854492188
0.3905029296875 -0.381591796875 0.69694709777832031
0.3843994140625 -0.40972900390625 0.7069244384765625
0.4027099609375 -0.42291259765625 0.67056083679199219
0.41357421875 -0.396484375 0.65532684326171875
0.25244140625 -0.5267333984375 0.80857467651367188
0.2640380859375 -0.5255126953125 0.80313873291015625
0.2630615234375 -0.5028076171875 0.80816459655761719
0.241943359375 -0.525146484375 0.8155517578125
0.2420654296875 -0.553466796875 0.80946731567382812
0.2532958984375 -0.54998779296875 0.800933837890625
0.275390625 -0.5042724609375 0.80184364318847656
0.2515869140625 -0.5009765625 0.81290054321289062
0.228759765625 -0.55224609375 0.81409454345703125
0.3984375 -0.33807373046875 0.67753982543945312
0.3804931640625 -0.33038330078125 0.700836181640625
0.4013671875 -0.35614013671875 0.67631149291992188
0.417724609375 -0.3433837890625 0.65123939514160156
0.3924560546875 -0.31640625 0.683319091796875
0.373779296875 -0.3125 0.70380592346191406
0.3846435546875 -0.35009765625 0.69994735717773438
0.4195556640625 -0.365478515625 0.65110015869140625
0.4112548828125 -0.32421875 0.65061378479003906
0.20947265625 -0.49078369140625 0.831756591796875
0.2183837890625 -0.5067138671875 0.8284912109375
0.223388671875 -0.4625244140625 0.82852554321289062
0.1986083984375 -0.4744873046875 0.834228515625
0.193359375 -0.52484130859375 0.83312225341796875
0.204833984375 -0.538330078125 0.831329345703125
0.2303466796875 -0.4775390625 0.82611083984375
0.2127685546875 -0.44073486328125 0.82940673828125
0.18310546875 -0.508544921875 0.83643722534179688
0.300537109375 -0.1575927734375 0.70266342163085938
0.27783203125 -0.12628173828125 0.70792007446289062
0.2857666015625 -0.1676025390625 0.72190666198730469
0.323974609375 -0.188720703125 0.69546890258789062
0.3154296875 -0.1494140625 0.68255805969238281
0.2918701171875 -0.115234375 0.68516349792480469
0.2618408203125 -0.1358642578125 0.72300338745117188
0.308837890625 -0.1953125 0.7171630859375
0.3369140625 -0.18243408203125 0.6752471923828125
0.1263427734375 -0.312255859375 0.81202125549316406
0.145263671875 -0.2919921875 0.81344985961914062
0.109619140625 -0.27459716796875 0.80470085144042969
0.107421875 -0.33319091796875 0.8112030029296875
0.1429443359375 -0.349365234375 0.82383918762207031
0.1632080078125 -0.3277587890625 0.81966781616210938
0.126708984375 -0.25433349609375 0.80381393432617188
0.092529296875 -0.2928466796875 0.8043670654296875
0.122802734375 -0.374267578125 0.82310104370117188
0.3714599609375 -0.2611083984375 0.68563079833984375
0.37939453125 -0.2796630859375 0.68473052978515625
0.3902587890625 -0.2640380859375 0.65764427185058594
0.359619140625 -0.2427978515625 0.68889808654785156
0.3525390625 -0.265625 0.70958709716796875
0.3572998046875 -0.278076171875 0.70823287963867188
0.398193359375 -0.28302001953125 0.66122627258300781
0.375244140625 -0.24127197265625 0.66386985778808594
0.3397216796875 -0.24658203125 0.71051406860351562
0.17626953125 -0.42718505859375 0.83482742309570312
0.1580810546875 -0.45745849609375 0.83650588989257812
0.18310546875 -0.44122314453125 0.83562469482421875
0.1934814453125 -0.39898681640625 0.8317718505859375
0.1678466796875 -0.408203125 0.83628463745117188
0.1500244140625 -0.43310546875 0.83487319946289062
0.1663818359375 -0.47705078125 0.83595657348632812
0.1976318359375 -0.41119384765625 0.8326873779296875
0.186767578125 -0.38421630859375 0.83213043212890625
0.169677734375 -0.084716796875 0.745147705078125
0.15771484375 -0.0667724609375 0.74429512023925781
0.1578369140625 -0.09771728515625 0.7513580322265625
0.182373046875 -0.10888671875 0.75038909912109375
0.1790771484375 -0.0731201171875 0.73920249938964844
0.1683349609375 -0.051513671875 0.73599624633789062
0.14697265625 -0.080322265625 0.74858665466308594
0.17236328125 -0.12127685546875 0.75658988952636719
0.194580078125 -0.09552001953125 0.74110603332519531
0.1221923828125 -0.127685546875 0.7663421630859375
0.1339111328125 -0.119873046875 0.75881767272949219
0.107421875 -0.10906982421875 0.76585006713867188
0.1065673828125 -0.13720703125 0.77267074584960938
0.1353759765625 -0.1517333984375 0.77163887023925781
0.148681640625 -0.14166259765625 0.76595115661621094
0.12255859375 -0.1005859375 0.75925064086914062
0.0916748046875 -0.11865234375 0.76871109008789062
0.123779296875 -0.162353515625 0.77484893798828125
0.2403564453125 -0.1988525390625 0.7591094970703125
0.2568359375 -0.18896484375 0.74913787841796875
0.22314453125 -0.1676025390625 0.75914382934570312
0.2283935546875 -0.210693359375 0.76572799682617188
0.2611083984375 -0.2283935546875 0.75832366943359375
0.2779541015625 -0.2164306640625 0.74721717834472656
0.2354736328125 -0.158203125 0.74801445007324219
0.2083740234375 -0.1771240234375 0.76777458190917969
0.24853515625 -0.24200439453125 0.76981544494628906
0.1895751953125 -0.24609375 0.79707145690917969
0.1722412109375 -0.2103271484375 0.78829383850097656
0.1746826171875 -0.25823974609375 0.80582046508789062
0.20849609375 -0.27801513671875 0.80047225952148438
0.2022705078125 -0.235107421875 0.78230476379394531
0.1849365234375 -0.19903564453125 0.78174209594726562
0.1575927734375 -0.2230224609375 0.79327964782714844
0.1925048828125 -0.293212890625 0.80721855163574219
0.2213134765625 -0.26495361328125 0.79226493835449219
0.3013916015625 -0.2901611328125 0.76093864440917969
0.308349609375 -0.3009033203125 0.76044464111328125
0.317138671875 -0.2789306640625 0.7444915771484375
0.2962646484375 -0.275146484375 0.75970840454101562
0.287109375 -0.3040771484375 0.77418136596679688
0.2935791015625 -0.31622314453125 0.77349662780761719
0.3218994140625 -0.289306640625 0.74835205078125
0.31005859375 -0.2633056640625 0.7458648681640625
0.2802734375 -0.2890625 0.7737579345703125
0.2415771484375 -0.3421630859375 0.80821990966796875
0.226318359375 -0.35479736328125 0.81627655029296875
0.2486572265625 -0.351318359375 0.80810928344726562
0.2562255859375 -0.3289794921875 0.79545211791992188
0.2325439453125 -0.32470703125 0.80607414245605469
0.21630859375 -0.3392333984375 0.81456184387207031
0.234130859375 -0.365966796875 0.81824874877929688
0.2640380859375 -0.340087890625 0.79573631286621094
0.2496337890625 -0.31201171875 0.79677009582519531
0.157470703125 0.03424072265625 0.7355194091796875
0.15576171875 0.0460205078125 0.73327445983886719
0.15771484375 0.03680419921875 0.74317550659179688
0.156982421875 0.01824951171875 0.73719024658203125
0.1580810546875 0.0286865234375 0.72785186767578125
0.155517578125 0.041748046875 0.72558403015136719
0.1563720703125 0.0504150390625 0.73993301391601562
0.156494140625 0.0233154296875 0.744293212890625
0.1583251953125 0.01300048828125 0.72983169555664062
0.0341796875 -0.08251953125 0.78194046020507812
0.032958984375 -0.0780029296875 0.78899955749511719
0.021728515625 -0.076904296875 0.7806549072265625
0.030517578125 -0.0880126953125 0.77322196960449219
0.0447998046875 -0.08489990234375 0.77806854248046875
0.0452880859375 -0.07843017578125 0.78664970397949219
0.023193359375 -0.072021484375 0.78881263732910156
0.02099609375 -0.08258056640625 0.77287673950195312
0.0450439453125 -0.0914306640625 0.77100753784179688
0.1353759765625 0.07965087890625 0.72424697875976562
0.12255859375 0.08587646484375 0.72037124633789062
0.1358642578125 0.0826416015625 0.73174095153808594
0.14453125 0.0697021484375 0.7276458740234375
0.134765625 0.07672119140625 0.71742439270019531
0.1229248046875 0.08355712890625 0.7152557373046875
0.123779296875 0.08990478515625 0.72808074951171875
0.1456298828125 0.07391357421875 0.73509597778320312
0.1436767578125 0.06658935546875 0.72007179260253906
0.000244140625 -0.04290771484375 0.76004791259765625
-0.0001220703125 -0.04058837890625 0.76682853698730469
-0.001708984375 -0.0296630859375 0.75186538696289062
0.001220703125 -0.0462646484375 0.75251388549804688
0.0054931640625 -0.05584716796875 0.76889419555664062
0.0054931640625 -0.05169677734375 0.77685546875
-0.0035400390625 -0.025634765625 0.75962448120117188
-0.0018310546875 -0.0328369140625 0.74654579162597656
0.005859375 -0.06085205078125 0.76115798950195312
0.0833740234375 0.075927734375 0.72098541259765625
0.0732421875 0.0654296875 0.72397994995117188
0.08642578125 0.08026123046875 0.72660064697265625
0.095703125 0.0858154296875 0.71913528442382812
0.0782470703125 0.07421875 0.71526718139648438
0.0665283203125 0.0616455078125 0.71682929992675781
0.078125 0.07208251953125 0.72900772094726562
0.0985107421875 0.0897216796875 0.72458457946777344
0.093505859375 0.0826416015625 0.71323013305664062
0.0096435546875 0.0120849609375 0.7369384765625
0.007080078125 0.0133056640625 0.74590110778808594
0.021240234375 0.0211181640625 0.73398399353027344
0.01123046875 0.013916015625 0.73043632507324219
0.00146484375 -0.00018310546875 0.74113082885742188
0.0010986328125 0.0008544921875 0.74830436706542969
0.0177001953125 0.02032470703125 0.74357032775878906
0.022705078125 0.0247802734375 0.72437477111816406
0.0025634765625 -0.0003662109375 0.73501968383789062
0.061279296875 0.034912109375 0.73930740356445312
0.0631103515625 0.02777099609375 0.74272918701171875
0.064453125 0.041015625 0.74572372436523438
0.0615234375 0.04443359375 0.733856201171875
0.056884765625 0.030029296875 0.73357009887695312
0.058837890625 0.02581787109375 0.73838615417480469
0.0643310546875 0.033447265625 0.74910736083984375
0.065673828125 0.0511474609375 0.74011039733886719
0.0546875 0.03741455078125 0.72780036926269531
0.048095703125 0.02490234375 0.74079132080078125
0.04736328125 0.026123046875 0.74675750732421875
0.056396484375 0.02423095703125 0.74313926696777344
0.05078125 0.02447509765625 0.73427200317382812
0.0408935546875 0.0264892578125 0.73565673828125
0.037841796875 0.02630615234375 0.74600791931152344
0.05615234375 0.025146484375 0.750396728515625
0.0556640625 0.0242919921875 0.73856925964355469
0.0440673828125 0.02752685546875 0.72774124145507812
0.139892578125 -0.0341796875 0.75312042236328125
0.1422119140625 -0.04156494140625 0.74570465087890625
0.1470947265625 -0.01641845703125 0.74599838256835938
0.1380615234375 -0.0274658203125 0.75899314880371094
0.130859375 -0.04827880859375 0.75756454467773438
0.1318359375 -0.0567626953125 0.75319862365722656
0.149658203125 -0.02374267578125 0.73992919921875
0.146728515625 -0.0108642578125 0.75306320190429688
0.1280517578125 -0.04229736328125 0.76364898681640625
0.0911865234375 -0.0771484375 0.77473258972167969
0.074462890625 -0.08172607421875 0.77660751342773438
0.092529296875 -0.08465576171875 0.76974678039550781
0.1064453125 -0.0701904296875 0.76862525939941406
0.08935546875 -0.0712890625 0.77959060668945312
0.072998046875 -0.07611083984375 0.78202247619628906
0.07568359375 -0.08905029296875 0.77281951904296875
0.109619140625 -0.07794189453125 0.76431846618652344
0.105712890625 -0.0648193359375 0.77358627319335938
0.1339111328125 -0.01123046875 0.77381515502929688
0.1357421875 -0.015625 0.77069473266601562
0.1416015625 0.0040283203125 0.77036094665527344
0.1304931640625 -0.00469970703125 0.77752494812011719
0.12646484375 -0.0244140625 0.78045463562011719
0.1273193359375 -0.03057861328125 0.775634765625
0.1441650390625 -0.00128173828125 0.76473236083984375
0.137939453125 0.00811767578125 0.77387428283691406
0.1224365234375 -0.0186767578125 0.78487968444824219
0.08740234375 -0.05364990234375 0.79476165771484375
0.0748291015625 -0.05963134765625 0.79487991333007812
0.0894775390625 -0.05926513671875 0.79104042053222656
0.1007080078125 -0.045654296875 0.79001235961914062
0.085693359375 -0.0467529296875 0.79697036743164062
0.0731201171875 -0.05352783203125 0.79839897155761719
0.0743408203125 -0.0653076171875 0.79195404052734375
0.101806640625 -0.05340576171875 0.78607177734375
0.0968017578125 -0.03973388671875 0.79312324523925781
0.074951171875 0.051513671875 0.7695159912109375
0.0745849609375 0.041015625 0.77345466613769531
0.0814208984375 0.05255126953125 0.774627685546875
0.078369140625 0.06134033203125 0.76239204406738281
0.0718994140625 0.04962158203125 0.76159095764160156
0.0692138671875 0.039794921875 0.76709175109863281
0.0797119140625 0.04119873046875 0.77975273132324219
0.0831298828125 0.06256103515625 0.76813888549804688
0.0732421875 0.0595703125 0.75607681274414062
0.0504150390625 0.02593994140625 0.77330398559570312
0.0511474609375 0.02459716796875 0.77889442443847656
0.061279296875 0.0279541015625 0.77585792541503906
0.0496826171875 0.02789306640625 0.76632118225097656
0.0391845703125 0.0267333984375 0.76890945434570312
0.040771484375 0.024658203125 0.77535247802734375
0.06298828125 0.025390625 0.7831268310546875
0.0592041015625 0.02960205078125 0.767578125
0.037841796875 0.02655029296875 0.76348686218261719
0.0947265625 0.08807373046875 0.74935531616210938
0.087158203125 0.0810546875 0.75068092346191406
0.09912109375 0.0853271484375 0.75703811645507812
0.1046142578125 0.0936279296875 0.74876022338867188
0.092529296875 0.0888671875 0.73934555053710938
0.0841064453125 0.08056640625 0.74331092834472656
0.0897216796875 0.07977294921875 0.75904083251953125
0.1065673828125 0.0902099609375 0.755584716796875
0.1021728515625 0.09423828125 0.73912429809570312
0.0111083984375 0.0120849609375 0.76814651489257812
0.0155029296875 0.0106201171875 0.77683067321777344
0.0185546875 0.01983642578125 0.767242431640625
0.0074462890625 0.01385498046875 0.76019859313964844
0.00634765625 0.0040283203125 0.77045822143554688
0.0115966796875 0.0028076171875 0.77864456176757812
0.022216796875 0.01739501953125 0.77653121948242188
0.0159912109375 0.02178955078125 0.75872802734375
0.0023193359375 0.00396728515625 0.76330375671386719
0.1353759765625 0.08551025390625 0.75537490844726562
0.123291015625 0.09222412109375 0.75167465209960938
0.1324462890625 0.0830078125 0.76203346252441406
0.1439208984375 0.077392578125 0.75876426696777344
0.136474609375 0.0859375 0.74779701232910156
0.124267578125 0.09332275390625 0.74379730224609375
0.123291015625 0.08843994140625 0.758880615234375
0.1412353515625 0.07366943359375 0.76784133911132812
0.14599609375 0.0772705078125 0.75030136108398438
0.0069580078125 -0.02935791015625 0.792236328125
0.0118408203125 -0.02447509765625 0.79673957824707031
0.0037841796875 -0.01751708984375 0.78240776062011719
0.0030517578125 -0.03302001953125 0.78360557556152344
0.0152587890625 -0.040283203125 0.79856681823730469
0.02001953125 -0.03436279296875 0.8031463623046875
0.0079345703125 -0.015869140625 0.78856277465820312
-0.0001220703125 -0.020263671875 0.77437210083007812
0.0101318359375 -0.04473876953125 0.7937164306640625
0.15185546875 0.0433349609375 0.76333045959472656
0.1517333984375 0.0557861328125 0.76340675354003906
0.1500244140625 0.04107666015625 0.76934242248535156
0.1510009765625 0.0301513671875 0.76461029052734375
0.15576171875 0.04241943359375 0.75738525390625
0.1553955078125 0.05596923828125 0.75597763061523438
0.1484375 0.05291748046875 0.77046012878417969
0.1475830078125 0.030029296875 0.77051544189453125
0.15234375 0.02923583984375 0.7585906982421875
0.0386962890625 -0.06207275390625 0.80612373352050781
0.0419921875 -0.05389404296875 0.80989837646484375
0.031005859375 -0.05767822265625 0.80683517456054688
0.0357666015625 -0.0672607421875 0.80173110961914062
0.0477294921875 -0.06341552734375 0.8030548095703125
0.050537109375 -0.0570068359375 0.80620574951171875
0.035400390625 -0.04998779296875 0.80944252014160156
0.0262451171875 -0.0628662109375 0.80088043212890625
0.0460205078125 -0.07086181640625 0.79807853698730469
0.109130859375 0.06451416015625 0.77638435363769531
0.1112060546875 0.0565185546875 0.78174018859863281
0.1182861328125 0.07147216796875 0.77313613891601562
0.10595703125 0.07440185546875 0.77163505554199219
0.0982666015625 0.05841064453125 0.77842140197753906
0.0997314453125 0.049560546875 0.78494453430175781
0.1251220703125 0.0635986328125 0.77739715576171875
0.114013671875 0.07916259765625 0.76729965209960938
0.0975341796875 0.0687255859375 0.77239036560058594
0.0380859375 -0.0006103515625 0.79405593872070312
0.02783203125 -0.00970458984375 0.7983551025390625
0.0477294921875 -0.0047607421875 0.80069541931152344
0.045166015625 0.0103759765625 0.78982925415039062
0.029052734375 0.00433349609375 0.78966712951660156
0.021728515625 -0.0029296875 0.79196548461914062
0.0372314453125 -0.01678466796875 0.80313873291015625
0.0577392578125 0.00836181640625 0.7951507568359375
0.0355224609375 0.0123291015625 0.78583526611328125
0.1220703125 0.02081298828125 0.78614997863769531
0.111572265625 0.0096435546875 0.78949928283691406
0.125244140625 0.01123046875 0.78347396850585938
0.1337890625 0.0306396484375 0.78103446960449219
0.1185302734375 0.03363037109375 0.7872772216796875
0.10400390625 0.02337646484375 0.7910614013671875
0.116455078125 -0.00067138671875 0.78931427001953125
0.1348876953125 0.020263671875 0.77966499328613281
0.132568359375 0.0423583984375 0.78210639953613281
0.0712890625 -0.0263671875 0.80580711364746094
0.07861328125 -0.0343017578125 0.80382156372070312
0.0843505859375 -0.01336669921875 0.80069541931152344
0.06396484375 -0.01904296875 0.80779266357421875
0.05859375 -0.0369873046875 0.80745697021484375
0.0670166015625 -0.04278564453125 0.80492019653320312
0.0902099609375 -0.023681640625 0.79889678955078125
0.075927734375 -0.00201416015625 0.80147552490234375
0.0518798828125 -0.03070068359375 0.80995941162109375
0.059814453125 0.104736328125 0.70290374755859375
0.0667724609375 0.086669921875 0.70601844787597656
0.082763671875 0.109619140625 0.70835304260253906
0.051513671875 0.12939453125 0.70124053955078125
0.0360107421875 0.0966796875 0.70313453674316406
0.048828125 0.07550048828125 0.70387077331542969
0.085693359375 0.09454345703125 0.70849037170410156
0.0823974609375 0.1309814453125 0.70686149597167969
0.0225830078125 0.122314453125 0.69303512573242188
-0.0084228515625 0.04437255859375 0.72197532653808594
-0.0140380859375 0.02044677734375 0.73093414306640625
0.0030517578125 0.0301513671875 0.7218017578125
-0.00048828125 0.0665283203125 0.70963668823242188
-0.0233154296875 0.059326171875 0.71935653686523438
-0.028076171875 0.028076171875 0.73440361022949219
-0.00341796875 0.01165771484375 0.73307609558105469
0.0135498046875 0.0472412109375 0.71224212646484375
-0.0150146484375 0.08636474609375 0.70038414001464844
0.1373291015625 0.08392333984375 0.70774078369140625
0.1346435546875 0.07952880859375 0.71105575561523438
0.1480712890625 0.06964111328125 0.70003700256347656
0.141357421875 0.08868408203125 0.69940948486328125
0.123291015625 0.09930419921875 0.70933151245117188
0.1214599609375 0.089599609375 0.71019363403320312
0.1456298828125 0.066650390625 0.70779991149902344
0.1522216796875 0.07086181640625 0.69041061401367188
0.1265869140625 0.11053466796875 0.70550537109375
-0.009765625 -0.05413818359375 0.74678802490234375
-0.005126953125 -0.07666015625 0.74875068664550781
-0.0037841796875 -0.05133056640625 0.74744415283203125
-0.01416015625 -0.03106689453125 0.74473190307617188
-0.0191650390625 -0.0589599609375 0.74255943298339844
-0.0133056640625 -0.0841064453125 0.74210929870605469
0.0008544921875 -0.06982421875 0.75211906433105469
-0.0064697265625 -0.0323486328125 0.74350738525390625
-0.0267333984375 -0.0325927734375 0.74537467956542969
0.1741943359375 0.02734375 0.6959228515625
0.1661376953125 0.025634765625 0.7080841064453125
0.1817626953125 0.01202392578125 0.69804763793945312
0.183837890625 0.0274658203125 0.68122100830078125
0.1663818359375 0.0406494140625 0.6953277587890625
0.161376953125 0.0404052734375 0.70668411254882812
0.1719970703125 0.01007080078125 0.7105560302734375
0.1912841796875 0.01519775390625 0.68188667297363281
0.17529296875 0.04229736328125 0.68209266662597656
0.0167236328125 -0.119873046875 0.75351142883300781
0.0238037109375 -0.131103515625 0.75470352172851562
0.023193359375 -0.10577392578125 0.75936317443847656
0.009033203125 -0.10784912109375 0.75343513488769531
0.00830078125 -0.13427734375 0.74606132507324219
0.01708984375 -0.14837646484375 0.74814033508300781
0.0343017578125 -0.11614990234375 0.76012802124023438
0.0147705078125 -0.09716796875 0.75986099243164062
0.0015869140625 -0.1209716796875 0.74457359313964844
0.2186279296875 -0.0404052734375 0.70583343505859375
0.205810546875 -0.046875 0.71992111206054688
0.236083984375 -0.06427001953125 0.70677566528320312
0.229736328125 -0.03167724609375 0.68851089477539062
0.2034912109375 -0.021240234375 0.70401191711425781
0.1904296875 -0.0277099609375 0.71504402160644531
0.2235107421875 -0.072998046875 0.72259521484375
0.2506103515625 -0.0560302734375 0.68802070617675781
0.21484375 -0.0145263671875 0.68686485290527344
0.0609130859375 -0.181640625 0.77867507934570312
0.076904296875 -0.20574951171875 0.7866058349609375
0.0767822265625 -0.16522216796875 0.77858543395996094
0.04638671875 -0.16253662109375 0.77126693725585938
0.042724609375 -0.201904296875 0.77299880981445312
0.058837890625 -0.2281494140625 0.78399467468261719
0.09375 -0.18927001953125 0.78367424011230469
0.060546875 -0.14495849609375 0.77262687683105469
0.0325927734375 -0.1805419921875 0.7644805908203125
0.2572021484375 -0.0228271484375 0.60446929931640625
0.2587890625 -0.02520751953125 0.56783676147460938
0.2423095703125 -0.00665283203125 0.6064300537109375
0.2509765625 -0.02264404296875 0.63579940795898438
0.277099609375 -0.04150390625 0.6029052734375
0.2762451171875 -0.04461669921875 0.56527519226074219
0.244140625 -0.01055908203125 0.57041168212890625
0.23388671875 -0.0069580078125 0.6356201171875
0.27099609375 -0.04302978515625 0.63787841796875
-0.0052490234375 -0.2667236328125 0.72246170043945312
-0.0108642578125 -0.24359130859375 0.7128143310546875
-0.02197265625 -0.28509521484375 0.69966506958007812
0.0042724609375 -0.29229736328125 0.73810195922851562
0.0115966796875 -0.24365234375 0.74574661254882812
0.0048828125 -0.22210693359375 0.73431205749511719
-0.0289306640625 -0.26123046875 0.68599891662597656
-0.011962890625 -0.310302734375 0.7116241455078125
0.0218505859375 -0.2708740234375 0.75716590881347656
0.20458984375 0.0264892578125 0.60265350341796875
0.20703125 0.02203369140625 0.57007980346679688
0.1943359375 0.03582763671875 0.60112571716308594
0.1995849609375 0.03057861328125 0.63407707214355469
0.215576171875 0.016357421875 0.60292243957519531
0.2161865234375 0.01190185546875 0.57031440734863281
0.1962890625 0.03076171875 0.570831298828125
0.187255859375 0.04083251953125 0.63339996337890625
0.20849609375 0.01953125 0.63545989990234375
-0.0286865234375 -0.1912841796875 0.69073486328125
-0.0323486328125 -0.1767578125 0.68561172485351562
-0.0423583984375 -0.2113037109375 0.66180038452148438
-0.0247802734375 -0.20684814453125 0.69536399841308594
-0.0164794921875 -0.17193603515625 0.71416664123535156
-0.0211181640625 -0.15667724609375 0.70970726013183594
-0.0469970703125 -0.19635009765625 0.65789604187011719
-0.0384521484375 -0.22686767578125 0.66764450073242188
-0.0103759765625 -0.18603515625 0.719696044921875
0.161865234375 0.075439453125 0.61746406555175781
0.155517578125 0.09552001953125 0.6225433349609375
0.1563720703125 0.08392333984375 0.65418624877929688
0.1729736328125 0.0587158203125 0.61349868774414062
0.1689453125 0.063720703125 0.583099365234375
0.1656494140625 0.081787109375 0.58128547668457031
0.1466064453125 0.106689453125 0.6636505126953125
0.16650390625 0.066162109375 0.64529800415039062
0.1756591796875 0.051513671875 0.57813072204589844
-0.0498046875 -0.121826171875 0.67993545532226562
-0.0401611328125 -0.0955810546875 0.70809555053710938
-0.061767578125 -0.1068115234375 0.68241119384765625
-0.0592041015625 -0.14520263671875 0.65014266967773438
-0.042724609375 -0.14019775390625 0.6810302734375
-0.0322265625 -0.1181640625 0.70758628845214844
-0.0511474609375 -0.07257080078125 0.71394729614257812
-0.067626953125 -0.1331787109375 0.65044593811035156
-0.0540771484375 -0.1617431640625 0.65200233459472656
0.312255859375 -0.32391357421875 0.75903892517089844
0.3111572265625 -0.317626953125 0.76114845275878906
0.300048828125 -0.33709716796875 0.76866340637207031
0.310791015625 -0.33026123046875 0.75588607788085938
0.3223876953125 -0.31304931640625 0.74968528747558594
0.323486328125 -0.30596923828125 0.74942588806152344
0.30029296875 -0.33306884765625 0.77014541625976562
0.300048828125 -0.34259033203125 0.76583290100097656
0.3212890625 -0.3194580078125 0.74786949157714844
0.2601318359375 -0.3687744140625 0.80132484436035156
0.2734375 -0.3604736328125 0.79105377197265625
0.25830078125 -0.36431884765625 0.8046112060546875
0.248046875 -0.37738037109375 0.81020736694335938
0.2608642578125 -0.37322998046875 0.79668998718261719
0.2747802734375 -0.36505126953125 0.78685379028320312
0.2730712890625 -0.35498046875 0.79127120971679688
0.2452392578125 -0.37518310546875 0.81519317626953125
0.250732421875 -0.38037109375 0.8056488037109375
0.349365234375 -0.32537841796875 0.73371315002441406
0.357177734375 -0.3250732421875 0.72827911376953125
0.34228515625 -0.31378173828125 0.73685836791992188
0.34619140625 -0.32928466796875 0.73412704467773438
0.356689453125 -0.34197998046875 0.7318115234375
0.3648681640625 -0.34283447265625 0.72520065307617188
0.3466796875 -0.30914306640625 0.7323150634765625
0.3380126953125 -0.31854248046875 0.73678398132324219
0.3505859375 -0.343505859375 0.73144721984863281
0.2437744140625 -0.41839599609375 0.82025718688964844
0.240234375 -0.4012451171875 0.82231712341308594
0.2388916015625 -0.4241943359375 0.82213592529296875
0.251220703125 -0.43353271484375 0.81567001342773438
0.2459716796875 -0.416259765625 0.81539154052734375
0.242431640625 -0.4019775390625 0.81579780578613281
0.2349853515625 -0.40496826171875 0.82567787170410156
0.2459716796875 -0.44073486328125 0.81938934326171875
0.252685546875 -0.42999267578125 0.81092643737792969
0.364013671875 -0.390380859375 0.73336219787597656
0.3673095703125 -0.39178466796875 0.72693061828613281
0.3665771484375 -0.37542724609375 0.7320556640625
0.3580322265625 -0.39227294921875 0.73305130004882812
0.35888671875 -0.40484619140625 0.73443412780761719
0.36376953125 -0.4061279296875 0.72978019714355469
0.3704833984375 -0.37628173828125 0.725189208984375
0.360107421875 -0.37738037109375 0.73084831237792969
0.353515625 -0.40655517578125 0.73540306091308594
0.2799072265625 -0.46221923828125 0.80215263366699219
0.269287109375 -0.45648193359375 0.80842399597167969
0.2763671875 -0.4696044921875 0.80657577514648438
0.2896728515625 -0.4649658203125 0.79756927490234375
0.2811279296875 -0.4600830078125 0.79719352722167969
0.27001953125 -0.4537353515625 0.80164337158203125
0.265869140625 -0.462890625 0.81140327453613281
0.2862548828125 -0.47137451171875 0.7998504638671875
0.290283203125 -0.463623046875 0.79149246215820312
0.34423828125 -0.437255859375 0.74823570251464844
0.34814453125 -0.4400634765625 0.74770736694335938
0.351318359375 -0.4278564453125 0.74344635009765625
0.3409423828125 -0.436279296875 0.74714851379394531
0.338134765625 -0.44464111328125 0.7550811767578125
0.342041015625 -0.4482421875 0.75387954711914062
0.355224609375 -0.4290771484375 0.74053001403808594
0.34423828125 -0.42840576171875 0.74250602722167969
0.3345947265625 -0.4425048828125 0.75444602966308594
0.3175048828125 -0.46014404296875 0.77595138549804688
0.3074951171875 -0.46337890625 0.78225135803222656
0.317138671875 -0.4659423828125 0.77801322937011719
0.3248291015625 -0.4559326171875 0.76969718933105469
0.315185546875 -0.45794677734375 0.77161979675292969
0.307373046875 -0.4598388671875 0.77655792236328125
0.30810546875 -0.46881103515625 0.7846221923828125
0.3258056640625 -0.46044921875 0.7698822021484375
0.3214111328125 -0.4530029296875 0.76619338989257812
0.32470703125 -0.441162109375 0.7273712158203125
0.3310546875 -0.4388427734375 0.73600959777832031
0.3277587890625 -0.43341064453125 0.72283363342285156
0.3172607421875 -0.440673828125 0.72054481506347656
0.31982421875 -0.4481201171875 0.73337554931640625
0.325927734375 -0.44512939453125 0.74194717407226562
0.3349609375 -0.4306640625 0.73092269897460938
0.322998046875 -0.43353271484375 0.71722412109375
0.3143310546875 -0.44757080078125 0.726409912109375
0.302001953125 -0.46319580078125 0.74772453308105469
0.29443359375 -0.465576171875 0.75386428833007812
0.30810546875 -0.460693359375 0.75666427612304688
0.3092041015625 -0.45867919921875 0.74321365356445312
0.2945556640625 -0.46240234375 0.74159622192382812
0.2889404296875 -0.46624755859375 0.74687576293945312
0.301513671875 -0.46368408203125 0.76237106323242188
0.3138427734375 -0.4573974609375 0.75326919555664062
