# XYZ point cloud file
-0.143310546875 0.14404296875 0.70263671875
-0.110107421875 0.1356201171875 0.70102691650390625
-0.1009521484375 0.173828125 0.6934051513671875
-0.1353759765625 0.1759033203125 0.69629669189453125
-0.1539306640625 0.16162109375 0.70211029052734375
-0.13525390625 0.12744140625 0.7042694091796875
-0.0838623046875 0.1494140625 0.69840621948242188
-0.1163330078125 0.1942138671875 0.6919708251953125
0.44970703125 -0.428955078125 0.69818878173828125
0.44189453125 -0.4232177734375 0.71203231811523438
0.434326171875 -0.4434814453125 0.71242523193359375
0.4569091796875 -0.4378662109375 0.68286895751953125
0.4625244140625 -0.41357421875 0.68708419799804688
0.4510498046875 -0.4088134765625 0.7035675048828125
0.429443359375 -0.4349365234375 0.72377777099609375
0.4400634765625 -0.4549560546875 0.7008819580078125
0.4705810546875 -0.4222412109375 0.66779708862304688
0.39453125 -0.4825439453125 0.754364013671875
0.4072265625 -0.4691162109375 0.74381256103515625
0.3958740234375 -0.464111328125 0.75586700439453125
0.378173828125 -0.492431640625 0.7685699462890625
0.3896484375 -0.500732421875 0.74922943115234375
0.4072265625 -0.4853515625 0.73519515991210938
0.4075927734375 -0.45556640625 0.7467193603515625
0.3834228515625 -0.473876953125 0.76979827880859375
0.369873046875 -0.5125732421875 0.7656402587890625
0.486083984375 -0.369873046875 0.66151046752929688
0.4703369140625 -0.36767578125 0.6847076416015625
0.4810791015625 -0.3858642578125 0.66890716552734375
0.498779296875 -0.3768310546875 0.63521575927734375
0.4869384765625 -0.3563232421875 0.65627288818359375
0.472412109375 -0.3511962890625 0.67987442016601562
0.466796875 -0.382568359375 0.69055557250976562
0.4920654296875 -0.3927001953125 0.64482498168945312
0.5008544921875 -0.361083984375 0.6260833740234375
0.33984375 -0.51123046875 0.79925537109375
0.3529052734375 -0.5078125 0.79006195068359375
0.3480224609375 -0.485107421875 0.79597854614257812
0.327392578125 -0.5101318359375 0.80498123168945312
0.3284912109375 -0.53857421875 0.79583740234375
0.341064453125 -0.533935546875 0.7861175537109375
0.361083984375 -0.4844970703125 0.7863006591796875
0.3380126953125 -0.4825439453125 0.806396484375
0.3167724609375 -0.53955078125 0.8050537109375
0.475830078125 -0.3016357421875 0.656219482421875
0.4578857421875 -0.2962646484375 0.68233871459960938
0.4815673828125 -0.318603515625 0.6531524658203125
0.495849609375 -0.3074951171875 0.62608718872070312
0.4676513671875 -0.2811279296875 0.66045379638671875
0.4482421875 -0.277587890625 0.68846893310546875
0.4644775390625 -0.316650390625 0.67755889892578125
0.4989013671875 -0.326416015625 0.62368011474609375
0.48779296875 -0.28759765625 0.63031768798828125
0.296630859375 -0.4805908203125 0.82478713989257812
0.3079833984375 -0.4935302734375 0.8170318603515625
0.3046875 -0.45068359375 0.822509765625
0.283935546875 -0.46435546875 0.82503890991210938
0.2843017578125 -0.514404296875 0.82149124145507812
0.2969970703125 -0.528564453125 0.8157501220703125
0.31494140625 -0.4637451171875 0.81595230102539062
0.2911376953125 -0.4307861328125 0.82110595703125
0.272705078125 -0.4993896484375 0.82658004760742188
0.3516845703125 -0.132080078125 0.6985626220703125
0.3275146484375 -0.1004638671875 0.70799636840820312
0.339111328125 -0.143798828125 0.71621322631835938
0.3837890625 -0.16162109375 0.68614959716796875
0.3670654296875 -0.1220703125 0.67697525024414062
0.33984375 -0.0882568359375 0.684906005859375
0.3128662109375 -0.1146240234375 0.72619247436523438
0.3668212890625 -0.17138671875 0.70581817626953125
0.3995361328125 -0.1522216796875 0.66553878784179688
0.185302734375 -0.3095703125 0.80164337158203125
0.203125 -0.2874755859375 0.79878997802734375
0.1641845703125 -0.2733154296875 0.79748153686523438
0.1680908203125 -0.3331298828125 0.801849365234375
0.207763671875 -0.3453369140625 0.80958175659179688
0.2242431640625 -0.3232421875 0.80708694458007812
0.1826171875 -0.2532958984375 0.79533004760742188
0.14599609375 -0.29638671875 0.79709243774414062
0.1904296875 -0.367431640625 0.80821609497070312
0.4359130859375 -0.2333984375 0.67514801025390625
0.449951171875 -0.2464599609375 0.67002487182617188
0.456298828125 -0.23046875 0.64716339111328125
0.4261474609375 -0.2135009765625 0.68257904052734375
0.42041015625 -0.2373046875 0.70413970947265625
0.4287109375 -0.2520751953125 0.69677352905273438
0.4688720703125 -0.2491455078125 0.64016342163085938
0.4415283203125 -0.21142578125 0.65299606323242188
0.4083251953125 -0.2197265625 0.70328140258789062
0.2535400390625 -0.421875 0.83006668090820312
0.23876953125 -0.4544677734375 0.82686996459960938
0.262939453125 -0.4364013671875 0.82495498657226562
0.2685546875 -0.391357421875 0.82510757446289062
0.2413330078125 -0.40185546875 0.82781219482421875
0.2257080078125 -0.4305419921875 0.82606124877929688
0.251220703125 -0.471435546875 0.82889175415039062
0.27490234375 -0.4002685546875 0.82463455200195312
0.2557373046875 -0.37353515625 0.8240814208984375
0.2109375 -0.07470703125 0.748565673828125
0.194580078125 -0.0557861328125 0.74445343017578125
0.200439453125 -0.0897216796875 0.75477218627929688
0.2275390625 -0.0982666015625 0.75172805786132812
0.2216796875 -0.060791015625 0.74202346801757812
0.2064208984375 -0.0394287109375 0.73194122314453125
0.1834716796875 -0.072021484375 0.7508544921875
0.218994140625 -0.1114501953125 0.75706100463867188
0.235595703125 -0.0826416015625 0.74296188354492188
0.1673583984375 -0.1248779296875 0.766204833984375
0.1800537109375 -0.11328125 0.76280593872070312
0.1497802734375 -0.108642578125 0.76419830322265625
0.1531982421875 -0.1368408203125 0.77111434936523438
0.1844482421875 -0.14453125 0.77534866333007812
0.1962890625 -0.133544921875 0.77075958251953125
0.1632080078125 -0.09912109375 0.75803375244140625
0.1337890625 -0.1197509765625 0.76725006103515625
0.1710205078125 -0.1572265625 0.77840042114257812
0.299072265625 -0.1820068359375 0.75360488891601562
0.3125 -0.1688232421875 0.7449951171875
0.2734375 -0.1552734375 0.756866455078125
0.28515625 -0.1962890625 0.7611236572265625
0.3243408203125 -0.2088623046875 0.75170135498046875
0.3369140625 -0.197021484375 0.74137496948242188
0.2835693359375 -0.1407470703125 0.74857711791992188
0.2586669921875 -0.1663818359375 0.76004791259765625
0.3131103515625 -0.221923828125 0.76227188110351562
0.2484130859375 -0.2357177734375 0.78223419189453125
0.224365234375 -0.205322265625 0.77534103393554688
0.2347412109375 -0.251708984375 0.7906494140625
0.266845703125 -0.269775390625 0.79067611694335938
0.26123046875 -0.2200927734375 0.775634765625
0.236083984375 -0.191162109375 0.77191162109375
0.211669921875 -0.218505859375 0.78302001953125
0.251708984375 -0.2835693359375 0.79846572875976562
0.283935546875 -0.2518310546875 0.78033828735351562
0.3743896484375 -0.2689208984375 0.74769973754882812
0.382080078125 -0.2808837890625 0.75075912475585938
0.3878173828125 -0.2545166015625 0.736328125
0.3612060546875 -0.2515869140625 0.74804306030273438
0.35986328125 -0.2835693359375 0.762359619140625
0.3675537109375 -0.2972412109375 0.76279449462890625
0.3936767578125 -0.2652587890625 0.73872756958007812
0.378173828125 -0.241455078125 0.73683547973632812
0.348388671875 -0.267822265625 0.76192855834960938
0.312744140625 -0.3291015625 0.79661941528320312
0.298095703125 -0.343994140625 0.80576324462890625
0.3193359375 -0.3370361328125 0.79653167724609375
0.3272705078125 -0.3135986328125 0.78398513793945312
0.3026123046875 -0.31396484375 0.79571151733398438
0.2911376953125 -0.330322265625 0.80402755737304688
0.306640625 -0.3516845703125 0.80774688720703125
0.33740234375 -0.32275390625 0.78594970703125
0.316650390625 -0.2994384765625 0.785888671875
0.1910400390625 0.046142578125 0.73690414428710938
0.1884765625 0.0595703125 0.73168182373046875
0.19091796875 0.0484619140625 0.74348831176757812
0.1917724609375 0.0306396484375 0.73629379272460938
0.1922607421875 0.040771484375 0.7264251708984375
0.187744140625 0.0560302734375 0.72403335571289062
0.188720703125 0.0640869140625 0.74164199829101562
0.1903076171875 0.03515625 0.74593734741210938
0.1934814453125 0.02587890625 0.72984695434570312
0.06591796875 -0.0859375 0.78131866455078125
0.0660400390625 -0.0802001953125 0.7875823974609375
0.0540771484375 -0.0810546875 0.77949142456054688
0.064697265625 -0.0924072265625 0.77293777465820312
0.078125 -0.088134765625 0.7780303955078125
0.077880859375 -0.080810546875 0.78644943237304688
0.0552978515625 -0.0765380859375 0.7918853759765625
0.05419921875 -0.0845947265625 0.77236557006835938
0.0792236328125 -0.0947265625 0.76948928833007812
0.1593017578125 0.0908203125 0.728790283203125
0.14697265625 0.0933837890625 0.7277069091796875
0.16064453125 0.093994140625 0.73697280883789062
0.1707763671875 0.08203125 0.72958755493164062
0.1591796875 0.0850830078125 0.72182464599609375
0.146240234375 0.0909423828125 0.72144699096679688
0.1483154296875 0.0982666015625 0.73598480224609375
0.1717529296875 0.0849609375 0.73739242553710938
0.1705322265625 0.079345703125 0.72126007080078125
0.02783203125 -0.0516357421875 0.77068328857421875
0.0299072265625 -0.0491943359375 0.78022003173828125
0.0205078125 -0.0389404296875 0.768341064453125
0.026611328125 -0.054931640625 0.76464080810546875
0.0362548828125 -0.0638427734375 0.77457427978515625
0.0360107421875 -0.0604248046875 0.78306961059570312
0.0216064453125 -0.0357666015625 0.77634429931640625
0.0198974609375 -0.0411376953125 0.7628631591796875
0.034912109375 -0.0670166015625 0.76837158203125
0.1060791015625 0.0810546875 0.734283447265625
0.0941162109375 0.0694580078125 0.73622894287109375
0.11181640625 0.0860595703125 0.74166488647460938
0.1197509765625 0.088623046875 0.73296737670898438
0.1021728515625 0.0782470703125 0.7270660400390625
0.0870361328125 0.0654296875 0.73124313354492188
0.1004638671875 0.07470703125 0.7416229248046875
0.12158203125 0.09423828125 0.73834609985351562
0.1158447265625 0.0865478515625 0.72500991821289062
0.0347900390625 0.0045166015625 0.7529449462890625
0.0330810546875 0.0035400390625 0.76172637939453125
0.0462646484375 0.016357421875 0.74960708618164062
0.0352783203125 0.0067138671875 0.74631118774414062
0.024169921875 -0.01025390625 0.75836944580078125
0.0235595703125 -0.0089111328125 0.76508331298828125
0.042724609375 0.0140380859375 0.7608184814453125
0.04736328125 0.0213623046875 0.74166488647460938
0.026123046875 -0.0089111328125 0.75224685668945312
0.086669921875 0.0391845703125 0.74753570556640625
0.0877685546875 0.0330810546875 0.74956512451171875
0.0906982421875 0.044921875 0.7545318603515625
0.08447265625 0.04833984375 0.74394989013671875
0.0841064453125 0.03369140625 0.7419586181640625
0.0845947265625 0.03125 0.74515151977539062
0.090576171875 0.036865234375 0.75711822509765625
0.08935546875 0.054443359375 0.75021743774414062
0.080810546875 0.0408935546875 0.737640380859375
0.0750732421875 0.027099609375 0.74996566772460938
0.0753173828125 0.02587890625 0.75759506225585938
0.0826416015625 0.0257568359375 0.75115585327148438
0.0771484375 0.02734375 0.74328231811523438
0.0662841796875 0.02685546875 0.7447357177734375
0.0633544921875 0.025634765625 0.75742340087890625
0.08251953125 0.0269775390625 0.75995635986328125
0.0823974609375 0.02783203125 0.74670028686523438
0.070068359375 0.0302734375 0.7379913330078125
0.172607421875 -0.022705078125 0.75146102905273438
0.1773681640625 -0.030517578125 0.74613571166992188
0.1844482421875 -0.004638671875 0.74542236328125
0.1715087890625 -0.0164794921875 0.7570648193359375
0.163818359375 -0.041015625 0.75510406494140625
0.1688232421875 -0.048583984375 0.7515106201171875
0.1866455078125 -0.0120849609375 0.73760223388671875
0.1826171875 0.0008544921875 0.75229644775390625
0.1639404296875 -0.03466796875 0.7616119384765625
0.127197265625 -0.0784912109375 0.77114486694335938
0.112548828125 -0.0828857421875 0.77484512329101562
0.131103515625 -0.0850830078125 0.76245498657226562
0.143310546875 -0.06884765625 0.7661285400390625
0.1265869140625 -0.0718994140625 0.7779998779296875
0.111328125 -0.076171875 0.78165817260742188
0.1148681640625 -0.0914306640625 0.76659774780273438
0.1453857421875 -0.0765380859375 0.76259613037109375
0.143310546875 -0.0631103515625 0.7714385986328125
0.1707763671875 -0.0029296875 0.77443313598632812
0.171630859375 -0.007080078125 0.76762771606445312
0.17626953125 0.0152587890625 0.771514892578125
0.167236328125 0.0018310546875 0.77857589721679688
0.161865234375 -0.01904296875 0.78082656860351562
0.1624755859375 -0.024658203125 0.7741241455078125
0.1787109375 0.0103759765625 0.76467132568359375
0.17236328125 0.01904296875 0.77497482299804688
0.1583251953125 -0.01220703125 0.78580093383789062
0.1234130859375 -0.052978515625 0.79291152954101562
0.106689453125 -0.060302734375 0.79738616943359375
0.1256103515625 -0.060302734375 0.79058074951171875
0.1392822265625 -0.046875 0.7869720458984375
0.121826171875 -0.04541015625 0.79750442504882812
0.10595703125 -0.0535888671875 0.800323486328125
0.108642578125 -0.066162109375 0.79137420654296875
0.1407470703125 -0.0540771484375 0.78336334228515625
0.1351318359375 -0.039306640625 0.79212188720703125
0.1029052734375 0.052734375 0.776824951171875
0.10302734375 0.042724609375 0.78151702880859375
0.1082763671875 0.054443359375 0.78012847900390625
0.1026611328125 0.0638427734375 0.77288055419921875
0.0968017578125 0.0517578125 0.77123641967773438
0.096923828125 0.041015625 0.77492904663085938
0.107421875 0.0426025390625 0.7876129150390625
0.1082763671875 0.065673828125 0.77782440185546875
0.0980224609375 0.063720703125 0.76578521728515625
0.0767822265625 0.0238037109375 0.78488540649414062
0.07861328125 0.019775390625 0.79241943359375
0.0897216796875 0.0281982421875 0.78719329833984375
0.0745849609375 0.0272216796875 0.77630996704101562
0.064697265625 0.021484375 0.78335189819335938
0.0660400390625 0.01806640625 0.7930145263671875
0.0928955078125 0.025146484375 0.79360198974609375
0.0858154296875 0.0289306640625 0.7778472900390625
0.063232421875 0.0242919921875 0.777984619140625
0.119384765625 0.0919189453125 0.76046371459960938
0.1104736328125 0.084716796875 0.76271438598632812
0.1217041015625 0.0908203125 0.76837921142578125
0.1253662109375 0.099365234375 0.75961685180664062
0.11572265625 0.09228515625 0.75415802001953125
0.1063232421875 0.0831298828125 0.75594329833984375
0.1146240234375 0.08349609375 0.77050399780273438
0.1280517578125 0.09619140625 0.76460647583007812
0.125 0.0992431640625 0.7528076171875
0.03466796875 0.0047607421875 0.7881011962890625
0.039794921875 0.0045166015625 0.79381179809570312
0.0421142578125 0.0120849609375 0.78531646728515625
0.03125 0.0048828125 0.78049468994140625
0.0299072265625 -0.0057373046875 0.79006195068359375
0.0360107421875 -0.004638671875 0.79552078247070312
0.0455322265625 0.0120849609375 0.79340744018554688
0.0401611328125 0.0128173828125 0.77619171142578125
0.0260009765625 -0.0062255859375 0.78152847290039062
0.1614990234375 0.09423828125 0.75950241088867188
0.1512451171875 0.100830078125 0.7611083984375
0.15771484375 0.09033203125 0.76775741577148438
0.17138671875 0.086669921875 0.762176513671875
0.1619873046875 0.0950927734375 0.75305938720703125
0.14892578125 0.102783203125 0.75276947021484375
0.1488037109375 0.09765625 0.76650238037109375
0.166259765625 0.083740234375 0.76961517333984375
0.1728515625 0.088134765625 0.75400924682617188
0.0367431640625 -0.0374755859375 0.80155563354492188
0.0406494140625 -0.031982421875 0.80681991577148438
0.0311279296875 -0.025390625 0.79719161987304688
0.0325927734375 -0.0421142578125 0.79550552368164062
0.0438232421875 -0.046630859375 0.80654525756835938
0.049560546875 -0.040283203125 0.80854034423828125
0.0362548828125 -0.0228271484375 0.802581787109375
0.02734375 -0.0301513671875 0.79200363159179688
0.0411376953125 -0.0523681640625 0.80007553100585938
0.18896484375 0.0560302734375 0.76610565185546875
0.1854248046875 0.0677490234375 0.7661590576171875
0.18115234375 0.0546875 0.77211380004882812
0.1861572265625 0.0435791015625 0.76688003540039062
0.191162109375 0.055419921875 0.75940704345703125
0.18701171875 0.0682373046875 0.75928497314453125
0.1785888671875 0.0638427734375 0.77138137817382812
0.1805419921875 0.04345703125 0.77217483520507812
0.190673828125 0.04248046875 0.75978851318359375
0.0701904296875 -0.0626220703125 0.80675506591796875
0.075439453125 -0.05517578125 0.81046295166015625
0.062255859375 -0.0596923828125 0.81050872802734375
0.068359375 -0.0694580078125 0.80353546142578125
0.078857421875 -0.062255859375 0.80327606201171875
0.0816650390625 -0.056640625 0.8058624267578125
0.06591796875 -0.05224609375 0.81245803833007812
0.058349609375 -0.06689453125 0.8053131103515625
0.077880859375 -0.0689697265625 0.80033111572265625
0.1368408203125 0.0738525390625 0.7825164794921875
0.1412353515625 0.0625 0.78665924072265625
0.145751953125 0.0802001953125 0.780181884765625
0.130859375 0.0826416015625 0.77984237670898438
0.124267578125 0.064697265625 0.78588104248046875
0.1292724609375 0.052978515625 0.79122161865234375
0.1536865234375 0.0714111328125 0.7811431884765625
0.1396484375 0.087646484375 0.77556228637695312
0.120849609375 0.0745849609375 0.78029251098632812
0.062255859375 -0.0045166015625 0.80496978759765625
0.0552978515625 -0.0162353515625 0.80825424194335938
0.0733642578125 -0.0078125 0.80759429931640625
0.07177734375 0.0062255859375 0.80293655395507812
0.0528564453125 -0.001708984375 0.8033447265625
0.0477294921875 -0.010986328125 0.80565261840820312
0.064697265625 -0.020263671875 0.8107757568359375
0.0845947265625 0.0048828125 0.8050689697265625
0.0592041015625 0.0068359375 0.802154541015625
0.1563720703125 0.02880859375 0.78879928588867188
0.145263671875 0.01708984375 0.7935791015625
0.1605224609375 0.01708984375 0.78400039672851562
0.1661376953125 0.041259765625 0.783172607421875
0.1527099609375 0.040283203125 0.78962326049804688
0.13720703125 0.0283203125 0.79503250122070312
0.15087890625 0.005126953125 0.7900238037109375
0.1702880859375 0.0316162109375 0.77971649169921875
0.1622314453125 0.052490234375 0.784210205078125
0.10400390625 -0.025634765625 0.80519866943359375
0.1109619140625 -0.0325927734375 0.80337905883789062
0.1180419921875 -0.0137939453125 0.80140304565429688
0.093994140625 -0.019287109375 0.80817413330078125
0.0906982421875 -0.036865234375 0.80749893188476562
0.0977783203125 -0.04248046875 0.80635452270507812
0.124755859375 -0.02294921875 0.80161666870117188
0.108642578125 -0.003173828125 0.80347061157226562
0.0810546875 -0.0322265625 0.81148910522460938
0.06884765625 0.107421875 0.72229766845703125
0.0836181640625 0.089599609375 0.72334671020507812
0.09814453125 0.110107421875 0.72632980346679688
0.0565185546875 0.12841796875 0.72182464599609375
0.0458984375 0.093505859375 0.72032546997070312
0.064697265625 0.0751953125 0.72267913818359375
0.1044921875 0.09619140625 0.72391128540039062
0.0924072265625 0.13134765625 0.72348403930664062
0.0303955078125 0.1182861328125 0.717681884765625
0.008544921875 0.037353515625 0.74030685424804688
0.001708984375 0.010498046875 0.7533111572265625
0.024658203125 0.0238037109375 0.73792266845703125
0.014892578125 0.0604248046875 0.72902297973632812
-0.009765625 0.0501708984375 0.74180984497070312
-0.01318359375 0.0174560546875 0.75788116455078125
0.0164794921875 0.0010986328125 0.74936676025390625
0.034912109375 0.043701171875 0.7290802001953125
-0.0050048828125 0.08203125 0.725128173828125
0.160888671875 0.09228515625 0.71127700805664062
0.158203125 0.0872802734375 0.71397781372070312
0.1751708984375 0.0806884765625 0.70308303833007812
0.1640625 0.09765625 0.70419692993164062
0.144287109375 0.1048583984375 0.716461181640625
0.14404296875 0.0965576171875 0.71743392944335938
0.171875 0.078369140625 0.70917129516601562
0.1807861328125 0.0833740234375 0.69276046752929688
0.146484375 0.1156005859375 0.7146148681640625
0.0155029296875 -0.0611572265625 0.759674072265625
0.0262451171875 -0.0809326171875 0.757476806640625
0.0208740234375 -0.0589599609375 0.76244354248046875
0.00732421875 -0.0390625 0.76307296752929688
0.0078125 -0.068115234375 0.75690460205078125
0.0186767578125 -0.0909423828125 0.75046539306640625
0.0306396484375 -0.0750732421875 0.75928878784179688
0.013427734375 -0.0386962890625 0.758880615234375
-0.0032958984375 -0.042724609375 0.7635650634765625
0.2076416015625 0.0421142578125 0.69731903076171875
0.2000732421875 0.03955078125 0.7089385986328125
0.21826171875 0.02783203125 0.69642257690429688
0.2164306640625 0.0445556640625 0.68039321899414062
0.19970703125 0.0552978515625 0.69846343994140625
0.1925048828125 0.0546875 0.708038330078125
0.20556640625 0.02392578125 0.7089691162109375
0.2264404296875 0.032470703125 0.67977523803710938
0.2076416015625 0.0567626953125 0.68381881713867188
0.05322265625 -0.123779296875 0.75714111328125
0.0633544921875 -0.135009765625 0.75920867919921875
0.0582275390625 -0.1109619140625 0.76242828369140625
0.04052734375 -0.1119384765625 0.75522994995117188
0.0440673828125 -0.13818359375 0.75045394897460938
0.0533447265625 -0.1524658203125 0.75394821166992188
0.0714111328125 -0.11865234375 0.76271438598632812
0.0462646484375 -0.1007080078125 0.75882720947265625
0.0343017578125 -0.125244140625 0.74842071533203125
0.2542724609375 -0.0238037109375 0.70128250122070312
0.2432861328125 -0.033203125 0.71561050415039062
0.2747802734375 -0.0465087890625 0.70258331298828125
0.2698974609375 -0.01513671875 0.68650054931640625
0.2388916015625 -0.0064697265625 0.69901275634765625
0.2266845703125 -0.013427734375 0.71308517456054688
0.2613525390625 -0.056884765625 0.71892929077148438
0.2879638671875 -0.0361328125 0.68705368041992188
0.253173828125 0.003173828125 0.68172836303710938
0.1046142578125 -0.187255859375 0.772705078125
0.1248779296875 -0.2125244140625 0.78116607666015625
0.1173095703125 -0.1668701171875 0.77597808837890625
0.0880126953125 -0.1666259765625 0.76628494262695312
0.090087890625 -0.209228515625 0.76706314086914062
0.1055908203125 -0.2332763671875 0.77455520629882812
0.1407470703125 -0.1904296875 0.78229522705078125
0.1021728515625 -0.147216796875 0.76687240600585938
0.072021484375 -0.1846923828125 0.7614898681640625
0.297119140625 0.0013427734375 0.60009765625
0.29638671875 0.0013427734375 0.56695938110351562
0.2769775390625 0.01611328125 0.5989837646484375
0.288818359375 -0.002197265625 0.63298416137695312
0.3121337890625 -0.019287109375 0.60281753540039062
0.3167724609375 -0.01708984375 0.56931686401367188
0.2786865234375 0.0157470703125 0.5654754638671875
0.270263671875 0.0133056640625 0.63228607177734375
0.30615234375 -0.0223388671875 0.63410568237304688
0.0384521484375 -0.2752685546875 0.71834945678710938
0.02978515625 -0.25146484375 0.71075820922851562
0.0245361328125 -0.2957763671875 0.69388198852539062
0.05029296875 -0.3031005859375 0.72806167602539062
0.0552978515625 -0.25341796875 0.73920822143554688
0.042236328125 -0.2301025390625 0.73340225219726562
0.01611328125 -0.2689208984375 0.68391799926757812
0.0357666015625 -0.32080078125 0.70186996459960938
0.0673828125 -0.281005859375 0.75248336791992188
0.23486328125 0.043701171875 0.59824371337890625
0.236572265625 0.04296875 0.56348037719726562
0.221923828125 0.053466796875 0.60055160522460938
0.2274169921875 0.0479736328125 0.63224029541015625
0.245849609375 0.0364990234375 0.59793853759765625
0.2498779296875 0.0345458984375 0.56324005126953125
0.2279052734375 0.0504150390625 0.56685256958007812
0.2176513671875 0.056884765625 0.63507461547851562
0.2386474609375 0.035400390625 0.6306304931640625
0.009033203125 -0.20068359375 0.6954345703125
0.003662109375 -0.1859130859375 0.69382476806640625
-0.0048828125 -0.21923828125 0.66947174072265625
0.0164794921875 -0.21630859375 0.6982879638671875
0.0208740234375 -0.1795654296875 0.7181854248046875
0.015869140625 -0.1651611328125 0.71630477905273438
-0.0074462890625 -0.2056884765625 0.66604995727539062
0.0003662109375 -0.2340087890625 0.67216873168945312
0.02978515625 -0.193115234375 0.72034072875976562
0.187255859375 0.0889892578125 0.61705780029296875
0.1793212890625 0.107421875 0.62188339233398438
0.181396484375 0.0985107421875 0.65576934814453125
0.198974609375 0.0755615234375 0.61191558837890625
0.194091796875 0.0802001953125 0.58175277709960938
0.1883544921875 0.0975341796875 0.58059310913085938
0.1690673828125 0.1190185546875 0.66402053833007812
0.1947021484375 0.0814208984375 0.64618682861328125
0.2060546875 0.06884765625 0.57714080810546875
-0.017822265625 -0.1314697265625 0.6941375732421875
-0.0091552734375 -0.1058349609375 0.72469711303710938
-0.031982421875 -0.119384765625 0.69858551025390625
-0.029052734375 -0.1563720703125 0.66489410400390625
-0.0069580078125 -0.1500244140625 0.6896820068359375
0.003173828125 -0.125732421875 0.71786117553710938
-0.0245361328125 -0.085205078125 0.72951889038085938
-0.0401611328125 -0.147216796875 0.66376495361328125
-0.017822265625 -0.1712646484375 0.66363525390625
0.3905029296875 -0.302001953125 0.74994277954101562
0.3876953125 -0.296875 0.74980926513671875
0.3759765625 -0.317138671875 0.75841522216796875
0.3902587890625 -0.3074951171875 0.74441909790039062
0.399169921875 -0.2894287109375 0.7410430908203125
0.399169921875 -0.2818603515625 0.7422943115234375
0.3751220703125 -0.3115234375 0.759765625
0.3765869140625 -0.321533203125 0.75501251220703125
0.399169921875 -0.2958984375 0.73798370361328125
0.3358154296875 -0.353271484375 0.79234695434570312
0.349609375 -0.3436279296875 0.77899932861328125
0.33203125 -0.349609375 0.7947235107421875
0.3231201171875 -0.3623046875 0.80170822143554688
0.3377685546875 -0.356689453125 0.78847885131835938
0.3514404296875 -0.3475341796875 0.7748260498046875
0.34716796875 -0.3385009765625 0.7828826904296875
0.31689453125 -0.3594970703125 0.80472183227539062
0.327392578125 -0.3651123046875 0.79607009887695312
0.4295654296875 -0.2987060546875 0.718841552734375
0.43603515625 -0.295654296875 0.7142486572265625
0.419189453125 -0.28662109375 0.72595977783203125
0.4246826171875 -0.302978515625 0.7203521728515625
0.4376220703125 -0.314453125 0.71487808227539062
0.444091796875 -0.31298828125 0.70806503295898438
0.4228515625 -0.28271484375 0.72090530395507812
0.4161376953125 -0.291748046875 0.72668838500976562
0.4329833984375 -0.3167724609375 0.71454238891601562
0.3203125 -0.4022216796875 0.81195449829101562
0.31494140625 -0.3885498046875 0.8123626708984375
0.31640625 -0.4091796875 0.81485366821289062
0.328369140625 -0.416748046875 0.80788421630859375
0.323486328125 -0.4000244140625 0.80588912963867188
0.319091796875 -0.388427734375 0.80661392211914062
0.308837890625 -0.3929443359375 0.8144989013671875
0.3255615234375 -0.4244384765625 0.81084442138671875
0.3310546875 -0.4136962890625 0.80199813842773438
0.4442138671875 -0.3636474609375 0.7153167724609375
0.4490966796875 -0.36328125 0.710205078125
0.444091796875 -0.3477783203125 0.71219253540039062
0.4405517578125 -0.365478515625 0.7144622802734375
0.4420166015625 -0.3768310546875 0.7171478271484375
0.448974609375 -0.3779296875 0.71259307861328125
0.452392578125 -0.34765625 0.70801162719726562
0.4388427734375 -0.3492431640625 0.7111053466796875
0.43603515625 -0.377197265625 0.71968841552734375
0.36328125 -0.4410400390625 0.7898406982421875
0.3524169921875 -0.4365234375 0.79744720458984375
0.361572265625 -0.44873046875 0.79472732543945312
0.3753662109375 -0.4437255859375 0.78428268432617188
0.363525390625 -0.435302734375 0.78535079956054688
0.3541259765625 -0.43212890625 0.7939453125
0.349365234375 -0.443115234375 0.8015594482421875
0.3726806640625 -0.451171875 0.78651046752929688
0.3739013671875 -0.4390869140625 0.77918243408203125
0.4271240234375 -0.4114990234375 0.732330322265625
0.4300537109375 -0.4136962890625 0.72990036010742188
0.4315185546875 -0.401611328125 0.72799301147460938
0.4219970703125 -0.411865234375 0.73221588134765625
0.4210205078125 -0.4208984375 0.73670578002929688
0.4234619140625 -0.4234619140625 0.73636627197265625
0.4383544921875 -0.404296875 0.72333908081054688
0.428955078125 -0.4033203125 0.7255706787109375
0.419189453125 -0.419921875 0.73666763305664062
0.397705078125 -0.4375 0.75824356079101562
0.3902587890625 -0.440673828125 0.76694869995117188
0.3985595703125 -0.442626953125 0.75946807861328125
0.406005859375 -0.432373046875 0.74984359741210938
0.396240234375 -0.4349365234375 0.75530242919921875
0.38916015625 -0.4376220703125 0.76379013061523438
0.3912353515625 -0.4476318359375 0.76968765258789062
0.4068603515625 -0.4371337890625 0.75134658813476562
0.404541015625 -0.431396484375 0.7478790283203125
0.41015625 -0.41455078125 0.709869384765625
0.41455078125 -0.414306640625 0.71795272827148438
0.413330078125 -0.4063720703125 0.70510482788085938
0.4049072265625 -0.414306640625 0.701690673828125
0.4041748046875 -0.4219970703125 0.716552734375
0.4088134765625 -0.42138671875 0.72375869750976562
0.4195556640625 -0.405517578125 0.71190643310546875
0.4085693359375 -0.4051513671875 0.6974639892578125
0.397216796875 -0.42138671875 0.70660018920898438
0.3865966796875 -0.437744140625 0.73246002197265625
0.379638671875 -0.441650390625 0.73770904541015625
0.3912353515625 -0.4354248046875 0.74138259887695312
0.390869140625 -0.433349609375 0.72753143310546875
0.3802490234375 -0.4388427734375 0.72595596313476562
0.37451171875 -0.4417724609375 0.73220443725585938
0.3836669921875 -0.4403076171875 0.747894287109375
0.3970947265625 -0.4310302734375 0.73636245727539062
0.386962890625 -0.4329833984375 0.7174835205078125
0.4227294921875 -0.3720703125 0.69171905517578125
0.4287109375 -0.3707275390625 0.70307540893554688
0.4234619140625 -0.3583984375 0.69069671630859375
0.418701171875 -0.373046875 0.6819305419921875
0.42138671875 -0.3861083984375 0.69746017456054688
0.4259033203125 -0.384765625 0.70569610595703125
0.4296875 -0.355712890625 0.69878005981445312
0.4205322265625 -0.3602294921875 0.68413543701171875
0.4173583984375 -0.38525390625 0.6878204345703125
0.35205078125 -0.4400634765625 0.75972747802734375
0.3438720703125 -0.4354248046875 0.76817703247070312
0.3587646484375 -0.437744140625 0.7716064453125
0.362060546875 -0.4425048828125 0.75371170043945312
0.346435546875 -0.4427490234375 0.752105712890625
0.33837890625 -0.4393310546875 0.75886917114257812
0.3489990234375 -0.4327392578125 0.77927398681640625
0.3675537109375 -0.43994140625 0.76353836059570312
0.35595703125 -0.445068359375 0.74494171142578125
0.415283203125 -0.318603515625 0.69930267333984375
0.4202880859375 -0.3115234375 0.70788192749023438
0.4091796875 -0.311279296875 0.7058563232421875
0.41357421875 -0.3271484375 0.6887664794921875
0.4217529296875 -0.3306884765625 0.69429397583007812
0.423828125 -0.324951171875 0.7036895751953125
0.41162109375 -0.302490234375 0.71389007568359375
0.4073486328125 -0.3209228515625 0.6960601806640625
0.418701171875 -0.337646484375 0.68770599365234375
0.3204345703125 -0.4110107421875 0.7807769775390625
0.318603515625 -0.3997802734375 0.77924346923828125
0.32177734375 -0.40576171875 0.79049301147460938
0.325439453125 -0.4217529296875 0.77794265747070312
0.3193359375 -0.4158935546875 0.76868438720703125
0.3170166015625 -0.40576171875 0.76749801635742188
0.31884765625 -0.39404296875 0.79132080078125
0.3270263671875 -0.4173583984375 0.78678131103515625
0.322509765625 -0.4256591796875 0.76641082763671875
0.3848876953125 -0.328857421875 0.7213897705078125
0.38525390625 -0.3214111328125 0.73143386840820312
0.3760986328125 -0.3416748046875 0.73042678833007812
0.3857421875 -0.3387451171875 0.71213531494140625
0.39306640625 -0.317138671875 0.71648788452148438
0.395263671875 -0.3089599609375 0.725555419921875
0.3751220703125 -0.33447265625 0.74132537841796875
0.3763427734375 -0.3505859375 0.72141647338867188
0.39306640625 -0.3267822265625 0.7062835693359375
0.33642578125 -0.3741455078125 0.76128768920898438
0.349853515625 -0.36572265625 0.74808883666992188
0.337158203125 -0.3685302734375 0.77191162109375
0.3280029296875 -0.3822021484375 0.76992416381835938
0.3369140625 -0.38330078125 0.75006866455078125
0.348876953125 -0.375244140625 0.73708724975585938
0.351318359375 -0.35888671875 0.75939178466796875
0.3284912109375 -0.374755859375 0.781585693359375
0.3280029296875 -0.3896484375 0.75877761840820312
0.3890380859375 -0.3826904296875 0.69194412231445312
0.382080078125 -0.39208984375 0.70148849487304688
0.392822265625 -0.3983154296875 0.69515228271484375
0.39599609375 -0.373779296875 0.68659210205078125
0.38525390625 -0.3660888671875 0.69904708862304688
0.37646484375 -0.3763427734375 0.70429229736328125
0.386474609375 -0.408203125 0.7018280029296875
0.399169921875 -0.39013671875 0.68556976318359375
0.3929443359375 -0.357421875 0.6910247802734375
0.3525390625 -0.4166259765625 0.72698211669921875
0.3631591796875 -0.4276123046875 0.72125244140625
0.3634033203125 -0.4119873046875 0.71596908569335938
0.3447265625 -0.4049072265625 0.7307281494140625
0.34326171875 -0.4222412109375 0.73201370239257812
0.3555908203125 -0.430908203125 0.727142333984375
0.3702392578125 -0.4222412109375 0.71828079223632812
0.3564453125 -0.39697265625 0.72223281860351562
0.3345947265625 -0.4112548828125 0.73756790161132812
0.4102783203125 -0.3582763671875 0.67460250854492188
0.4071044921875 -0.361083984375 0.67589187622070312
0.412353515625 -0.3641357421875 0.67506790161132812
0.411865234375 -0.3492431640625 0.67631149291992188
0.4058837890625 -0.34619140625 0.67813491821289062
0.4090576171875 -0.37255859375 0.67644119262695312
0.4129638671875 -0.3536376953125 0.67589187622070312
0.3292236328125 -0.4326171875 0.74285125732421875
0.3338623046875 -0.438232421875 0.74231719970703125
0.3316650390625 -0.4305419921875 0.74062347412109375
0.3240966796875 -0.4276123046875 0.75020217895507812
0.3282470703125 -0.435302734375 0.7476959228515625
0.3406982421875 -0.4384765625 0.73940277099609375
0.324462890625 -0.421630859375 0.74940109252929688
-0.00390625 0.327392578125 0.69458389282226562
-0.0093994140625 0.316162109375 0.69169235229492188
0.0062255859375 0.322021484375 0.69551849365234375
0.000244140625 0.3360595703125 0.6970367431640625
-0.0146484375 0.3343505859375 0.69217300415039062
-0.019775390625 0.322509765625 0.68910980224609375
0.0010986328125 0.309326171875 0.69166183471679688
0.01025390625 0.330322265625 0.69924163818359375
-0.0098876953125 0.342041015625 0.69685745239257812
-0.1884765625 0.1217041015625 0.71249008178710938
-0.1846923828125 0.1094970703125 0.71379470825195312
-0.1767578125 0.1251220703125 0.70694732666015625
-0.1964111328125 0.1343994140625 0.70922470092773438
-0.1951904296875 0.1190185546875 0.71561813354492188
-0.1905517578125 0.1070556640625 0.71854019165039062
-0.17236328125 0.1114501953125 0.7097015380859375
-0.1851806640625 0.138916015625 0.707672119140625
-0.2030029296875 0.1312255859375 0.71092605590820312
-0.048828125 0.3629150390625 0.69350051879882812
-0.0589599609375 0.3543701171875 0.69426727294921875
-0.037109375 0.350830078125 0.69394302368164062
-0.0419921875 0.3714599609375 0.69195556640625
-0.059814453125 0.3768310546875 0.69034194946289062
-0.0718994140625 0.3681640625 0.69179153442382812
-0.0450439453125 0.3424072265625 0.69404220581054688
-0.03125 0.3590087890625 0.6948394775390625
-0.0528564453125 0.3846435546875 0.69054412841796875
-0.22705078125 0.1719970703125 0.700531005859375
-0.21533203125 0.1600341796875 0.70164108276367188
-0.2191162109375 0.1810302734375 0.69751358032226562
-0.2369384765625 0.1820068359375 0.694976806640625
-0.2322998046875 0.1658935546875 0.70135498046875
-0.22216796875 0.1534423828125 0.70417022705078125
-0.206298828125 0.1689453125 0.70063400268554688
-0.2314453125 0.19189453125 0.69217681884765625
-0.24462890625 0.1754150390625 0.69649887084960938
-0.087890625 0.427734375 0.6852569580078125
-0.0986328125 0.42138671875 0.68468475341796875
-0.0794677734375 0.4097900390625 0.6890411376953125
-0.079833984375 0.4329833984375 0.68436431884765625
-0.0931396484375 0.4453125 0.6812286376953125
-0.1046142578125 0.4427490234375 0.680389404296875
-0.0919189453125 0.40380859375 0.68739700317382812
-0.0703125 0.4171142578125 0.6881561279296875
-0.083251953125 0.4493408203125 0.6827850341796875
-0.2796630859375 0.2100830078125 0.6728668212890625
-0.266845703125 0.201416015625 0.68122100830078125
-0.275390625 0.2197265625 0.67368316650390625
-0.294677734375 0.2142333984375 0.66707611083984375
-0.2847900390625 0.1986083984375 0.67576217651367188
-0.2706298828125 0.1927490234375 0.6823272705078125
-0.25927734375 0.2122802734375 0.67944717407226562
-0.2916259765625 0.224609375 0.66717147827148438
-0.2969970703125 0.2021484375 0.66999053955078125
0.0450439453125 0.31494140625 0.6986083984375
0.0430908203125 0.3016357421875 0.69786834716796875
0.0611572265625 0.31591796875 0.69643783569335938
0.046630859375 0.3223876953125 0.70088577270507812
0.0289306640625 0.313720703125 0.6996612548828125
0.0267333984375 0.301025390625 0.6959228515625
0.061767578125 0.302734375 0.69205856323242188
0.062255859375 0.3255615234375 0.69894790649414062
0.031494140625 0.3236083984375 0.7045135498046875
-0.176513671875 0.0679931640625 0.72611618041992188
-0.1778564453125 0.0511474609375 0.72919464111328125
-0.16796875 0.068115234375 0.72259902954101562
-0.1759033203125 0.0830078125 0.72208023071289062
-0.1826171875 0.06787109375 0.72782135009765625
-0.1837158203125 0.052001953125 0.731201171875
-0.169189453125 0.0499267578125 0.72472763061523438
-0.166748046875 0.0826416015625 0.71832656860351562
-0.1834716796875 0.0826416015625 0.72357177734375
0.1199951171875 0.343994140625 0.67836761474609375
0.124755859375 0.33203125 0.67350387573242188
0.1466064453125 0.3563232421875 0.667633056640625
0.1170654296875 0.352294921875 0.68341827392578125
0.09814453125 0.33251953125 0.68654632568359375
0.100830078125 0.3197021484375 0.68214797973632812
0.1494140625 0.3475341796875 0.66254425048828125
0.142822265625 0.364501953125 0.67266464233398438
0.09716796875 0.3411865234375 0.6915435791015625
-0.2083740234375 -0.0289306640625 0.72649383544921875
-0.2222900390625 -0.059326171875 0.7259063720703125
-0.1998291015625 -0.03466796875 0.72571563720703125
-0.1943359375 -0.0001220703125 0.72933197021484375
-0.2135009765625 -0.0242919921875 0.72899627685546875
-0.227783203125 -0.0535888671875 0.7259521484375
-0.21728515625 -0.0654296875 0.72313690185546875
-0.1826171875 -0.0042724609375 0.72843170166015625
-0.1993408203125 0.001953125 0.73212432861328125
0.1982421875 0.4134521484375 0.6380767822265625
0.2066650390625 0.406494140625 0.6283721923828125
0.2086181640625 0.4375 0.6311492919921875
0.1912841796875 0.419921875 0.647369384765625
0.182373046875 0.3919677734375 0.64399337768554688
0.1904296875 0.384033203125 0.63804244995117188
0.218994140625 0.4344482421875 0.6230926513671875
0.20166015625 0.4410400390625 0.63987350463867188
0.1773681640625 0.399658203125 0.65116119384765625
-0.2769775390625 -0.1251220703125 0.70995712280273438
-0.3016357421875 -0.138427734375 0.70103073120117188
-0.274658203125 -0.134765625 0.70475387573242188
-0.254150390625 -0.1112060546875 0.7164306640625
-0.28076171875 -0.116455078125 0.7138519287109375
-0.30224609375 -0.13037109375 0.70359039306640625
-0.3018798828125 -0.1502685546875 0.69561386108398438
-0.2493896484375 -0.1201171875 0.71247100830078125
-0.2568359375 -0.102294921875 0.72040557861328125
0.234619140625 0.524658203125 0.61110305786132812
0.2435302734375 0.52978515625 0.60149765014648438
0.2352294921875 0.55712890625 0.60324859619140625
0.224853515625 0.5242919921875 0.61868667602539062
0.22900390625 0.4937744140625 0.61614990234375
0.2374267578125 0.4951171875 0.60758209228515625
0.242431640625 0.562255859375 0.5950927734375
0.2257080078125 0.553466796875 0.6105499267578125
0.2208251953125 0.4959716796875 0.62274551391601562
-0.3841552734375 -0.1640625 0.65890121459960938
-0.40869140625 -0.1663818359375 0.64142227172851562
-0.38720703125 -0.1754150390625 0.65237045288085938
-0.3575439453125 -0.1563720703125 0.67550277709960938
-0.3834228515625 -0.1541748046875 0.66231918334960938
-0.40576171875 -0.1585693359375 0.64688491821289062
-0.414794921875 -0.177734375 0.63361740112304688
-0.3614501953125 -0.169189453125 0.66895675659179688
-0.35595703125 -0.1480712890625 0.6799468994140625
0.2176513671875 0.6290283203125 0.59347915649414062
0.225341796875 0.640380859375 0.58715438842773438
0.2080078125 0.6455078125 0.59498977661132812
0.2125244140625 0.6202392578125 0.60103607177734375
0.2265625 0.609619140625 0.59473800659179688
0.2344970703125 0.61962890625 0.58754730224609375
0.2130126953125 0.658203125 0.59068679809570312
0.2030029296875 0.6361083984375 0.60366058349609375
0.218994140625 0.6019287109375 0.60262298583984375
-0.471923828125 -0.150634765625 0.59809112548828125
-0.4849853515625 -0.139404296875 0.59047698974609375
-0.4813232421875 -0.1617431640625 0.59240341186523438
-0.453857421875 -0.160400390625 0.61050796508789062
-0.4647216796875 -0.142333984375 0.60419464111328125
-0.4779052734375 -0.130126953125 0.59527587890625
-0.4970703125 -0.1466064453125 0.58329010009765625
-0.4617919921875 -0.16943359375 0.6018524169921875
-0.4466552734375 -0.1505126953125 0.61642837524414062
0.1632080078125 0.6759033203125 0.60915756225585938
0.166259765625 0.6876220703125 0.60536956787109375
0.145263671875 0.6807861328125 0.61324310302734375
0.1595458984375 0.6669921875 0.61365127563476562
0.17822265625 0.667724609375 0.60518646240234375
0.184326171875 0.67919921875 0.60002517700195312
0.1505126953125 0.692138671875 0.60990524291992188
0.1397705078125 0.6732177734375 0.61695480346679688
0.1744384765625 0.6590576171875 0.60891342163085938
-0.51123046875 -0.0955810546875 0.57111740112304688
-0.5115966796875 -0.076416015625 0.56896209716796875
-0.519775390625 -0.102294921875 0.5634613037109375
-0.5076904296875 -0.11181640625 0.5762939453125
-0.5028076171875 -0.0889892578125 0.5792999267578125
-0.50439453125 -0.071533203125 0.576324462890625
-0.52001953125 -0.0811767578125 0.5619659423828125
-0.5155029296875 -0.1171875 0.56781005859375
-0.496337890625 -0.10498046875 0.58367156982421875
0.07666015625 0.6595458984375 0.63509368896484375
0.0782470703125 0.6693115234375 0.6314849853515625
0.04833984375 0.6478271484375 0.64398574829101562
0.077392578125 0.65234375 0.64166259765625
0.101806640625 0.6727294921875 0.62630844116210938
0.103759765625 0.68212890625 0.62277984619140625
0.0455322265625 0.658447265625 0.63763046264648438
0.050537109375 0.6405029296875 0.65246963500976562
0.1024169921875 0.6641845703125 0.63198089599609375
-0.490966796875 0.0035400390625 0.58568954467773438
-0.47900390625 0.03466796875 0.59632110595703125
-0.4979248046875 0.00244140625 0.57843780517578125
-0.50048828125 -0.0262451171875 0.576812744140625
-0.4842529296875 0.0047607421875 0.592681884765625
-0.4716796875 0.0345458984375 0.60510635375976562
-0.487060546875 0.0355224609375 0.587982177734375
-0.5091552734375 -0.02783203125 0.56632232666015625
-0.491943359375 -0.025146484375 0.5862884521484375
-0.0126953125 0.6136474609375 0.65850830078125
-0.01806640625 0.6231689453125 0.65378952026367188
-0.028076171875 0.6025390625 0.65789794921875
-0.00927734375 0.608154296875 0.66265869140625
0.0087890625 0.6243896484375 0.65708541870117188
0.003662109375 0.632080078125 0.650848388671875
-0.037109375 0.6082763671875 0.65465927124023438
-0.02294921875 0.59814453125 0.661163330078125
0.0135498046875 0.6185302734375 0.66368484497070312
-0.4422607421875 0.1124267578125 0.6064605712890625
-0.43310546875 0.134521484375 0.60813140869140625
-0.453125 0.120361328125 0.6004486083984375
-0.45556640625 0.0899658203125 0.605072021484375
-0.4361572265625 0.1077880859375 0.61572265625
-0.4268798828125 0.1279296875 0.614898681640625
-0.443359375 0.1439208984375 0.60407257080078125
-0.463623046875 0.0950927734375 0.5983123779296875
-0.4481201171875 0.0869140625 0.6155242919921875
-0.0660400390625 0.568115234375 0.65886688232421875
-0.075927734375 0.57177734375 0.65641021728515625
-0.0753173828125 0.553466796875 0.65983200073242188
-0.0572509765625 0.564453125 0.66205596923828125
-0.0545654296875 0.57958984375 0.65723037719726562
-0.064697265625 0.585693359375 0.65207290649414062
-0.0858154296875 0.55810546875 0.657928466796875
-0.0670166015625 0.5504150390625 0.66341400146484375
-0.0465087890625 0.574951171875 0.66092300415039062
-0.39990234375 0.17626953125 0.615234375
-0.386962890625 0.185791015625 0.62262725830078125
-0.4063720703125 0.189208984375 0.6110687255859375
-0.408935546875 0.164306640625 0.611358642578125
-0.39453125 0.167724609375 0.62184906005859375
-0.3837890625 0.1756591796875 0.627960205078125
-0.39306640625 0.198486328125 0.61734771728515625
-0.41943359375 0.1751708984375 0.60784149169921875
-0.40380859375 0.1556396484375 0.61673736572265625
-0.094482421875 0.5020751953125 0.66901016235351562
-0.1024169921875 0.503173828125 0.66762924194335938
-0.0972900390625 0.4827880859375 0.67147445678710938
-0.0858154296875 0.502685546875 0.67394638061523438
-0.0897216796875 0.5211181640625 0.66621780395507812
-0.0992431640625 0.523193359375 0.66387939453125
-0.1063232421875 0.4820556640625 0.67272567749023438
-0.089111328125 0.4857177734375 0.676239013671875
-0.0819091796875 0.519287109375 0.66651153564453125
-0.338623046875 0.2064208984375 0.64570999145507812
-0.323486328125 0.210693359375 0.65126800537109375
-0.341552734375 0.2193603515625 0.64351654052734375
-0.3553466796875 0.2015380859375 0.63884735107421875
-0.3367919921875 0.1959228515625 0.64849472045898438
-0.324462890625 0.200927734375 0.65460205078125
-0.3245849609375 0.224609375 0.65009689331054688
-0.3583984375 0.21484375 0.63590240478515625
-0.3548583984375 0.19091796875 0.6421356201171875
-0.067138671875 0.5010986328125 0.67300033569335938
-0.07177734375 0.501953125 0.67620849609375
-0.06591796875 0.4857177734375 0.6756439208984375
-0.061279296875 0.5010986328125 0.67039108276367188
-0.0618896484375 0.517333984375 0.67228317260742188
-0.068603515625 0.518310546875 0.67183303833007812
-0.0716552734375 0.487548828125 0.67789840698242188
-0.0625 0.4849853515625 0.67183685302734375
-0.056640625 0.51513671875 0.67051315307617188
-0.3369140625 0.173583984375 0.650909423828125
-0.3232421875 0.1763916015625 0.65472412109375
-0.3380126953125 0.179931640625 0.65087890625
-0.35009765625 0.1688232421875 0.64452362060546875
-0.336669921875 0.1678466796875 0.65024566650390625
-0.323974609375 0.16943359375 0.65367889404296875
-0.3233642578125 0.1815185546875 0.6573638916015625
-0.3505859375 0.1759033203125 0.64593505859375
-0.3504638671875 0.1639404296875 0.64410400390625
-0.0447998046875 0.552734375 0.66804122924804688
-0.0474853515625 0.555908203125 0.66681289672851562
-0.0528564453125 0.5430908203125 0.6689300537109375
-0.0394287109375 0.5489501953125 0.66818618774414062
-0.0323486328125 0.56298828125 0.668060302734375
-0.0369873046875 0.5662841796875 0.667633056640625
-0.057373046875 0.5452880859375 0.6668853759765625
-0.04833984375 0.5394287109375 0.66809844970703125
-0.03173828125 0.56005859375 0.66693878173828125
-0.3841552734375 0.14990234375 0.63138580322265625
-0.37548828125 0.15576171875 0.637176513671875
-0.38916015625 0.15380859375 0.62870025634765625
-0.39404296875 0.140380859375 0.62747955322265625
-0.3836669921875 0.14501953125 0.63153076171875
-0.3739013671875 0.1512451171875 0.63640594482421875
-0.3763427734375 0.1622314453125 0.63571929931640625
-0.3978271484375 0.144775390625 0.62572479248046875
-0.39013671875 0.13720703125 0.62879180908203125
-0.00048828125 0.59423828125 0.670135498046875
-0.001953125 0.5987548828125 0.67140960693359375
-0.0115966796875 0.58642578125 0.6678009033203125
0.0013427734375 0.5906982421875 0.6700286865234375
0.018798828125 0.6063232421875 0.67085647583007812
0.017333984375 0.6094970703125 0.67128372192382812
-0.0145263671875 0.5908203125 0.6668243408203125
-0.0093994140625 0.58251953125 0.66832351684570312
0.019287109375 0.6033935546875 0.66782760620117188
-0.42431640625 0.0985107421875 0.62762832641601562
-0.41650390625 0.114990234375 0.628692626953125
-0.4285888671875 0.101318359375 0.62759017944335938
-0.4346923828125 0.0797119140625 0.625823974609375
-0.422119140625 0.0966796875 0.62685394287109375
-0.411865234375 0.1121826171875 0.62953948974609375
