# XYZ point cloud file
0.4397735595703125 0.17256927490234375 0.3226318359375
0.4626922607421875 0.22296524047851562 0.3427734375
0.4651947021484375 0.23204803466796875 0.3616943359375
0.4191436767578125 0.15441131591796875 0.3779296875
0.4150390625 0.1356964111328125 0.331298828125
0.460662841796875 0.21498870849609375 0.31640625
-0.5233306884765625 -0.009456634521484375 0.31884765625
-0.4902496337890625 -0.0249481201171875 0.3480224609375
-0.5255889892578125 -0.001361846923828125 0.3385009765625
-0.55419921875 0.0099029541015625 0.288818359375
-0.5225982666015625 -0.01894378662109375 0.2928466796875
-0.4906005859375 -0.03508758544921875 0.320068359375
-0.491912841796875 -0.016353607177734375 0.3704833984375
-0.5575714111328125 0.017986297607421875 0.310302734375
-0.550994873046875 0.0021209716796875 0.2645263671875
0.3314971923828125 0.06212615966796875 0.3902587890625
0.332763671875 0.069408416748046875 0.4097900390625
0.300750732421875 0.041652679443359375 0.399169921875
0.3294219970703125 0.053607940673828125 0.3673095703125
0.36029052734375 0.08672332763671875 0.38037109375
0.362701416015625 0.09464263916015625 0.4002685546875
0.30279541015625 0.048557281494140625 0.4168701171875
0.2977447509765625 0.032848358154296875 0.3792724609375
0.35870361328125 0.07688140869140625 0.355224609375
-0.3880462646484375 -0.058013916015625 0.4144287109375
-0.3511962890625 -0.065837860107421875 0.430419921875
-0.3874359130859375 -0.04996490478515625 0.4337158203125
-0.42327880859375 -0.048336029052734375 0.39501953125
-0.389251708984375 -0.067378997802734375 0.3897705078125
-0.3508453369140625 -0.074634552001953125 0.4072265625
-0.3505706787109375 -0.05815887451171875 0.4478759765625
-0.4236297607421875 -0.0398101806640625 0.4173583984375
-0.424591064453125 -0.058879852294921875 0.3670654296875
0.036224365234375 -0.37120437622070312 0.38671875
0.0110931396484375 -0.3799896240234375 0.3935546875
0.036102294921875 -0.35883712768554688 0.3685302734375
0.0595550537109375 -0.35916519165039062 0.381103515625
0.0363922119140625 -0.3891448974609375 0.405517578125
0.013214111328125 -0.39765167236328125 0.4107666015625
0.0097808837890625 -0.36804962158203125 0.375244140625
0.0603485107421875 -0.34543991088867188 0.361083984375
0.0595703125 -0.37789154052734375 0.401611328125
-0.064422607421875 -0.37976837158203125 0.4097900390625
-0.0723419189453125 -0.36914443969726562 0.390869140625
-0.039703369140625 -0.38466262817382812 0.4046630859375
-0.057281494140625 -0.3961639404296875 0.4285888671875
-0.087615966796875 -0.37143325805664062 0.4140625
-0.0966949462890625 -0.35960006713867188 0.3951416015625
-0.04541015625 -0.37395858764648438 0.386962890625
-0.0341796875 -0.39959335327148438 0.4219970703125
-0.0789947509765625 -0.38791275024414062 0.435302734375
0.0453948974609375 -0.47645950317382812 0.4595947265625
0.0236358642578125 -0.483367919921875 0.4637451171875
0.041900634765625 -0.44089508056640625 0.4425048828125
0.0679779052734375 -0.46675491333007812 0.455078125
0.0503082275390625 -0.51153182983398438 0.4761962890625
0.0281219482421875 -0.51806640625 0.4818115234375
0.0185089111328125 -0.44891357421875 0.4462890625
0.0641937255859375 -0.43152999877929688 0.4384765625
0.07391357421875 -0.502838134765625 0.469970703125
-0.0418548583984375 -0.47785186767578125 0.48291015625
-0.0461578369140625 -0.44594192504882812 0.4659423828125
-0.0207366943359375 -0.48424530029296875 0.47607421875
-0.037506103515625 -0.51259231567382812 0.5048828125
-0.06256103515625 -0.47014617919921875 0.4925537109375
-0.0674591064453125 -0.43848800659179688 0.47509765625
-0.0243682861328125 -0.4515533447265625 0.45751953125
-0.0160675048828125 -0.51840972900390625 0.4964599609375
-0.05987548828125 -0.504486083984375 0.5137939453125
0.0756988525390625 -0.60356521606445312 0.541015625
0.052215576171875 -0.60762405395507812 0.552978515625
0.065765380859375 -0.57690811157226562 0.5186767578125
0.0986328125 -0.59862518310546875 0.527099609375
0.085479736328125 -0.62503433227539062 0.5645751953125
0.0617523193359375 -0.62699508666992188 0.577880859375
0.0428009033203125 -0.58150863647460938 0.5289306640625
0.0886688232421875 -0.56940078735351562 0.509521484375
0.1095428466796875 -0.62018585205078125 0.55029296875
-0.019683837890625 -0.60127639770507812 0.5816650390625
-0.0268707275390625 -0.57640457153320312 0.554931640625
0.004791259765625 -0.60609054565429688 0.5733642578125
-0.0115203857421875 -0.62089157104492188 0.6072998046875
-0.044189453125 -0.5950164794921875 0.5889892578125
-0.0506439208984375 -0.56884765625 0.5628662109375
-0.0039825439453125 -0.58118438720703125 0.546630859375
0.0142669677734375 -0.62553787231445312 0.598388671875
-0.0375823974609375 -0.61522293090820312 0.614501953125
0.118408203125 -0.64124679565429688 0.6260986328125
0.12725830078125 -0.63441085815429688 0.6422119140625
0.093780517578125 -0.64192962646484375 0.6422119140625
0.108184814453125 -0.64335250854492188 0.607666015625
0.141021728515625 -0.64008331298828125 0.6077880859375
0.150054931640625 -0.63376998901367188 0.6253662109375
0.1021881103515625 -0.6344757080078125 0.6593017578125
0.0840606689453125 -0.64410400390625 0.6217041015625
0.1309967041015625 -0.64092254638671875 0.5904541015625
0.011260986328125 -0.63617706298828125 0.67724609375
0.03961181640625 -0.63901519775390625 0.6680908203125
0.0194091796875 -0.62965011596679688 0.696044921875
-0.016510009765625 -0.63301849365234375 0.685302734375
0.0037994384765625 -0.63857650756835938 0.6563720703125
0.031402587890625 -0.64126205444335938 0.647216796875
0.0482177734375 -0.63204574584960938 0.685546875
-0.0090789794921875 -0.6267547607421875 0.7037353515625
-0.02362060546875 -0.63427352905273438 0.663818359375
0.206756591796875 -0.63410568237304688 0.55615234375
0.21490478515625 -0.62953948974609375 0.5745849609375
0.1864776611328125 -0.63698577880859375 0.5718994140625
0.1966705322265625 -0.63358306884765625 0.5399169921875
0.2230377197265625 -0.62868881225585938 0.5416259765625
0.231903076171875 -0.62491989135742188 0.5599365234375
0.19482421875 -0.63219833374023438 0.590576171875
0.1771087646484375 -0.63679122924804688 0.554931640625
0.2130279541015625 -0.62673568725585938 0.52685546875
-0.097869873046875 -0.6219482421875 0.6995849609375
-0.0719146728515625 -0.62554931640625 0.6956787109375
-0.089141845703125 -0.61653900146484375 0.7183837890625
-0.1196746826171875 -0.61619186401367188 0.7000732421875
-0.1040191650390625 -0.62158203125 0.6781005859375
-0.0792999267578125 -0.62625503540039062 0.6739501953125
-0.0635528564453125 -0.62046051025390625 0.71533203125
-0.110809326171875 -0.6114349365234375 0.720703125
-0.124725341796875 -0.61565017700195312 0.6795654296875
0.24493408203125 -0.58285903930664062 0.5107421875
0.25714111328125 -0.58577346801757812 0.5316162109375
0.24267578125 -0.60454177856445312 0.5186767578125
0.228607177734375 -0.57863998413085938 0.495849609375
0.244140625 -0.55691909790039062 0.505859375
0.258453369140625 -0.56235885620117188 0.5279541015625
0.2529296875 -0.60395050048828125 0.537841796875
0.2291259765625 -0.600616455078125 0.5050048828125
0.2247772216796875 -0.54951095581054688 0.48681640625
-0.1572418212890625 -0.57305526733398438 0.68359375
-0.149627685546875 -0.59200668334960938 0.6922607421875
-0.1502685546875 -0.5735931396484375 0.71044921875
-0.162261962890625 -0.55028152465820312 0.672607421875
-0.158355712890625 -0.57047653198242188 0.657958984375
-0.15081787109375 -0.59022903442382812 0.6697998046875
-0.141998291015625 -0.59044265747070312 0.715576171875
-0.1554718017578125 -0.55319976806640625 0.7034912109375
-0.162139892578125 -0.54552078247070312 0.64111328125
0.2314605712890625 -0.45351028442382812 0.4931640625
0.2503814697265625 -0.46497726440429688 0.520751953125
0.23602294921875 -0.4914093017578125 0.497314453125
0.2079010009765625 -0.441162109375 0.4697265625
0.2245025634765625 -0.41408157348632812 0.48828125
0.244293212890625 -0.42548751831054688 0.5169677734375
0.2544403076171875 -0.50133895874023438 0.5224609375
0.2138214111328125 -0.47898483276367188 0.4765625
0.20068359375 -0.40207672119140625 0.463623046875
-0.1670989990234375 -0.45857620239257812 0.63037109375
-0.1663665771484375 -0.49233627319335938 0.6461181640625
-0.1646270751953125 -0.46764373779296875 0.6697998046875
-0.1686553955078125 -0.42586517333984375 0.6146240234375
-0.165191650390625 -0.45022201538085938 0.590576171875
-0.1645965576171875 -0.48323822021484375 0.60791015625
-0.161956787109375 -0.50014114379882812 0.6832275390625
-0.165679931640625 -0.43337249755859375 0.654541015625
-0.165130615234375 -0.417083740234375 0.5765380859375
0.135894775390625 -0.43712615966796875 0.443115234375
0.1424713134765625 -0.4742584228515625 0.454345703125
0.11297607421875 -0.44573974609375 0.44580078125
0.13079833984375 -0.40013504028320312 0.4305419921875
0.15924072265625 -0.43199539184570312 0.4447021484375
0.1665191650390625 -0.46931076049804688 0.4549560546875
0.119232177734375 -0.4830474853515625 0.4580078125
0.10870361328125 -0.41057586669921875 0.431396484375
0.1532745361328125 -0.39381027221679688 0.435302734375
-0.126495361328125 -0.446258544921875 0.5201416015625
-0.1063690185546875 -0.45273971557617188 0.5108642578125
-0.1251983642578125 -0.4798736572265625 0.5396728515625
-0.1442718505859375 -0.44271087646484375 0.5362548828125
-0.1273040771484375 -0.41364669799804688 0.50244140625
-0.1082763671875 -0.42108154296875 0.491455078125
-0.103973388671875 -0.4864654541015625 0.5296630859375
-0.1433258056640625 -0.47660064697265625 0.5557861328125
-0.144195556640625 -0.40898895263671875 0.5186767578125
0.1677398681640625 -0.58043670654296875 0.4931640625
0.18975830078125 -0.57672882080078125 0.4857177734375
0.1770477294921875 -0.60620880126953125 0.5074462890625
0.1446685791015625 -0.58515548706054688 0.504638671875
0.158966064453125 -0.54739761352539062 0.4766845703125
0.1815185546875 -0.54312515258789062 0.47509765625
0.196044921875 -0.60045623779296875 0.49951171875
0.1562652587890625 -0.61149978637695312 0.51953125
0.136444091796875 -0.55382537841796875 0.48681640625
-0.119049072265625 -0.57422256469726562 0.60693359375
-0.11572265625 -0.59867095947265625 0.633056640625
-0.13916015625 -0.56998443603515625 0.6177978515625
-0.1219024658203125 -0.5467529296875 0.5836181640625
-0.0951385498046875 -0.58064651489257812 0.600830078125
-0.09112548828125 -0.60408782958984375 0.62548828125
-0.134429931640625 -0.59301376342773438 0.638916015625
-0.1413421630859375 -0.54266738891601562 0.5958251953125
-0.098724365234375 -0.55278778076171875 0.5755615234375
0.1215972900390625 -0.31194686889648438 0.390625
0.1408538818359375 -0.29911422729492188 0.4041748046875
0.123016357421875 -0.33670806884765625 0.405517578125
0.102264404296875 -0.32786178588867188 0.3826904296875
0.120697021484375 -0.29115676879882812 0.3763427734375
0.1383819580078125 -0.27438735961914062 0.39306640625
0.1439208984375 -0.32637786865234375 0.41455078125
0.1031341552734375 -0.35033798217773438 0.4002685546875
0.102203369140625 -0.31063079833984375 0.3663330078125
-0.140045166015625 -0.33267593383789062 0.4468994140625
-0.1343994140625 -0.35591888427734375 0.4644775390625
-0.1517181396484375 -0.32191085815429688 0.4677734375
-0.1460723876953125 -0.3148193359375 0.43115234375
-0.125732421875 -0.34681320190429688 0.4329833984375
-0.1181640625 -0.3664703369140625 0.452392578125
-0.1483612060546875 -0.347869873046875 0.482666015625
-0.1551666259765625 -0.2992706298828125 0.452392578125
-0.1338043212890625 -0.33079910278320312 0.4154052734375
0.204193115234375 -0.29410552978515625 0.47314453125
0.2215576171875 -0.29924392700195312 0.50048828125
0.211822509765625 -0.33266448974609375 0.478515625
0.182952880859375 -0.2902069091796875 0.4462890625
0.1958770751953125 -0.25907516479492188 0.46728515625
0.2120513916015625 -0.26068878173828125 0.4952392578125
0.230194091796875 -0.34064483642578125 0.508056640625
0.1890411376953125 -0.3258819580078125 0.452392578125
0.176605224609375 -0.2598876953125 0.4388427734375
-0.17156982421875 -0.31896591186523438 0.5643310546875
-0.17095947265625 -0.35471725463867188 0.5811767578125
-0.171234130859375 -0.3241119384765625 0.6033935546875
-0.171905517578125 -0.28603744506835938 0.5462646484375
-0.1678924560546875 -0.3155670166015625 0.5267333984375
-0.1668853759765625 -0.348175048828125 0.5413818359375
-0.1689910888671875 -0.36179351806640625 0.620849609375
-0.1712188720703125 -0.28798294067382812 0.583251953125
-0.1688995361328125 -0.2858123779296875 0.5113525390625
0.1508026123046875 -0.11376190185546875 0.446533203125
0.154510498046875 -0.12823486328125 0.44580078125
0.1498260498046875 -0.1157073974609375 0.4237060546875
0.147705078125 -0.10030364990234375 0.447265625
0.1537322998046875 -0.10778427124023438 0.4674072265625
0.1588897705078125 -0.12249374389648438 0.4686279296875
0.151275634765625 -0.13352203369140625 0.418212890625
0.148223876953125 -0.10066986083984375 0.427978515625
0.149566650390625 -0.09558868408203125 0.4669189453125
-0.1632843017578125 -0.15151596069335938 0.4869384765625
-0.170074462890625 -0.15544891357421875 0.4630126953125
-0.1641998291015625 -0.16508102416992188 0.48974609375
-0.1593017578125 -0.14621734619140625 0.5084228515625
-0.1617279052734375 -0.13885879516601562 0.4849853515625
-0.1691741943359375 -0.1414642333984375 0.4644775390625
-0.1698455810546875 -0.17108917236328125 0.461669921875
-0.160980224609375 -0.15852737426757812 0.513671875
-0.1576385498046875 -0.13375091552734375 0.50537109375
0.17138671875 -0.17929458618164062 0.453857421875
0.1796417236328125 -0.20117950439453125 0.4569091796875
0.159210205078125 -0.18808364868164062 0.425048828125
0.1647186279296875 -0.1611328125 0.44873046875
0.1820831298828125 -0.17412567138671875 0.4801025390625
0.192413330078125 -0.1978759765625 0.484619140625
0.1647186279296875 -0.20767593383789062 0.4293212890625
0.154937744140625 -0.16986083984375 0.4207763671875
0.173370361328125 -0.154510498046875 0.4754638671875
-0.169342041015625 -0.21419143676757812 0.508544921875
-0.1678619384765625 -0.22096633911132812 0.478271484375
-0.1710205078125 -0.23439788818359375 0.51953125
-0.1680450439453125 -0.20859909057617188 0.538330078125
-0.167938232421875 -0.19612503051757812 0.4991455078125
-0.168426513671875 -0.20415878295898438 0.4698486328125
-0.168701171875 -0.23986434936523438 0.4879150390625
-0.170623779296875 -0.22959518432617188 0.5509033203125
-0.165740966796875 -0.18974685668945312 0.5284423828125
0.137359619140625 -0.063632965087890625 0.4481201171875
0.136871337890625 -0.0576934814453125 0.4661865234375
0.1393890380859375 -0.07604217529296875 0.448486328125
0.1400604248046875 -0.065311431884765625 0.4354248046875
0.1409149169921875 -0.05159759521484375 0.447998046875
0.13916015625 -0.04496002197265625 0.463623046875
0.1397247314453125 -0.070728302001953125 0.466796875
0.14166259765625 -0.076404571533203125 0.4332275390625
0.1444091796875 -0.053134918212890625 0.435791015625
-0.15899658203125 -0.10328292846679688 0.4798583984375
-0.157989501953125 -0.11530303955078125 0.4813232421875
-0.154327392578125 -0.096599578857421875 0.4964599609375
-0.1649169921875 -0.09310150146484375 0.47705078125
-0.1652984619140625 -0.10596084594726562 0.4659423828125
-0.1652984619140625 -0.1171417236328125 0.4658203125
-0.1536865234375 -0.10888290405273438 0.49951171875
-0.1605682373046875 -0.085224151611328125 0.4927978515625
-0.1716156005859375 -0.09667205810546875 0.46435546875
0.20086669921875 -0.0100860595703125 0.4295654296875
0.1729278564453125 -0.025524139404296875 0.4381103515625
0.1988372802734375 -0.014850616455078125 0.4176025390625
0.2341156005859375 0.006134033203125 0.41845703125
0.2004241943359375 -0.003879547119140625 0.4451904296875
0.171539306640625 -0.018878936767578125 0.453857421875
0.1731719970703125 -0.0287322998046875 0.4268798828125
0.2302703857421875 4.9591064453125e-05 0.4052734375
0.2340545654296875 0.012424468994140625 0.4354248046875
-0.235809326171875 -0.075664520263671875 0.45947265625
-0.2362060546875 -0.0796051025390625 0.446044921875
-0.20361328125 -0.07979583740234375 0.4671630859375
-0.2333984375 -0.068569183349609375 0.4754638671875
-0.27459716796875 -0.0730743408203125 0.450927734375
-0.2736053466796875 -0.07894134521484375 0.436279296875
-0.205902099609375 -0.08392333984375 0.45654296875
-0.200164794921875 -0.071865081787109375 0.4818115234375
-0.2727813720703125 -0.066143035888671875 0.46728515625
0.0492095947265625 -0.35739517211914062 -0.40380859375
0.0666656494140625 -0.31610488891601562 -0.441162109375
0.1010894775390625 -0.33467864990234375 -0.387451171875
0.035980224609375 -0.38761138916015625 -0.3621826171875
-0.0089569091796875 -0.376251220703125 -0.4178466796875
0.009063720703125 -0.33238601684570312 -0.45947265625
0.11785888671875 -0.29649734497070312 -0.420654296875
0.0891265869140625 -0.36411666870117188 -0.3480224609375
-0.0221405029296875 -0.40789794921875 -0.373046875
-0.178863525390625 -0.39640426635742188 -0.397705078125
-0.2274169921875 -0.391998291015625 -0.3795166015625
-0.165283203125 -0.357177734375 -0.4432373046875
-0.12469482421875 -0.39471435546875 -0.41552734375
-0.1894683837890625 -0.424285888671875 -0.351318359375
-0.237518310546875 -0.41721725463867188 -0.3328857421875
-0.2163848876953125 -0.35693359375 -0.422119140625
-0.108306884765625 -0.35348892211914062 -0.4608154296875
-0.1371612548828125 -0.42667388916015625 -0.3670654296875
0.0116424560546875 -0.44420242309570312 -0.1959228515625
0.0176849365234375 -0.43143844604492188 -0.2572021484375
0.0648040771484375 -0.417449951171875 -0.19189453125
0.010467529296875 -0.44638442993164062 -0.1297607421875
-0.0438995361328125 -0.46423721313476562 -0.2012939453125
-0.0395050048828125 -0.45289993286132812 -0.2637939453125
0.0726318359375 -0.40537261962890625 -0.2508544921875
0.0603790283203125 -0.42026519775390625 -0.1280517578125
-0.04388427734375 -0.466705322265625 -0.132080078125
-0.2001800537109375 -0.471160888671875 -0.177734375
-0.245269775390625 -0.45785140991210938 -0.16357421875
-0.2004852294921875 -0.46345138549804688 -0.2412109375
-0.1507415771484375 -0.47675323486328125 -0.189697265625
-0.1948394775390625 -0.4723968505859375 -0.1077880859375
-0.2372283935546875 -0.45891952514648438 -0.09423828125
-0.246612548828125 -0.4497833251953125 -0.225341796875
-0.1493682861328125 -0.4694061279296875 -0.2545166015625
-0.1478271484375 -0.47748947143554688 -0.1209716796875
0.0175628662109375 -0.4078826904296875 0.096435546875
0.011810302734375 -0.426483154296875 0.0186767578125
0.05938720703125 -0.3856658935546875 0.089111328125
0.023284912109375 -0.38721084594726562 0.1693115234375
-0.0263519287109375 -0.4236297607421875 0.1014404296875
-0.0355072021484375 -0.4430389404296875 0.0216064453125
0.0574493408203125 -0.40431976318359375 0.013916015625
0.061981201171875 -0.36475372314453125 0.16455078125
-0.016326904296875 -0.40124893188476562 0.1766357421875
-0.1515655517578125 -0.42694091796875 0.12158203125
-0.1899261474609375 -0.41456985473632812 0.1300048828125
-0.1688995361328125 -0.44671249389648438 0.044189453125
-0.111480712890625 -0.43301773071289062 0.1185302734375
-0.1334991455078125 -0.403594970703125 0.1978759765625
-0.1700286865234375 -0.3912506103515625 0.2032470703125
-0.20843505859375 -0.43430709838867188 0.0516357421875
-0.12640380859375 -0.45311737060546875 0.03515625
-0.0956878662109375 -0.40977096557617188 0.19140625
0.0334930419921875 -0.35047531127929688 0.30712890625
0.031890869140625 -0.35633087158203125 0.2767333984375
0.0620880126953125 -0.33343124389648438 0.3031005859375
0.034912109375 -0.34891510009765625 0.3284912109375
0.0030364990234375 -0.36153793334960938 0.3155517578125
-0.000732421875 -0.36787033081054688 0.284423828125
0.0639495849609375 -0.33715438842773438 0.2725830078125
0.0616455078125 -0.332794189453125 0.324951171875
0.005767822265625 -0.3596649169921875 0.338134765625
-0.0944061279296875 -0.36251068115234375 0.3330078125
-0.122100830078125 -0.35128402709960938 0.3377685546875
-0.1041717529296875 -0.36992263793945312 0.3028564453125
-0.062225341796875 -0.36859130859375 0.329833984375
-0.08624267578125 -0.36037445068359375 0.3551025390625
-0.1130218505859375 -0.35024261474609375 0.358642578125
-0.134857177734375 -0.35756683349609375 0.3084716796875
-0.0702972412109375 -0.37552642822265625 0.2984619140625
-0.0562896728515625 -0.36529159545898438 0.35205078125
0.1204986572265625 -0.25337982177734375 0.34033203125
0.1201019287109375 -0.26259994506835938 0.3521728515625
0.105712890625 -0.28287506103515625 0.3177490234375
0.123504638671875 -0.2446136474609375 0.3280029296875
0.1336517333984375 -0.22582244873046875 0.367919921875
0.134521484375 -0.2387542724609375 0.3753662109375
0.103485107421875 -0.28805923461914062 0.333984375
0.110107421875 -0.27864456176757812 0.30029296875
0.1349639892578125 -0.2126007080078125 0.3587646484375
-0.1617889404296875 -0.28046798706054688 0.3914794921875
-0.1557769775390625 -0.30813980102539062 0.3668212890625
-0.1559906005859375 -0.28897857666015625 0.403076171875
-0.1645965576171875 -0.25438308715820312 0.4176025390625
-0.170196533203125 -0.27460098266601562 0.3760986328125
-0.16766357421875 -0.30701446533203125 0.344970703125
-0.1477813720703125 -0.31283187866210938 0.3831787109375
-0.161651611328125 -0.266998291015625 0.428466796875
-0.17022705078125 -0.243682861328125 0.4071044921875
0.4610137939453125 0.13132476806640625 0.1988525390625
0.4494171142578125 0.14871978759765625 0.248046875
0.436737060546875 0.0857086181640625 0.2041015625
0.4730682373046875 0.11293792724609375 0.15283203125
0.478546142578125 0.17965316772460938 0.1981201171875
0.4679412841796875 0.19413375854492188 0.2442626953125
0.423614501953125 0.10675430297851562 0.254638671875
0.448883056640625 0.059040069580078125 0.1531982421875
0.4899444580078125 0.16650772094726562 0.152587890625
-0.54400634765625 -0.072124481201171875 0.1622314453125
-0.51751708984375 -0.099025726318359375 0.191650390625
-0.5320892333984375 -0.0506591796875 0.214599609375
-0.5645904541015625 -0.04238128662109375 0.1373291015625
-0.5565643310546875 -0.0948486328125 0.1103515625
-0.53253173828125 -0.12717819213867188 0.1395263671875
-0.5040130615234375 -0.071048736572265625 0.2432861328125
-0.5562744140625 -0.023883819580078125 0.187255859375
-0.573974609375 -0.06114959716796875 0.0870361328125
0.1529998779296875 -0.115447998046875 -0.5343017578125
0.1854400634765625 -0.028301239013671875 -0.550048828125
0.207275390625 -0.10414505004882812 -0.501708984375
0.11944580078125 -0.19301223754882812 -0.50732421875
0.091339111328125 -0.1287078857421875 -0.561279296875
0.1217498779296875 -0.041782379150390625 -0.5816650390625
0.2397308349609375 -0.018367767333984375 -0.515869140625
0.17279052734375 -0.1795196533203125 -0.4801025390625
0.0607452392578125 -0.20951080322265625 -0.5316162109375
-0.111480712890625 -0.17734527587890625 -0.5677490234375
-0.1770782470703125 -0.19276046752929688 -0.548583984375
-0.0933380126953125 -0.098293304443359375 -0.596923828125
-0.0426025390625 -0.1609039306640625 -0.57958984375
-0.1305389404296875 -0.24737167358398438 -0.530517578125
-0.1903076171875 -0.25705718994140625 -0.5086669921875
-0.163818359375 -0.12007904052734375 -0.5799560546875
-0.020477294921875 -0.077701568603515625 -0.60595703125
-0.0659637451171875 -0.23624038696289062 -0.545166015625
0.11834716796875 0.62768173217773438 -0.1058349609375
0.1002960205078125 0.62765884399414062 -0.0482177734375
0.1847076416015625 0.63665390014648438 -0.084228515625
0.138671875 0.61917877197265625 -0.1611328125
0.0481719970703125 0.61170196533203125 -0.13330078125
0.029296875 0.61160659790039062 -0.073486328125
0.1685943603515625 0.635223388671875 -0.0281982421875
0.2040252685546875 0.62816238403320312 -0.138671875
0.068603515625 0.6005401611328125 -0.193359375
-0.165008544921875 0.52095794677734375 -0.2205810546875
-0.22808837890625 0.48308563232421875 -0.24658203125
-0.1848297119140625 0.5221099853515625 -0.1563720703125
-0.0967864990234375 0.5556182861328125 -0.1905517578125
-0.1428985595703125 0.51258087158203125 -0.279541015625
-0.2079010009765625 0.47391510009765625 -0.3052978515625
-0.2467803955078125 0.48438262939453125 -0.186279296875
-0.117218017578125 0.55796051025390625 -0.1280517578125
-0.07489013671875 0.54319000244140625 -0.25439453125
0.204315185546875 0.53394317626953125 -0.3360595703125
0.1834869384765625 0.5709228515625 -0.28076171875
0.263824462890625 0.54742050170898438 -0.300048828125
0.221832275390625 0.48332977294921875 -0.3907470703125
0.1376495361328125 0.5115966796875 -0.3740234375
0.1154937744140625 0.5517578125 -0.3140869140625
0.245849609375 0.5845947265625 -0.244873046875
0.279266357421875 0.4985809326171875 -0.3529052734375
0.156280517578125 0.46001052856445312 -0.43115234375
-0.079071044921875 0.42464065551757812 -0.4488525390625
-0.1491851806640625 0.3908538818359375 -0.4644775390625
-0.09991455078125 0.46224212646484375 -0.39404296875
-0.0068817138671875 0.45519256591796875 -0.43310546875
-0.063720703125 0.37469863891601562 -0.499755859375
-0.135009765625 0.34472274780273438 -0.5103759765625
-0.1689910888671875 0.42720794677734375 -0.4139404296875
-0.028839111328125 0.49636077880859375 -0.373779296875
0.0111236572265625 0.4029083251953125 -0.486328125
0.23876953125 0.2517242431640625 -0.5194091796875
0.240447998046875 0.34158706665039062 -0.4835205078125
0.2952728271484375 0.2654571533203125 -0.477783203125
0.22955322265625 0.15901565551757812 -0.544921875
0.174072265625 0.23441696166992188 -0.556640625
0.175201416015625 0.319793701171875 -0.523193359375
0.2964019775390625 0.35540390014648438 -0.4442138671875
0.286102294921875 0.1692352294921875 -0.50537109375
0.1646728515625 0.14303207397460938 -0.580078125
-0.0552520751953125 0.16159439086914062 -0.60302734375
-0.1305999755859375 0.13277435302734375 -0.598388671875
-0.050750732421875 0.2430419921875 -0.5762939453125
0.0236053466796875 0.1873321533203125 -0.60107421875
-0.0643463134765625 0.07280731201171875 -0.6165771484375
-0.1392669677734375 0.046367645263671875 -0.6060791015625
-0.126312255859375 0.21348953247070312 -0.57861328125
0.0274505615234375 0.26938629150390625 -0.57177734375
0.0147247314453125 0.09850311279296875 -0.6171875
0.4078369140625 0.45238113403320312 0.2747802734375
0.4115447998046875 0.46631622314453125 0.3045654296875
0.4280853271484375 0.43788909912109375 0.27490234375
0.4059600830078125 0.44455718994140625 0.242919921875
0.3853912353515625 0.46106338500976562 0.2716064453125
0.3885955810546875 0.47571563720703125 0.3033447265625
0.43182373046875 0.45136642456054688 0.302978515625
0.4263763427734375 0.43011474609375 0.2431640625
0.384918212890625 0.45427322387695312 0.2381591796875
-0.5456085205078125 0.19161605834960938 0.10107421875
-0.5614013671875 0.17250823974609375 0.1029052734375
-0.558197021484375 0.20060348510742188 0.1275634765625
-0.52655029296875 0.20897293090820312 0.0999755859375
-0.5338592529296875 0.185577392578125 0.0673828125
-0.5508880615234375 0.16664505004882812 0.070068359375
-0.573577880859375 0.18072509765625 0.1304931640625
-0.5394134521484375 0.21792984008789062 0.127685546875
-0.514373779296875 0.20285415649414062 0.065673828125
0.4222412109375 0.47142410278320312 0.1319580078125
0.4141082763671875 0.455291748046875 0.169921875
0.443115234375 0.45325088500976562 0.13916015625
0.432281494140625 0.48925399780273438 0.0911865234375
0.398193359375 0.4863433837890625 0.12158203125
0.3908843994140625 0.46700668334960938 0.162841796875
0.434326171875 0.4396514892578125 0.175537109375
0.4542236328125 0.4694061279296875 0.1005859375
0.407257080078125 0.5061187744140625 0.07958984375
-0.51165771484375 0.19820404052734375 -0.0814208984375
-0.53363037109375 0.17349624633789062 -0.06982421875
-0.51751708984375 0.18925857543945312 -0.023681640625
-0.4880828857421875 0.22035598754882812 -0.0894775390625
-0.506591796875 0.2050933837890625 -0.1397705078125
-0.530914306640625 0.17762374877929688 -0.126708984375
-0.537933349609375 0.1678009033203125 -0.0169677734375
-0.4954376220703125 0.20957565307617188 -0.0302734375
-0.4815521240234375 0.230926513671875 -0.1490478515625
0.4655609130859375 0.50465774536132812 -0.0279541015625
0.4550323486328125 0.50785064697265625 0.0101318359375
0.4868316650390625 0.47892379760742188 -0.0164794921875
0.47625732421875 0.49568939208984375 -0.06884765625
0.44195556640625 0.52588653564453125 -0.04296875
0.4295501708984375 0.52894210815429688 -0.0042724609375
0.476806640625 0.48395156860351562 0.0228271484375
0.496337890625 0.46946334838867188 -0.0550537109375
0.452880859375 0.51745223999023438 -0.0841064453125
-0.4793548583984375 0.20200729370117188 -0.298583984375
-0.507232666015625 0.16988372802734375 -0.2811279296875
-0.4888916015625 0.20784759521484375 -0.2481689453125
-0.449066162109375 0.23302841186523438 -0.31201171875
-0.4678802490234375 0.19181060791015625 -0.3428955078125
-0.4970855712890625 0.16028213500976562 -0.3260498046875
-0.516265869140625 0.1770782470703125 -0.23291015625
-0.4604339599609375 0.23709869384765625 -0.2615966796875
-0.4371490478515625 0.22301483154296875 -0.359619140625
0.5052947998046875 0.424468994140625 -0.1905517578125
0.4967498779296875 0.4567718505859375 -0.15234375
0.5214691162109375 0.4010009765625 -0.176513671875
0.5103302001953125 0.38442611694335938 -0.2255859375
0.484039306640625 0.44338607788085938 -0.2078857421875
0.47454833984375 0.47769546508789062 -0.16943359375
0.51434326171875 0.43013381958007812 -0.1387939453125
0.5240020751953125 0.36531829833984375 -0.2081298828125
0.4914703369140625 0.4032440185546875 -0.24267578125
-0.4412078857421875 0.1254119873046875 -0.457275390625
-0.4712982177734375 0.09535980224609375 -0.4354248046875
-0.4486236572265625 0.1529541015625 -0.423583984375
-0.4073333740234375 0.15586471557617188 -0.474609375
-0.4365234375 0.092784881591796875 -0.48046875
-0.463958740234375 0.0667572021484375 -0.4580078125
-0.4788818359375 0.12050247192382812 -0.40185546875
-0.415802001953125 0.18470382690429688 -0.4423828125
-0.4029693603515625 0.12027359008789062 -0.4990234375
0.49884033203125 0.2089385986328125 -0.299072265625
0.4840087890625 0.1347198486328125 -0.310791015625
0.4799041748046875 0.215545654296875 -0.3233642578125
0.5079193115234375 0.27730178833007812 -0.2813720703125
0.515228271484375 0.20929336547851562 -0.2713623046875
0.503997802734375 0.13967514038085938 -0.2806396484375
0.46417236328125 0.1380462646484375 -0.339599609375
0.489715576171875 0.28770828247070312 -0.30419921875
0.521331787109375 0.2700653076171875 -0.2568359375
-0.4435577392578125 -0.049793243408203125 -0.48388671875
-0.4109954833984375 -0.0338134765625 -0.5079345703125
-0.44970703125 -0.10455703735351562 -0.4635009765625
-0.473419189453125 -0.0587005615234375 -0.456298828125
-0.437591552734375 0.002895355224609375 -0.4935302734375
-0.40478515625 0.02335357666015625 -0.515869140625
-0.4167633056640625 -0.093982696533203125 -0.490234375
-0.4811248779296875 -0.11035919189453125 -0.4349365234375
-0.46600341796875 -0.010467529296875 -0.4686279296875
0.41119384765625 0.254791259765625 -0.38720703125
0.3809356689453125 0.267059326171875 -0.409912109375
0.417999267578125 0.34172821044921875 -0.357421875
0.436920166015625 0.23984146118164062 -0.3668212890625
0.398681640625 0.1631317138671875 -0.408935546875
0.369903564453125 0.17111968994140625 -0.434326171875
0.3852081298828125 0.35601425170898438 -0.3775634765625
0.4447784423828125 0.32226181030273438 -0.3419189453125
0.4223175048828125 0.15404891967773438 -0.3831787109375
-0.300262451171875 0.042308807373046875 -0.5635986328125
-0.293701171875 0.11412811279296875 -0.56005859375
-0.2542877197265625 0.07268524169921875 -0.57763671875
-0.3085784912109375 -0.033782958984375 -0.5570068359375
-0.3399200439453125 0.0130615234375 -0.5469970703125
-0.332305908203125 0.08148956298828125 -0.5479736328125
-0.2478179931640625 0.14896392822265625 -0.56884765625
-0.262451171875 -0.00791168212890625 -0.5753173828125
-0.3472900390625 -0.05621337890625 -0.5369873046875
0.399627685546875 0.5188140869140625 -0.2412109375
0.36126708984375 0.53999710083007812 -0.250732421875
0.3865509033203125 0.55218887329101562 -0.1953125
0.430999755859375 0.49227523803710938 -0.2320556640625
0.409698486328125 0.47451019287109375 -0.280517578125
0.374481201171875 0.49469375610351562 -0.2957763671875
0.3466339111328125 0.57363510131835938 -0.2039794921875
0.4195404052734375 0.52515411376953125 -0.1917724609375
0.439727783203125 0.44921112060546875 -0.2708740234375
-0.303192138671875 0.27277755737304688 -0.4886474609375
-0.314697265625 0.30192184448242188 -0.451171875
-0.2613525390625 0.31480789184570312 -0.4832763671875
-0.2942657470703125 0.231414794921875 -0.521240234375
-0.3388671875 0.2286376953125 -0.4901123046875
-0.3491973876953125 0.25911331176757812 -0.4542236328125
-0.274658203125 0.34566879272460938 -0.44140625
-0.2508392333984375 0.27300643920898438 -0.520263671875
-0.33123779296875 0.1907806396484375 -0.5203857421875
0.3421173095703125 0.59893035888671875 -0.056884765625
0.2975006103515625 0.62017059326171875 -0.05810546875
0.3287811279296875 0.59824371337890625 -0.012451171875
0.3797760009765625 0.57502365112304688 -0.058837890625
0.356842041015625 0.59065628051757812 -0.1058349609375
0.314117431640625 0.61261749267578125 -0.1085205078125
0.2840423583984375 0.61995697021484375 -0.0113525390625
0.3674774169921875 0.57311630249023438 -0.014404296875
0.3934326171875 0.56463241577148438 -0.1029052734375
-0.3613739013671875 0.3505859375 -0.3111572265625
-0.376678466796875 0.3527374267578125 -0.2564697265625
-0.3253173828125 0.3951263427734375 -0.2930908203125
-0.3446044921875 0.34214019775390625 -0.358154296875
-0.390838623046875 0.30692672729492188 -0.3193359375
-0.4054718017578125 0.31041717529296875 -0.2679443359375
-0.3419342041015625 0.39793014526367188 -0.236328125
-0.30841064453125 0.38541412353515625 -0.3447265625
-0.3761749267578125 0.29708480834960938 -0.3673095703125
0.30230712890625 0.53672027587890625 0.1270751953125
0.2581329345703125 0.5540618896484375 0.13134765625
0.2981414794921875 0.5103759765625 0.1702880859375
0.33917236328125 0.51784515380859375 0.118408203125
0.3091888427734375 0.564300537109375 0.0811767578125
0.2642669677734375 0.58385467529296875 0.0845947265625
0.2553558349609375 0.52526092529296875 0.17578125
0.3344268798828125 0.49350738525390625 0.1622314453125
0.34686279296875 0.54276275634765625 0.0750732421875
-0.4136199951171875 0.3100433349609375 -0.068603515625
-0.42413330078125 0.28923416137695312 -0.0074462890625
-0.381591796875 0.3471221923828125 -0.04638671875
-0.402801513671875 0.33049774169921875 -0.1326904296875
-0.4403839111328125 0.27527999877929688 -0.0845947265625
-0.4499053955078125 0.25885391235351562 -0.0228271484375
-0.391265869140625 0.32414627075195312 0.01318359375
-0.3692626953125 0.37157440185546875 -0.112060546875
-0.4296112060546875 0.29224014282226562 -0.14697265625
0.294586181640625 0.49316787719726562 0.27685546875
0.293701171875 0.50756072998046875 0.304931640625
0.329833984375 0.48147201538085938 0.271728515625
0.29510498046875 0.48819351196289062 0.2451171875
0.252105712890625 0.5020599365234375 0.282470703125
0.2508544921875 0.51742935180664062 0.3082275390625
0.3308563232421875 0.49596023559570312 0.302490234375
0.3295745849609375 0.4741668701171875 0.2393798828125
0.253265380859375 0.49680709838867188 0.2529296875
-0.4554595947265625 0.27749252319335938 0.1192626953125
-0.4825286865234375 0.250335693359375 0.1077880859375
-0.46636962890625 0.2885589599609375 0.1448974609375
-0.421966552734375 0.3065185546875 0.1336669921875
-0.4447021484375 0.27227401733398438 0.0863037109375
-0.4716339111328125 0.24451446533203125 0.0731201171875
-0.4940185546875 0.26125717163085938 0.1351318359375
-0.4327850341796875 0.31852340698242188 0.1571044921875
-0.4114837646484375 0.30266571044921875 0.103759765625
0.06884765625 0.56131744384765625 0.1275634765625
0.065582275390625 0.53124237060546875 0.1812744140625
0.14093017578125 0.56723403930664062 0.1346435546875
0.0762481689453125 0.59204864501953125 0.0703125
-0.0064544677734375 0.54747390747070312 0.1146240234375
-0.0120849609375 0.51555252075195312 0.1748046875
0.13861083984375 0.53643417358398438 0.18310546875
0.146697998046875 0.59866714477539062 0.0826416015625
0.002288818359375 0.57671356201171875 0.051513671875
-0.2268524169921875 0.4642333984375 0.04150390625
-0.2871246337890625 0.42657470703125 0.0101318359375
-0.2372894287109375 0.43434524536132812 0.1015625
-0.15753173828125 0.49615097045898438 0.0703125
-0.2153778076171875 0.49206924438476562 -0.0250244140625
-0.2759246826171875 0.45248031616210938 -0.05517578125
-0.2978363037109375 0.39885711669921875 0.068359375
-0.166961669921875 0.46773529052734375 0.1373291015625
-0.1468048095703125 0.52579116821289062 0.0037841796875
0.071807861328125 0.55480575561523438 0.318603515625
0.0372467041015625 0.53878021240234375 0.3206787109375
0.0609283447265625 0.580780029296875 0.3162841796875
0.10491943359375 0.57236862182617188 0.3221435546875
0.0804443359375 0.52972793579101562 0.3216552734375
0.0367889404296875 0.509033203125 0.3233642578125
0.0341033935546875 0.56775665283203125 0.3194580078125
0.0865631103515625 0.594390869140625 0.3206787109375
0.1239471435546875 0.549652099609375 0.322509765625
-0.2996826171875 0.43770599365234375 0.2225341796875
-0.301605224609375 0.46375274658203125 0.218017578125
-0.2655029296875 0.44555282592773438 0.244384765625
-0.2970428466796875 0.41323089599609375 0.2276611328125
-0.3338623046875 0.43325042724609375 0.2083740234375
-0.328094482421875 0.45955657958984375 0.206787109375
-0.2750396728515625 0.468994140625 0.2359619140625
-0.25274658203125 0.42169952392578125 0.2540283203125
-0.3412322998046875 0.40643692016601562 0.2069091796875
0.080047607421875 0.48834991455078125 0.289306640625
0.085357666015625 0.49426651000976562 0.3087158203125
0.1425323486328125 0.50139617919921875 0.2900390625
0.0724029541015625 0.4905242919921875 0.2628173828125
0.0201416015625 0.4707183837890625 0.2923583984375
0.0293426513671875 0.47338104248046875 0.3106689453125
0.14459228515625 0.5120697021484375 0.3099365234375
0.139984130859375 0.50073623657226562 0.261474609375
0.00384521484375 0.47558975219726562 0.265625
-0.2729339599609375 0.38440704345703125 0.2095947265625
-0.3293609619140625 0.360626220703125 0.17919921875
-0.2839508056640625 0.38422775268554688 0.223876953125
-0.2169647216796875 0.4037322998046875 0.2403564453125
-0.2600250244140625 0.39236068725585938 0.188720703125
-0.3187103271484375 0.36371612548828125 0.1534423828125
-0.340087890625 0.36721038818359375 0.19482421875
-0.22918701171875 0.39998245239257812 0.253662109375
-0.1978302001953125 0.4171905517578125 0.22119140625
-0.0681915283203125 0.42537689208984375 0.3082275390625
-0.0666961669921875 0.41981124877929688 0.3197021484375
-0.056365966796875 0.43683624267578125 0.3031005859375
-0.081878662109375 0.42357254028320312 0.3017578125
-0.082611083984375 0.41168975830078125 0.3172607421875
-0.0464630126953125 0.4344024658203125 0.3175048828125
-0.0756378173828125 0.43858718872070312 0.285888671875
-0.1274261474609375 0.4091339111328125 0.2958984375
-0.1407928466796875 0.41204833984375 0.28369140625
-0.128143310546875 0.40363311767578125 0.306640625
-0.1136322021484375 0.41369247436523438 0.2947998046875
-0.1223297119140625 0.42550277709960938 0.2755126953125
-0.1513671875 0.40473556518554688 0.29541015625
-0.1112060546875 0.40375137329101562 0.3114013671875
0.47772216796875 0.33332443237304688 0.2364501953125
0.4759979248046875 0.3435516357421875 0.2711181640625
0.48687744140625 0.28405380249023438 0.2183837890625
0.4822235107421875 0.32821273803710938 0.2017822265625
0.4636077880859375 0.37802886962890625 0.2554931640625
0.4644775390625 0.3886260986328125 0.2847900390625
0.4807891845703125 0.29325485229492188 0.25732421875
0.49346923828125 0.27661514282226562 0.1783447265625
0.4654083251953125 0.37147140502929688 0.222900390625
-0.586944580078125 0.07524871826171875 0.1043701171875
-0.5863037109375 0.0317840576171875 0.107177734375
-0.5908966064453125 0.08489227294921875 0.14013671875
-0.58282470703125 0.11347198486328125 0.1038818359375
-0.5849761962890625 0.06505584716796875 0.0631103515625
-0.5881195068359375 0.02114105224609375 0.0621337890625
-0.585845947265625 0.04468536376953125 0.1488037109375
-0.59027099609375 0.12236785888671875 0.1346435546875
-0.5772247314453125 0.10653305053710938 0.0675048828125
0.5029754638671875 0.3401031494140625 0.1043701171875
0.51727294921875 0.2839202880859375 0.080322265625
0.511383056640625 0.34836578369140625 0.0736083984375
0.484893798828125 0.38922500610351562 0.1246337890625
0.4951934814453125 0.33206939697265625 0.134521484375
0.509033203125 0.27707290649414062 0.108642578125
0.5237884521484375 0.2887420654296875 0.0511474609375
0.4945526123046875 0.39858627319335938 0.0916748046875
0.47576904296875 0.3788299560546875 0.15673828125
-0.5833740234375 0.05582427978515625 -0.0675048828125
-0.5812835693359375 0.057270050048828125 -0.11181640625
-0.5904693603515625 0.006977081298828125 -0.0665283203125
-0.583831787109375 0.056362152099609375 -0.0225830078125
-0.5706939697265625 0.102783203125 -0.0650634765625
-0.5686187744140625 0.10343170166015625 -0.1129150390625
-0.5896759033203125 0.0057220458984375 -0.1087646484375
-0.59088134765625 0.008831024169921875 -0.0260009765625
-0.5715789794921875 0.10147857666015625 -0.0164794921875
0.5291900634765625 0.34825897216796875 -0.0244140625
0.53741455078125 0.29330062866210938 -0.0389404296875
0.5333099365234375 0.33584213256835938 -0.0587158203125
0.51873779296875 0.40165328979492188 -0.01416015625
0.524627685546875 0.35465240478515625 0.0098876953125
0.5344085693359375 0.296661376953125 -0.0087890625
0.5401458740234375 0.282867431640625 -0.072509765625
0.5245361328125 0.38924026489257812 -0.049560546875
0.5122222900390625 0.40681838989257812 0.0224609375
-0.5649871826171875 0.04736328125 -0.233642578125
-0.5558929443359375 0.03603363037109375 -0.270263671875
-0.5740966796875 0.002117156982421875 -0.2239990234375
-0.572509765625 0.05397796630859375 -0.195068359375
-0.5502777099609375 0.092578887939453125 -0.2462158203125
-0.5419769287109375 0.08100128173828125 -0.2862548828125
-0.56683349609375 -0.00753021240234375 -0.2578125
-0.581298828125 0.005718231201171875 -0.188720703125
-0.5591278076171875 0.099185943603515625 -0.2037353515625
0.5388641357421875 0.26691818237304688 -0.1688232421875
0.534637451171875 0.23873138427734375 -0.2069091796875
0.536529541015625 0.31941986083984375 -0.1646728515625
0.537811279296875 0.29442596435546875 -0.1331787109375
0.5394134521484375 0.21741104125976562 -0.1787109375
0.531890869140625 0.18425750732421875 -0.2147216796875
0.535247802734375 0.29131317138671875 -0.1993408203125
0.5344085693359375 0.34708786010742188 -0.1282958984375
0.5415802001953125 0.24481964111328125 -0.140869140625
-0.52874755859375 -0.0222015380859375 -0.372314453125
-0.5145263671875 0.021087646484375 -0.3912353515625
-0.51580810546875 -0.042888641357421875 -0.4005126953125
-0.5393524169921875 -0.062946319580078125 -0.3570556640625
-0.538848876953125 -0.00017547607421875 -0.340087890625
-0.5236053466796875 0.043140411376953125 -0.3597412109375
-0.503326416015625 0.0003509521484375 -0.41650390625
-0.5262908935546875 -0.08597564697265625 -0.3829345703125
-0.5505523681640625 -0.0411224365234375 -0.3232421875
0.167266845703125 -0.29519271850585938 0.066650390625
0.134368896484375 -0.3274383544921875 0.07568359375
0.169342041015625 -0.31394195556640625 -0.000244140625
0.2012939453125 -0.25898361206054688 0.0611572265625
0.1670684814453125 -0.2702484130859375 0.1322021484375
0.1343536376953125 -0.30518341064453125 0.1448974609375
0.135711669921875 -0.34611892700195312 0.0047607421875
0.20220947265625 -0.28105545043945312 -0.0048828125
0.2008819580078125 -0.23092269897460938 0.1231689453125
-0.28619384765625 -0.35131072998046875 0.1214599609375
-0.302398681640625 -0.37432861328125 0.0545654296875
-0.2565155029296875 -0.37340164184570312 0.1282958984375
-0.2687835693359375 -0.32451248168945312 0.1829833984375
-0.315338134765625 -0.32836151123046875 0.1151123046875
-0.3288726806640625 -0.3529815673828125 0.0487060546875
-0.274932861328125 -0.39779281616210938 0.056884765625
-0.2368927001953125 -0.3499908447265625 0.1951904296875
-0.2996978759765625 -0.29745101928710938 0.17529296875
0.3148956298828125 -0.169769287109375 0.0350341796875
0.3249664306640625 -0.1327972412109375 0.084716796875
0.2752532958984375 -0.194671630859375 0.0440673828125
0.3061981201171875 -0.1968231201171875 -0.0172119140625
0.352508544921875 -0.14467620849609375 0.0247802734375
0.367889404296875 -0.10631179809570312 0.0704345703125
0.279937744140625 -0.1620025634765625 0.1007080078125
0.270599365234375 -0.22209930419921875 -0.013671875
0.3410797119140625 -0.17512893676757812 -0.02099609375
-0.421356201171875 -0.28087615966796875 0.0806884765625
-0.3828887939453125 -0.291229248046875 0.09326171875
-0.4212799072265625 -0.24867630004882812 0.1302490234375
-0.4563751220703125 -0.27173614501953125 0.0670166015625
-0.4200897216796875 -0.30677413940429688 0.029296875
-0.3877105712890625 -0.31964111328125 0.035400390625
-0.3765869140625 -0.25835037231445312 0.150390625
-0.464141845703125 -0.24026107788085938 0.1072998046875
-0.451629638671875 -0.29941558837890625 0.025146484375
0.333038330078125 -0.01816558837890625 0.24609375
0.3302764892578125 0.0131072998046875 0.2955322265625
0.29559326171875 -0.0421905517578125 0.2659912109375
0.3346405029296875 -0.05498504638671875 0.1929931640625
0.37078857421875 0.01012420654296875 0.2294921875
0.3640899658203125 0.03894805908203125 0.280029296875
0.29498291015625 -0.0091705322265625 0.311767578125
0.2914886474609375 -0.08174896240234375 0.21337890625
0.377655029296875 -0.025272369384765625 0.1748046875
-0.4078826904296875 -0.13862228393554688 0.2747802734375
-0.3648529052734375 -0.14568710327148438 0.2987060546875
-0.3990936279296875 -0.10700607299804688 0.3203125
-0.4484710693359375 -0.13063430786132812 0.2510986328125
-0.415130615234375 -0.17510986328125 0.2291259765625
-0.3678436279296875 -0.1828765869140625 0.251708984375
-0.3588714599609375 -0.11384201049804688 0.3416748046875
-0.436737060546875 -0.098217010498046875 0.29541015625
-0.4597015380859375 -0.16664886474609375 0.2008056640625
0.1951904296875 -0.09346771240234375 0.34326171875
0.195953369140625 -0.069629669189453125 0.36572265625
0.17138671875 -0.105743408203125 0.371826171875
0.189697265625 -0.12225723266601562 0.3201904296875
0.2242431640625 -0.07923126220703125 0.3148193359375
0.225372314453125 -0.04949188232421875 0.3480224609375
0.1719512939453125 -0.0855712890625 0.3856201171875
0.1678466796875 -0.13031768798828125 0.356689453125
0.21710205078125 -0.114898681640625 0.279541015625
-0.2406768798828125 -0.15477371215820312 0.3797607421875
-0.207611083984375 -0.155426025390625 0.4102783203125
-0.2388458251953125 -0.1324920654296875 0.400390625
-0.2786865234375 -0.15311050415039062 0.3499755859375
-0.2389984130859375 -0.18129348754882812 0.3607177734375
-0.205810546875 -0.17746734619140625 0.39697265625
-0.2060089111328125 -0.13738250732421875 0.4232177734375
-0.27630615234375 -0.12549972534179688 0.3812255859375
-0.277801513671875 -0.18585968017578125 0.318603515625
0.158721923828125 -0.21038436889648438 0.2708740234375
0.1448974609375 -0.22169113159179688 0.2886962890625
0.162506103515625 -0.2240753173828125 0.2392578125
0.169586181640625 -0.18524551391601562 0.281982421875
0.1530914306640625 -0.19025421142578125 0.3175048828125
0.1391448974609375 -0.25160980224609375 0.25537109375
0.184814453125 -0.1909027099609375 0.23779296875
-0.2209930419921875 -0.25656890869140625 0.3187255859375
-0.233795166015625 -0.27338409423828125 0.2874755859375
-0.201873779296875 -0.26122283935546875 0.3388671875
-0.227447509765625 -0.23615264892578125 0.3289794921875
-0.2553558349609375 -0.24921035766601562 0.2835693359375
-0.2085113525390625 -0.29151535034179688 0.3037109375
-0.2013397216796875 -0.23153305053710938 0.3626708984375
