# XYZ point cloud file
0.11056900024414062 -0.2884979248046875 -0.4044189453125
-0.027645111083984375 -0.3195343017578125 -0.42974853515625
-0.229766845703125 -0.2748260498046875 -0.45672607421875
-0.2931365966796875 -0.2608184814453125 -0.43243408203125
-0.21377182006835938 -0.23285675048828125 -0.509033203125
-0.1596527099609375 -0.28511810302734375 -0.477264404296875
-0.24269485473632812 -0.306915283203125 -0.400299072265625
-0.30427932739257812 -0.28926849365234375 -0.3778076171875
-0.28009796142578125 -0.22289276123046875 -0.483123779296875
-0.14117050170898438 -0.24031829833984375 -0.52960205078125
-0.17421722412109375 -0.31928253173828125 -0.420196533203125
0.015346527099609375 -0.36258697509765625 -0.223541259765625
0.0228271484375 -0.3514556884765625 -0.29644775390625
0.080898284912109375 -0.3417816162109375 -0.218597412109375
0.0105133056640625 -0.365264892578125 -0.143341064453125
-0.054027557373046875 -0.3756866455078125 -0.2254638671875
-0.048450469970703125 -0.3648681640625 -0.301605224609375
0.089786529541015625 -0.33068084716796875 -0.288818359375
0.07366943359375 -0.3448638916015625 -0.141265869140625
-0.05606842041015625 -0.3779449462890625 -0.14263916015625
-0.25497055053710938 -0.3553314208984375 -0.1907958984375
-0.31220245361328125 -0.3321685791015625 -0.173004150390625
-0.2559356689453125 -0.34661865234375 -0.267974853515625
-0.19175338745117188 -0.37198638916015625 -0.209075927734375
-0.24888229370117188 -0.356170654296875 -0.107452392578125
-0.30428695678710938 -0.33283233642578125 -0.0906982421875
-0.314910888671875 -0.3242340087890625 -0.249298095703125
-0.19057083129882812 -0.36241912841796875 -0.286834716796875
-0.18796920776367188 -0.37298583984375 -0.124542236328125
0.014064788818359375 -0.319091796875 0.140167236328125
0.010074615478515625 -0.3418426513671875 0.04217529296875
0.06630706787109375 -0.30108642578125 0.133087158203125
0.018817901611328125 -0.2940521240234375 0.23187255859375
-0.04041290283203125 -0.32907867431640625 0.14813232421875
-0.048458099365234375 -0.3525848388671875 0.047943115234375
0.066192626953125 -0.32341766357421875 0.0379638671875
0.06746673583984375 -0.275604248046875 0.22503662109375
-0.0311737060546875 -0.3036956787109375 0.241363525390625
-0.20194244384765625 -0.30814361572265625 0.1763916015625
-0.251678466796875 -0.28609466552734375 0.184600830078125
-0.2212677001953125 -0.330902099609375 0.078948974609375
-0.14949417114257812 -0.32323455810546875 0.166778564453125
-0.18193435668945312 -0.283233642578125 0.267730712890625
-0.2290802001953125 -0.260406494140625 0.27655029296875
-0.27282333374023438 -0.30829620361328125 0.090423583984375
-0.16586685180664062 -0.34698486328125 0.067047119140625
-0.1323394775390625 -0.2980499267578125 0.25958251953125
0.026401519775390625 -0.2508544921875 0.403045654296875
0.02529144287109375 -0.25836944580078125 0.36480712890625
0.061939239501953125 -0.23662567138671875 0.396453857421875
0.027191162109375 -0.248809814453125 0.43072509765625
-0.012714385986328125 -0.2579498291015625 0.41424560546875
-0.0168914794921875 -0.26634979248046875 0.37567138671875
0.06501007080078125 -0.24163055419921875 0.358795166015625
0.06041717529296875 -0.23628997802734375 0.423553466796875
-0.009555816650390625 -0.2553558349609375 0.441650390625
-0.13718032836914062 -0.2397003173828125 0.435394287109375
-0.17396163940429688 -0.2214202880859375 0.442626953125
-0.1486358642578125 -0.2471771240234375 0.398529052734375
-0.096340179443359375 -0.25232696533203125 0.431243896484375
-0.12788772583007812 -0.23813629150390625 0.4622802734375
-0.16276168823242188 -0.22101593017578125 0.468353271484375
-0.189178466796875 -0.22637176513671875 0.406463623046875
-0.1051177978515625 -0.2606658935546875 0.392669677734375
-0.08917236328125 -0.25 0.458160400390625
0.12989425659179688 -0.15389251708984375 0.446014404296875
0.12985610961914062 -0.16481781005859375 0.459381103515625
0.11336517333984375 -0.1858673095703125 0.41741943359375
0.1332244873046875 -0.144622802734375 0.4300537109375
0.143890380859375 -0.12303924560546875 0.479339599609375
0.14617538452148438 -0.13935089111328125 0.48822021484375
0.11124801635742188 -0.19223785400390625 0.436920166015625
0.11902999877929688 -0.18236541748046875 0.392303466796875
0.14467239379882812 -0.10772705078125 0.469024658203125
-0.23114776611328125 -0.1338653564453125 0.5120849609375
-0.22107696533203125 -0.16619873046875 0.480499267578125
-0.2236328125 -0.1437835693359375 0.52679443359375
-0.23688888549804688 -0.10269927978515625 0.54742431640625
-0.24184799194335938 -0.12528228759765625 0.494598388671875
-0.23581695556640625 -0.1629180908203125 0.45550537109375
-0.2108306884765625 -0.17205810546875 0.500274658203125
-0.23186492919921875 -0.1174163818359375 0.559295654296875
-0.2445526123046875 -0.08911895751953125 0.533905029296875
0.54156112670898438 0.23021697998046875 0.277252197265625
0.52429580688476562 0.2534332275390625 0.336517333984375
0.51315689086914062 0.18132781982421875 0.283843994140625
0.5603179931640625 0.207305908203125 0.217132568359375
0.56058502197265625 0.2846221923828125 0.2779541015625
0.54522705078125 0.30295562744140625 0.3341064453125
0.4956817626953125 0.21063232421875 0.345367431640625
0.532623291015625 0.1490478515625 0.218353271484375
0.5776214599609375 0.2681427001953125 0.221405029296875
-0.73035812377929688 0.18122100830078125 0.25469970703125
-0.69515609741210938 0.1470947265625 0.288055419921875
-0.718719482421875 0.20613861083984375 0.316162109375
-0.75876998901367188 0.21949005126953125 0.224151611328125
-0.7432403564453125 0.155792236328125 0.1904296875
-0.71038055419921875 0.11460113525390625 0.2235107421875
-0.68129348754882812 0.17722320556640625 0.34912109375
-0.75069427490234375 0.2407684326171875 0.2861328125
-0.76832199096679688 0.19931793212890625 0.161590576171875
0.17701339721679688 -0.00733184814453125 -0.61700439453125
0.2119293212890625 0.0883026123046875 -0.633270263671875
0.24454498291015625 -0.0023956298828125 -0.578369140625
0.14022445678710938 -0.093536376953125 -0.588897705078125
0.10108566284179688 -0.01374053955078125 -0.647705078125
0.13342666625976562 0.08338165283203125 -0.668548583984375
0.2807464599609375 0.091583251953125 -0.59112548828125
0.20602798461914062 -0.0857696533203125 -0.554840087890625
0.066524505615234375 -0.10073089599609375 -0.61553955078125
-0.15677642822265625 -0.0323333740234375 -0.649749755859375
-0.24031829833984375 -0.0382537841796875 -0.625335693359375
-0.138916015625 0.05590057373046875 -0.68170166015625
-0.06909942626953125 -0.02610015869140625 -0.66461181640625
-0.17656326293945312 -0.1112060546875 -0.606964111328125
-0.25339508056640625 -0.11151885986328125 -0.580108642578125
-0.22807693481445312 0.04427337646484375 -0.660064697265625
-0.04537200927734375 0.06653594970703125 -0.69354248046875
-0.0948028564453125 -0.11005401611328125 -0.625
0.072978973388671875 0.87659454345703125 -0.052093505859375
0.0489501953125 0.87978363037109375 0.020416259765625
0.15731048583984375 0.87468719482421875 -0.02587890625
0.10103225708007812 0.860504150390625 -0.124603271484375
-0.015819549560546875 0.86829376220703125 -0.084228515625
-0.0415191650390625 0.87310791015625 -0.00848388671875
0.13500213623046875 0.87734222412109375 0.04254150390625
0.18318557739257812 0.85999298095703125 -0.094573974609375
0.01351165771484375 0.85135650634765625 -0.159820556640625
-0.2811737060546875 0.8016510009765625 -0.188385009765625
-0.35851287841796875 0.76776123046875 -0.220855712890625
-0.307373046875 0.80724334716796875 -0.111785888671875
-0.19614028930664062 0.82981109619140625 -0.154327392578125
-0.2524566650390625 0.78452301025390625 -0.263763427734375
-0.33119583129882812 0.751739501953125 -0.293426513671875
-0.38358306884765625 0.7728271484375 -0.146514892578125
-0.22259902954101562 0.8360137939453125 -0.076202392578125
-0.16623687744140625 0.81189727783203125 -0.2313232421875
0.19275283813476562 0.74706268310546875 -0.3416748046875
0.16249465942382812 0.79571533203125 -0.2701416015625
0.2681884765625 0.75287628173828125 -0.299407958984375
0.219879150390625 0.68538665771484375 -0.410552978515625
0.11002349853515625 0.73297882080078125 -0.386077880859375
0.07834625244140625 0.783477783203125 -0.3116455078125
0.24021148681640625 0.79918670654296875 -0.231658935546875
0.29315185546875 0.692962646484375 -0.36480712890625
0.13846969604492188 0.67031097412109375 -0.457183837890625
-0.16115188598632812 0.67273712158203125 -0.4783935546875
-0.24726104736328125 0.64630889892578125 -0.494659423828125
-0.19045639038085938 0.72008514404296875 -0.4100341796875
-0.0697479248046875 0.694915771484375 -0.456756591796875
-0.13615036010742188 0.61328125 -0.541900634765625
-0.22479629516601562 0.58962249755859375 -0.552825927734375
-0.27379608154296875 0.69060516357421875 -0.43115234375
-0.1011199951171875 0.744415283203125 -0.38299560546875
-0.04238128662109375 0.63309478759765625 -0.52520751953125
0.2603759765625 0.41207122802734375 -0.5804443359375
0.25520706176757812 0.51593017578125 -0.532745361328125
0.3314056396484375 0.41733551025390625 -0.53143310546875
0.2552642822265625 0.30223846435546875 -0.615631103515625
0.17929458618164062 0.40100860595703125 -0.626068115234375
0.17464447021484375 0.502410888671875 -0.57952880859375
0.32662200927734375 0.52309417724609375 -0.4832763671875
0.32637786865234375 0.30548858642578125 -0.568359375
0.1744842529296875 0.29476165771484375 -0.6580810546875
-0.10728073120117188 0.35491943359375 -0.678192138671875
-0.2027587890625 0.3358306884765625 -0.670867919921875
-0.10856246948242188 0.4526214599609375 -0.6446533203125
-0.0077972412109375 0.37176513671875 -0.6767578125
-0.11277008056640625 0.253326416015625 -0.6968994140625
-0.2082366943359375 0.2349090576171875 -0.68402099609375
-0.20238494873046875 0.4321441650390625 -0.6429443359375
-0.010589599609375 0.46973419189453125 -0.6376953125
-0.01326751708984375 0.26912689208984375 -0.7003173828125
0.45073699951171875 0.62042999267578125 0.3883056640625
0.45360565185546875 0.6358184814453125 0.425201416015625
0.4767608642578125 0.6001434326171875 0.386383056640625
0.44984054565429688 0.611236572265625 0.34906005859375
0.42183685302734375 0.63555145263671875 0.387237548828125
0.423370361328125 0.65161895751953125 0.425750732421875
0.4800262451171875 0.61444854736328125 0.422149658203125
0.475799560546875 0.5911712646484375 0.348297119140625
0.42151641845703125 0.62604522705078125 0.3460693359375
-0.75058364868164062 0.49077606201171875 0.191070556640625
-0.76935958862304688 0.4710540771484375 0.193023681640625
-0.76854324340820312 0.50429534912109375 0.22540283203125
-0.72799301147460938 0.50765228271484375 0.190521240234375
-0.73424148559570312 0.48138427734375 0.14990234375
-0.7545166015625 0.46158599853515625 0.15289306640625
-0.7863311767578125 0.48378753662109375 0.2274169921875
-0.74588775634765625 0.52194976806640625 0.225860595703125
-0.71117019653320312 0.4978485107421875 0.14715576171875
0.46870040893554688 0.63919830322265625 0.216766357421875
0.45864105224609375 0.62194061279296875 0.263031005859375
0.49708175659179688 0.61354827880859375 0.222442626953125
0.48107147216796875 0.6574859619140625 0.168731689453125
0.4377899169921875 0.66015625 0.208465576171875
0.42937469482421875 0.63990020751953125 0.256317138671875
0.485809326171875 0.59925079345703125 0.266326904296875
0.51065826416015625 0.62899017333984375 0.176971435546875
0.44878005981445312 0.6813812255859375 0.158294677734375
-0.70340347290039062 0.488861083984375 -0.029449462890625
-0.73028564453125 0.463958740234375 -0.018646240234375
-0.71124267578125 0.4810333251953125 0.038787841796875
-0.6748809814453125 0.5113067626953125 -0.038482666015625
-0.69595718383789062 0.496429443359375 -0.100189208984375
-0.7251739501953125 0.4687347412109375 -0.086639404296875
-0.73551559448242188 0.45891571044921875 0.046539306640625
-0.6848602294921875 0.50052642822265625 0.031829833984375
-0.66480636596679688 0.52199554443359375 -0.11187744140625
0.52444076538085938 0.669342041015625 0.01837158203125
0.50951385498046875 0.674713134765625 0.06903076171875
0.55292129516601562 0.63623809814453125 0.03179931640625
0.53952407836914062 0.6551666259765625 -0.032745361328125
0.49163436889648438 0.69811248779296875 0.003326416015625
0.47595596313476562 0.70291900634765625 0.05535888671875
0.53901290893554688 0.6423492431640625 0.08135986328125
0.5666656494140625 0.6217498779296875 -0.018218994140625
0.50783538818359375 0.68436431884765625 -0.048919677734375
-0.65972137451171875 0.48670196533203125 -0.2962646484375
-0.694000244140625 0.45500946044921875 -0.2757568359375
-0.67435073852539062 0.496917724609375 -0.235565185546875
-0.62312698364257812 0.517303466796875 -0.312225341796875
-0.64385986328125 0.47043609619140625 -0.35247802734375
-0.67889404296875 0.4384918212890625 -0.330841064453125
-0.7071990966796875 0.46544647216796875 -0.21649169921875
-0.63927459716796875 0.52695465087890625 -0.250457763671875
-0.60626220703125 0.500946044921875 -0.369049072265625
0.58347702026367188 0.56426239013671875 -0.18389892578125
0.56998062133789062 0.6025390625 -0.13507080078125
0.60509490966796875 0.53296661376953125 -0.167083740234375
0.59334945678710938 0.5171051025390625 -0.228973388671875
0.55582046508789062 0.5923004150390625 -0.20257568359375
0.54098129272460938 0.6314697265625 -0.15264892578125
0.59392547607421875 0.5694580078125 -0.118988037109375
0.61200714111328125 0.49112701416015625 -0.209869384765625
0.567535400390625 0.54283905029296875 -0.249267578125
-0.60149002075195312 0.3841400146484375 -0.49237060546875
-0.63793182373046875 0.35469818115234375 -0.46820068359375
-0.61374664306640625 0.418609619140625 -0.45196533203125
-0.56059646606445312 0.41374969482421875 -0.512847900390625
-0.59185791015625 0.343902587890625 -0.522979736328125
-0.626922607421875 0.31939697265625 -0.49725341796875
-0.650482177734375 0.3875885009765625 -0.428680419921875
-0.57382965087890625 0.44915771484375 -0.47064208984375
-0.55094146728515625 0.370849609375 -0.54510498046875
0.59339141845703125 0.312744140625 -0.324981689453125
0.58070755004882812 0.23043060302734375 -0.3427734375
0.56891632080078125 0.32302093505859375 -0.354034423828125
0.599365234375 0.390228271484375 -0.29962158203125
0.6140289306640625 0.30971527099609375 -0.292236328125
0.60462570190429688 0.23279571533203125 -0.30828857421875
0.55492401123046875 0.23584747314453125 -0.374359130859375
0.57521438598632812 0.40648651123046875 -0.32611083984375
0.61677932739257812 0.37990570068359375 -0.272247314453125
-0.5927276611328125 0.17934417724609375 -0.533294677734375
-0.55075836181640625 0.19168853759765625 -0.563385009765625
-0.597198486328125 0.11590576171875 -0.512359619140625
-0.63074493408203125 0.1748046875 -0.5003662109375
-0.5883026123046875 0.2406463623046875 -0.543670654296875
-0.54681777954101562 0.2580413818359375 -0.570953369140625
-0.55498886108398438 0.123077392578125 -0.544036865234375
-0.6372528076171875 0.11560821533203125 -0.47869873046875
-0.62369918823242188 0.22971343994140625 -0.512969970703125
0.47956085205078125 0.38210296630859375 -0.42437744140625
0.44023895263671875 0.40145111083984375 -0.450592041015625
0.48045730590820312 0.48188018798828125 -0.384490966796875
0.51247406005859375 0.36052703857421875 -0.402374267578125
0.469970703125 0.2780914306640625 -0.455413818359375
0.43255615234375 0.29262542724609375 -0.48492431640625
0.43874359130859375 0.50576019287109375 -0.406982421875
0.51566696166992188 0.4547119140625 -0.366912841796875
0.500946044921875 0.26216888427734375 -0.428497314453125
-0.4136199951171875 0.25995635986328125 -0.6292724609375
-0.41010665893554688 0.344573974609375 -0.62115478515625
-0.356781005859375 0.28705596923828125 -0.6446533203125
-0.41908645629882812 0.17272186279296875 -0.623931884765625
-0.46211624145507812 0.23380279541015625 -0.61102294921875
-0.45830154418945312 0.31201171875 -0.609588623046875
-0.35411834716796875 0.3774261474609375 -0.629974365234375
-0.36240005493164062 0.1939697265625 -0.645538330078125
-0.46728134155273438 0.1530303955078125 -0.600341796875
0.44329071044921875 0.6937103271484375 -0.234619140625
0.3935394287109375 0.72547149658203125 -0.245452880859375
0.42296600341796875 0.73490142822265625 -0.1790771484375
0.48615646362304688 0.657257080078125 -0.227783203125
0.46081161499023438 0.63970184326171875 -0.288421630859375
0.41360092163085938 0.6697998046875 -0.3026123046875
0.37108993530273438 0.7675018310546875 -0.18646240234375
0.46788787841796875 0.6974029541015625 -0.174560546875
0.50133514404296875 0.60543060302734375 -0.277923583984375
-0.43452072143554688 0.530731201171875 -0.527984619140625
-0.45297622680664062 0.5687713623046875 -0.47821044921875
-0.38422393798828125 0.5741119384765625 -0.519500732421875
-0.42016220092773438 0.4820556640625 -0.569610595703125
-0.4779815673828125 0.48691558837890625 -0.530914306640625
-0.49415206909179688 0.52417755126953125 -0.484283447265625
-0.4051361083984375 0.6139068603515625 -0.465576171875
-0.36773300170898438 0.52307891845703125 -0.56573486328125
-0.46565628051757812 0.440582275390625 -0.568572998046875
0.35994338989257812 0.8016204833984375 -0.006134033203125
0.30162429809570312 0.83548736572265625 -0.00421142578125
0.3422698974609375 0.8042449951171875 0.05126953125
0.41009521484375 0.7644195556640625 -0.00921630859375
0.3798980712890625 0.788330078125 -0.064453125
0.32349777221679688 0.82210540771484375 -0.064544677734375
0.28271102905273438 0.8376007080078125 0.0562744140625
0.393402099609375 0.76760101318359375 0.045440673828125
0.42870330810546875 0.75080108642578125 -0.064605712890625
-0.51759719848632812 0.63790130615234375 -0.30133056640625
-0.53839874267578125 0.644012451171875 -0.23455810546875
-0.47636032104492188 0.6843719482421875 -0.278839111328125
-0.49578094482421875 0.6222381591796875 -0.364410400390625
-0.55310440063476562 0.5924072265625 -0.315338134765625
-0.57229995727539062 0.59973907470703125 -0.251434326171875
-0.49868392944335938 0.68964385986328125 -0.209716796875
-0.4527130126953125 0.66855621337890625 -0.3447265625
-0.5330047607421875 0.576385498046875 -0.3759765625
0.31178665161132812 0.73773193359375 0.219451904296875
0.25277328491210938 0.7654571533203125 0.2310791015625
0.30788803100585938 0.70742034912109375 0.2705078125
0.361236572265625 0.70867919921875 0.208404541015625
0.31797027587890625 0.76904296875 0.16522216796875
0.25829315185546875 0.79889678955078125 0.174957275390625
0.2500762939453125 0.732696533203125 0.283782958984375
0.35586929321289062 0.68169403076171875 0.259002685546875
0.3686676025390625 0.73681640625 0.1556396484375
-0.58672714233398438 0.6032867431640625 -0.010162353515625
-0.59943389892578125 0.58258056640625 0.061279296875
-0.5485992431640625 0.64171600341796875 0.01788330078125
-0.57297515869140625 0.62450408935546875 -0.087188720703125
-0.61779022216796875 0.56746673583984375 -0.03057861328125
-0.63042449951171875 0.54994964599609375 0.04132080078125
-0.56099700927734375 0.61777496337890625 0.08935546875
-0.5348052978515625 0.66616058349609375 -0.0592041015625
-0.60463714599609375 0.5852508544921875 -0.106414794921875
0.30168914794921875 0.689727783203125 0.4002685546875
0.29911422729492188 0.70697784423828125 0.43524169921875
0.34844207763671875 0.66910552978515625 0.392547607421875
0.30352401733398438 0.681640625 0.361846923828125
0.2461090087890625 0.70925140380859375 0.409210205078125
0.243316650390625 0.7276611328125 0.441253662109375
0.34722518920898438 0.686126708984375 0.429595947265625
0.35005950927734375 0.660064697265625 0.3514404296875
0.247772216796875 0.702178955078125 0.373260498046875
-0.64206314086914062 0.5749969482421875 0.216094970703125
-0.67473220825195312 0.548583984375 0.201995849609375
-0.65769577026367188 0.59032440185546875 0.249237060546875
-0.60192489624023438 0.60272979736328125 0.236328125
-0.6267547607421875 0.566619873046875 0.175537109375
-0.65861129760742188 0.53919219970703125 0.158538818359375
-0.69112014770507812 0.56390380859375 0.237518310546875
-0.61713409423828125 0.61844635009765625 0.26483154296875
-0.58740997314453125 0.5959320068359375 0.199554443359375
0.00949859619140625 0.8100433349609375 0.232818603515625
0.00652313232421875 0.77486419677734375 0.2974853515625
0.1005096435546875 0.80385589599609375 0.2398681640625
0.01705169677734375 0.8439178466796875 0.163360595703125
-0.0863037109375 0.80767059326171875 0.219146728515625
-0.091907501220703125 0.77269744873046875 0.293426513671875
0.098636627197265625 0.76863861083984375 0.2982177734375
0.10650634765625 0.8383941650390625 0.17620849609375
-0.07665252685546875 0.84070587158203125 0.1434326171875
-0.35987091064453125 0.74982452392578125 0.127471923828125
-0.4358673095703125 0.7175445556640625 0.08905029296875
-0.37160110473632812 0.718475341796875 0.201080322265625
-0.2746124267578125 0.77703094482421875 0.16558837890625
-0.3463897705078125 0.7787628173828125 0.048797607421875
-0.42232131958007812 0.74565887451171875 0.011077880859375
-0.447845458984375 0.6881561279296875 0.16046142578125
-0.28528976440429688 0.74322509765625 0.2435302734375
-0.26175689697265625 0.80731201171875 0.0843505859375
0.01056671142578125 0.80438232421875 0.46563720703125
-0.032764434814453125 0.79370880126953125 0.468658447265625
-0.0055694580078125 0.8360443115234375 0.4647216796875
0.051090240478515625 0.819305419921875 0.468292236328125
0.024028778076171875 0.773193359375 0.466064453125
-0.03078460693359375 0.759033203125 0.470123291015625
-0.0392608642578125 0.8266754150390625 0.467864990234375
0.025981903076171875 0.8472747802734375 0.4681396484375
0.0785369873046875 0.78936004638671875 0.4683837890625
-0.45435333251953125 0.7363433837890625 0.35003662109375
-0.45859146118164062 0.7667236328125 0.346588134765625
-0.4118499755859375 0.73828125 0.3748779296875
-0.449066162109375 0.70717620849609375 0.354949951171875
-0.49845123291015625 0.73813629150390625 0.332183837890625
-0.4928131103515625 0.76784515380859375 0.332427978515625
-0.42559432983398438 0.76801300048828125 0.366943359375
-0.39443588256835938 0.70822906494140625 0.384735107421875
-0.50639724731445312 0.70697021484375 0.331085205078125
0.027217864990234375 0.72515869140625 0.42724609375
0.032756805419921875 0.73150634765625 0.449615478515625
0.1060333251953125 0.72771453857421875 0.422393798828125
0.01761627197265625 0.72945404052734375 0.39569091796875
-0.048450469970703125 0.71765899658203125 0.4315185546875
-0.037258148193359375 0.71872711181640625 0.453582763671875
0.10695266723632812 0.74011993408203125 0.447479248046875
0.1029510498046875 0.72743988037109375 0.39044189453125
-0.069622039794921875 0.72469329833984375 0.401031494140625
-0.41641616821289062 0.66732025146484375 0.33099365234375
-0.48692703247070312 0.650604248046875 0.295379638671875
-0.43053054809570312 0.6704559326171875 0.348236083984375
-0.34691619873046875 0.67856597900390625 0.36767578125
-0.399993896484375 0.67437744140625 0.303466796875
-0.47294998168945312 0.6515960693359375 0.2642822265625
-0.50091934204101562 0.660369873046875 0.315399169921875
-0.36295318603515625 0.675933837890625 0.383544921875
-0.32284927368164062 0.69089508056640625 0.345703125
-0.15989303588867188 0.681732177734375 0.453125
-0.15742111206054688 0.674774169921875 0.467071533203125
-0.14508056640625 0.69207000732421875 0.445648193359375
-0.17699813842773438 0.680023193359375 0.44659423828125
-0.17715835571289062 0.66800689697265625 0.465179443359375
-0.13241195678710938 0.68793487548828125 0.46478271484375
-0.16909027099609375 0.69704437255859375 0.42669677734375
-0.23331832885742188 0.67256927490234375 0.439117431640625
-0.25068283081054688 0.6787109375 0.425018310546875
-0.23434066772460938 0.66535186767578125 0.45263671875
-0.21572113037109375 0.67533111572265625 0.4390869140625
-0.227508544921875 0.68972015380859375 0.4154052734375
-0.2635498046875 0.6713409423828125 0.438690185546875
-0.21236419677734375 0.6637115478515625 0.459197998046875
0.54781341552734375 0.46755218505859375 0.332122802734375
0.54370498657226562 0.47969818115234375 0.375030517578125
0.56293106079101562 0.40592193603515625 0.306732177734375
0.55440902709960938 0.4591064453125 0.28765869140625
0.52605056762695312 0.52381134033203125 0.357086181640625
0.52580642700195312 0.53609466552734375 0.396087646484375
0.55462265014648438 0.41852569580078125 0.354522705078125
0.57349014282226562 0.39593505859375 0.258209228515625
0.529052734375 0.5156097412109375 0.317230224609375
-0.79549789428710938 0.35953521728515625 0.189910888671875
-0.79138946533203125 0.310943603515625 0.191802978515625
-0.802001953125 0.3730926513671875 0.23699951171875
-0.79264068603515625 0.405242919921875 0.191741943359375
-0.791168212890625 0.3480072021484375 0.138885498046875
-0.79188156127929688 0.29701995849609375 0.13543701171875
-0.79271697998046875 0.32614898681640625 0.245697021484375
-0.80378341674804688 0.41778564453125 0.2320556640625
-0.78403091430664062 0.39516448974609375 0.14654541015625
0.58271408081054688 0.46820068359375 0.169342041015625
0.60425186157226562 0.3989105224609375 0.13714599609375
0.5932769775390625 0.47606658935546875 0.133331298828125
0.55521011352539062 0.52919769287109375 0.198974609375
0.5725250244140625 0.45989227294921875 0.206298828125
0.59479141235351562 0.39345550537109375 0.173004150390625
0.61347579956054688 0.40459442138671875 0.102264404296875
0.56732177734375 0.53926849365234375 0.159881591796875
0.54407501220703125 0.51903533935546875 0.237274169921875
-0.78627777099609375 0.33719635009765625 -0.020751953125
-0.78416824340820312 0.33736419677734375 -0.0738525390625
-0.79305648803710938 0.2812652587890625 -0.02423095703125
-0.78759765625 0.33737945556640625 0.0325927734375
-0.77296066284179688 0.38861846923828125 -0.0147705078125
-0.77027511596679688 0.39017486572265625 -0.073089599609375
-0.79122161865234375 0.27939605712890625 -0.073883056640625
-0.79352951049804688 0.28271484375 0.026092529296875
-0.77485275268554688 0.387786865234375 0.04266357421875
0.61748886108398438 0.47417449951171875 0.016815185546875
0.63216781616210938 0.408599853515625 -0.004119873046875
0.6236572265625 0.4592437744140625 -0.026885986328125
0.59917068481445312 0.53813934326171875 0.03216552734375
0.61082839965820312 0.48136138916015625 0.057525634765625
0.62746810913085938 0.411468505859375 0.031829833984375
0.63657379150390625 0.39522552490234375 -0.043914794921875
0.6079559326171875 0.52309417724609375 -0.01416015625
0.58989715576171875 0.54581451416015625 0.076904296875
-0.7591094970703125 0.32010650634765625 -0.223602294921875
-0.74634933471679688 0.30437469482421875 -0.269073486328125
-0.7686004638671875 0.26828765869140625 -0.21343994140625
-0.77057266235351562 0.33016204833984375 -0.1761474609375
-0.74436187744140625 0.37139129638671875 -0.237335205078125
-0.73070144653320312 0.355010986328125 -0.28741455078125
-0.75725173950195312 0.25405120849609375 -0.255462646484375
-0.77885055541992188 0.274658203125 -0.168792724609375
-0.75630950927734375 0.38288116455078125 -0.1854248046875
0.637359619140625 0.3756561279296875 -0.167449951171875
0.6357574462890625 0.3430633544921875 -0.2132568359375
0.63097763061523438 0.43671417236328125 -0.158966064453125
0.63450241088867188 0.40769195556640625 -0.1195068359375
0.64228057861328125 0.31764984130859375 -0.1788330078125
0.63641738891601562 0.27974700927734375 -0.22515869140625
0.63220977783203125 0.4044342041015625 -0.2021484375
0.62505722045898438 0.470245361328125 -0.111175537109375
0.64283370971679688 0.34889984130859375 -0.13214111328125
-0.704498291015625 0.228302001953125 -0.395904541015625
-0.6894073486328125 0.27577972412109375 -0.41729736328125
-0.68642807006835938 0.200653076171875 -0.432647705078125
-0.71607589721679688 0.183197021484375 -0.37744140625
-0.71935272216796875 0.25658416748046875 -0.355987548828125
-0.70337295532226562 0.3052520751953125 -0.378082275390625
-0.67321395874023438 0.24853515625 -0.451141357421875
-0.6970977783203125 0.15169525146484375 -0.412139892578125
-0.73162841796875 0.21073150634765625 -0.33782958984375
0.19953536987304688 -0.21315765380859375 0.10614013671875
0.15867996215820312 -0.2465667724609375 0.115478515625
0.20465850830078125 -0.23779296875 0.023651123046875
0.24003219604492188 -0.17859649658203125 0.098114013671875
0.19511795043945312 -0.18399810791015625 0.18658447265625
0.15507888793945312 -0.21936798095703125 0.20098876953125
0.16353607177734375 -0.269805908203125 0.028900146484375
0.2438507080078125 -0.20589447021484375 0.018402099609375
0.23593521118164062 -0.14447784423828125 0.177825927734375
-0.37923049926757812 -0.1952056884765625 0.180816650390625
-0.39676284790039062 -0.22064971923828125 0.097564697265625
-0.33965301513671875 -0.22797393798828125 0.18719482421875
-0.3602142333984375 -0.16638946533203125 0.259002685546875
-0.41863632202148438 -0.16260528564453125 0.17279052734375
-0.43220138549804688 -0.19051361083984375 0.0928955078125
-0.360076904296875 -0.25131988525390625 0.10009765625
-0.31813812255859375 -0.20061492919921875 0.270751953125
-0.40239715576171875 -0.129425048828125 0.251007080078125
0.37857437133789062 -0.09423065185546875 0.06884765625
0.38773727416992188 -0.0536956787109375 0.13311767578125
0.32988357543945312 -0.1181640625 0.07958984375
0.37032318115234375 -0.127227783203125 0.0047607421875
0.4250640869140625 -0.07390594482421875 0.05706787109375
0.44104766845703125 -0.0298309326171875 0.114593505859375
0.33284759521484375 -0.078399658203125 0.1522216796875
0.32648086547851562 -0.1496734619140625 0.00897216796875
0.41308975219726562 -0.10898590087890625 0.000732421875
-0.555908203125 -0.088165283203125 0.140777587890625
-0.50754165649414062 -0.10799407958984375 0.15325927734375
-0.56027603149414062 -0.049591064453125 0.2008056640625
-0.60208892822265625 -0.071624755859375 0.126251220703125
-0.55157089233398438 -0.12017822265625 0.07818603515625
-0.5097503662109375 -0.13954925537109375 0.08306884765625
-0.502960205078125 -0.06963348388671875 0.222808837890625
-0.6147613525390625 -0.031646728515625 0.17669677734375
-0.59275436401367188 -0.1047210693359375 0.073455810546875
0.38807296752929688 0.08264923095703125 0.332244873046875
0.3810577392578125 0.12120819091796875 0.392333984375
0.33977508544921875 0.06243133544921875 0.35498046875
0.39327621459960938 0.03833770751953125 0.265838623046875
0.434539794921875 0.10788726806640625 0.31182861328125
0.42261123657226562 0.14484405517578125 0.373138427734375
0.33680343627929688 0.1021270751953125 0.41375732421875
0.33873748779296875 0.01570892333984375 0.291839599609375
0.44665908813476562 0.0646514892578125 0.243621826171875
-0.55271530151367188 0.07888031005859375 0.381744384765625
-0.49766921997070312 0.063507080078125 0.410308837890625
-0.5450897216796875 0.1156768798828125 0.437408447265625
-0.60515213012695312 0.096466064453125 0.352874755859375
-0.55894851684570312 0.03673553466796875 0.32122802734375
-0.49836349487304688 0.01947784423828125 0.351806640625
-0.4931182861328125 0.10172271728515625 0.464508056640625
-0.59376144409179688 0.1323394775390625 0.41070556640625
-0.61704635620117188 0.05558013916015625 0.290313720703125
0.21319580078125 0.019500732421875 0.45379638671875
0.2127685546875 0.04740142822265625 0.48358154296875
0.18360519409179688 0.00983428955078125 0.4901123046875
0.2093963623046875 -0.01300811767578125 0.422882080078125
0.25017929077148438 0.03136444091796875 0.41729736328125
0.24994659423828125 0.06549072265625 0.459686279296875
0.18243789672851562 0.03348541259765625 0.509307861328125
0.18123245239257812 -0.01812744140625 0.469757080078125
0.244781494140625 -0.0090179443359375 0.372100830078125
-0.340606689453125 0.02924346923828125 0.50897216796875
-0.29900741577148438 0.02124786376953125 0.544281005859375
-0.34024429321289062 0.05548858642578125 0.535125732421875
-0.38919448852539062 0.038818359375 0.473388671875
-0.3365631103515625 -0.0016632080078125 0.481597900390625
-0.29523849487304688 -0.004974365234375 0.527252197265625
-0.29918670654296875 0.04349517822265625 0.560638427734375
-0.38801193237304688 0.07117462158203125 0.512420654296875
-0.38495254516601562 0.00084686279296875 0.43231201171875
0.17668914794921875 -0.11179351806640625 0.359161376953125
0.159454345703125 -0.12226104736328125 0.3831787109375
0.18269729614257812 -0.1291351318359375 0.319366455078125
0.1882171630859375 -0.0840301513671875 0.37420654296875
0.16742706298828125 -0.0857391357421875 0.418792724609375
0.15500640869140625 -0.156585693359375 0.33746337890625
0.2098388671875 -0.09305572509765625 0.318389892578125
-0.30645751953125 -0.09531402587890625 0.42474365234375
-0.32067108154296875 -0.11222076416015625 0.386444091796875
-0.28305435180664062 -0.104583740234375 0.448211669921875
-0.3165740966796875 -0.0687103271484375 0.4384765625
-0.3502197265625 -0.07816314697265625 0.384796142578125
-0.28758621215820312 -0.13843536376953125 0.40374755859375
-0.28457260131835938 -0.0695037841796875 0.481964111328125
0.18452072143554688 0.08464813232421875 0.536590576171875
0.1944427490234375 0.09564971923828125 0.5369873046875
0.16599655151367188 0.0774383544921875 0.545501708984375
0.19503402709960938 0.08042144775390625 0.526458740234375
0.22015380859375 0.0975189208984375 0.520172119140625
0.17123794555664062 0.088592529296875 0.549041748046875
0.17035293579101562 0.06623077392578125 0.5379638671875
-0.30949783325195312 0.0908660888671875 0.581024169921875
-0.28647613525390625 0.08448028564453125 0.58953857421875
-0.32275772094726562 0.101165771484375 0.580780029296875
-0.32136154174804688 0.0868377685546875 0.572113037109375
-0.28944778442382812 0.07404327392578125 0.5838623046875
-0.29418563842773438 0.0948638916015625 0.59234619140625
-0.3530426025390625 0.1024169921875 0.566680908203125
0.49482345581054688 0.00079345703125 -0.350341796875
0.52333450317382812 0.00569915771484375 -0.322021484375
0.45873260498046875 -0.06003570556640625 -0.332122802734375
0.46578598022460938 -0.00270843505859375 -0.380157470703125
0.52991485595703125 0.0712738037109375 -0.357177734375
0.55791473388671875 0.07657623291015625 -0.325531005859375
0.4891815185546875 -0.05483245849609375 -0.306549072265625
0.4260711669921875 -0.0677642822265625 -0.3607177734375
0.50229644775390625 0.07053375244140625 -0.388092041015625
-0.58635330200195312 -0.056610107421875 -0.403289794921875
-0.576324462890625 -0.10040283203125 -0.351470947265625
-0.62348556518554688 -0.05304718017578125 -0.3724365234375
-0.59437179565429688 -0.00469970703125 -0.447174072265625
-0.54746246337890625 -0.05945587158203125 -0.435333251953125
-0.53787612915039062 -0.1073760986328125 -0.38262939453125
-0.61296463012695312 -0.09561920166015625 -0.32159423828125
-0.633575439453125 -0.00141143798828125 -0.41485595703125
-0.553955078125 -0.004241943359375 -0.47991943359375
0.38130569458007812 -9.918212890625e-05 -0.472442626953125
0.41925430297851562 0.0827789306640625 -0.479400634765625
0.41030120849609375 -0.002471923828125 -0.441375732421875
0.34096145629882812 -0.07228851318359375 -0.457366943359375
0.34598922729492188 0.00116729736328125 -0.504150390625
0.38376998901367188 0.08860015869140625 -0.511810302734375
0.4487457275390625 0.07727813720703125 -0.448394775390625
0.368438720703125 -0.07396697998046875 -0.424224853515625
0.3062286376953125 -0.07410430908203125 -0.487762451171875
-0.42510986328125 -0.05318450927734375 -0.53472900390625
-0.46808242797851562 -0.05730438232421875 -0.501678466796875
-0.4257049560546875 0.0127105712890625 -0.575225830078125
-0.37477493286132812 -0.0489044189453125 -0.56536865234375
-0.42277908325195312 -0.1109771728515625 -0.4898681640625
-0.46234512329101562 -0.11241912841796875 -0.4530029296875
-0.4712677001953125 0.00484466552734375 -0.54461669921875
-0.37203216552734375 0.02234649658203125 -0.604583740234375
-0.37694168090820312 -0.11066436767578125 -0.520904541015625
0.38213348388671875 -0.15715789794921875 -0.192138671875
0.37088394165039062 -0.16063690185546875 -0.12713623046875
0.34622573852539062 -0.17304229736328125 -0.204498291015625
0.4004669189453125 -0.140167236328125 -0.2515869140625
0.41737747192382812 -0.14684295654296875 -0.178863525390625
0.40823745727539062 -0.1468658447265625 -0.118896484375
0.33336639404296875 -0.17870330810546875 -0.13360595703125
0.36433029174804688 -0.1541900634765625 -0.271148681640625
0.43436431884765625 -0.132232666015625 -0.232574462890625
-0.55323028564453125 -0.161224365234375 -0.1419677734375
-0.519378662109375 -0.17606353759765625 -0.155548095703125
-0.54977035522460938 -0.1579742431640625 -0.063568115234375
-0.58847427368164062 -0.15130615234375 -0.12396240234375
-0.55891799926757812 -0.153472900390625 -0.218902587890625
-0.52356338500976562 -0.16669464111328125 -0.240203857421875
-0.51519775390625 -0.174468994140625 -0.0716552734375
-0.58573532104492188 -0.1456451416015625 -0.05224609375
-0.5945281982421875 -0.14582061767578125 -0.195587158203125
0.23375701904296875 -0.25457000732421875 -0.21343994140625
0.19055938720703125 -0.28589630126953125 -0.212310791015625
0.2452392578125 -0.24340057373046875 -0.279937744140625
0.273040771484375 -0.2233428955078125 -0.214385986328125
0.22209548950195312 -0.25913238525390625 -0.139007568359375
0.1797637939453125 -0.28992462158203125 -0.1376953125
0.20093536376953125 -0.27561187744140625 -0.278594970703125
0.28687667846679688 -0.2082977294921875 -0.284454345703125
0.26016616821289062 -0.22919464111328125 -0.13946533203125
-0.43161392211914062 -0.248321533203125 -0.157562255859375
-0.43482589721679688 -0.242889404296875 -0.23553466796875
-0.39987564086914062 -0.2767333984375 -0.1558837890625
-0.42357254028320312 -0.247711181640625 -0.073486328125
-0.45965576171875 -0.220611572265625 -0.161712646484375
-0.46226882934570312 -0.21314239501953125 -0.246002197265625
-0.4035186767578125 -0.271514892578125 -0.230926513671875
-0.390899658203125 -0.27645111083984375 -0.074005126953125
-0.45319747924804688 -0.21990966796875 -0.07501220703125
0.25051116943359375 -0.20697021484375 -0.405548095703125
0.27283859252929688 -0.17901611328125 -0.420318603515625
0.25404739379882812 -0.218017578125 -0.379852294921875
0.22367477416992188 -0.221893310546875 -0.415802001953125
0.24225616455078125 -0.186279296875 -0.443267822265625
0.29052734375 -0.1818389892578125 -0.389129638671875
0.21504592895507812 -0.2451171875 -0.380767822265625
-0.409393310546875 -0.21807861328125 -0.387237548828125
-0.423065185546875 -0.22612762451171875 -0.3536376953125
-0.41563034057617188 -0.19539642333984375 -0.411529541015625
-0.3867340087890625 -0.2309417724609375 -0.39544677734375
-0.39510726928710938 -0.2493896484375 -0.35028076171875
-0.44147109985351562 -0.19681549072265625 -0.373931884765625
-0.38177490234375 -0.20135498046875 -0.436126708984375
0.78501510620117188 0.36653900146484375 -0.133880615234375
0.78451156616210938 0.3726654052734375 -0.141876220703125
0.75800704956054688 0.35467529296875 -0.124908447265625
0.7865447998046875 0.354949951171875 -0.132049560546875
0.81562042236328125 0.3768310546875 -0.144256591796875
0.81718826293945312 0.38353729248046875 -0.15252685546875
0.7557373046875 0.35976409912109375 -0.13330078125
0.76116943359375 0.34381103515625 -0.122772216796875
0.81514739990234375 0.36447906494140625 -0.142608642578125
-0.85372161865234375 0.1958465576171875 -0.39263916015625
-0.83579635620117188 0.193572998046875 -0.3643798828125
-0.84752655029296875 0.19879150390625 -0.407196044921875
-0.87429428100585938 0.19495391845703125 -0.422515869140625
-0.85931396484375 0.187957763671875 -0.381622314453125
-0.84253692626953125 0.1858367919921875 -0.35491943359375
-0.8284759521484375 0.19647979736328125 -0.378173828125
-0.86953353881835938 0.1979217529296875 -0.438873291015625
-0.87862014770507812 0.1871337890625 -0.410430908203125
0.92972183227539062 0.3901519775390625 -0.18267822265625
0.88916015625 0.38997650146484375 -0.169586181640625
0.92347335815429688 0.3755645751953125 -0.181671142578125
0.96912384033203125 0.38381195068359375 -0.194793701171875
0.9371490478515625 0.3987274169921875 -0.189971923828125
0.894622802734375 0.39780426025390625 -0.17742919921875
0.88494873046875 0.37548828125 -0.1680908203125
0.96088409423828125 0.3687896728515625 -0.19390869140625
0.97829437255859375 0.39269256591796875 -0.201141357421875
-0.957000732421875 0.1763153076171875 -0.516204833984375
-0.95694732666015625 0.1686859130859375 -0.501251220703125
-0.926361083984375 0.18556976318359375 -0.48681640625
-0.95685958862304688 0.17910003662109375 -0.534912109375
-0.98949050903320312 0.1630706787109375 -0.53839111328125
-0.98772811889648438 0.15586090087890625 -0.522247314453125
-0.92764663696289062 0.17754364013671875 -0.472076416015625
-0.92459869384765625 0.18872833251953125 -0.504669189453125
-0.99109649658203125 0.16558837890625 -0.557037353515625
1.0531196594238281 0.3055877685546875 -0.223114013671875
1.0324935913085938 0.34200286865234375 -0.2152099609375
1.0399932861328125 0.29325103759765625 -0.22308349609375
1.0655746459960938 0.2604827880859375 -0.230865478515625
1.0666732788085938 0.31270599365234375 -0.2274169921875
1.0447425842285156 0.350433349609375 -0.22021484375
1.0207557678222656 0.3280792236328125 -0.214996337890625
1.0514488220214844 0.25045013427734375 -0.230804443359375
1.0799827575683594 0.26589202880859375 -0.234649658203125
-1.0842742919921875 0.09630584716796875 -0.528106689453125
-1.0762939453125 0.09130859375 -0.514312744140625
-1.0544548034667969 0.12291717529296875 -0.5447998046875
-1.0919914245605469 0.0975494384765625 -0.5438232421875
-1.1095924377441406 0.06629180908203125 -0.500457763671875
-1.0995674133300781 0.0630645751953125 -0.4888916015625
-1.0488243103027344 0.11666107177734375 -0.529754638671875
-1.0601234436035156 0.124725341796875 -0.562591552734375
-1.1193771362304688 0.06699371337890625 -0.51422119140625
1.0475883483886719 0.09180450439453125 -0.2584228515625
1.0628013610839844 0.15081024169921875 -0.2489013671875
1.0336875915527344 0.09112548828125 -0.256378173828125
1.0239486694335938 0.0350799560546875 -0.264068603515625
1.0615959167480469 0.09012603759765625 -0.2635498046875
1.0774421691894531 0.151947021484375 -0.253509521484375
1.0481986999511719 0.14667510986328125 -0.24822998046875
1.0111541748046875 0.03769683837890625 -0.261444091796875
1.0365257263183594 0.03063201904296875 -0.270751953125
-1.1431503295898438 -0.03351593017578125 -0.382965087890625
-1.1302261352539062 -0.032073974609375 -0.37847900390625
-1.1402206420898438 9.1552734375e-05 -0.425933837890625
-1.1560554504394531 -0.03736114501953125 -0.389984130859375
-1.137298583984375 -0.0649566650390625 -0.337005615234375
-1.1246795654296875 -0.06197357177734375 -0.334625244140625
-1.12762451171875 -0.00014495849609375 -0.4193115234375
-1.15252685546875 -0.00189208984375 -0.4351806640625
-1.1499099731445312 -0.06998443603515625 -0.34295654296875
0.90711212158203125 -0.088653564453125 -0.242828369140625
0.95229721069335938 -0.05718231201171875 -0.257476806640625
0.9015960693359375 -0.07794952392578125 -0.23828125
0.85813140869140625 -0.11083221435546875 -0.220947265625
0.91297531127929688 -0.10057830810546875 -0.252227783203125
0.96082687377929688 -0.06708526611328125 -0.26580810546875
0.94403457641601562 -0.04872894287109375 -0.253570556640625
0.85579681396484375 -0.09842681884765625 -0.217041015625
0.86104965209960938 -0.1246185302734375 -0.23065185546875
-1.0638504028320312 -0.1283111572265625 -0.197479248046875
-1.0558662414550781 -0.12060546875 -0.200408935546875
-1.0969963073730469 -0.11333465576171875 -0.243072509765625
-1.071685791015625 -0.13777923583984375 -0.199737548828125
-1.0243110656738281 -0.1367340087890625 -0.151947021484375
-1.0189781188964844 -0.12789154052734375 -0.156494140625
-1.0867729187011719 -0.10697174072265625 -0.244598388671875
-1.1070404052734375 -0.12143707275390625 -0.24664306640625
-1.0299186706542969 -0.147369384765625 -0.153717041015625
0.707427978515625 -0.12467193603515625 -0.123992919921875
0.75641632080078125 -0.12751007080078125 -0.159515380859375
0.71380233764648438 -0.1098785400390625 -0.123291015625
0.66077041625976562 -0.1186981201171875 -0.09112548828125
0.70196533203125 -0.14080047607421875 -0.131591796875
0.75368881225585938 -0.143402099609375 -0.16815185546875
0.76015090942382812 -0.113006591796875 -0.15716552734375
0.66997528076171875 -0.1041107177734375 -0.09185791015625
0.65288162231445312 -0.1345367431640625 -0.097686767578125
-0.88593673706054688 -0.1278076171875 -0.0240478515625
-0.889373779296875 -0.11782073974609375 -0.032135009765625
-0.933135986328125 -0.1357269287109375 -0.06317138671875
-0.88343429565429688 -0.139984130859375 -0.02374267578125
-0.83937454223632812 -0.1187744140625 0.007904052734375
-0.84624481201171875 -0.10880279541015625 -0.001251220703125
-0.93373489379882812 -0.12555694580078125 -0.070526123046875
-0.93328094482421875 -0.147674560546875 -0.063568115234375
-0.83411407470703125 -0.1309814453125 0.00860595703125
0.73571395874023438 -0.0832977294921875 -0.147857666015625
0.774444580078125 -0.08673858642578125 -0.17840576171875
0.74227142333984375 -0.08037567138671875 -0.16180419921875
0.69992446899414062 -0.07741546630859375 -0.121490478515625
0.72846603393554688 -0.0889129638671875 -0.136444091796875
0.76934051513671875 -0.09209442138671875 -0.167816162109375
0.77908706665039062 -0.08404541015625 -0.19073486328125
0.70811080932617188 -0.0746612548828125 -0.136077880859375
0.6903076171875 -0.0830535888671875 -0.1080322265625
-0.90376663208007812 -0.1038665771484375 -0.0819091796875
-0.90844345092773438 -0.1036834716796875 -0.101043701171875
-0.93963623046875 -0.11127471923828125 -0.116424560546875
-0.8987579345703125 -0.105316162109375 -0.06304931640625
-0.86919403076171875 -0.09481048583984375 -0.053802490234375
-0.87592315673828125 -0.09496307373046875 -0.07373046875
-0.94226837158203125 -0.1112823486328125 -0.134796142578125
-0.93709564208984375 -0.1132965087890625 -0.09869384765625
-0.8617095947265625 -0.09661865234375 -0.033935546875
0.89316940307617188 -0.0594329833984375 -0.25054931640625
0.92875289916992188 -0.036163330078125 -0.264129638671875
0.89311599731445312 -0.05834197998046875 -0.26007080078125
0.8545074462890625 -0.0760345458984375 -0.23126220703125
0.89453506469726562 -0.06302642822265625 -0.242919921875
0.93191146850585938 -0.037994384765625 -0.257171630859375
0.92745590209960938 -0.03638458251953125 -0.272735595703125
0.855926513671875 -0.07413482666015625 -0.241943359375
0.8538970947265625 -0.08052825927734375 -0.223052978515625
-1.0394477844238281 -0.1107330322265625 -0.232086181640625
-1.0373039245605469 -0.1116790771484375 -0.246063232421875
-1.0652046203613281 -0.100250244140625 -0.27020263671875
-1.0432624816894531 -0.1118621826171875 -0.21923828125
-1.0091438293457031 -0.11597442626953125 -0.1937255859375
-1.0083274841308594 -0.116729736328125 -0.209381103515625
-1.0619735717773438 -0.10179901123046875 -0.281951904296875
-1.0703964233398438 -0.10053253173828125 -0.2593994140625
-1.011199951171875 -0.1175079345703125 -0.178741455078125
1.0051651000976562 0.07756805419921875 -0.27001953125
1.0179557800292969 0.12259674072265625 -0.263916015625
1.0012054443359375 0.07076263427734375 -0.2783203125
0.98575592041015625 0.03389739990234375 -0.273101806640625
1.0118484497070312 0.08354949951171875 -0.262908935546875
1.02508544921875 0.1320037841796875 -0.25628662109375
1.0137367248535156 0.11309051513671875 -0.273101806640625
0.98247146606445312 0.0297088623046875 -0.281494140625
0.99155426025390625 0.03685760498046875 -0.266448974609375
-1.1018333435058594 -0.03923797607421875 -0.381500244140625
-1.0973854064941406 -0.04439544677734375 -0.3870849609375
-1.1003189086914062 -0.0128021240234375 -0.41522216796875
-1.1087799072265625 -0.035125732421875 -0.377838134765625
-1.096923828125 -0.06396484375 -0.345428466796875
-1.0924949645996094 -0.0675506591796875 -0.352752685546875
-1.0960960388183594 -0.01961517333984375 -0.41888427734375
-1.1070632934570312 -0.00705718994140625 -0.41375732421875
-1.1036529541015625 -0.06148529052734375 -0.339111328125
