# XYZ point cloud file
-0.386474609375 0.34442138671875 0.5792999267578125
-0.3662109375 0.37213134765625 0.57601737976074219
-0.3682861328125 0.3875732421875 0.55580520629882812
-0.373046875 0.398681640625 0.52852153778076172
-0.4017333984375 0.39605712890625 0.48558425903320312
-0.4288330078125 0.3818359375 0.47177886962890625
-0.45166015625 0.3568115234375 0.46143913269042969
-0.17431640625 0.58087158203125 0.5622711181640625
-0.1712646484375 0.540283203125 0.56634521484375
-0.1661376953125 0.501220703125 0.56951522827148438
-0.158203125 0.465087890625 0.60440444946289062
-0.154052734375 0.46441650390625 0.624176025390625
-0.142578125 0.4617919921875 0.6399078369140625
-0.1297607421875 0.49462890625 0.64932823181152344
-0.133056640625 0.530029296875 0.64213180541992188
-0.135009765625 0.5653076171875 0.63862895965576172
-0.3306884765625 0.349609375 0.60045337677001953
-0.3067626953125 0.34857177734375 0.61271476745605469
-0.276123046875 0.34063720703125 0.62387371063232422
-0.247802734375 0.34918212890625 0.62548255920410156
-0.2496337890625 0.36114501953125 0.60716342926025391
-0.2493896484375 0.369873046875 0.58362197875976562
-0.2779541015625 0.379150390625 0.54687595367431641
-0.3037109375 0.39288330078125 0.53264141082763672
-0.3397216796875 0.40008544921875 0.51852226257324219
-0.1593017578125 0.43572998046875 0.58037567138671875
-0.1640625 0.4105224609375 0.58213233947753906
-0.1719970703125 0.39141845703125 0.58098602294921875
-0.1785888671875 0.37432861328125 0.60427379608154297
-0.1695556640625 0.37078857421875 0.62479209899902344
-0.1611328125 0.3612060546875 0.64033317565917969
-0.13818359375 0.3785400390625 0.65172576904296875
-0.135009765625 0.40460205078125 0.65284156799316406
-0.1314697265625 0.4302978515625 0.65289878845214844
-0.2265625 0.33135986328125 0.64181232452392578
-0.2022705078125 0.3338623046875 0.64719772338867188
-0.1767578125 0.3350830078125 0.65114212036132812
-0.1944580078125 0.36767578125 0.57579994201660156
-0.2076416015625 0.364013671875 0.57428359985351562
-0.227783203125 0.36376953125 0.56824111938476562
-0.1142578125 0.4610595703125 0.65044021606445312
-0.100830078125 0.46307373046875 0.64572715759277344
-0.0892333984375 0.46502685546875 0.63895988464355469
-0.0750732421875 0.48992919921875 0.62841415405273438
-0.0706787109375 0.51190185546875 0.62589263916015625
-0.068115234375 0.5333251953125 0.62194633483886719
-0.07568359375 0.56304931640625 0.62735176086425781
-0.094970703125 0.57354736328125 0.63459682464599609
-0.1134033203125 0.5849609375 0.63821792602539062
-0.3525390625 0.32708740234375 0.59352684020996094
-0.346923828125 0.30352783203125 0.59293174743652344
-0.3406982421875 0.27886962890625 0.5860748291015625
-0.320068359375 0.2655029296875 0.58843231201171875
-0.300537109375 0.26800537109375 0.60106563568115234
-0.28076171875 0.26654052734375 0.61029434204101562
-0.2584228515625 0.2838134765625 0.62484455108642578
-0.25390625 0.30078125 0.63105583190917969
-0.25048828125 0.31829833984375 0.63668060302734375
-0.0496826171875 0.57000732421875 0.61691856384277344
-0.0391845703125 0.5855712890625 0.61516475677490234
-0.0257568359375 0.5977783203125 0.61430263519287109
-0.024169921875 0.62518310546875 0.6182703971862793
-0.04052734375 0.64312744140625 0.62622880935668945
-0.060302734375 0.6634521484375 0.63126850128173828
-0.4278564453125 0.27215576171875 0.56463432312011719
-0.4129638671875 0.249755859375 0.56568717956542969
-0.3994140625 0.22955322265625 0.56410312652587891
-0.3779296875 0.2266845703125 0.56753349304199219
-0.3634033203125 0.23870849609375 0.57240104675292969
-0.3502197265625 0.2509765625 0.57463455200195312
0.0015869140625 0.61798095703125 0.60882759094238281
0.0225830078125 0.62841796875 0.60599136352539062
0.0440673828125 0.63824462890625 0.60283136367797852
0.062744140625 0.66455078125 0.60268068313598633
0.053466796875 0.6824951171875 0.61429738998413086
0.0491943359375 0.70111083984375 0.61973905563354492
-0.4737548828125 0.14813232421875 0.55165290832519531
-0.4610595703125 0.1375732421875 0.55491256713867188
-0.4488525390625 0.12518310546875 0.55134773254394531
-0.423095703125 0.14556884765625 0.55726242065429688
-0.4119873046875 0.1688232421875 0.55858993530273438
-0.4000244140625 0.192138671875 0.56133270263671875
0.0992431640625 0.661376953125 0.58579063415527344
0.127197265625 0.67340087890625 0.57855510711669922
0.1566162109375 0.6806640625 0.5707087516784668
0.188232421875 0.7030029296875 0.56766414642333984
0.1922607421875 0.72149658203125 0.57499980926513672
0.1966552734375 0.74041748046875 0.58009910583496094
-0.5433349609375 -0.02301025390625 0.52945518493652344
-0.52880859375 -0.02093505859375 0.53706169128417969
-0.5111083984375 -0.0211181640625 0.5326080322265625
-0.4893798828125 0.01214599609375 0.53945446014404297
-0.47509765625 0.0478515625 0.54389190673828125
-0.4549560546875 0.0816650390625 0.54709148406982422
0.207763671875 0.68572998046875 0.55737113952636719
0.224365234375 0.6812744140625 0.55257034301757812
0.238525390625 0.67242431640625 0.54844427108764648
0.2552490234375 0.67840576171875 0.54241085052490234
0.26220703125 0.70166015625 0.54016590118408203
0.2718505859375 0.722412109375 0.53888082504272461
-0.5545654296875 -0.11962890625 0.51672744750976562
-0.5335693359375 -0.11053466796875 0.52842330932617188
-0.514404296875 -0.10296630859375 0.53517913818359375
-0.504638671875 -0.078857421875 0.53982734680175781
-0.5076904296875 -0.06231689453125 0.53655529022216797
-0.505126953125 -0.0443115234375 0.53346633911132812
0.259765625 0.64434814453125 0.54131174087524414
0.269287109375 0.6239013671875 0.53491115570068359
0.2763671875 0.60113525390625 0.53349161148071289
0.2923583984375 0.5860595703125 0.52901029586791992
0.302490234375 0.598876953125 0.5156402587890625
0.314453125 0.61138916015625 0.5035405158996582
-0.488037109375 -0.18731689453125 0.55659580230712891
-0.4730224609375 -0.17120361328125 0.56933879852294922
-0.4588623046875 -0.156982421875 0.5831451416015625
-0.4649658203125 -0.13665771484375 0.57683181762695312
-0.479736328125 -0.1243896484375 0.56153488159179688
-0.49169921875 -0.1107177734375 0.552001953125
0.277099609375 0.54022216796875 0.5410919189453125
0.2711181640625 0.508544921875 0.54604244232177734
0.265380859375 0.474853515625 0.5524592399597168
0.2669677734375 0.447509765625 0.55113506317138672
0.2828369140625 0.45166015625 0.53963851928710938
0.2962646484375 0.455322265625 0.52726936340332031
-0.36767578125 -0.19342041015625 0.62548351287841797
-0.3548583984375 -0.1727294921875 0.63084697723388672
-0.343505859375 -0.1531982421875 0.63773155212402344
-0.364013671875 -0.14556884765625 0.62845516204833984
-0.3927001953125 -0.14764404296875 0.61944961547851562
-0.421142578125 -0.14801025390625 0.60718536376953125
0.245849609375 0.41455078125 0.57539796829223633
0.229248046875 0.387451171875 0.58742332458496094
0.2108154296875 0.3616943359375 0.59616994857788086
0.19873046875 0.3304443359375 0.60666322708129883
0.207275390625 0.32122802734375 0.60051918029785156
0.2158203125 0.31121826171875 0.59192800521850586
-0.2197265625 -0.1199951171875 0.670562744140625
-0.2235107421875 -0.102783203125 0.67415046691894531
-0.228271484375 -0.087890625 0.67455768585205078
-0.255615234375 -0.09844970703125 0.670501708984375
-0.2763671875 -0.11334228515625 0.66280364990234375
-0.3031005859375 -0.12835693359375 0.653656005859375
0.16650390625 0.321533203125 0.624786376953125
0.138671875 0.30963134765625 0.63888359069824219
0.1134033203125 0.2952880859375 0.64947128295898438
0.0928955078125 0.2645263671875 0.66334438323974609
0.10009765625 0.23590087890625 0.67484283447265625
0.1077880859375 0.203857421875 0.68593788146972656
-0.081787109375 0.012939453125 0.72022247314453125
-0.1114501953125 0.02874755859375 0.70861530303955078
-0.1356201171875 0.03692626953125 0.69660091400146484
-0.1671142578125 0.01531982421875 0.68675422668457031
-0.18505859375 -0.016357421875 0.68399620056152344
-0.208251953125 -0.0484619140625 0.68313407897949219
0.06982421875 0.28668212890625 0.65944290161132812
0.0528564453125 0.285888671875 0.65996932983398438
0.038818359375 0.2850341796875 0.65540504455566406
0.0164794921875 0.2635498046875 0.65204620361328125
0.006103515625 0.2322998046875 0.65621566772460938
-0.003662109375 0.19805908203125 0.65981101989746094
0.02001953125 0.156005859375 0.67773056030273438
0.05322265625 0.1590576171875 0.69011688232421875
0.0836181640625 0.16326904296875 0.69942474365234375
-0.0382080078125 0.03558349609375 0.72289943695068359
-0.0372314453125 0.0706787109375 0.70612525939941406
-0.0303955078125 0.1044921875 0.68471908569335938
-0.0601806640625 0.13916015625 0.66619110107421875
-0.0941162109375 0.13470458984375 0.66750144958496094
-0.11962890625 0.1260986328125 0.66878318786621094
-0.1405029296875 0.1053466796875 0.67651939392089844
-0.1407470703125 0.0865478515625 0.68030166625976562
-0.14599609375 0.0679931640625 0.6855926513671875
-0.06884765625 0.40264892578125 0.64039993286132812
-0.072265625 0.4234619140625 0.63697433471679688
-0.0753173828125 0.4451904296875 0.63309478759765625
-0.1192626953125 0.35430908203125 0.65500450134277344
-0.0965576171875 0.36395263671875 0.65064716339111328
-0.0767822265625 0.37249755859375 0.64446640014648438
-0.1915283203125 0.26116943359375 0.64084911346435547
-0.17822265625 0.28070068359375 0.64558982849121094
-0.163330078125 0.3079833984375 0.65156650543212891
-0.247802734375 0.26666259765625 0.62496185302734375
-0.230224609375 0.259033203125 0.62773227691650391
-0.213623046875 0.2529296875 0.63253021240234375
-0.034912109375 0.33831787109375 0.6466217041015625
-0.0418701171875 0.35137939453125 0.64364337921142578
-0.051513671875 0.36907958984375 0.64196586608886719
-0.1304931640625 0.316162109375 0.6540985107421875
-0.11376953125 0.294189453125 0.65351009368896484
-0.1009521484375 0.27349853515625 0.65439796447753906
-0.0689697265625 0.26959228515625 0.65296173095703125
-0.050537109375 0.2906494140625 0.64995002746582031
-0.035888671875 0.30963134765625 0.6504974365234375
-0.1397705078125 0.1998291015625 0.65148258209228516
-0.1243896484375 0.21612548828125 0.65477752685546875
-0.107666015625 0.2347412109375 0.65530776977539062
-0.1898193359375 0.2294921875 0.64376068115234375
-0.17578125 0.21673583984375 0.64636898040771484
-0.1646728515625 0.20172119140625 0.65064620971679688
-0.074951171875 0.2313232421875 0.65409278869628906
-0.0594482421875 0.20819091796875 0.65238189697265625
-0.0447998046875 0.184814453125 0.65746307373046875
0.01025390625 0.2935791015625 0.65015602111816406
0.000244140625 0.303955078125 0.64965724945068359
-0.0103759765625 0.314453125 0.6494140625
-0.1510009765625 0.17022705078125 0.65957832336425781
-0.146728515625 0.15478515625 0.66301345825195312
-0.14306640625 0.13690185546875 0.66611862182617188
0.3956298828125 -0.43096923828125 0.69031143188476562
0.386962890625 -0.4251708984375 0.70860767364501953
0.3785400390625 -0.4190673828125 0.72749042510986328
0.3638916015625 -0.42669677734375 0.74734115600585938
0.3546142578125 -0.43658447265625 0.75318622589111328
0.3453369140625 -0.44647216796875 0.75999259948730469
0.3359375 -0.46484375 0.76280307769775391
0.3377685546875 -0.47760009765625 0.75678253173828125
0.3392333984375 -0.4910888671875 0.74849033355712891
0.3280029296875 -0.46112060546875 0.77635288238525391
0.3193359375 -0.46875 0.78464317321777344
0.307861328125 -0.47381591796875 0.79140949249267578
0.28955078125 -0.4937744140625 0.797943115234375
0.279296875 -0.51593017578125 0.79830741882324219
0.2701416015625 -0.53887939453125 0.79974460601806641
0.4205322265625 -0.3760986328125 0.66351413726806641
0.4075927734375 -0.368408203125 0.68737602233886719
0.3951416015625 -0.36138916015625 0.70896720886230469
0.384033203125 -0.371337890625 0.725677490234375
0.381103515625 -0.38763427734375 0.73067283630371094
0.37841796875 -0.40106201171875 0.73589134216308594
0.2852783203125 -0.475830078125 0.80543327331542969
0.273193359375 -0.47430419921875 0.81178951263427734
0.2628173828125 -0.46844482421875 0.81847953796386719
0.244384765625 -0.4833984375 0.82738113403320312
0.2308349609375 -0.51031494140625 0.82853126525878906
0.2176513671875 -0.54193115234375 0.82953357696533203
0.408935546875 -0.29852294921875 0.66531276702880859
0.390625 -0.29248046875 0.69108390808105469
0.36767578125 -0.28887939453125 0.71394538879394531
0.3609619140625 -0.303955078125 0.72746849060058594
0.3721923828125 -0.32196044921875 0.72382831573486328
0.3795166015625 -0.33795166015625 0.72220230102539062
0.2440185546875 -0.44842529296875 0.83060359954833984
0.234375 -0.43304443359375 0.829193115234375
0.2281494140625 -0.41583251953125 0.82885360717773438
0.2076416015625 -0.42230224609375 0.83040237426757812
0.1917724609375 -0.45220947265625 0.83527565002441406
0.1768798828125 -0.487060546875 0.83554267883300781
0.2716064453125 -0.0792236328125 0.68323707580566406
0.258544921875 -0.087890625 0.70368289947509766
0.2454833984375 -0.09783935546875 0.71941566467285156
0.25 -0.14404296875 0.73534011840820312
0.2769775390625 -0.1749267578125 0.73746681213378906
0.2967529296875 -0.20623779296875 0.73929405212402344
0.3311767578125 -0.2222900390625 0.72016429901123047
0.3472900390625 -0.21539306640625 0.69767475128173828
0.3619384765625 -0.211669921875 0.67662525177001953
0.1378173828125 -0.40740966796875 0.82274246215820312
0.1561279296875 -0.38397216796875 0.82282447814941406
0.17431640625 -0.357666015625 0.81992721557617188
0.178955078125 -0.307861328125 0.8090972900390625
0.1640625 -0.2730712890625 0.80342960357666016
0.149658203125 -0.238037109375 0.79703998565673828
0.1168212890625 -0.218505859375 0.79316520690917969
0.1011962890625 -0.23583984375 0.79299163818359375
0.0819091796875 -0.25701904296875 0.78997611999511719
0.329345703125 -0.2493896484375 0.73789405822753906
0.336181640625 -0.26513671875 0.73591327667236328
0.343017578125 -0.27850341796875 0.736419677734375
0.218505859375 -0.38494873046875 0.82330226898193359
0.209228515625 -0.3736572265625 0.82371807098388672
0.200439453125 -0.35821533203125 0.81946372985839844
0.2130126953125 -0.08245849609375 0.73017311096191406
0.1947021484375 -0.05706787109375 0.72507858276367188
0.183837890625 -0.03289794921875 0.72053623199462891
0.16455078125 -0.03057861328125 0.72675132751464844
0.15478515625 -0.0460205078125 0.73621845245361328
0.146484375 -0.06243896484375 0.74368572235107422
0.1424560546875 -0.08868408203125 0.75074481964111328
0.1522216796875 -0.10675048828125 0.75632381439208984
0.1683349609375 -0.1297607421875 0.76085090637207031
0.1944580078125 -0.1453857421875 0.75894832611083984
0.2060546875 -0.13397216796875 0.75212860107421875
0.2174072265625 -0.121826171875 0.74348258972167969
0.1448974609375 -0.19000244140625 0.78475475311279297
0.158935546875 -0.1778564453125 0.77763843536376953
0.1710205078125 -0.168212890625 0.77287864685058594
0.12255859375 -0.0843505859375 0.75468158721923828
0.1072998046875 -0.09173583984375 0.75742340087890625
0.09033203125 -0.0980224609375 0.75801658630371094
0.0855712890625 -0.123291015625 0.76470756530761719
0.101806640625 -0.14715576171875 0.77062034606933594
0.1160888671875 -0.1739501953125 0.78106117248535156
0.2703857421875 -0.26806640625 0.77452468872070312
0.28515625 -0.25469970703125 0.763641357421875
0.3011474609375 -0.244140625 0.75125503540039062
0.1993408203125 -0.18682861328125 0.76845836639404297
0.2177734375 -0.21942138671875 0.77110576629638672
0.235107421875 -0.2518310546875 0.77834892272949219
0.2064208984375 -0.320068359375 0.807952880859375
0.2255859375 -0.305419921875 0.80296707153320312
0.2398681640625 -0.29290771484375 0.7955780029296875
0.26953125 -0.30120849609375 0.78639984130859375
0.2760009765625 -0.316650390625 0.78784561157226562
0.2822265625 -0.3271484375 0.79012680053710938
0.299560546875 -0.32037353515625 0.77932262420654297
0.3135986328125 -0.30657958984375 0.76885604858398438
0.3265380859375 -0.29559326171875 0.75378227233886719
0.2406005859375 -0.3707275390625 0.81593704223632812
0.2574462890625 -0.35821533203125 0.80767726898193359
0.2723388671875 -0.3468017578125 0.7997283935546875
0.17236328125 0.01416015625 0.71171188354492188
0.17138671875 0.0313720703125 0.70816135406494141
0.1666259765625 0.04638671875 0.70666694641113281
0.15771484375 0.063232421875 0.71354103088378906
0.1580810546875 0.06573486328125 0.72132682800292969
0.1595458984375 0.06915283203125 0.72999858856201172
0.1650390625 0.060546875 0.73782730102539062
0.1658935546875 0.047607421875 0.73978614807128906
0.1658935546875 0.0340576171875 0.74119186401367188
0.1619873046875 0.0126953125 0.73703765869140625
0.1619873046875 0.00592041015625 0.73138427734375
0.164794921875 -0.00054931640625 0.72455215454101562
0.069580078125 -0.08868408203125 0.76355552673339844
0.0693359375 -0.07965087890625 0.770416259765625
0.067626953125 -0.0750732421875 0.77571964263916016
0.0548095703125 -0.06695556640625 0.78440284729003906
0.042236328125 -0.067626953125 0.78538703918457031
0.0347900390625 -0.0640869140625 0.78792572021484375
0.0225830078125 -0.06060791015625 0.779815673828125
0.0228271484375 -0.06451416015625 0.76915740966796875
0.020751953125 -0.06951904296875 0.76072216033935547
0.02783203125 -0.08544921875 0.75562286376953125
0.0389404296875 -0.0914306640625 0.7573089599609375
0.0523681640625 -0.09844970703125 0.75925254821777344
0.1522216796875 0.073486328125 0.70206260681152344
0.1417236328125 0.0836181640625 0.70281696319580078
0.1260986328125 0.09197998046875 0.70372772216796875
0.114990234375 0.0931396484375 0.70665168762207031
0.1160888671875 0.094970703125 0.71279144287109375
0.115478515625 0.100830078125 0.72005653381347656
0.1298828125 0.09942626953125 0.72931098937988281
0.140869140625 0.09429931640625 0.72986030578613281
0.152099609375 0.08453369140625 0.73379230499267578
0.018798828125 -0.0467529296875 0.78265476226806641
0.0133056640625 -0.03570556640625 0.77454948425292969
0.0111083984375 -0.02178955078125 0.76617050170898438
0.0108642578125 -0.01007080078125 0.75322723388671875
0.0113525390625 -0.0125732421875 0.74545669555664062
0.0096435546875 -0.01361083984375 0.73941230773925781
0.008056640625 -0.030029296875 0.74331092834472656
0.0093994140625 -0.0467529296875 0.74935245513916016
0.01318359375 -0.06219482421875 0.75240325927734375
0.095703125 0.09246826171875 0.70346832275390625
0.08056640625 0.08441162109375 0.70380401611328125
0.064208984375 0.0712890625 0.70588779449462891
0.066650390625 0.05718994140625 0.71679878234863281
0.073486328125 0.0648193359375 0.722412109375
0.0792236328125 0.07159423828125 0.72948265075683594
0.08837890625 0.08819580078125 0.73085594177246094
0.0965576171875 0.095947265625 0.72864532470703125
0.106201171875 0.10089111328125 0.72671413421630859
0.0135498046875 0.00439453125 0.75616264343261719
0.019775390625 0.01513671875 0.751007080078125
0.028564453125 0.02374267578125 0.74762248992919922
0.0374755859375 0.029541015625 0.73916530609130859
0.0401611328125 0.03167724609375 0.73110580444335938
0.0430908203125 0.0369873046875 0.72320175170898438
0.03125 0.03619384765625 0.71697616577148438
0.02001953125 0.02154541015625 0.72331142425537109
0.012939453125 0.0052490234375 0.72965431213378906
0.0582275390625 0.041259765625 0.72170543670654297
0.062744140625 0.03680419921875 0.72618865966796875
0.0660400390625 0.0362548828125 0.73188972473144531
0.068603515625 0.03509521484375 0.73514175415039062
0.0699462890625 0.03607177734375 0.7400054931640625
0.071044921875 0.0389404296875 0.74776268005371094
0.073974609375 0.04730224609375 0.75437164306640625
0.07666015625 0.056884765625 0.74824237823486328
0.078125 0.066650390625 0.74155426025390625
0.0474853515625 0.0341796875 0.74832725524902344
0.057373046875 0.03460693359375 0.75272178649902344
0.06591796875 0.03570556640625 0.75419902801513672
0.1270751953125 -0.050048828125 0.76440620422363281
0.1270751953125 -0.05657958984375 0.75734138488769531
0.12890625 -0.06427001953125 0.75255012512207031
0.1558837890625 0.00146484375 0.74755096435546875
0.1470947265625 -0.01605224609375 0.75592994689941406
0.1375732421875 -0.03167724609375 0.76202869415283203
0.1109619140625 -0.05560302734375 0.774200439453125
0.0977783203125 -0.06256103515625 0.77733039855957031
0.083984375 -0.0675048828125 0.77977371215820312
0.119873046875 -0.02593994140625 0.78000640869140625
0.123046875 -0.03399658203125 0.77817916870117188
0.125 -0.040283203125 0.77491855621337891
0.15869140625 0.0223388671875 0.74926662445068359
0.1563720703125 0.0274658203125 0.75523948669433594
0.1533203125 0.0283203125 0.75999832153320312
0.144775390625 0.020263671875 0.76742839813232422
0.1376953125 0.0068359375 0.77165031433105469
0.1268310546875 -0.0054931640625 0.77892494201660156
0.10498046875 -0.02716064453125 0.78846359252929688
0.0926513671875 -0.03631591796875 0.79071044921875
0.0816650390625 -0.04296875 0.79301643371582031
0.0709228515625 -0.05145263671875 0.79279518127441406
0.070556640625 -0.056884765625 0.79096317291259766
0.069091796875 -0.0633544921875 0.78665637969970703
0.072998046875 0.04217529296875 0.76468086242675781
0.0767822265625 0.04180908203125 0.76983833312988281
0.080810546875 0.03839111328125 0.77674102783203125
0.0927734375 0.0511474609375 0.77542591094970703
0.094482421875 0.064697265625 0.77151679992675781
0.094482421875 0.07342529296875 0.76297473907470703
0.09326171875 0.08184814453125 0.75452232360839844
0.08984375 0.08135986328125 0.74834823608398438
0.0872802734375 0.07952880859375 0.74318981170654297
0.036376953125 0.03118896484375 0.75559520721435547
0.0394287109375 0.03076171875 0.7637481689453125
0.0419921875 0.02734375 0.77077674865722656
0.0509033203125 0.02557373046875 0.77937126159667969
0.06005859375 0.0257568359375 0.78384590148925781
0.0721435546875 0.0267333984375 0.78661441802978516
0.1002197265625 0.0853271484375 0.75856876373291016
0.1077880859375 0.0909423828125 0.75699424743652344
0.114013671875 0.09564208984375 0.75541877746582031
0.1214599609375 0.10101318359375 0.74796867370605469
0.119873046875 0.10357666015625 0.74190235137939453
0.1192626953125 0.10406494140625 0.73570442199707031
0.0125732421875 -0.00714111328125 0.76793289184570312
0.01611328125 -0.00408935546875 0.77427387237548828
0.0203857421875 -0.00213623046875 0.78041553497314453
0.0269775390625 0.006103515625 0.78134918212890625
0.0330810546875 0.0152587890625 0.78098297119140625
0.0408935546875 0.02178955078125 0.77868461608886719
0.12548828125 0.0946044921875 0.7576904296875
0.1341552734375 0.0887451171875 0.76017189025878906
0.1397705078125 0.0792236328125 0.76150417327880859
0.15478515625 0.073486328125 0.75885963439941406
0.1575927734375 0.07421875 0.75295448303222656
0.1593017578125 0.073974609375 0.74409866333007812
0.0279541015625 -0.0506591796875 0.79288101196289062
0.0308837890625 -0.04541015625 0.79983711242675781
0.0367431640625 -0.038818359375 0.80276107788085938
0.0389404296875 -0.0220947265625 0.80079269409179688
0.032958984375 -0.0126953125 0.79563140869140625
0.02734375 -0.0050048828125 0.78930473327636719
0.1500244140625 0.05926513671875 0.76538658142089844
0.1510009765625 0.047607421875 0.76388072967529297
0.151611328125 0.037109375 0.76371574401855469
0.0662841796875 -0.04400634765625 0.79672718048095703
0.0587158203125 -0.04071044921875 0.80060005187988281
0.0526123046875 -0.03717041015625 0.80427742004394531
0.1083984375 0.04437255859375 0.78001213073730469
0.1239013671875 0.052978515625 0.77395439147949219
0.13623046875 0.06195068359375 0.76923561096191406
0.0526123046875 -0.01873779296875 0.80265617370605469
0.0660400390625 -0.0050048828125 0.79923439025878906
0.0777587890625 0.009765625 0.79388523101806641
0.0987548828125 0.016357421875 0.788421630859375
0.1072998046875 0.0054931640625 0.79055213928222656
0.111572265625 -0.00738525390625 0.78617477416992188
0.00830078125 0.1114501953125 0.68609619140625
0.0252685546875 0.0855712890625 0.69799709320068359
0.0391845703125 0.0653076171875 0.70621299743652344
0.109619140625 0.10174560546875 0.7059478759765625
0.1092529296875 0.11407470703125 0.70582866668701172
0.1116943359375 0.13018798828125 0.70468997955322266
-0.0201416015625 -0.001708984375 0.74018192291259766
-0.0042724609375 -0.00494384765625 0.73893547058105469
0.0042724609375 -0.00860595703125 0.73830032348632812
0.16259765625 0.05999755859375 0.69624423980712891
0.1671142578125 0.06158447265625 0.68850898742675781
0.1728515625 0.0615234375 0.67447662353515625
0.165771484375 0.07696533203125 0.66320323944091797
0.1519775390625 0.09674072265625 0.67155361175537109
0.13720703125 0.12060546875 0.68478298187255859
-0.02685546875 -0.0440673828125 0.73475170135498047
-0.0152587890625 -0.07275390625 0.72914028167724609
-0.0115966796875 -0.09716796875 0.72722053527832031
0.001220703125 -0.10321044921875 0.73701000213623047
0.0106201171875 -0.09014892578125 0.74382781982421875
0.0157470703125 -0.082763671875 0.74785423278808594
0.1883544921875 -0.00311279296875 0.70275306701660156
0.199462890625 0.0023193359375 0.69124221801757812
0.20654296875 0.0059814453125 0.67468643188476562
0.2054443359375 0.02239990234375 0.65141677856445312
0.1986083984375 0.03570556640625 0.65135574340820312
0.1910400390625 0.04718017578125 0.65171623229980469
-0.0023193359375 -0.134765625 0.7237548828125
0.002685546875 -0.1500244140625 0.72762870788574219
0.0093994140625 -0.1636962890625 0.73344802856445312
0.031494140625 -0.1591796875 0.75091743469238281
0.0450439453125 -0.14044189453125 0.75809097290039062
0.057373046875 -0.121826171875 0.75932407379150391
0.2633056640625 -0.04449462890625 0.65938758850097656
0.2452392578125 -0.02398681640625 0.65864753723144531
0.230712890625 -0.008056640625 0.65648365020751953
0.0277099609375 -0.19769287109375 0.750823974609375
0.0333251953125 -0.22015380859375 0.75845527648925781
0.0450439453125 -0.2457275390625 0.76904582977294922
0.275634765625 -0.04583740234375 0.52987098693847656
0.259033203125 -0.026611328125 0.52910804748535156
0.2459716796875 -0.01312255859375 0.53070354461669922
0.2315673828125 0.00604248046875 0.56299686431884766
0.2298583984375 0.00775146484375 0.59416580200195312
0.223876953125 0.0078125 0.62432765960693359
0.00341796875 -0.200927734375 0.72185516357421875
-0.013427734375 -0.22381591796875 0.69925308227539062
-0.0283203125 -0.24224853515625 0.67214012145996094
-0.0361328125 -0.2763671875 0.65437889099121094
-0.031494140625 -0.29638671875 0.66545295715332031
-0.0233154296875 -0.3233642578125 0.67609786987304688
0.218505859375 0.00897216796875 0.53166007995605469
0.2108154296875 0.0194091796875 0.5325775146484375
0.201904296875 0.0308837890625 0.53404998779296875
0.1925048828125 0.04608154296875 0.56386756896972656
0.18994140625 0.05267333984375 0.59562015533447266
0.18505859375 0.056884765625 0.62825584411621094
-0.0198974609375 -0.1385498046875 0.70314216613769531
-0.03076171875 -0.1575927734375 0.67963981628417969
-0.0440673828125 -0.178466796875 0.65447425842285156
-0.0504150390625 -0.21044921875 0.63000679016113281
-0.0458984375 -0.22650146484375 0.63378715515136719
-0.0440673828125 -0.2415771484375 0.638916015625
0.182373046875 0.05047607421875 0.53773117065429688
0.1741943359375 0.062255859375 0.54073524475097656
0.1717529296875 0.07757568359375 0.54075241088867188
-0.0660400390625 -0.1572265625 0.616119384765625
-0.0570068359375 -0.164794921875 0.61977577209472656
-0.0531005859375 -0.17919921875 0.62374305725097656
0.334716796875 -0.31170654296875 0.7480316162109375
0.337646484375 -0.3067626953125 0.74938774108886719
0.3399658203125 -0.2999267578125 0.7457275390625
0.292236328125 -0.3404541015625 0.78878021240234375
0.2935791015625 -0.3458251953125 0.78515625
0.29296875 -0.35009765625 0.78164100646972656
0.303466796875 -0.343994140625 0.76552391052246094
0.315185546875 -0.3299560546875 0.75739479064941406
0.3236083984375 -0.3226318359375 0.74932861328125
0.25439453125 -0.38330078125 0.80100059509277344
0.2645263671875 -0.37451171875 0.79285812377929688
0.279296875 -0.36651611328125 0.78680801391601562
0.236572265625 -0.38665771484375 0.82266902923583984
0.2425537109375 -0.38555908203125 0.81894874572753906
0.24609375 -0.38824462890625 0.81440162658691406
0.3623046875 -0.3543701171875 0.73916339874267578
0.3681640625 -0.3524169921875 0.73890876770019531
0.375244140625 -0.35272216796875 0.73333168029785156
0.3408203125 -0.319580078125 0.73902702331542969
0.3485107421875 -0.3294677734375 0.73464584350585938
0.3538818359375 -0.3426513671875 0.73175907135009766
0.2530517578125 -0.4249267578125 0.8117828369140625
0.247314453125 -0.412353515625 0.81269264221191406
0.2457275390625 -0.40252685546875 0.81088352203369141
0.258056640625 -0.44512939453125 0.82529354095458984
0.2613525390625 -0.4351806640625 0.82139778137207031
0.261474609375 -0.4332275390625 0.81645011901855469
0.3538818359375 -0.41143798828125 0.75046539306640625
0.3580322265625 -0.41058349609375 0.75131034851074219
0.3646240234375 -0.41162109375 0.74795436859130859
0.35888671875 -0.3724365234375 0.73476791381835938
0.3564453125 -0.38653564453125 0.73640537261962891
0.355224609375 -0.40032958984375 0.74139690399169922
0.2890625 -0.45135498046875 0.79095268249511719
0.2796630859375 -0.4462890625 0.79670810699462891
0.269775390625 -0.44134521484375 0.80379962921142578
0.3017578125 -0.4656982421875 0.79784202575683594
0.302490234375 -0.45654296875 0.79510307312011719
0.30078125 -0.45361328125 0.79218101501464844
0.329833984375 -0.44219970703125 0.76968765258789062
0.331787109375 -0.44415283203125 0.77130794525146484
0.333984375 -0.44805908203125 0.77030181884765625
0.343505859375 -0.42236328125 0.74958229064941406
0.3389892578125 -0.43060302734375 0.75392532348632812
0.3314208984375 -0.43634033203125 0.75909423828125
0.3218994140625 -0.4456787109375 0.76860809326171875
0.3153076171875 -0.4505615234375 0.77518081665039062
0.3074951171875 -0.45269775390625 0.77911949157714844
0.309814453125 -0.44580078125 0.73858737945556641
0.31689453125 -0.44464111328125 0.74663448333740234
0.3233642578125 -0.443603515625 0.75655174255371094
0.3443603515625 -0.41412353515625 0.73664093017578125
0.3406982421875 -0.41748046875 0.7285308837890625
0.3349609375 -0.414794921875 0.71775054931640625
0.3253173828125 -0.4190673828125 0.71434593200683594
0.3204345703125 -0.42694091796875 0.71885204315185547
0.3138427734375 -0.4332275390625 0.72593498229980469
0.295654296875 -0.44561767578125 0.73943901062011719
0.289794921875 -0.4508056640625 0.74420356750488281
0.282470703125 -0.45233154296875 0.7480926513671875
0.2825927734375 -0.4576416015625 0.75846099853515625
0.288330078125 -0.45751953125 0.76575279235839844
0.2945556640625 -0.4547119140625 0.77481651306152344
0.352294921875 -0.36077880859375 0.72523021697998047
0.34814453125 -0.3663330078125 0.717559814453125
0.3426513671875 -0.370849609375 0.70875072479248047
0.339111328125 -0.3818359375 0.70418739318847656
0.3377685546875 -0.39178466796875 0.70560455322265625
0.3338623046875 -0.40191650390625 0.70624351501464844
0.2698974609375 -0.455078125 0.75926399230957031
0.262939453125 -0.453857421875 0.76392173767089844
0.25537109375 -0.44989013671875 0.76867866516113281
0.2528076171875 -0.4443359375 0.77920150756835938
0.25634765625 -0.44073486328125 0.7883148193359375
0.2598876953125 -0.43658447265625 0.79968833923339844
0.3297119140625 -0.3231201171875 0.73539161682128906
0.326416015625 -0.33111572265625 0.7277069091796875
0.3236083984375 -0.34063720703125 0.71768379211425781
0.3277587890625 -0.3543701171875 0.70473766326904297
0.3326416015625 -0.35888671875 0.70324420928955078
0.337646484375 -0.36761474609375 0.70252418518066406
0.245849609375 -0.44232177734375 0.77274703979492188
0.2431640625 -0.4364013671875 0.7707672119140625
0.2421875 -0.427978515625 0.77087020874023438
0.2427978515625 -0.4097900390625 0.77673149108886719
0.244140625 -0.404296875 0.78840446472167969
0.2462158203125 -0.397216796875 0.79947948455810547
0.2900390625 -0.36279296875 0.76874637603759766
0.2889404296875 -0.37152099609375 0.758697509765625
0.2872314453125 -0.37933349609375 0.74991512298583984
0.2978515625 -0.379638671875 0.73125648498535156
0.3077392578125 -0.368896484375 0.72460269927978516
0.3148193359375 -0.36004638671875 0.71627044677734375
0.2523193359375 -0.412353515625 0.76210212707519531
0.2615966796875 -0.4063720703125 0.75811672210693359
0.2738037109375 -0.39910888671875 0.74920845031738281
0.2913818359375 -0.404296875 0.73579502105712891
0.294189453125 -0.41912841796875 0.73191070556640625
0.2978515625 -0.43011474609375 0.73008632659912109
0.3248291015625 -0.3984375 0.70769882202148438
0.322509765625 -0.3846435546875 0.70531463623046875
0.3214111328125 -0.36895751953125 0.70752906799316406
0.250732421875 -0.4305419921875 0.75945281982421875
0.2576904296875 -0.44146728515625 0.75490474700927734
0.2684326171875 -0.44940185546875 0.75495433807373047
0.0009765625 0.3529052734375 0.65655326843261719
-0.0040283203125 0.345703125 0.65253448486328125
-0.0118408203125 0.3355712890625 0.65007591247558594
0.031005859375 0.3057861328125 0.655029296875
0.0350341796875 0.319580078125 0.65630722045898438
0.037353515625 0.328369140625 0.65800857543945312
0.02978515625 0.3382568359375 0.65776252746582031
0.02197265625 0.34356689453125 0.65652084350585938
0.013671875 0.3514404296875 0.65557670593261719
-0.18408203125 0.14666748046875 0.66387939453125
-0.1781005859375 0.1361083984375 0.66948699951171875
-0.17529296875 0.1259765625 0.67459392547607422
-0.17041015625 0.11492919921875 0.67721366882324219
-0.166259765625 0.11517333984375 0.67509651184082031
-0.15478515625 0.118408203125 0.67225456237792969
-0.1700439453125 0.17510986328125 0.65672874450683594
-0.1773681640625 0.16864013671875 0.65932083129882812
-0.184326171875 0.1619873046875 0.66204929351806641
-0.029541015625 0.406494140625 0.64557456970214844
-0.0380859375 0.40130615234375 0.64316844940185547
-0.0467529296875 0.39215087890625 0.64035129547119141
-0.001708984375 0.37060546875 0.65482234954833984
-0.0103759765625 0.38153076171875 0.65246391296386719
-0.0181884765625 0.395751953125 0.64834308624267578
-0.2149658203125 0.19049072265625 0.64607906341552734
-0.206787109375 0.18011474609375 0.65299320220947266
-0.1973876953125 0.17047119140625 0.65697669982910156
-0.2086181640625 0.22674560546875 0.63764572143554688
-0.216064453125 0.21405029296875 0.64111328125
-0.2218017578125 0.20623779296875 0.63983631134033203
-0.0435791015625 0.473876953125 0.63303184509277344
-0.0523681640625 0.47271728515625 0.63071632385253906
-0.0643310546875 0.470947265625 0.62922859191894531
-0.02783203125 0.426025390625 0.64458656311035156
-0.0333251953125 0.44195556640625 0.64154815673828125
-0.037109375 0.458740234375 0.63718700408935547
-0.2618408203125 0.21881103515625 0.62476539611816406
-0.2493896484375 0.2142333984375 0.63068866729736328
-0.238037109375 0.20843505859375 0.63602733612060547
-0.2672119140625 0.2535400390625 0.61526107788085938
-0.270751953125 0.24090576171875 0.61720371246337891
-0.274169921875 0.23040771484375 0.61901664733886719
0.0897216796875 0.3045654296875 0.65593051910400391
0.089111328125 0.31817626953125 0.65704154968261719
0.089111328125 0.32708740234375 0.66066741943359375
0.07373046875 0.33026123046875 0.6650848388671875
0.05859375 0.3294677734375 0.66424560546875
0.048828125 0.33123779296875 0.66193389892578125
-0.174560546875 0.10107421875 0.68124866485595703
-0.1767578125 0.08917236328125 0.68607044219970703
-0.1778564453125 0.07373046875 0.68897819519042969
-0.179443359375 0.05322265625 0.68848800659179688
-0.175537109375 0.05224609375 0.68732070922851562
-0.1673583984375 0.0499267578125 0.6883087158203125
0.183837890625 0.35052490234375 0.61645889282226562
0.1796875 0.3592529296875 0.6228337287902832
0.1763916015625 0.36749267578125 0.62810325622558594
0.154296875 0.360595703125 0.64086341857910156
0.133056640625 0.35040283203125 0.65199089050292969
0.1119384765625 0.34075927734375 0.65616226196289062
-0.1966552734375 0.0301513671875 0.69169425964355469
-0.210693359375 0.0054931640625 0.69148063659667969
-0.2261962890625 -0.02166748046875 0.69196701049804688
-0.240966796875 -0.05010986328125 0.68719100952148438
-0.2379150390625 -0.05609130859375 0.68491744995117188
-0.234619140625 -0.0660400390625 0.68068885803222656
0.24658203125 0.44342041015625 0.57303667068481445
0.2376708984375 0.447021484375 0.58211994171142578
0.2320556640625 0.45013427734375 0.59038162231445312
0.2159423828125 0.4295654296875 0.6026616096496582
0.2041015625 0.4085693359375 0.61281681060791016
0.1912841796875 0.390625 0.62402200698852539
-0.2606201171875 -0.06170654296875 0.68290328979492188
-0.278564453125 -0.07470703125 0.677459716796875
-0.30224609375 -0.085693359375 0.66915702819824219
-0.3240966796875 -0.10205078125 0.65524673461914062
-0.3255615234375 -0.1121826171875 0.65204429626464844
-0.329345703125 -0.12396240234375 0.64833831787109375
0.26953125 0.56561279296875 0.5488429069519043
0.2601318359375 0.5595703125 0.55436325073242188
0.25244140625 0.55615234375 0.56063938140869141
0.2445068359375 0.530517578125 0.56928348541259766
0.23974609375 0.5054931640625 0.57717132568359375
0.23388671875 0.47833251953125 0.58555698394775391
-0.348388671875 -0.1024169921875 0.6438446044921875
-0.3719482421875 -0.1063232421875 0.63433742523193359
-0.39404296875 -0.109375 0.62566471099853516
-0.42041015625 -0.11456298828125 0.60836696624755859
-0.4288330078125 -0.1219482421875 0.60570621490478516
-0.4354248046875 -0.1318359375 0.59891128540039062
0.242431640625 0.64691162109375 0.54854488372802734
0.236572265625 0.63555908203125 0.55354213714599609
0.228515625 0.630126953125 0.5586700439453125
0.2298583984375 0.609130859375 0.56013584136962891
0.2374267578125 0.59295654296875 0.55910873413085938
0.2442626953125 0.5740966796875 0.5601201057434082
-0.4312744140625 -0.10003662109375 0.59953784942626953
-0.44384765625 -0.090576171875 0.5889434814453125
-0.45361328125 -0.079345703125 0.58026123046875
-0.4683837890625 -0.074462890625 0.56747531890869141
-0.477294921875 -0.08087158203125 0.56023788452148438
-0.4871826171875 -0.0885009765625 0.55131149291992188
0.1812744140625 0.674560546875 0.56647300720214844
0.1766357421875 0.66387939453125 0.56897449493408203
0.1732177734375 0.65447998046875 0.57150077819824219
0.1866455078125 0.64703369140625 0.5697016716003418
0.20166015625 0.6419677734375 0.56825160980224609
0.212646484375 0.6331787109375 0.56595611572265625
-0.466064453125 -0.05633544921875 0.56504058837890625
-0.4700927734375 -0.04083251953125 0.5576934814453125
-0.4697265625 -0.025146484375 0.5552215576171875
-0.4720458984375 -0.008056640625 0.55449581146240234
-0.47900390625 -0.0115966796875 0.54725360870361328
-0.4884033203125 -0.01507568359375 0.53727531433105469
0.0740966796875 0.6400146484375 0.59750604629516602
0.077392578125 0.6319580078125 0.60261106491088867
0.079345703125 0.625732421875 0.60853195190429688
0.1026611328125 0.630859375 0.60343360900878906
0.1287841796875 0.638916015625 0.59310483932495117
0.1494140625 0.64495849609375 0.58367395401000977
-0.455078125 0.02130126953125 0.56618976593017578
-0.4434814453125 0.04644775390625 0.573516845703125
-0.427490234375 0.07537841796875 0.58001518249511719
-0.4180908203125 0.10211181640625 0.57942771911621094
-0.4228515625 0.1046142578125 0.56995582580566406
-0.4295654296875 0.109619140625 0.56172370910644531
-0.00146484375 0.59674072265625 0.60687351226806641
0.005859375 0.58941650390625 0.6090388298034668
0.013671875 0.58380126953125 0.61128044128417969
0.030029296875 0.58978271484375 0.61675024032592773
0.0447998046875 0.59979248046875 0.61871719360351562
0.060791015625 0.60931396484375 0.61794185638427734
-0.4007568359375 0.122802734375 0.58505821228027344
-0.3917236328125 0.1414794921875 0.58483314514160156
-0.380859375 0.16021728515625 0.58394813537597656
-0.37255859375 0.1810302734375 0.57826042175292969
-0.3753662109375 0.1861572265625 0.57035636901855469
-0.382080078125 0.19683837890625 0.56808853149414062
-0.0469970703125 0.5467529296875 0.61487674713134766
-0.034423828125 0.5416259765625 0.61687469482421875
-0.025390625 0.53863525390625 0.61940288543701172
-0.0125732421875 0.5484619140625 0.62056779861450195
-0.0047607421875 0.55975341796875 0.61781167984008789
0.0042724609375 0.57086181640625 0.61521768569946289
-0.3621826171875 0.18939208984375 0.58513450622558594
-0.3494873046875 0.1983642578125 0.58607673645019531
-0.339111328125 0.205810546875 0.59080600738525391
-0.3275146484375 0.22003173828125 0.59235954284667969
-0.3299560546875 0.232177734375 0.58656501770019531
-0.3319091796875 0.24468994140625 0.58195877075195312
-0.034912109375 0.49114990234375 0.63074874877929688
-0.031005859375 0.5074462890625 0.62758064270019531
-0.02587890625 0.5233154296875 0.62456893920898438
-0.3148193359375 0.21673583984375 0.60297966003417969
-0.3021240234375 0.21905517578125 0.60902786254882812
-0.2896728515625 0.22076416015625 0.61579513549804688
-0.0069580078125 0.53057861328125 0.62451171875
-0.0103759765625 0.53228759765625 0.62325572967529297
-0.0152587890625 0.534423828125 0.62206268310546875
-0.0286865234375 0.4759521484375 0.63311576843261719
-0.0235595703125 0.4761962890625 0.63088512420654297
-0.0185546875 0.475341796875 0.62804222106933594
-0.0157470703125 0.48944091796875 0.62181758880615234
-0.010498046875 0.502685546875 0.62237071990966797
-0.0089111328125 0.516357421875 0.62172508239746094
-0.3133544921875 0.19366455078125 0.60529327392578125
-0.304931640625 0.19500732421875 0.60544204711914062
-0.294677734375 0.19476318359375 0.60614395141601562
-0.281982421875 0.20147705078125 0.61452865600585938
-0.28125 0.20806884765625 0.61794471740722656
-0.278564453125 0.21337890625 0.62036514282226562
-0.3250732421875 0.20452880859375 0.60111808776855469
-0.3240966796875 0.19818115234375 0.60311794281005859
-0.3236083984375 0.19293212890625 0.60180377960205078
0.0252685546875 0.56939697265625 0.61538791656494141
0.0233154296875 0.5732421875 0.61631393432617188
0.0198974609375 0.5765380859375 0.61652278900146484
0.004150390625 0.5384521484375 0.6212763786315918
0.00927734375 0.546630859375 0.61943435668945312
0.01904296875 0.5557861328125 0.61719560623168945
-0.3509521484375 0.169921875 0.58961105346679688
-0.3416748046875 0.1778564453125 0.59337520599365234
-0.3316650390625 0.183837890625 0.59805488586425781
-0.36865234375 0.17108154296875 0.58630752563476562
-0.365478515625 0.16796875 0.58861351013183594
-0.3623046875 0.16424560546875 0.58807563781738281
0.0821533203125 0.60797119140625 0.61196994781494141
0.08349609375 0.61273193359375 0.61446475982666016
0.082763671875 0.615966796875 0.61586427688598633
0.0384521484375 0.57470703125 0.61509895324707031
0.05029296875 0.58544921875 0.6150660514831543
0.06591796875 0.59466552734375 0.61413764953613281
-0.390380859375 0.11737060546875 0.58462142944335938
-0.38134765625 0.1331787109375 0.58697319030761719
-0.36962890625 0.1475830078125 0.58629512786865234
-0.409912109375 0.100341796875 0.58886528015136719
-0.40625 0.0982666015625 0.5880889892578125
-0.40283203125 0.09820556640625 0.585601806640625
0.161865234375 0.62628173828125 0.56988191604614258
0.1639404296875 0.63372802734375 0.57293176651000977
0.1669921875 0.64093017578125 0.57454490661621094
0.1005859375 0.608642578125 0.59912538528442383
0.118896484375 0.61407470703125 0.58621311187744141
0.1412353515625 0.6180419921875 0.5734095573425293
-0.4334716796875 0.02545166015625 0.56742286682128906
-0.4229736328125 0.05059814453125 0.57227325439453125
-0.4132080078125 0.0753173828125 0.57701492309570312
-0.4578857421875 -0.0015869140625 0.56071853637695312
-0.4515380859375 6.103515625e-05 0.56253433227539062
-0.4459228515625 0.00189208984375 0.56175613403320312
0.2095947265625 0.6046142578125 0.56003952026367188
0.2139892578125 0.6099853515625 0.56344175338745117
0.217041015625 0.61572265625 0.56602954864501953
0.173828125 0.61767578125 0.5627293586730957
0.18798828125 0.6143798828125 0.55986928939819336
0.1976318359375 0.607666015625 0.55921220779418945
-0.4422607421875 -0.0411376953125 0.56426715850830078
-0.443359375 -0.0299072265625 0.56111335754394531
-0.4447021484375 -0.01519775390625 0.56051254272460938
-0.4541015625 -0.0638427734375 0.57388591766357422
-0.4495849609375 -0.05816650390625 0.57288169860839844
-0.4429931640625 -0.054931640625 0.57015037536621094
0.2283935546875 0.548095703125 0.5643620491027832
0.233154296875 0.5496826171875 0.56459760665893555
0.2376708984375 0.55145263671875 0.56500053405761719
0.2120361328125 0.58856201171875 0.55766153335571289
0.2154541015625 0.57647705078125 0.55482769012451172
0.2205810546875 0.56256103515625 0.55870580673217773
-0.41259765625 -0.07708740234375 0.59191226959228516
-0.423095703125 -0.07000732421875 0.58373546600341797
-0.4305419921875 -0.06243896484375 0.57668781280517578
-0.408935546875 -0.10028076171875 0.61057281494140625
-0.404296875 -0.0928955078125 0.60973930358886719
-0.4002685546875 -0.0882568359375 0.60593986511230469
0.2110595703125 0.4560546875 0.59033012390136719
0.216796875 0.45599365234375 0.59332895278930664
0.220947265625 0.45660400390625 0.59437751770019531
0.221435546875 0.52374267578125 0.56735038757324219
0.2174072265625 0.50048828125 0.57436943054199219
0.2122802734375 0.47576904296875 0.58210611343383789
-0.3443603515625 -0.08251953125 0.63184165954589844
-0.3638916015625 -0.08258056640625 0.62217521667480469
-0.3800048828125 -0.0850830078125 0.61667060852050781
-0.3231201171875 -0.087158203125 0.65587711334228516
-0.323486328125 -0.08306884765625 0.65220832824707031
-0.322265625 -0.079345703125 0.64775466918945312
0.1649169921875 0.38427734375 0.62674713134765625
0.1680908203125 0.3824462890625 0.63039731979370117
0.1712646484375 0.378662109375 0.63226699829101562
0.198974609375 0.434326171875 0.59481716156005859
0.190185546875 0.417236328125 0.6056671142578125
0.1766357421875 0.40191650390625 0.61305093765258789
-0.2689208984375 -0.04803466796875 0.66849327087402344
-0.28515625 -0.059814453125 0.66266727447509766
-0.303955078125 -0.06884765625 0.65294837951660156
-0.2454833984375 -0.03955078125 0.68667984008789062
-0.2471923828125 -0.036865234375 0.68329906463623047
-0.2520751953125 -0.03509521484375 0.678955078125
0.0908203125 0.34686279296875 0.65443038940429688
0.0906982421875 0.343505859375 0.66009902954101562
0.0924072265625 0.3389892578125 0.66117095947265625
0.145263671875 0.37640380859375 0.63151836395263672
0.1270751953125 0.3665771484375 0.64058494567871094
0.1080322265625 0.3560791015625 0.64384555816650391
-0.210693359375 0.03271484375 0.67842769622802734
-0.2235107421875 0.01092529296875 0.67747879028320312
-0.2373046875 -0.0128173828125 0.67707061767578125
-0.1893310546875 0.05584716796875 0.69109916687011719
-0.1942138671875 0.05572509765625 0.68739891052246094
-0.19580078125 0.05523681640625 0.68246936798095703
0.041748046875 0.346923828125 0.64949798583984375
0.0416259765625 0.3431396484375 0.65401172637939453
0.040283203125 0.33929443359375 0.65691947937011719
0.0748291015625 0.34619140625 0.64917182922363281
0.0635986328125 0.34661865234375 0.64777755737304688
0.0528564453125 0.34783935546875 0.64565277099609375
-0.190185546875 0.09814453125 0.6658477783203125
-0.1883544921875 0.0863037109375 0.66969680786132812
-0.192138671875 0.07135009765625 0.67364692687988281
-0.1788330078125 0.1121826171875 0.67696094512939453
-0.1827392578125 0.11102294921875 0.67211723327636719
-0.18701171875 0.10943603515625 0.66523361206054688
-0.01806640625 0.41436767578125 0.64397239685058594
-0.0146484375 0.4171142578125 0.64016151428222656
-0.0113525390625 0.41717529296875 0.63492012023925781
-0.011474609375 0.43182373046875 0.62883663177490234
-0.014404296875 0.44537353515625 0.62773704528808594
-0.0146484375 0.4600830078125 0.62643051147460938
-0.27001953125 0.193603515625 0.61459159851074219
-0.2591552734375 0.1910400390625 0.61583900451660156
-0.248291015625 0.1881103515625 0.61948013305664062
-0.2352294921875 0.1844482421875 0.62821769714355469
-0.23291015625 0.1884765625 0.63424301147460938
-0.230224609375 0.1937255859375 0.63657474517822266
0.0091552734375 0.364990234375 0.65419387817382812
0.012451171875 0.3680419921875 0.64861106872558594
