# XYZ point cloud file
-0.478790283203125 -0.716552734375 -0.0614013671875
-0.48671722412109375 -0.725830078125 -0.0845947265625
-0.48874664306640625 -0.73779296875 -0.05572509765625
-0.46617889404296875 -0.70947265625 -0.0440673828125
-0.4745025634765625 -0.7001953125 -0.07550048828125
-0.48319244384765625 -0.713134765625 -0.09320068359375
-0.49201202392578125 -0.7470703125 -0.073974609375
-0.47786712646484375 -0.73046875 -0.03515625
-0.46118927001953125 -0.68798828125 -0.05584716796875
0.35713958740234375 0.458251953125 -0.27752685546875
0.35187530517578125 0.470703125 -0.28021240234375
0.34735107421875 0.447998046875 -0.2552490234375
0.36292266845703125 0.448486328125 -0.2760009765625
0.36563873291015625 0.465576171875 -0.30255126953125
0.36243438720703125 0.479248046875 -0.3045654296875
0.344024658203125 0.464599609375 -0.25494384765625
0.35811614990234375 0.438232421875 -0.25274658203125
0.37294769287109375 0.457763671875 -0.30059814453125
-0.47844696044921875 -0.66650390625 -0.11297607421875
-0.47406005859375 -0.646484375 -0.08935546875
-0.48580169677734375 -0.660400390625 -0.12200927734375
-0.48203277587890625 -0.688232421875 -0.12628173828125
-0.47306060791015625 -0.676513671875 -0.09991455078125
-0.4654388427734375 -0.657470703125 -0.08026123046875
-0.485260009765625 -0.637939453125 -0.10345458984375
-0.48992919921875 -0.681396484375 -0.13653564453125
-0.47779083251953125 -0.694580078125 -0.120849609375
0.3359527587890625 0.511962890625 -0.30126953125
0.3217315673828125 0.51171875 -0.28289794921875
0.34148406982421875 0.499267578125 -0.29119873046875
0.3463134765625 0.517822265625 -0.3035888671875
0.33017730712890625 0.520751953125 -0.30419921875
0.32049560546875 0.5234375 -0.29840087890625
0.3260345458984375 0.4951171875 -0.27056884765625
0.35295867919921875 0.505859375 -0.30340576171875
0.34030914306640625 0.5263671875 -0.3038330078125
-0.51091766357421875 -0.63671875 -0.16412353515625
-0.49983978271484375 -0.647216796875 -0.145263671875
-0.504730224609375 -0.6201171875 -0.15447998046875
-0.51418304443359375 -0.630126953125 -0.17694091796875
-0.5114593505859375 -0.654541015625 -0.16650390625
-0.50860595703125 -0.66455078125 -0.15557861328125
-0.49773406982421875 -0.62109375 -0.1376953125
-0.51568603515625 -0.615234375 -0.17315673828125
-0.51576995849609375 -0.644775390625 -0.1756591796875
0.29465484619140625 0.5751953125 -0.25897216796875
0.2985076904296875 0.611083984375 -0.2529296875
0.29290771484375 0.571044921875 -0.240966796875
0.3049163818359375 0.542724609375 -0.26751708984375
0.30368804931640625 0.578125 -0.27679443359375
0.3051605224609375 0.609619140625 -0.26898193359375
0.28818511962890625 0.615234375 -0.22930908203125
0.30068206787109375 0.531494140625 -0.24896240234375
0.30780792236328125 0.55126953125 -0.28228759765625
-0.54065704345703125 -0.576416015625 -0.17559814453125
-0.5408172607421875 -0.5693359375 -0.15020751953125
-0.56463623046875 -0.564697265625 -0.19049072265625
-0.54778289794921875 -0.580322265625 -0.19281005859375
-0.52881622314453125 -0.5859375 -0.16546630859375
-0.51967620849609375 -0.583984375 -0.13983154296875
-0.56482696533203125 -0.5556640625 -0.16729736328125
-0.566986083984375 -0.573974609375 -0.205810546875
-0.5260772705078125 -0.5927734375 -0.18292236328125
0.2860107421875 0.701904296875 -0.2406005859375
0.279815673828125 0.709716796875 -0.2230224609375
0.29012298583984375 0.67236328125 -0.246337890625
0.2939605712890625 0.696533203125 -0.2550048828125
0.28356170654296875 0.730712890625 -0.23382568359375
0.275390625 0.736083984375 -0.2208251953125
0.2829132080078125 0.6826171875 -0.226806640625
0.29787445068359375 0.669677734375 -0.2587890625
0.28887939453125 0.7216796875 -0.24945068359375
-0.61830902099609375 -0.538818359375 -0.2196044921875
-0.60687255859375 -0.54833984375 -0.209228515625
-0.62567138671875 -0.52587890625 -0.2098388671875
-0.6358184814453125 -0.537841796875 -0.23297119140625
-0.6156463623046875 -0.555419921875 -0.233154296875
-0.603607177734375 -0.560302734375 -0.21905517578125
-0.6069183349609375 -0.5380859375 -0.1978759765625
-0.635772705078125 -0.517333984375 -0.22088623046875
-0.6325225830078125 -0.552490234375 -0.2376708984375
0.27744293212890625 0.811279296875 -0.22479248046875
0.26599884033203125 0.814453125 -0.2093505859375
0.2728424072265625 0.78173828125 -0.22601318359375
0.2849884033203125 0.806884765625 -0.23736572265625
0.2785491943359375 0.837646484375 -0.22247314453125
0.2693328857421875 0.8447265625 -0.20611572265625
0.26561737060546875 0.785400390625 -0.21044921875
0.28610992431640625 0.78076171875 -0.242431640625
0.29361724853515625 0.830322265625 -0.24505615234375
-0.6902618408203125 -0.527099609375 -0.2689208984375
-0.6736907958984375 -0.530029296875 -0.2515869140625
-0.69518280029296875 -0.510986328125 -0.26019287109375
-0.7060089111328125 -0.52490234375 -0.2823486328125
-0.6893157958984375 -0.539306640625 -0.2764892578125
-0.673431396484375 -0.54443359375 -0.2596435546875
-0.67803955078125 -0.519287109375 -0.24810791015625
-0.70720672607421875 -0.5087890625 -0.27581787109375
-0.70452880859375 -0.539794921875 -0.29156494140625
0.24811553955078125 0.752197265625 -0.1558837890625
0.252288818359375 0.73095703125 -0.14697265625
0.2589569091796875 0.734375 -0.180908203125
0.2415771484375 0.771240234375 -0.1722412109375
0.23424530029296875 0.7763671875 -0.12994384765625
0.242645263671875 0.762939453125 -0.107421875
0.26470184326171875 0.708251953125 -0.1746826171875
0.25449371337890625 0.754150390625 -0.1873779296875
0.22574615478515625 0.785400390625 -0.152099609375
-0.64586639404296875 -0.4794921875 -0.1832275390625
-0.63593292236328125 -0.496826171875 -0.1905517578125
-0.6360015869140625 -0.49072265625 -0.1505126953125
-0.66092681884765625 -0.4580078125 -0.1708984375
-0.65622711181640625 -0.474365234375 -0.2054443359375
-0.64737701416015625 -0.490234375 -0.20562744140625
-0.6217498779296875 -0.508544921875 -0.1705322265625
-0.65590667724609375 -0.471923828125 -0.13006591796875
-0.6684417724609375 -0.452392578125 -0.20648193359375
0.291839599609375 0.60302734375 -0.15234375
0.295196533203125 0.61474609375 -0.1163330078125
0.30523681640625 0.544921875 -0.1549072265625
0.28894805908203125 0.5869140625 -0.18316650390625
0.27904510498046875 0.658447265625 -0.13873291015625
0.27646636962890625 0.680419921875 -0.10162353515625
0.31145477294921875 0.55078125 -0.1270751953125
0.302764892578125 0.53662109375 -0.1829833984375
0.27947998046875 0.637451171875 -0.17724609375
-0.5487213134765625 -0.549072265625 -0.0748291015625
-0.50872039794921875 -0.571533203125 -0.05584716796875
-0.553863525390625 -0.54443359375 -0.0467529296875
-0.578887939453125 -0.526123046875 -0.0924072265625
-0.54230499267578125 -0.553466796875 -0.09832763671875
-0.51415252685546875 -0.574951171875 -0.083984375
-0.51280975341796875 -0.5732421875 -0.02691650390625
-0.5921630859375 -0.517578125 -0.07183837890625
-0.5717620849609375 -0.535400390625 -0.12286376953125
0.33391571044921875 0.45361328125 -0.19122314453125
0.33876800537109375 0.443603515625 -0.18328857421875
0.33586883544921875 0.4482421875 -0.2044677734375
0.32973480224609375 0.46923828125 -0.18212890625
0.335662841796875 0.4638671875 -0.16839599609375
0.34406280517578125 0.434814453125 -0.2020263671875
0.326324462890625 0.46923828125 -0.202880859375
-0.45304107666015625 -0.614013671875 -0.03533935546875
-0.451324462890625 -0.62060546875 -0.0531005859375
-0.43810272216796875 -0.616943359375 -0.018310546875
-0.46026611328125 -0.603759765625 -0.03863525390625
-0.4693603515625 -0.609375 -0.0596923828125
-0.44004058837890625 -0.62744140625 -0.0372314453125
-0.4483184814453125 -0.60791015625 -0.012451171875
0.30768585205078125 0.790283203125 -0.28778076171875
0.30381011962890625 0.794921875 -0.2684326171875
0.301361083984375 0.767822265625 -0.28765869140625
0.31561279296875 0.7841796875 -0.3017578125
0.3145751953125 0.81103515625 -0.2962646484375
0.30640411376953125 0.81689453125 -0.27728271484375
0.301116943359375 0.772705078125 -0.27294921875
0.30899810791015625 0.763427734375 -0.3033447265625
0.31650543212890625 0.809326171875 -0.30828857421875
-0.68921661376953125 -0.5712890625 -0.31231689453125
-0.66831207275390625 -0.57177734375 -0.2935791015625
-0.684844970703125 -0.563232421875 -0.29754638671875
-0.707489013671875 -0.57080078125 -0.31903076171875
-0.6877288818359375 -0.581298828125 -0.3162841796875
-0.67144012451171875 -0.580078125 -0.303466796875
-0.67208099365234375 -0.564453125 -0.28057861328125
-0.7072906494140625 -0.564453125 -0.309814453125
-0.7082977294921875 -0.582275390625 -0.32720947265625
0.304290771484375 0.696044921875 -0.30322265625
0.30401611328125 0.694580078125 -0.2857666015625
0.306549072265625 0.664794921875 -0.30218505859375
0.30963897705078125 0.6904296875 -0.31494140625
0.3018798828125 0.718017578125 -0.2935791015625
0.2983245849609375 0.720947265625 -0.2833251953125
0.30590057373046875 0.662841796875 -0.29241943359375
0.310028076171875 0.66748046875 -0.32147216796875
0.30905914306640625 0.7158203125 -0.31134033203125
-0.617431640625 -0.58056640625 -0.258056640625
-0.6007537841796875 -0.584716796875 -0.254638671875
-0.6150970458984375 -0.57177734375 -0.24810791015625
-0.63393402099609375 -0.576416015625 -0.268310546875
-0.61829376220703125 -0.588623046875 -0.26434326171875
-0.5991058349609375 -0.590576171875 -0.25927734375
-0.60169219970703125 -0.57666015625 -0.24603271484375
-0.6361846923828125 -0.571044921875 -0.2567138671875
-0.63722991943359375 -0.586181640625 -0.2767333984375
0.3101959228515625 0.5830078125 -0.3094482421875
0.30609893798828125 0.5810546875 -0.29840087890625
0.30699920654296875 0.557861328125 -0.3165283203125
0.31668853759765625 0.584716796875 -0.3228759765625
0.30879974365234375 0.610107421875 -0.31329345703125
0.3070220947265625 0.609375 -0.29620361328125
0.3070526123046875 0.5576171875 -0.3046875
0.31452178955078125 0.56298828125 -0.32513427734375
0.31436920166015625 0.609619140625 -0.32550048828125
-0.55731201171875 -0.59326171875 -0.23516845703125
-0.5394134521484375 -0.599365234375 -0.22686767578125
-0.553802490234375 -0.58984375 -0.22503662109375
-0.5693359375 -0.591796875 -0.23828125
-0.5548858642578125 -0.59814453125 -0.2415771484375
-0.5446319580078125 -0.6015625 -0.23712158203125
-0.54026031494140625 -0.595703125 -0.21490478515625
-0.56622314453125 -0.585205078125 -0.22998046875
-0.57135009765625 -0.5966796875 -0.246337890625
0.328399658203125 0.5380859375 -0.3221435546875
0.3249664306640625 0.534912109375 -0.31396484375
0.3438568115234375 0.541259765625 -0.3306884765625
0.33194732666015625 0.541748046875 -0.33587646484375
0.31914520263671875 0.539306640625 -0.3203125
0.3166046142578125 0.53515625 -0.31097412109375
0.3410186767578125 0.5390625 -0.3154296875
0.3444061279296875 0.54345703125 -0.3355712890625
0.323272705078125 0.54248046875 -0.3304443359375
-0.52735137939453125 -0.624755859375 -0.2152099609375
-0.5304412841796875 -0.63818359375 -0.20745849609375
-0.522186279296875 -0.6240234375 -0.206298828125
-0.52752685546875 -0.61279296875 -0.220703125
-0.528717041015625 -0.62841796875 -0.2197265625
-0.530242919921875 -0.642822265625 -0.216796875
-0.52593994140625 -0.636474609375 -0.20306396484375
-0.52304840087890625 -0.61181640625 -0.2034912109375
-0.53034210205078125 -0.617919921875 -0.22625732421875
0.36942291259765625 0.531982421875 -0.3370361328125
0.36620330810546875 0.5302734375 -0.326904296875
0.37876129150390625 0.5224609375 -0.34381103515625
0.37091827392578125 0.535888671875 -0.3509521484375
0.3612213134765625 0.539794921875 -0.3350830078125
0.35941314697265625 0.537109375 -0.32537841796875
0.37178802490234375 0.5205078125 -0.327880859375
0.3816375732421875 0.52490234375 -0.35400390625
0.36386871337890625 0.54296875 -0.34356689453125
-0.52490997314453125 -0.683349609375 -0.19415283203125
-0.51740264892578125 -0.697509765625 -0.18438720703125
-0.52207183837890625 -0.677001953125 -0.18023681640625
-0.529754638671875 -0.66845703125 -0.1971435546875
-0.52849578857421875 -0.68798828125 -0.19744873046875
-0.52545928955078125 -0.700927734375 -0.193359375
-0.51894378662109375 -0.6904296875 -0.17242431640625
-0.52465057373046875 -0.66455078125 -0.190185546875
-0.53192138671875 -0.671875 -0.20269775390625
0.3884735107421875 0.486572265625 -0.3509521484375
0.38491058349609375 0.4814453125 -0.33612060546875
0.3914337158203125 0.476318359375 -0.34930419921875
0.38912200927734375 0.4931640625 -0.3609619140625
0.38657379150390625 0.49951171875 -0.3502197265625
0.383331298828125 0.494140625 -0.33526611328125
0.3848876953125 0.47509765625 -0.33599853515625
0.39044189453125 0.48583984375 -0.3597412109375
0.3851470947265625 0.503173828125 -0.36175537109375
-0.49859619140625 -0.716796875 -0.16558837890625
-0.49542236328125 -0.7216796875 -0.15869140625
-0.4997100830078125 -0.710205078125 -0.1552734375
-0.50481414794921875 -0.7138671875 -0.17169189453125
-0.5007781982421875 -0.7216796875 -0.175048828125
-0.498809814453125 -0.723876953125 -0.16595458984375
-0.4945220947265625 -0.71533203125 -0.1488037109375
-0.50408935546875 -0.7060546875 -0.1611328125
-0.50469207763671875 -0.71826171875 -0.181884765625
0.40875244140625 0.4873046875 -0.34051513671875
0.40708160400390625 0.486083984375 -0.32696533203125
0.418243408203125 0.50146484375 -0.34197998046875
0.41065216064453125 0.491943359375 -0.349609375
0.39881134033203125 0.478759765625 -0.34417724609375
0.39574432373046875 0.478759765625 -0.32373046875
0.42148590087890625 0.496337890625 -0.33038330078125
0.41770172119140625 0.507568359375 -0.3505859375
0.401397705078125 0.4833984375 -0.3514404296875
-0.5013580322265625 -0.7412109375 -0.130615234375
-0.5086517333984375 -0.7568359375 -0.1256103515625
-0.49776458740234375 -0.739990234375 -0.12017822265625
-0.49798583984375 -0.73046875 -0.144287109375
-0.5045318603515625 -0.743408203125 -0.14166259765625
-0.508941650390625 -0.756591796875 -0.1407470703125
-0.50783538818359375 -0.756103515625 -0.1112060546875
-0.49114227294921875 -0.728515625 -0.130615234375
-0.49919891357421875 -0.73486328125 -0.15142822265625
0.3307952880859375 0.88720703125 -0.32159423828125
0.3220367431640625 0.889892578125 -0.30352783203125
0.31790924072265625 0.863525390625 -0.310546875
0.3331298828125 0.881591796875 -0.33648681640625
0.3393402099609375 0.911376953125 -0.33221435546875
0.33000946044921875 0.913818359375 -0.32220458984375
0.30877685546875 0.865234375 -0.2916259765625
0.32538604736328125 0.859130859375 -0.3277587890625
0.34735870361328125 0.909423828125 -0.3526611328125
-0.7506256103515625 -0.589599609375 -0.37689208984375
-0.7376251220703125 -0.58203125 -0.355712890625
-0.7500152587890625 -0.580078125 -0.360107421875
-0.76735687255859375 -0.601318359375 -0.39691162109375
-0.74851226806640625 -0.60107421875 -0.38031005859375
-0.7395782470703125 -0.590087890625 -0.3636474609375
-0.73722076416015625 -0.569580078125 -0.34375
-0.77239990234375 -0.5927734375 -0.38531494140625
-0.76654052734375 -0.61279296875 -0.40313720703125
0.37744140625 0.994384765625 -0.385986328125
0.37296295166015625 0.997314453125 -0.3717041015625
0.35665130615234375 0.963623046875 -0.3704833984375
0.38219451904296875 0.990234375 -0.397216796875
0.400970458984375 1.01513671875 -0.39306640625
0.3936004638671875 1.021240234375 -0.3843994140625
0.352508544921875 0.970703125 -0.35491943359375
0.364898681640625 0.960205078125 -0.37921142578125
0.403045654296875 1.010498046875 -0.40484619140625
-0.8206787109375 -0.656494140625 -0.46600341796875
-0.8074951171875 -0.635986328125 -0.4425048828125
-0.82155609130859375 -0.64599609375 -0.45538330078125
-0.83527374267578125 -0.681396484375 -0.4708251953125
-0.82021331787109375 -0.662353515625 -0.47137451171875
-0.803070068359375 -0.645751953125 -0.449951171875
-0.807586669921875 -0.624755859375 -0.4351806640625
-0.83753204345703125 -0.672119140625 -0.4658203125
-0.8323974609375 -0.6884765625 -0.4755859375
0.44893646240234375 1.018310546875 -0.4356689453125
0.44744110107421875 1.025390625 -0.42913818359375
0.4330596923828125 1.029052734375 -0.42852783203125
0.45102691650390625 1.01171875 -0.44256591796875
0.465728759765625 1.00146484375 -0.4527587890625
0.4620513916015625 1.007568359375 -0.4395751953125
0.43206787109375 1.0341796875 -0.41400146484375
0.435302734375 1.021240234375 -0.43634033203125
0.46685791015625 0.99609375 -0.45819091796875
-0.854949951171875 -0.777099609375 -0.4630126953125
-0.85687255859375 -0.745849609375 -0.473388671875
-0.8575439453125 -0.773193359375 -0.4566650390625
-0.8473052978515625 -0.813232421875 -0.45098876953125
-0.84870147705078125 -0.7822265625 -0.46630859375
-0.851837158203125 -0.75 -0.47625732421875
-0.859344482421875 -0.739013671875 -0.47161865234375
-0.8545074462890625 -0.808349609375 -0.44219970703125
-0.8444671630859375 -0.814697265625 -0.45269775390625
0.51232147216796875 0.9052734375 -0.4896240234375
0.50749969482421875 0.90771484375 -0.4859619140625
0.49916839599609375 0.94482421875 -0.4735107421875
0.50862884521484375 0.9013671875 -0.49652099609375
0.51523590087890625 0.861572265625 -0.511474609375
0.51496124267578125 0.86376953125 -0.5040283203125
0.49849700927734375 0.948486328125 -0.47027587890625
0.5000152587890625 0.94189453125 -0.4796142578125
0.51303863525390625 0.861328125 -0.5147705078125
-0.81148529052734375 -0.8935546875 -0.39373779296875
-0.82530975341796875 -0.8701171875 -0.416748046875
-0.80954742431640625 -0.888916015625 -0.3858642578125
-0.77674102783203125 -0.9111328125 -0.36468505859375
-0.80994415283203125 -0.890380859375 -0.3973388671875
-0.82389068603515625 -0.86962890625 -0.41876220703125
-0.82561492919921875 -0.8671875 -0.40850830078125
-0.77303314208984375 -0.909912109375 -0.35894775390625
-0.77710723876953125 -0.90771484375 -0.37103271484375
0.518798828125 0.72607421875 -0.4903564453125
0.52191162109375 0.726806640625 -0.4837646484375
0.52870941162109375 0.771728515625 -0.5133056640625
0.5159149169921875 0.728759765625 -0.4918212890625
0.51398468017578125 0.68310546875 -0.4786376953125
0.51776123046875 0.67822265625 -0.47021484375
0.52529144287109375 0.769775390625 -0.50372314453125
0.52215576171875 0.7734375 -0.5150146484375
0.511749267578125 0.686767578125 -0.4849853515625
-0.69057464599609375 -0.92333984375 -0.2947998046875
-0.7171783447265625 -0.930419921875 -0.31396484375
-0.6866607666015625 -0.921630859375 -0.2808837890625
-0.6652984619140625 -0.903076171875 -0.27093505859375
-0.69040679931640625 -0.92041015625 -0.3009033203125
-0.71929931640625 -0.927490234375 -0.3212890625
-0.715911865234375 -0.93017578125 -0.3018798828125
-0.66327667236328125 -0.90234375 -0.25762939453125
-0.66808319091796875 -0.900146484375 -0.27923583984375
0.466949462890625 0.56640625 -0.383544921875
0.4679412841796875 0.562744140625 -0.3743896484375
0.4851837158203125 0.599609375 -0.415283203125
0.4639434814453125 0.571533203125 -0.3953857421875
0.4481658935546875 0.54541015625 -0.36297607421875
0.4495849609375 0.54296875 -0.3531494140625
0.4850921630859375 0.594970703125 -0.4073486328125
0.479248046875 0.60546875 -0.4202880859375
0.44156646728515625 0.5498046875 -0.3707275390625
-0.57924652099609375 -0.82666015625 -0.17449951171875
-0.6013946533203125 -0.85498046875 -0.20831298828125
-0.56972503662109375 -0.826904296875 -0.15240478515625
-0.54582977294921875 -0.798095703125 -0.14019775390625
-0.58010101318359375 -0.827392578125 -0.18585205078125
-0.6057281494140625 -0.849365234375 -0.2181396484375
-0.5990447998046875 -0.855712890625 -0.18951416015625
-0.540008544921875 -0.796630859375 -0.12371826171875
-0.5550537109375 -0.7958984375 -0.1573486328125
0.379302978515625 0.573486328125 -0.37481689453125
0.37604522705078125 0.553466796875 -0.3681640625
0.3885955810546875 0.5654296875 -0.3779296875
0.3829345703125 0.595947265625 -0.37506103515625
0.36936187744140625 0.57861328125 -0.3704833984375
0.36670684814453125 0.560302734375 -0.365478515625
0.3826751708984375 0.545166015625 -0.37664794921875
0.38973236083984375 0.586669921875 -0.37689208984375
0.37073516845703125 0.599853515625 -0.36895751953125
-0.563201904296875 -0.705078125 -0.2174072265625
-0.55631256103515625 -0.71826171875 -0.211181640625
-0.55035400390625 -0.697021484375 -0.21307373046875
-0.56531524658203125 -0.687255859375 -0.22479248046875
-0.57770538330078125 -0.709716796875 -0.2213134765625
-0.5729522705078125 -0.72509765625 -0.22064208984375
-0.545318603515625 -0.71142578125 -0.201416015625
-0.5526580810546875 -0.681640625 -0.22247314453125
-0.576690673828125 -0.692626953125 -0.229736328125
0.39508819580078125 0.669921875 -0.38153076171875
0.3895721435546875 0.646728515625 -0.3800048828125
0.40621185302734375 0.66162109375 -0.38525390625
0.4000244140625 0.6904296875 -0.37884521484375
0.38092041015625 0.67431640625 -0.37445068359375
0.37795257568359375 0.647216796875 -0.37408447265625
0.40039825439453125 0.6376953125 -0.383056640625
0.41263580322265625 0.6845703125 -0.38604736328125
0.3867645263671875 0.69775390625 -0.36871337890625
-0.62635040283203125 -0.7138671875 -0.27154541015625
-0.6249847412109375 -0.7353515625 -0.26495361328125
-0.60703277587890625 -0.71044921875 -0.252685546875
-0.6276397705078125 -0.6943359375 -0.27606201171875
-0.64835357666015625 -0.71826171875 -0.28662109375
-0.64748382568359375 -0.73876953125 -0.283203125
-0.6051788330078125 -0.728515625 -0.2486572265625
-0.60727691650390625 -0.696044921875 -0.2584228515625
-0.64762115478515625 -0.69677734375 -0.29248046875
0.4034423828125 0.765869140625 -0.37890625
0.40716552734375 0.740478515625 -0.37762451171875
0.4152984619140625 0.7626953125 -0.39105224609375
0.403778076171875 0.79150390625 -0.37890625
0.39095306396484375 0.76806640625 -0.373291015625
0.39374542236328125 0.7431640625 -0.37152099609375
0.41979217529296875 0.735595703125 -0.38922119140625
0.41855621337890625 0.79150390625 -0.39697265625
0.39369964599609375 0.792724609375 -0.37255859375
-0.697479248046875 -0.718505859375 -0.3260498046875
-0.69876861572265625 -0.739990234375 -0.325439453125
-0.68651580810546875 -0.717041015625 -0.3115234375
-0.6996612548828125 -0.695556640625 -0.32843017578125
-0.7118682861328125 -0.718994140625 -0.3349609375
-0.7115936279296875 -0.742919921875 -0.33294677734375
-0.68662261962890625 -0.73876953125 -0.31207275390625
-0.68590545654296875 -0.6962890625 -0.3116455078125
-0.71429443359375 -0.697998046875 -0.3358154296875
0.4131622314453125 0.86181640625 -0.39208984375
0.40833282470703125 0.83935546875 -0.3927001953125
0.43145751953125 0.857177734375 -0.40521240234375
0.42426300048828125 0.8837890625 -0.3948974609375
0.40129852294921875 0.86572265625 -0.38421630859375
0.394775390625 0.843994140625 -0.3817138671875
0.425506591796875 0.83642578125 -0.403076171875
0.43537139892578125 0.87939453125 -0.4061279296875
0.41345977783203125 0.88671875 -0.39019775390625
-0.74625396728515625 -0.72802734375 -0.36090087890625
-0.74716949462890625 -0.74658203125 -0.359130859375
-0.73705291748046875 -0.7265625 -0.35205078125
-0.74631500244140625 -0.707763671875 -0.365478515625
-0.76129150390625 -0.734619140625 -0.3748779296875
-0.7614288330078125 -0.75244140625 -0.37139892578125
-0.734283447265625 -0.748046875 -0.35162353515625
-0.73413848876953125 -0.707763671875 -0.35498046875
-0.7644195556640625 -0.71630859375 -0.38336181640625
0.3643646240234375 0.876220703125 -0.3690185546875
0.35411834716796875 0.87841796875 -0.35955810546875
0.3595123291015625 0.84912109375 -0.3585205078125
0.37476348876953125 0.875244140625 -0.374267578125
0.3702239990234375 0.900390625 -0.3739013671875
0.35977935791015625 0.904296875 -0.37060546875
0.34275054931640625 0.854248046875 -0.346923828125
0.37476348876953125 0.84765625 -0.3687744140625
0.3841400146484375 0.8984375 -0.37554931640625
-0.752685546875 -0.650634765625 -0.38262939453125
-0.7357177734375 -0.6435546875 -0.37091064453125
-0.7514495849609375 -0.632568359375 -0.389404296875
-0.763031005859375 -0.65771484375 -0.4046630859375
-0.7519989013671875 -0.66796875 -0.38214111328125
-0.73674774169921875 -0.665771484375 -0.3629150390625
-0.73621368408203125 -0.622314453125 -0.37091064453125
-0.7632598876953125 -0.639892578125 -0.40875244140625
-0.7641143798828125 -0.67822265625 -0.39697265625
0.343963623046875 0.779541015625 -0.34228515625
0.3483123779296875 0.751220703125 -0.33868408203125
0.36243438720703125 0.77978515625 -0.35418701171875
0.35158538818359375 0.8056640625 -0.3441162109375
0.3370513916015625 0.7802734375 -0.328857421875
0.33364105224609375 0.7568359375 -0.3243408203125
0.36005401611328125 0.75146484375 -0.35308837890625
0.3653411865234375 0.802734375 -0.35601806640625
0.33733367919921875 0.80810546875 -0.32928466796875
-0.69915008544921875 -0.630126953125 -0.33154296875
-0.7003326416015625 -0.65283203125 -0.33551025390625
-0.6822509765625 -0.63037109375 -0.318359375
-0.6947021484375 -0.60595703125 -0.32965087890625
-0.712158203125 -0.62939453125 -0.3416748046875
-0.71483612060546875 -0.65478515625 -0.34051513671875
-0.68194580078125 -0.65234375 -0.322509765625
-0.6795654296875 -0.609619140625 -0.317138671875
-0.70948028564453125 -0.610595703125 -0.34124755859375
0.33573150634765625 0.6845703125 -0.3486328125
0.32781982421875 0.685302734375 -0.3331298828125
0.3359222412109375 0.659423828125 -0.34912109375
0.3548736572265625 0.6787109375 -0.3592529296875
0.341644287109375 0.709716796875 -0.34417724609375
0.32843017578125 0.7109375 -0.33258056640625
0.326995849609375 0.66015625 -0.339111328125
0.3495330810546875 0.6572265625 -0.35595703125
0.3570556640625 0.707275390625 -0.35284423828125
-0.62223052978515625 -0.635986328125 -0.27630615234375
-0.6048583984375 -0.63427734375 -0.26263427734375
-0.6182403564453125 -0.6142578125 -0.27679443359375
-0.638519287109375 -0.634521484375 -0.29266357421875
-0.6199188232421875 -0.6572265625 -0.27825927734375
-0.6067657470703125 -0.65771484375 -0.2611083984375
-0.60590362548828125 -0.61572265625 -0.26776123046875
-0.63631439208984375 -0.612060546875 -0.288818359375
-0.641754150390625 -0.65576171875 -0.29510498046875
0.33679962158203125 0.583740234375 -0.350341796875
0.34760284423828125 0.58251953125 -0.35955810546875
0.3384246826171875 0.6044921875 -0.3502197265625
0.32837677001953125 0.585205078125 -0.34051513671875
0.3371124267578125 0.56494140625 -0.3441162109375
0.3435821533203125 0.5654296875 -0.34918212890625
0.347747802734375 0.602783203125 -0.360595703125
0.32891082763671875 0.607421875 -0.34503173828125
0.3290863037109375 0.565185546875 -0.3380126953125
-0.5598297119140625 -0.6357421875 -0.2442626953125
-0.57254791259765625 -0.634033203125 -0.2479248046875
-0.56014251708984375 -0.65185546875 -0.240478515625
-0.54442596435546875 -0.633056640625 -0.2384033203125
-0.55694580078125 -0.62109375 -0.2452392578125
-0.573944091796875 -0.62060546875 -0.2545166015625
-0.5750885009765625 -0.655029296875 -0.2423095703125
-0.54729461669921875 -0.646728515625 -0.2357177734375
-0.54815673828125 -0.619873046875 -0.23638916015625
0.4045562744140625 0.5244140625 -0.37518310546875
0.40642547607421875 0.50927734375 -0.37359619140625
0.41033172607421875 0.543212890625 -0.37353515625
0.400054931640625 0.5400390625 -0.37847900390625
0.39864349365234375 0.507568359375 -0.37652587890625
0.3995819091796875 0.498779296875 -0.36505126953125
0.41558074951171875 0.529296875 -0.3704833984375
0.40560150146484375 0.56103515625 -0.37432861328125
0.3977203369140625 0.520751953125 -0.3780517578125
-0.52410125732421875 -0.7392578125 -0.1787109375
-0.54781341552734375 -0.75048828125 -0.1798095703125
-0.51128387451171875 -0.742431640625 -0.16583251953125
-0.5109405517578125 -0.732666015625 -0.1773681640625
-0.54376983642578125 -0.737060546875 -0.1878662109375
-0.55889129638671875 -0.74560546875 -0.19769287109375
-0.5291748046875 -0.7529296875 -0.1639404296875
-0.5056304931640625 -0.734375 -0.1712646484375
-0.523040771484375 -0.729736328125 -0.18695068359375
0.4385986328125 0.609619140625 -0.39959716796875
0.4582977294921875 0.638916015625 -0.41314697265625
0.4284820556640625 0.63037109375 -0.39239501953125
0.42981719970703125 0.589599609375 -0.38677978515625
0.44763946533203125 0.59375 -0.4002685546875
0.4707489013671875 0.623779296875 -0.41851806640625
0.441864013671875 0.658935546875 -0.40447998046875
0.4196624755859375 0.609130859375 -0.3870849609375
0.436279296875 0.572265625 -0.3807373046875
-0.59661865234375 -0.7890625 -0.23077392578125
-0.6102142333984375 -0.77001953125 -0.24267578125
-0.62717437744140625 -0.808349609375 -0.2581787109375
-0.5908355712890625 -0.8056640625 -0.21649169921875
-0.58077239990234375 -0.778076171875 -0.207275390625
-0.5918121337890625 -0.762451171875 -0.224365234375
-0.63521575927734375 -0.78564453125 -0.27117919921875
-0.61672210693359375 -0.826904296875 -0.24676513671875
-0.5696868896484375 -0.788818359375 -0.18780517578125
0.47878265380859375 0.744384765625 -0.46319580078125
0.480804443359375 0.784423828125 -0.47003173828125
0.45989990234375 0.75634765625 -0.42742919921875
0.47283172607421875 0.7109375 -0.44091796875
0.49369049072265625 0.735107421875 -0.48321533203125
0.501312255859375 0.776123046875 -0.4891357421875
0.4675140380859375 0.781982421875 -0.43902587890625
0.4516143798828125 0.720458984375 -0.42425537109375
0.4933929443359375 0.700927734375 -0.4647216796875
-0.69066619873046875 -0.840087890625 -0.31353759765625
-0.6975860595703125 -0.806396484375 -0.315185546875
-0.71297454833984375 -0.847900390625 -0.3355712890625
-0.69029998779296875 -0.876220703125 -0.311279296875
-0.67855072021484375 -0.834228515625 -0.29986572265625
-0.680572509765625 -0.801513671875 -0.30419921875
-0.709503173828125 -0.806884765625 -0.33154296875
-0.71582794189453125 -0.886962890625 -0.32940673828125
-0.6741943359375 -0.861572265625 -0.29461669921875
0.47779083251953125 0.87939453125 -0.46807861328125
0.470611572265625 0.90625 -0.46533203125
0.46640777587890625 0.871337890625 -0.43634033203125
0.4831695556640625 0.849365234375 -0.466796875
0.48968505859375 0.891845703125 -0.48919677734375
0.4811859130859375 0.919921875 -0.47564697265625
0.4605560302734375 0.89208984375 -0.43359375
0.46672821044921875 0.843994140625 -0.43939208984375
0.49205780029296875 0.85302734375 -0.4954833984375
-0.7721405029296875 -0.83984375 -0.3800048828125
-0.76035308837890625 -0.804931640625 -0.36639404296875
-0.78804779052734375 -0.827392578125 -0.39715576171875
-0.78816986083984375 -0.8662109375 -0.39007568359375
-0.75040435791015625 -0.8447265625 -0.3653564453125
-0.7440643310546875 -0.80859375 -0.3538818359375
-0.772125244140625 -0.796630859375 -0.3837890625
-0.80709075927734375 -0.84423828125 -0.40887451171875
-0.7626495361328125 -0.8779296875 -0.371337890625
0.4457244873046875 0.9599609375 -0.43646240234375
0.426971435546875 0.972900390625 -0.422119140625
0.436981201171875 0.9345703125 -0.41400146484375
0.457305908203125 0.947509765625 -0.4451904296875
0.44863128662109375 0.984130859375 -0.440185546875
0.43573760986328125 0.9951171875 -0.43084716796875
0.42624664306640625 0.9423828125 -0.410400390625
0.4458770751953125 0.925537109375 -0.42572021484375
0.4600067138671875 0.966064453125 -0.4534912109375
-0.8144073486328125 -0.7666015625 -0.43597412109375
-0.798004150390625 -0.752197265625 -0.4090576171875
-0.8195343017578125 -0.739501953125 -0.44281005859375
-0.8344573974609375 -0.771728515625 -0.451904296875
-0.8133697509765625 -0.78955078125 -0.425048828125
-0.7919769287109375 -0.771484375 -0.40155029296875
-0.7955169677734375 -0.728515625 -0.418701171875
-0.83341217041015625 -0.742919921875 -0.4632568359375
-0.83147430419921875 -0.79638671875 -0.43853759765625
0.39424896240234375 0.96484375 -0.403076171875
0.3863983154296875 0.9482421875 -0.3934326171875
0.40667724609375 0.970703125 -0.40863037109375
0.39019775390625 0.97509765625 -0.4034423828125
0.381011962890625 0.953857421875 -0.3946533203125
0.3953094482421875 0.946533203125 -0.39752197265625
0.40903472900390625 0.989013671875 -0.410400390625
-0.80483245849609375 -0.681396484375 -0.453857421875
-0.81427001953125 -0.694580078125 -0.45452880859375
-0.7948760986328125 -0.671875 -0.43719482421875
-0.81351470947265625 -0.676025390625 -0.4627685546875
-0.8218231201171875 -0.6953125 -0.46337890625
-0.79573822021484375 -0.68896484375 -0.43157958984375
-0.79804229736328125 -0.661865234375 -0.445068359375
0.48148345947265625 0.4443359375 -0.41162109375
0.48319244384765625 0.44677734375 -0.380615234375
0.44861602783203125 0.404296875 -0.38427734375
0.471038818359375 0.459716796875 -0.43408203125
0.51052093505859375 0.50048828125 -0.44091796875
0.51648712158203125 0.493408203125 -0.4144287109375
0.45543670654296875 0.403076171875 -0.3531494140625
0.4427032470703125 0.425048828125 -0.40472412109375
0.5015411376953125 0.5205078125 -0.46600341796875
-0.49105072021484375 -0.8583984375 -0.131103515625
-0.4489288330078125 -0.81689453125 -0.10595703125
-0.487152099609375 -0.858642578125 -0.091552734375
-0.54430389404296875 -0.906005859375 -0.1666259765625
-0.51638031005859375 -0.849365234375 -0.17962646484375
-0.47278594970703125 -0.8046875 -0.15283203125
-0.44873046875 -0.81689453125 -0.06793212890625
-0.53429412841796875 -0.90234375 -0.123779296875
-0.55925750732421875 -0.890380859375 -0.21490478515625
0.5740814208984375 0.7021484375 -0.539306640625
0.5711669921875 0.696533203125 -0.5137939453125
0.5481719970703125 0.6240234375 -0.5147705078125
0.560577392578125 0.72021484375 -0.5592041015625
0.57032012939453125 0.774658203125 -0.5355224609375
0.57985687255859375 0.771240234375 -0.51715087890625
0.5587921142578125 0.623291015625 -0.4901123046875
0.5394744873046875 0.643310546875 -0.5389404296875
0.56450653076171875 0.793701171875 -0.55010986328125
-0.6822662353515625 -1.001708984375 -0.26837158203125
-0.63993072509765625 -0.978271484375 -0.2413330078125
-0.6796417236328125 -1.001708984375 -0.24041748046875
-0.7357635498046875 -1.0087890625 -0.291259765625
-0.69545745849609375 -0.991943359375 -0.30035400390625
-0.65731048583984375 -0.965576171875 -0.2843017578125
-0.63697052001953125 -0.97607421875 -0.20648193359375
-0.7282867431640625 -1.00830078125 -0.2711181640625
-0.74895477294921875 -0.99658203125 -0.32965087890625
0.56867218017578125 0.997802734375 -0.486083984375
0.5618896484375 0.989990234375 -0.471923828125
0.57806396484375 0.930419921875 -0.50634765625
0.55788421630859375 1.0009765625 -0.502685546875
0.5449066162109375 1.055908203125 -0.4610595703125
0.5415191650390625 1.0556640625 -0.4468994140625
0.57297515869140625 0.92529296875 -0.4876708984375
0.57440185546875 0.9375 -0.5191650390625
0.54099273681640625 1.054931640625 -0.47491455078125
-0.862762451171875 -0.956298828125 -0.3948974609375
-0.82329559326171875 -0.986572265625 -0.37030029296875
-0.85964202880859375 -0.951904296875 -0.379638671875
-0.9035491943359375 -0.916259765625 -0.429931640625
-0.870361328125 -0.95654296875 -0.418701171875
-0.83339691162109375 -0.98291015625 -0.39154052734375
-0.822113037109375 -0.98095703125 -0.354248046875
-0.899169921875 -0.910400390625 -0.41839599609375
-0.901458740234375 -0.917236328125 -0.44683837890625
0.44947052001953125 1.173095703125 -0.3970947265625
0.44235992431640625 1.17578125 -0.3751220703125
0.4818115234375 1.14990234375 -0.4129638671875
0.45565032958984375 1.16015625 -0.4219970703125
0.41941070556640625 1.181640625 -0.38555908203125
0.40673065185546875 1.18701171875 -0.36676025390625
0.47409820556640625 1.153076171875 -0.390380859375
0.49541473388671875 1.139892578125 -0.4366455078125
0.42757415771484375 1.166748046875 -0.41448974609375
-0.95426177978515625 -0.761962890625 -0.51727294921875
-0.94329833984375 -0.81591796875 -0.49884033203125
-0.94940185546875 -0.753173828125 -0.50567626953125
-0.9510955810546875 -0.706787109375 -0.54522705078125
-0.9438629150390625 -0.780517578125 -0.53033447265625
-0.94191741943359375 -0.826171875 -0.5076904296875
-0.943695068359375 -0.808349609375 -0.4847412109375
-0.94651031494140625 -0.695556640625 -0.53265380859375
-0.9455413818359375 -0.728515625 -0.5489501953125
0.34262847900390625 1.12109375 -0.35516357421875
0.32906341552734375 1.129638671875 -0.3193359375
0.3599700927734375 1.156005859375 -0.3642578125
0.36089324951171875 1.099609375 -0.385009765625
0.30675506591796875 1.077392578125 -0.33544921875
0.30420684814453125 1.0888671875 -0.301513671875
0.35736083984375 1.163330078125 -0.3370361328125
0.3690032958984375 1.1318359375 -0.40325927734375
0.3255615234375 1.0498046875 -0.374755859375
-0.890716552734375 -0.5712890625 -0.54010009765625
-0.915985107421875 -0.61328125 -0.56085205078125
-0.8919830322265625 -0.557861328125 -0.52081298828125
-0.854949951171875 -0.5439453125 -0.52032470703125
-0.879119873046875 -0.59912109375 -0.55877685546875
-0.91060638427734375 -0.641357421875 -0.5662841796875
-0.92452239990234375 -0.59912109375 -0.54168701171875
-0.8664703369140625 -0.53076171875 -0.49737548828125
-0.84514617919921875 -0.57421875 -0.5283203125
0.24956512451171875 0.942626953125 -0.29461669921875
0.24694061279296875 0.960205078125 -0.26104736328125
0.27170562744140625 0.986572265625 -0.30426025390625
0.26416015625 0.91552734375 -0.33428955078125
0.2429962158203125 0.902587890625 -0.28179931640625
0.24036407470703125 0.924072265625 -0.25054931640625
0.26483917236328125 0.99951171875 -0.27227783203125
0.28424835205078125 0.956787109375 -0.34423828125
0.2542724609375 0.871826171875 -0.3177490234375
-0.77941131591796875 -0.47412109375 -0.430908203125
-0.8007049560546875 -0.4921875 -0.45416259765625
-0.78807830810546875 -0.46630859375 -0.4073486328125
-0.7445220947265625 -0.4619140625 -0.39483642578125
-0.75940704345703125 -0.498779296875 -0.443603515625
-0.7833404541015625 -0.51171875 -0.46673583984375
-0.81626129150390625 -0.4814453125 -0.4329833984375
-0.75360870361328125 -0.454833984375 -0.36956787109375
-0.7274627685546875 -0.482421875 -0.40618896484375
0.37142181396484375 0.674560546875 -0.43353271484375
0.39554595947265625 0.73095703125 -0.452392578125
0.41083526611328125 0.581787109375 -0.450439453125
0.34751129150390625 0.635986328125 -0.4188232421875
0.32923126220703125 0.77587890625 -0.40289306640625
0.347869873046875 0.82275390625 -0.42236328125
0.4447174072265625 0.63720703125 -0.474365234375
0.386566162109375 0.541015625 -0.42926025390625
0.30333709716796875 0.729736328125 -0.39202880859375
-0.64508819580078125 -0.6796875 -0.35791015625
-0.57918548583984375 -0.75 -0.2989501953125
-0.672637939453125 -0.7158203125 -0.39508056640625
-0.69121551513671875 -0.607177734375 -0.40411376953125
-0.602142333984375 -0.647216796875 -0.331298828125
-0.54734039306640625 -0.7197265625 -0.26910400390625
-0.634368896484375 -0.794189453125 -0.33306884765625
-0.7122955322265625 -0.632080078125 -0.4361572265625
-0.66332244873046875 -0.5791015625 -0.38775634765625
0.45430755615234375 0.8984375 -0.51666259765625
0.4102325439453125 0.979736328125 -0.47576904296875
0.47270965576171875 0.95654296875 -0.50714111328125
0.492401123046875 0.824462890625 -0.55206298828125
0.428070068359375 0.8427734375 -0.50115966796875
0.39156341552734375 0.931640625 -0.46026611328125
0.43424224853515625 1.025634765625 -0.47760009765625
0.51345062255859375 0.88525390625 -0.537841796875
0.48040008544921875 0.75244140625 -0.53350830078125
-0.79108428955078125 -0.802001953125 -0.47198486328125
-0.8235931396484375 -0.830810546875 -0.47998046875
-0.826324462890625 -0.71826171875 -0.508056640625
-0.7406463623046875 -0.77392578125 -0.447265625
-0.75183868408203125 -0.884521484375 -0.408935546875
-0.79776763916015625 -0.902587890625 -0.43499755859375
-0.8569183349609375 -0.752197265625 -0.53167724609375
-0.7929840087890625 -0.691162109375 -0.49774169921875
-0.70043182373046875 -0.863037109375 -0.38494873046875
0.51467132568359375 1.060791015625 -0.49639892578125
0.49924468994140625 1.098876953125 -0.4788818359375
0.5271148681640625 1.038330078125 -0.50732421875
0.50678253173828125 1.0419921875 -0.50860595703125
0.47655487060546875 1.094482421875 -0.47479248046875
0.5167388916015625 1.08154296875 -0.4815673828125
0.53755950927734375 0.994873046875 -0.52142333984375
-0.89995574951171875 -0.870361328125 -0.49835205078125
-0.8916473388671875 -0.907958984375 -0.47393798828125
-0.9158782958984375 -0.841552734375 -0.516357421875
-0.8885498046875 -0.867919921875 -0.4962158203125
-0.862884521484375 -0.92041015625 -0.46197509765625
-0.9118499755859375 -0.8759765625 -0.49761962890625
-0.908203125 -0.8125 -0.525390625
0.22052001953125 0.79150390625 -0.27996826171875
0.214111328125 0.7734375 -0.278076171875
0.21979522705078125 0.81201171875 -0.2384033203125
0.224639892578125 0.828125 -0.28350830078125
0.228973388671875 0.75830078125 -0.321533203125
0.22293853759765625 0.737060546875 -0.32940673828125
0.216033935546875 0.797607421875 -0.23394775390625
0.21834564208984375 0.841064453125 -0.24639892578125
0.2368011474609375 0.791259765625 -0.323486328125
-0.6720733642578125 -0.4482421875 -0.35107421875
-0.68470001220703125 -0.441650390625 -0.3238525390625
-0.66420745849609375 -0.43994140625 -0.34356689453125
-0.65354156494140625 -0.461181640625 -0.365966796875
-0.6930084228515625 -0.446044921875 -0.355224609375
-0.70275115966796875 -0.443603515625 -0.330078125
-0.679931640625 -0.43701171875 -0.3089599609375
-0.6386260986328125 -0.45166015625 -0.36749267578125
-0.67159271240234375 -0.457763671875 -0.3743896484375
0.28769683837890625 0.538818359375 -0.40386962890625
0.2635650634765625 0.624755859375 -0.38092041015625
0.30242919921875 0.566162109375 -0.3880615234375
0.3124847412109375 0.4560546875 -0.409912109375
0.26604461669921875 0.51318359375 -0.41949462890625
0.24806976318359375 0.6005859375 -0.40106201171875
0.28124237060546875 0.657470703125 -0.37451171875
0.3328399658203125 0.480712890625 -0.4019775390625
0.29059600830078125 0.43603515625 -0.42303466796875
-0.5306549072265625 -0.5791015625 -0.32257080078125
-0.54309844970703125 -0.5966796875 -0.31182861328125
-0.57457733154296875 -0.525634765625 -0.361083984375
-0.51407623291015625 -0.556640625 -0.34332275390625
-0.4765472412109375 -0.622314453125 -0.283447265625
-0.49588775634765625 -0.65283203125 -0.260986328125
-0.59395599365234375 -0.539794921875 -0.3546142578125
-0.56139373779296875 -0.507568359375 -0.37603759765625
-0.464019775390625 -0.593994140625 -0.304931640625
0.36734771728515625 0.314453125 -0.32843017578125
0.33660125732421875 0.291748046875 -0.334228515625
0.35637664794921875 0.337646484375 -0.36456298828125
0.39655303955078125 0.337890625 -0.32861328125
0.37924957275390625 0.309326171875 -0.28936767578125
0.34212493896484375 0.286865234375 -0.28228759765625
0.32464599609375 0.319091796875 -0.3768310546875
0.37963104248046875 0.35986328125 -0.37127685546875
0.400238037109375 0.333984375 -0.29107666015625
-0.390045166015625 -0.6923828125 -0.11090087890625
-0.41077423095703125 -0.684326171875 -0.17437744140625
-0.37564849853515625 -0.658935546875 -0.1339111328125
-0.37891387939453125 -0.6982421875 -0.05914306640625
-0.4043121337890625 -0.737060546875 -0.096435546875
-0.425994873046875 -0.72412109375 -0.15203857421875
-0.39864349365234375 -0.64892578125 -0.2044677734375
-0.3609466552734375 -0.666015625 -0.0732421875
-0.39798736572265625 -0.734619140625 -0.04705810546875
0.0983428955078125 0.574951171875 0.67401123046875
0.08922576904296875 0.563232421875 0.6932373046875
0.0790863037109375 0.55224609375 0.7100830078125
0.08847808837890625 0.529052734375 0.7249755859375
0.09905242919921875 0.513427734375 0.725341796875
0.110748291015625 0.49560546875 0.7291259765625
0.12438201904296875 0.4755859375 0.71282958984375
0.14110565185546875 0.47802734375 0.6982421875
0.15615081787109375 0.474609375 0.6766357421875
0.16503143310546875 0.50537109375 0.65032958984375
0.14925384521484375 0.532958984375 0.6505126953125
0.13100433349609375 0.5615234375 0.65087890625
-0.44603729248046875 -0.22802734375 0.64178466796875
-0.41729736328125 -0.237548828125 0.65667724609375
-0.38439178466796875 -0.242919921875 0.67388916015625
-0.346038818359375 -0.21923828125 0.71002197265625
-0.3505401611328125 -0.200439453125 0.72344970703125
-0.356170654296875 -0.18359375 0.736572265625
-0.37953948974609375 -0.1728515625 0.7340087890625
-0.4027252197265625 -0.170166015625 0.72625732421875
-0.42549896240234375 -0.1640625 0.7200927734375
-0.4491424560546875 -0.16552734375 0.695556640625
-0.46002197265625 -0.1796875 0.6771240234375
-0.4683380126953125 -0.19384765625 0.6568603515625
0.13445281982421875 0.61328125 0.5745849609375
0.1298828125 0.600830078125 0.60369873046875
0.11925506591796875 0.59326171875 0.6300048828125
0.188232421875 0.470947265625 0.6300048828125
0.202362060546875 0.468505859375 0.604248046875
0.2109222412109375 0.467529296875 0.571044921875
0.21616363525390625 0.510498046875 0.5386962890625
0.19940185546875 0.551513671875 0.54071044921875
0.171783447265625 0.588134765625 0.5386962890625
-0.4680938720703125 -0.286376953125 0.5574951171875
-0.432281494140625 -0.305419921875 0.56817626953125
-0.39116668701171875 -0.311767578125 0.5859375
-0.34949493408203125 -0.2939453125 0.62847900390625
-0.3497772216796875 -0.276611328125 0.6474609375
-0.34975433349609375 -0.259521484375 0.67181396484375
-0.48236846923828125 -0.228271484375 0.60870361328125
-0.4920196533203125 -0.23974609375 0.5888671875
-0.5037384033203125 -0.256103515625 0.571044921875
0.17290496826171875 0.438232421875 0.66265869140625
0.17095184326171875 0.4111328125 0.6666259765625
0.1648406982421875 0.377685546875 0.66937255859375
0.15880584716796875 0.339599609375 0.656982421875
0.170623779296875 0.328125 0.63092041015625
0.17899322509765625 0.317626953125 0.60748291015625
0.2030029296875 0.341064453125 0.5712890625
0.22023773193359375 0.380126953125 0.56024169921875
0.2249755859375 0.426025390625 0.5545654296875
-0.3074493408203125 -0.294677734375 0.62164306640625
-0.26578521728515625 -0.2724609375 0.6329345703125
-0.22949981689453125 -0.24658203125 0.65032958984375
-0.20847320556640625 -0.19677734375 0.6761474609375
-0.21661376953125 -0.185791015625 0.69586181640625
-0.23093414306640625 -0.173095703125 0.71533203125
-0.2631378173828125 -0.18798828125 0.724853515625
-0.28420257568359375 -0.212646484375 0.71630859375
-0.314422607421875 -0.23046875 0.70733642578125
0.11896514892578125 0.45361328125 0.7332763671875
0.113250732421875 0.4326171875 0.7357177734375
0.10749053955078125 0.414306640625 0.739501953125
0.09942626953125 0.388427734375 0.7308349609375
0.11727142333984375 0.378662109375 0.7169189453125
0.1306304931640625 0.36474609375 0.6998291015625
-0.2547149658203125 -0.14794921875 0.739990234375
-0.26659393310546875 -0.137939453125 0.75323486328125
-0.27972412109375 -0.131591796875 0.7659912109375
-0.3036651611328125 -0.13720703125 0.76373291015625
-0.32227325439453125 -0.15234375 0.75958251953125
-0.33527374267578125 -0.163818359375 0.75213623046875
0.0767059326171875 0.381591796875 0.7452392578125
0.06098175048828125 0.37158203125 0.75396728515625
0.04071807861328125 0.363525390625 0.76251220703125
0.0227203369140625 0.345458984375 0.7589111328125
0.02632904052734375 0.32861328125 0.74078369140625
0.0290985107421875 0.3076171875 0.72265625
0.06124114990234375 0.29638671875 0.70294189453125
0.095428466796875 0.310546875 0.69354248046875
0.11895751953125 0.328125 0.6895751953125
-0.223846435546875 -0.134033203125 0.7335205078125
-0.21251678466796875 -0.100830078125 0.73162841796875
-0.21014404296875 -0.068115234375 0.73248291015625
-0.22653961181640625 -0.037353515625 0.743896484375
-0.23735809326171875 -0.040283203125 0.75299072265625
-0.2483367919921875 -0.0390625 0.76531982421875
-0.2636566162109375 -0.060791015625 0.77447509765625
-0.26987457275390625 -0.082275390625 0.7772216796875
-0.2787933349609375 -0.103271484375 0.77581787109375
0.031463623046875 0.270263671875 0.68548583984375
0.033294677734375 0.251953125 0.6656494140625
0.036224365234375 0.234130859375 0.646484375
0.08100128173828125 0.227783203125 0.6136474609375
0.11588287353515625 0.25 0.59918212890625
0.15053558349609375 0.272216796875 0.590576171875
-0.1818695068359375 -0.166748046875 0.6572265625
-0.1691741943359375 -0.122314453125 0.658935546875
-0.15493011474609375 -0.078369140625 0.65582275390625
-0.1669769287109375 -0.03564453125 0.6798095703125
-0.1776123046875 -0.0341796875 0.694580078125
