# XYZ point cloud file
0.430572509765625 -0.0262908935546875 -0.0767822265625
0.44403076171875 -0.023529052734375 -0.0914306640625
0.43682861328125 -0.0114898681640625 -0.091552734375
0.430450439453125 -0.0042572021484375 -0.08837890625
0.42108154296875 -0.016876220703125 -0.0682373046875
0.442230224609375 -0.0332794189453125 -0.0863037109375
0.44500732421875 -0.0157623291015625 -0.0960693359375
-0.5750732421875 -0.26458740234375 -0.1094970703125
-0.57476806640625 -0.2689056396484375 -0.096923828125
-0.564605712890625 -0.2540130615234375 -0.1090087890625
-0.57476806640625 -0.2619781494140625 -0.123046875
-0.585784912109375 -0.2744140625 -0.114501953125
-0.587677001953125 -0.2812957763671875 -0.1043701171875
-0.561492919921875 -0.256195068359375 -0.0906982421875
-0.566558837890625 -0.2532196044921875 -0.123291015625
-0.5841064453125 -0.269927978515625 -0.1236572265625
0.43792724609375 0.047027587890625 -0.0745849609375
0.450469970703125 0.0724639892578125 -0.077392578125
0.43353271484375 0.0523529052734375 -0.059814453125
0.428131103515625 0.0233306884765625 -0.073974609375
0.442657470703125 0.043670654296875 -0.087158203125
0.4552001953125 0.0671234130859375 -0.088134765625
0.44671630859375 0.0816497802734375 -0.06298828125
0.42230224609375 0.0237579345703125 -0.0589599609375
0.433197021484375 0.0237274169921875 -0.085205078125
-0.563018798828125 -0.2154541015625 -0.132568359375
-0.558837890625 -0.2082061767578125 -0.1180419921875
-0.570770263671875 -0.2019805908203125 -0.1497802734375
-0.567352294921875 -0.22247314453125 -0.145751953125
-0.558013916015625 -0.228912353515625 -0.11962890625
-0.55255126953125 -0.2250518798828125 -0.1004638671875
-0.566558837890625 -0.191375732421875 -0.1363525390625
-0.5748291015625 -0.2100372314453125 -0.159912109375
-0.56207275390625 -0.233856201171875 -0.1343994140625
0.487579345703125 0.1417083740234375 -0.0791015625
0.48321533203125 0.15460205078125 -0.0689697265625
0.47637939453125 0.1210174560546875 -0.0792236328125
0.49237060546875 0.1305694580078125 -0.0870361328125
0.498199462890625 0.160980224609375 -0.078125
0.493316650390625 0.1738739013671875 -0.068359375
0.472381591796875 0.13360595703125 -0.067138671875
0.480804443359375 0.111358642578125 -0.087646484375
0.503509521484375 0.1494903564453125 -0.0855712890625
-0.59185791015625 -0.1660919189453125 -0.189453125
-0.585693359375 -0.176971435546875 -0.177001953125
-0.586334228515625 -0.1533660888671875 -0.1846923828125
-0.597503662109375 -0.15643310546875 -0.2020263671875
-0.597015380859375 -0.177642822265625 -0.19677734375
-0.590576171875 -0.188323974609375 -0.1845703125
-0.58062744140625 -0.1640625 -0.1689453125
-0.591644287109375 -0.1444244384765625 -0.197021484375
-0.60382080078125 -0.168548583984375 -0.2083740234375
0.53192138671875 0.2122802734375 -0.0794677734375
0.527679443359375 0.22509765625 -0.071044921875
0.519927978515625 0.1956787109375 -0.0782470703125
0.53680419921875 0.200164794921875 -0.087646484375
0.54522705078125 0.2286834716796875 -0.08203125
0.541351318359375 0.241424560546875 -0.0738525390625
0.5150146484375 0.207672119140625 -0.069091796875
0.52496337890625 0.1833038330078125 -0.086669921875
0.54888916015625 0.2149200439453125 -0.0908203125
-0.6192626953125 -0.1352691650390625 -0.2398681640625
-0.611419677734375 -0.142486572265625 -0.2269287109375
-0.613250732421875 -0.1234893798828125 -0.236328125
-0.627227783203125 -0.1295166015625 -0.2542724609375
-0.624359130859375 -0.1475067138671875 -0.2442626953125
-0.6168212890625 -0.1533355712890625 -0.2318115234375
-0.605010986328125 -0.1290435791015625 -0.224609375
-0.62200927734375 -0.117034912109375 -0.25244140625
-0.632568359375 -0.1431121826171875 -0.259033203125
0.480743408203125 0.21343994140625 -0.0321044921875
0.47406005859375 0.199005126953125 -0.0213623046875
0.47979736328125 0.189117431640625 -0.044677734375
0.48626708984375 0.2219085693359375 -0.04248046875
0.481781005859375 0.24334716796875 -0.01806640625
0.4779052734375 0.2352142333984375 0
0.47149658203125 0.171478271484375 -0.039306640625
0.487396240234375 0.2041473388671875 -0.05029296875
0.484893798828125 0.2439727783203125 -0.0355224609375
-0.580352783203125 -0.103118896484375 -0.1707763671875
-0.5811767578125 -0.122650146484375 -0.174560546875
-0.579376220703125 -0.1103515625 -0.1474609375
-0.57958984375 -0.079315185546875 -0.1700439453125
-0.580841064453125 -0.1011810302734375 -0.19091796875
-0.58343505859375 -0.116546630859375 -0.1910400390625
-0.577972412109375 -0.1311492919921875 -0.1533203125
-0.581298828125 -0.0836334228515625 -0.1416015625
-0.57769775390625 -0.0830535888671875 -0.1947021484375
0.43438720703125 0.09295654296875 -0.00341796875
0.437774658203125 0.1106719970703125 0.017822265625
0.41864013671875 0.04852294921875 -0.0040283203125
0.431610107421875 0.075164794921875 -0.0250244140625
0.450592041015625 0.137176513671875 -0.005615234375
0.45562744140625 0.164276123046875 0.01806640625
0.420562744140625 0.0597381591796875 0.0164794921875
0.41766357421875 0.0366668701171875 -0.024658203125
0.44683837890625 0.1136932373046875 -0.02783203125
-0.5587158203125 -0.172210693359375 -0.072021484375
-0.549468994140625 -0.1993560791015625 -0.046142578125
-0.562713623046875 -0.1591644287109375 -0.052001953125
-0.568084716796875 -0.1469573974609375 -0.097900390625
-0.556610107421875 -0.1858367919921875 -0.0888671875
-0.548187255859375 -0.210296630859375 -0.0655517578125
-0.5523681640625 -0.1891937255859375 -0.0240478515625
-0.57293701171875 -0.1257476806640625 -0.0816650390625
-0.564849853515625 -0.164398193359375 -0.111572265625
0.392303466796875 -0.0311431884765625 -0.0103759765625
0.38958740234375 -0.0360260009765625 -0.00146484375
0.393035888671875 -0.0384368896484375 -0.022216796875
0.396240234375 -0.0167999267578125 -0.0076904296875
0.3946533203125 -0.0152130126953125 0.007080078125
0.389404296875 -0.0486602783203125 -0.0155029296875
0.397491455078125 -0.0225677490234375 -0.023681640625
-0.53753662109375 -0.248748779296875 -0.0107421875
-0.53900146484375 -0.2568206787109375 -0.0211181640625
-0.53546142578125 -0.2517547607421875 0.0013427734375
-0.538330078125 -0.2392578125 -0.014892578125
-0.5404052734375 -0.246490478515625 -0.0323486328125
-0.538299560546875 -0.2632598876953125 -0.0074462890625
-0.537506103515625 -0.2369842529296875 0.0037841796875
0.54473876953125 0.1719207763671875 -0.115966796875
0.542724609375 0.1791534423828125 -0.10693359375
0.533111572265625 0.1563568115234375 -0.11279296875
0.547637939453125 0.1630859375 -0.125244140625
0.556671142578125 0.1840362548828125 -0.1207275390625
0.55462646484375 0.19268798828125 -0.111572265625
0.53167724609375 0.164581298828125 -0.1036376953125
0.53594970703125 0.149566650390625 -0.1212158203125
0.55999755859375 0.17529296875 -0.1275634765625
-0.633331298828125 -0.1762847900390625 -0.262939453125
-0.627105712890625 -0.1814727783203125 -0.2491455078125
-0.631439208984375 -0.168426513671875 -0.2562255859375
-0.64044189453125 -0.1749420166015625 -0.277099609375
-0.63604736328125 -0.1860198974609375 -0.2674560546875
-0.629791259765625 -0.1907501220703125 -0.255615234375
-0.624481201171875 -0.1732635498046875 -0.2432861328125
-0.638763427734375 -0.1651763916015625 -0.2705078125
-0.643646240234375 -0.18377685546875 -0.2821044921875
0.50213623046875 0.1080322265625 -0.1131591796875
0.4993896484375 0.1150970458984375 -0.1046142578125
0.491058349609375 0.0902252197265625 -0.113037109375
0.505035400390625 0.1008758544921875 -0.1202392578125
0.513153076171875 0.1240234375 -0.112548828125
0.51068115234375 0.13177490234375 -0.103271484375
0.48834228515625 0.0964202880859375 -0.105712890625
0.493438720703125 0.0849761962890625 -0.120361328125
0.514923095703125 0.11767578125 -0.1199951171875
-0.607940673828125 -0.2028656005859375 -0.21923828125
-0.601226806640625 -0.2110595703125 -0.207763671875
-0.60504150390625 -0.1949462890625 -0.2122802734375
-0.613494873046875 -0.1944427490234375 -0.2274169921875
-0.610443115234375 -0.209869384765625 -0.2232666015625
-0.604278564453125 -0.21795654296875 -0.2144775390625
-0.598419189453125 -0.2032928466796875 -0.2008056640625
-0.611053466796875 -0.1874542236328125 -0.221435546875
-0.616729736328125 -0.2015228271484375 -0.2342529296875
0.45318603515625 0.0341033935546875 -0.11474609375
0.45062255859375 0.0380401611328125 -0.1077880859375
0.44329833984375 0.0185394287109375 -0.115478515625
0.456451416015625 0.0307159423828125 -0.1212158203125
0.465789794921875 0.0533294677734375 -0.1136474609375
0.46295166015625 0.0577545166015625 -0.1060791015625
0.44073486328125 0.0207061767578125 -0.1075439453125
0.447296142578125 0.016510009765625 -0.1214599609375
0.468231201171875 0.048126220703125 -0.12060546875
-0.57672119140625 -0.23712158203125 -0.1771240234375
-0.57098388671875 -0.245086669921875 -0.1690673828125
-0.574310302734375 -0.2319488525390625 -0.1690673828125
-0.5843505859375 -0.228729248046875 -0.1865234375
-0.58001708984375 -0.241912841796875 -0.1829833984375
-0.574249267578125 -0.2491302490234375 -0.174072265625
-0.56854248046875 -0.24017333984375 -0.1590576171875
-0.582061767578125 -0.222198486328125 -0.17822265625
-0.587738037109375 -0.23394775390625 -0.19287109375
0.443359375 -0.0070037841796875 -0.1153564453125
0.440887451171875 -0.0060577392578125 -0.10791015625
0.44964599609375 -0.010711669921875 -0.1148681640625
0.44708251953125 -0.00628662109375 -0.121337890625
0.438751220703125 -0.00164794921875 -0.1142578125
0.436279296875 -0.001068115234375 -0.1068115234375
0.44732666015625 -0.009613037109375 -0.10888671875
0.453033447265625 -0.0106658935546875 -0.12255859375
0.44305419921875 -0.0011749267578125 -0.1212158203125
-0.577484130859375 -0.26422119140625 -0.153076171875
-0.585601806640625 -0.269775390625 -0.150390625
-0.575836181640625 -0.2617340087890625 -0.1448974609375
-0.57135009765625 -0.25787353515625 -0.15625
-0.58038330078125 -0.2662200927734375 -0.1611328125
-0.5892333984375 -0.272552490234375 -0.158447265625
-0.583770751953125 -0.268218994140625 -0.142822265625
-0.569305419921875 -0.2556610107421875 -0.1468505859375
-0.574981689453125 -0.26043701171875 -0.1641845703125
0.463134765625 -0.0337371826171875 -0.115234375
0.458892822265625 -0.0312042236328125 -0.1064453125
0.4632568359375 -0.0451507568359375 -0.1143798828125
0.467132568359375 -0.035186767578125 -0.121337890625
0.460723876953125 -0.0236358642578125 -0.115478515625
0.4569091796875 -0.0222930908203125 -0.1085205078125
0.4591064453125 -0.0430755615234375 -0.10595703125
0.467926025390625 -0.047088623046875 -0.1207275390625
0.46466064453125 -0.0253143310546875 -0.122802734375
-0.607421875 -0.2941741943359375 -0.134521484375
-0.61126708984375 -0.303955078125 -0.126708984375
-0.602996826171875 -0.2895355224609375 -0.1263427734375
-0.601776123046875 -0.2849273681640625 -0.1412353515625
-0.61181640625 -0.297821044921875 -0.1424560546875
-0.615570068359375 -0.3071746826171875 -0.1341552734375
-0.60626220703125 -0.2985076904296875 -0.11865234375
-0.597900390625 -0.28131103515625 -0.1351318359375
-0.605712890625 -0.288848876953125 -0.149658203125
0.453948974609375 -0.076141357421875 -0.111083984375
0.44989013671875 -0.0723114013671875 -0.103271484375
0.451263427734375 -0.0819854736328125 -0.1092529296875
0.45819091796875 -0.0771484375 -0.1170654296875
0.458343505859375 -0.067779541015625 -0.1129150390625
0.453704833984375 -0.063873291015625 -0.1038818359375
0.44744873046875 -0.0779571533203125 -0.1011962890625
0.455322265625 -0.0824737548828125 -0.1146240234375
0.462432861328125 -0.0690460205078125 -0.1192626953125
-0.610748291015625 -0.323455810546875 -0.107177734375
-0.6094970703125 -0.325439453125 -0.1016845703125
-0.605926513671875 -0.316253662109375 -0.099853515625
-0.612091064453125 -0.3190460205078125 -0.1123046875
-0.6138916015625 -0.3272247314453125 -0.113525390625
-0.61285400390625 -0.3295440673828125 -0.10791015625
-0.60504150390625 -0.319732666015625 -0.0931396484375
-0.607269287109375 -0.312225341796875 -0.1048583984375
-0.6163330078125 -0.322235107421875 -0.1204833984375
0.465606689453125 -0.079254150390625 -0.0943603515625
0.46270751953125 -0.07720947265625 -0.084716796875
0.478973388671875 -0.076904296875 -0.0911865234375
0.468414306640625 -0.0800018310546875 -0.1016845703125
0.456573486328125 -0.0834808349609375 -0.0999755859375
0.45318603515625 -0.0802459716796875 -0.0897216796875
0.476287841796875 -0.074371337890625 -0.081787109375
0.48150634765625 -0.0762786865234375 -0.1004638671875
0.4598388671875 -0.0836639404296875 -0.105712890625
-0.624481201171875 -0.32818603515625 -0.08251953125
-0.637054443359375 -0.32977294921875 -0.0797119140625
-0.62115478515625 -0.3232879638671875 -0.0709228515625
-0.61566162109375 -0.327606201171875 -0.0882568359375
-0.62628173828125 -0.33050537109375 -0.091552734375
-0.6385498046875 -0.3315887451171875 -0.0897216796875
-0.634246826171875 -0.3267822265625 -0.0684814453125
-0.611572265625 -0.32177734375 -0.0782470703125
-0.618682861328125 -0.3302459716796875 -0.095703125
0.599212646484375 0.2113037109375 -0.1427001953125
0.596435546875 0.221221923828125 -0.1328125
0.5841064453125 0.202789306640625 -0.1324462890625
0.60174560546875 0.2026519775390625 -0.150146484375
0.615509033203125 0.2185821533203125 -0.150146484375
0.61322021484375 0.2284088134765625 -0.1417236328125
0.58160400390625 0.21258544921875 -0.122802734375
0.586761474609375 0.1942596435546875 -0.140625
0.61859130859375 0.2105560302734375 -0.15625
-0.667694091796875 -0.1766510009765625 -0.328369140625
-0.657623291015625 -0.175018310546875 -0.3099365234375
-0.6650390625 -0.1681976318359375 -0.3218994140625
-0.680419921875 -0.17974853515625 -0.3460693359375
-0.6715087890625 -0.184356689453125 -0.3323974609375
-0.66131591796875 -0.182861328125 -0.314453125
-0.655181884765625 -0.1652984619140625 -0.3038330078125
-0.677764892578125 -0.1707916259765625 -0.342041015625
-0.68377685546875 -0.1884002685546875 -0.3499755859375
0.67852783203125 0.2353973388671875 -0.173828125
0.67694091796875 0.2449493408203125 -0.166015625
0.65716552734375 0.231689453125 -0.166259765625
0.6798095703125 0.2271881103515625 -0.180419921875
0.699249267578125 0.23486328125 -0.1829833984375
0.698822021484375 0.2444000244140625 -0.1754150390625
0.65557861328125 0.2407684326171875 -0.157470703125
0.658721923828125 0.2237396240234375 -0.1715087890625
0.699066162109375 0.22686767578125 -0.189453125
-0.732330322265625 -0.200927734375 -0.398193359375
-0.712127685546875 -0.19329833984375 -0.3828125
-0.73052978515625 -0.1924896240234375 -0.394287109375
-0.751678466796875 -0.213134765625 -0.4134521484375
-0.734283447265625 -0.2078399658203125 -0.400390625
-0.71478271484375 -0.200469970703125 -0.3861083984375
-0.710113525390625 -0.183441162109375 -0.378173828125
-0.74993896484375 -0.2041473388671875 -0.4093017578125
-0.752593994140625 -0.2190093994140625 -0.4144287109375
0.740997314453125 0.197113037109375 -0.197021484375
0.740814208984375 0.205535888671875 -0.189697265625
0.732421875 0.215423583984375 -0.194091796875
0.738800048828125 0.1900787353515625 -0.2010498046875
0.744842529296875 0.174468994140625 -0.19970703125
0.744842529296875 0.1815338134765625 -0.193115234375
0.7318115234375 0.224395751953125 -0.1866455078125
0.730682373046875 0.207763671875 -0.1982421875
0.742919921875 0.1688232421875 -0.2037353515625
-0.8037109375 -0.26092529296875 -0.4107666015625
-0.788787841796875 -0.2429656982421875 -0.4188232421875
-0.80316162109375 -0.2545318603515625 -0.4071044921875
-0.81744384765625 -0.2795867919921875 -0.396728515625
-0.8031005859375 -0.264678955078125 -0.4097900390625
-0.7884521484375 -0.247589111328125 -0.4183349609375
-0.787384033203125 -0.2358245849609375 -0.4158935546875
-0.81634521484375 -0.2731475830078125 -0.3936767578125
-0.816192626953125 -0.2831268310546875 -0.3966064453125
0.727630615234375 0.081878662109375 -0.2083740234375
0.727294921875 0.08587646484375 -0.202880859375
0.73876953125 0.115447998046875 -0.206298828125
0.725555419921875 0.0798492431640625 -0.21142578125
0.711212158203125 0.0488433837890625 -0.209716796875
0.710540771484375 0.0515594482421875 -0.203125
0.73883056640625 0.1190032958984375 -0.1995849609375
0.736663818359375 0.1120147705078125 -0.208984375
0.70947265625 0.048187255859375 -0.2127685546875
-0.83349609375 -0.3371124267578125 -0.332763671875
-0.832763671875 -0.3189544677734375 -0.3572998046875
-0.833038330078125 -0.3339385986328125 -0.3284912109375
-0.830291748046875 -0.35455322265625 -0.3079833984375
-0.831390380859375 -0.3379974365234375 -0.3348388671875
-0.830902099609375 -0.3206329345703125 -0.3587646484375
-0.831939697265625 -0.3147430419921875 -0.353271484375
-0.8297119140625 -0.3510284423828125 -0.302734375
-0.82794189453125 -0.3539581298828125 -0.3114013671875
0.6431884765625 -0.0346832275390625 -0.1942138671875
0.642303466796875 -0.0323944091796875 -0.186279296875
0.668609619140625 -0.010772705078125 -0.20361328125
0.64263916015625 -0.032684326171875 -0.197998046875
0.615997314453125 -0.0508270263671875 -0.178955078125
0.615234375 -0.0501251220703125 -0.1722412109375
0.667877197265625 -0.00848388671875 -0.197509765625
0.66754150390625 -0.0092010498046875 -0.2069091796875
0.616119384765625 -0.0484771728515625 -0.1849365234375
-0.790252685546875 -0.380523681640625 -0.229736328125
-0.80780029296875 -0.3780059814453125 -0.257568359375
-0.789306640625 -0.379364013671875 -0.22119140625
-0.768280029296875 -0.3805389404296875 -0.1998291015625
-0.78863525390625 -0.37921142578125 -0.2374267578125
-0.806060791015625 -0.3763275146484375 -0.262939453125
-0.807525634765625 -0.375762939453125 -0.249755859375
-0.76800537109375 -0.378662109375 -0.1905517578125
-0.76666259765625 -0.37969970703125 -0.2086181640625
0.538055419921875 -0.07080078125 -0.1265869140625
0.5369873046875 -0.07025146484375 -0.118408203125
0.563140869140625 -0.069427490234375 -0.146484375
0.539642333984375 -0.06903076171875 -0.1346435546875
0.515594482421875 -0.071502685546875 -0.109375
0.51434326171875 -0.0716552734375 -0.0989990234375
0.561767578125 -0.069915771484375 -0.1378173828125
0.564208984375 -0.0675811767578125 -0.1533203125
0.517425537109375 -0.069854736328125 -0.1175537109375
-0.69781494140625 -0.35479736328125 -0.1217041015625
-0.7210693359375 -0.3661651611328125 -0.1461181640625
-0.6964111328125 -0.3521881103515625 -0.1094970703125
-0.67364501953125 -0.3432769775390625 -0.1021728515625
-0.69793701171875 -0.354766845703125 -0.1331787109375
-0.72076416015625 -0.366485595703125 -0.156494140625
-0.71966552734375 -0.3639984130859375 -0.1361083984375
-0.671722412109375 -0.34136962890625 -0.0897216796875
-0.675018310546875 -0.34454345703125 -0.1134033203125
0.493316650390625 -0.0218505859375 -0.134521484375
0.482086181640625 -0.030059814453125 -0.131103515625
0.494720458984375 -0.032135009765625 -0.1334228515625
0.505767822265625 -0.011199951171875 -0.1356201171875
0.48919677734375 -0.01116943359375 -0.1337890625
0.478546142578125 -0.019012451171875 -0.1317138671875
0.483245849609375 -0.04156494140625 -0.13037109375
0.507781982421875 -0.021820068359375 -0.134765625
0.501434326171875 -0.001129150390625 -0.134765625
-0.632415771484375 -0.2985382080078125 -0.1654052734375
-0.637664794921875 -0.3079376220703125 -0.1580810546875
-0.623626708984375 -0.3005828857421875 -0.1578369140625
-0.62542724609375 -0.28887939453125 -0.1724853515625
-0.642364501953125 -0.2967071533203125 -0.1759033203125
-0.647552490234375 -0.305511474609375 -0.1676025390625
-0.62860107421875 -0.3091888427734375 -0.1505126953125
-0.617462158203125 -0.290740966796875 -0.1650390625
-0.6346435546875 -0.2874298095703125 -0.1820068359375
0.54461669921875 0.027679443359375 -0.1461181640625
0.531707763671875 0.013153076171875 -0.1429443359375
0.547943115234375 0.0160980224609375 -0.1461181640625
0.556732177734375 0.041717529296875 -0.1470947265625
0.5391845703125 0.0382537841796875 -0.144775390625
0.526519775390625 0.024261474609375 -0.140625
0.534637451171875 0.0025482177734375 -0.142578125
0.561126708984375 0.0295562744140625 -0.1488037109375
0.551483154296875 0.05340576171875 -0.1456298828125
-0.66925048828125 -0.28533935546875 -0.211181640625
-0.677032470703125 -0.2964019775390625 -0.2044677734375
-0.6605224609375 -0.289215087890625 -0.1968994140625
-0.660614013671875 -0.275146484375 -0.2158203125
-0.67779541015625 -0.2824249267578125 -0.2239990234375
-0.68597412109375 -0.2944793701171875 -0.2176513671875
-0.66754150390625 -0.298919677734375 -0.1903076171875
-0.65264892578125 -0.2786712646484375 -0.200927734375
-0.6690673828125 -0.27093505859375 -0.228515625
0.59246826171875 0.0848388671875 -0.1544189453125
0.580780029296875 0.071563720703125 -0.1527099609375
0.5989990234375 0.071502685546875 -0.15771484375
0.604400634765625 0.099517822265625 -0.15771484375
0.58648681640625 0.0963592529296875 -0.152099609375
0.5748291015625 0.0838623046875 -0.14990234375
0.58648681640625 0.0573272705078125 -0.15625
0.611083984375 0.0864105224609375 -0.161376953125
0.597808837890625 0.1105499267578125 -0.1541748046875
-0.699798583984375 -0.268768310546875 -0.2620849609375
-0.71014404296875 -0.28240966796875 -0.2593994140625
-0.69281005859375 -0.273101806640625 -0.2498779296875
-0.689788818359375 -0.256805419921875 -0.2669677734375
-0.707061767578125 -0.264617919921875 -0.27587890625
-0.7178955078125 -0.27777099609375 -0.2713623046875
-0.7030029296875 -0.2859954833984375 -0.24560546875
-0.6832275390625 -0.26092529296875 -0.2540283203125
-0.697174072265625 -0.2533416748046875 -0.27880859375
0.638671875 0.1333465576171875 -0.15966796875
0.626373291015625 0.12335205078125 -0.1593017578125
0.64520263671875 0.1216278076171875 -0.16357421875
0.65179443359375 0.1435394287109375 -0.1641845703125
0.633209228515625 0.1450347900390625 -0.15869140625
0.6214599609375 0.134613037109375 -0.1571044921875
0.633697509765625 0.11138916015625 -0.1629638671875
0.65771484375 0.1333160400390625 -0.1668701171875
0.64715576171875 0.154510498046875 -0.162353515625
-0.730560302734375 -0.2550201416015625 -0.30517578125
-0.741424560546875 -0.2666015625 -0.3021240234375
-0.721710205078125 -0.2563323974609375 -0.294921875
-0.721282958984375 -0.244171142578125 -0.3101806640625
-0.74041748046875 -0.2550201416015625 -0.317138671875
-0.749298095703125 -0.2663421630859375 -0.3138427734375
-0.7335205078125 -0.2686614990234375 -0.29248046875
-0.7125244140625 -0.245208740234375 -0.301025390625
-0.7315673828125 -0.245086669921875 -0.3232421875
0.616943359375 0.1766204833984375 -0.158447265625
0.610748291015625 0.1865997314453125 -0.156982421875
0.602691650390625 0.1672821044921875 -0.155029296875
0.6231689453125 0.1663970947265625 -0.158447265625
0.6314697265625 0.185394287109375 -0.1617431640625
0.6263427734375 0.19427490234375 -0.1614990234375
0.596466064453125 0.176239013671875 -0.15185546875
0.609588623046875 0.1569366455078125 -0.1561279296875
0.63751220703125 0.1753387451171875 -0.162353515625
-0.692657470703125 -0.21148681640625 -0.3292236328125
-0.68328857421875 -0.2120208740234375 -0.3153076171875
-0.68365478515625 -0.20208740234375 -0.3326416015625
-0.70330810546875 -0.21435546875 -0.3441162109375
-0.702606201171875 -0.223114013671875 -0.3238525390625
-0.693389892578125 -0.2237091064453125 -0.3111572265625
-0.67388916015625 -0.2019805908203125 -0.3177490234375
-0.69537353515625 -0.20513916015625 -0.3497314453125
-0.71307373046875 -0.224700927734375 -0.33837890625
0.5650634765625 0.13067626953125 -0.1427001953125
0.553436279296875 0.1168060302734375 -0.142333984375
0.572357177734375 0.1186065673828125 -0.1475830078125
0.5770263671875 0.142913818359375 -0.1461181640625
0.557647705078125 0.1427459716796875 -0.13818359375
0.546142578125 0.129638671875 -0.1357421875
0.561126708984375 0.1054229736328125 -0.144287109375
0.58453369140625 0.13201904296875 -0.1500244140625
0.569976806640625 0.153961181640625 -0.1412353515625
-0.65899658203125 -0.218994140625 -0.2750244140625
-0.670318603515625 -0.23284912109375 -0.2724609375
-0.651092529296875 -0.2235107421875 -0.26171875
-0.6484375 -0.2070159912109375 -0.274658203125
-0.666351318359375 -0.2172698974609375 -0.28857421875
-0.6768798828125 -0.229522705078125 -0.2857666015625
-0.662872314453125 -0.2365570068359375 -0.259765625
-0.6414794921875 -0.2113189697265625 -0.2623291015625
-0.6566162109375 -0.204742431640625 -0.2896728515625
0.519073486328125 0.07275390625 -0.135498046875
0.51324462890625 0.0838775634765625 -0.1324462890625
0.507904052734375 0.057220458984375 -0.134765625
0.525848388671875 0.060821533203125 -0.139892578125
0.530517578125 0.0880584716796875 -0.13720703125
0.52392578125 0.099639892578125 -0.1329345703125
0.501953125 0.0682220458984375 -0.132080078125
0.51446533203125 0.0457916259765625 -0.1378173828125
0.538177490234375 0.0756988525390625 -0.141357421875
-0.631378173828125 -0.2381439208984375 -0.224853515625
-0.62347412109375 -0.2444305419921875 -0.2142333984375
-0.62188720703125 -0.2266845703125 -0.226806640625
-0.6380615234375 -0.233428955078125 -0.2373046875
-0.641326904296875 -0.2511138916015625 -0.2225341796875
-0.633544921875 -0.25616455078125 -0.2110595703125
-0.614990234375 -0.234649658203125 -0.217529296875
-0.628997802734375 -0.2205810546875 -0.2384033203125
-0.648681640625 -0.2470703125 -0.235107421875
0.471221923828125 0.01409912109375 -0.132080078125
0.477752685546875 0.0071258544921875 -0.1334228515625
0.48321533203125 0.027862548828125 -0.1329345703125
0.46514892578125 0.0207977294921875 -0.1295166015625
0.46087646484375 0.0027313232421875 -0.1295166015625
0.466644287109375 -0.0034637451171875 -0.1307373046875
0.48968505859375 0.0183868408203125 -0.1341552734375
0.477386474609375 0.0358428955078125 -0.1309814453125
0.455841064453125 0.0087127685546875 -0.127197265625
-0.59954833984375 -0.2625274658203125 -0.1849365234375
-0.608245849609375 -0.25775146484375 -0.194580078125
-0.608795166015625 -0.2710113525390625 -0.1817626953125
-0.591766357421875 -0.266448974609375 -0.1768798828125
-0.591522216796875 -0.25457763671875 -0.1873779296875
-0.599700927734375 -0.24853515625 -0.1976318359375
-0.616729736328125 -0.2678680419921875 -0.1912841796875
-0.60052490234375 -0.273468017578125 -0.1734619140625
-0.5843505859375 -0.259033203125 -0.17919921875
0.483367919921875 -0.06500244140625 -0.122802734375
0.4774169921875 -0.072998046875 -0.1163330078125
0.4969482421875 -0.0567474365234375 -0.1241455078125
0.48895263671875 -0.054595947265625 -0.1285400390625
0.47210693359375 -0.0705108642578125 -0.12158203125
0.46783447265625 -0.0777130126953125 -0.1168212890625
0.490631103515625 -0.065826416015625 -0.11767578125
0.502838134765625 -0.044952392578125 -0.1282958984375
0.47747802734375 -0.062530517578125 -0.125732421875
-0.636322021484375 -0.3270111083984375 -0.126953125
-0.6478271484375 -0.326568603515625 -0.130859375
-0.632293701171875 -0.3304290771484375 -0.11376953125
-0.6265869140625 -0.32806396484375 -0.123046875
-0.639251708984375 -0.3214874267578125 -0.13916015625
-0.65081787109375 -0.32073974609375 -0.1448974609375
-0.644744873046875 -0.33026123046875 -0.1170654296875
-0.6234130859375 -0.3304901123046875 -0.1129150390625
-0.629180908203125 -0.3233184814453125 -0.13330078125
0.546905517578125 -0.034423828125 -0.14599609375
0.56524658203125 -0.02764892578125 -0.1573486328125
0.5489501953125 -0.0162353515625 -0.147705078125
0.52880859375 -0.0408477783203125 -0.135986328125
0.54412841796875 -0.051177978515625 -0.144775390625
0.5653076171875 -0.046356201171875 -0.157958984375
0.56591796875 -0.006744384765625 -0.154296875
0.53314208984375 -0.0254669189453125 -0.1400146484375
0.524383544921875 -0.0555419921875 -0.1309814453125
-0.69244384765625 -0.3336181640625 -0.170654296875
-0.688446044921875 -0.320892333984375 -0.183837890625
-0.7088623046875 -0.3387908935546875 -0.1895751953125
-0.695556640625 -0.344696044921875 -0.1572265625
-0.676239013671875 -0.3294525146484375 -0.1549072265625
-0.6751708984375 -0.32000732421875 -0.1683349609375
-0.70184326171875 -0.3231353759765625 -0.199951171875
-0.71484375 -0.3523406982421875 -0.1776123046875
-0.6766357421875 -0.3375701904296875 -0.14013671875
0.624420166015625 0.01141357421875 -0.1834716796875
0.642791748046875 0.029754638671875 -0.1883544921875
0.615020751953125 0.034515380859375 -0.1729736328125
0.60504150390625 -0.0037384033203125 -0.1761474609375
0.632659912109375 -0.0092010498046875 -0.19140625
0.654541015625 0.0117950439453125 -0.198974609375
0.630523681640625 0.04913330078125 -0.176025390625
0.598358154296875 0.017608642578125 -0.16845703125
0.610137939453125 -0.024871826171875 -0.1829833984375
-0.755035400390625 -0.340240478515625 -0.2470703125
-0.7386474609375 -0.317718505859375 -0.250732421875
-0.768646240234375 -0.3341522216796875 -0.2652587890625
-0.77056884765625 -0.3578948974609375 -0.2445068359375
-0.7408447265625 -0.340423583984375 -0.228515625
-0.7266845703125 -0.320281982421875 -0.2349853515625
-0.74945068359375 -0.3139190673828125 -0.26611328125
-0.786407470703125 -0.3541107177734375 -0.268310546875
-0.75274658203125 -0.360107421875 -0.22314453125
0.6885986328125 0.09124755859375 -0.1925048828125
0.698486328125 0.1119232177734375 -0.1920166015625
0.670654296875 0.1026611328125 -0.1827392578125
0.67529296875 0.070159912109375 -0.1939697265625
0.705322265625 0.0844268798828125 -0.20263671875
0.715362548828125 0.10992431640625 -0.2005615234375
0.68060302734375 0.11737060546875 -0.1837158203125
0.658905029296875 0.085418701171875 -0.1798095703125
0.69134521484375 0.05780029296875 -0.2039794921875
-0.792205810546875 -0.311553955078125 -0.3209228515625
-0.77362060546875 -0.295989990234375 -0.3115234375
-0.79443359375 -0.30078125 -0.3365478515625
-0.811187744140625 -0.324127197265625 -0.3289794921875
-0.7874755859375 -0.32135009765625 -0.30517578125
-0.7669677734375 -0.3026123046875 -0.297119140625
-0.777618408203125 -0.2891082763671875 -0.3253173828125
-0.811614990234375 -0.3098297119140625 -0.3455810546875
-0.806549072265625 -0.33758544921875 -0.310302734375
0.70294189453125 0.16790771484375 -0.1881103515625
0.697540283203125 0.1837921142578125 -0.1866455078125
0.68402099609375 0.1617889404296875 -0.177490234375
0.705841064453125 0.151397705078125 -0.1904296875
0.7200927734375 0.1756591796875 -0.1962890625
0.71343994140625 0.1913909912109375 -0.193603515625
0.68048095703125 0.174896240234375 -0.1766357421875
0.687103271484375 0.147674560546875 -0.1815185546875
0.72259521484375 0.1559906005859375 -0.19873046875
-0.77813720703125 -0.2608795166015625 -0.3712158203125
-0.76495361328125 -0.25830078125 -0.35302734375
-0.768096923828125 -0.248138427734375 -0.3800048828125
-0.790863037109375 -0.2642974853515625 -0.3917236328125
-0.78717041015625 -0.2742462158203125 -0.361328125
-0.7728271484375 -0.270416259765625 -0.3460693359375
-0.755645751953125 -0.246307373046875 -0.3597412109375
-0.77801513671875 -0.250213623046875 -0.3997802734375
-0.801025390625 -0.2798919677734375 -0.379150390625
0.6739501953125 0.2055511474609375 -0.1806640625
0.6624755859375 0.20196533203125 -0.1754150390625
0.682220458984375 0.202728271484375 -0.1826171875
0.67706298828125 0.211761474609375 -0.18310546875
0.660369873046875 0.209716796875 -0.176025390625
0.66815185546875 0.1947174072265625 -0.1749267578125
0.6912841796875 0.210784912109375 -0.1890869140625
-0.73565673828125 -0.2207183837890625 -0.3858642578125
-0.744598388671875 -0.227264404296875 -0.38623046875
-0.72625732421875 -0.2187347412109375 -0.37646484375
-0.7359619140625 -0.2175140380859375 -0.393798828125
-0.750274658203125 -0.2259063720703125 -0.4002685546875
-0.735504150390625 -0.2263946533203125 -0.3714599609375
-0.720855712890625 -0.21240234375 -0.3817138671875
0.491851806640625 -0.161773681640625 -0.126708984375
0.4918212890625 -0.157470703125 -0.1036376953125
0.4549560546875 -0.165802001953125 -0.10302734375
0.49560546875 -0.15045166015625 -0.152587890625
0.531494140625 -0.1540374755859375 -0.152587890625
0.53167724609375 -0.14923095703125 -0.1319580078125
0.455108642578125 -0.1611785888671875 -0.07861328125
0.459442138671875 -0.1540679931640625 -0.129638671875
0.534820556640625 -0.1432647705078125 -0.1739501953125
-0.67340087890625 -0.407012939453125 -0.0733642578125
-0.634490966796875 -0.389984130859375 -0.047119140625
-0.67205810546875 -0.39923095703125 -0.0460205078125
-0.71429443359375 -0.4187164306640625 -0.1033935546875
-0.67333984375 -0.4013214111328125 -0.111328125
-0.6356201171875 -0.3877716064453125 -0.085693359375
-0.63238525390625 -0.3810577392578125 -0.016845703125
-0.71307373046875 -0.4123687744140625 -0.076416015625
-0.713287353515625 -0.41485595703125 -0.140380859375
0.6629638671875 -0.08282470703125 -0.205810546875
0.659637451171875 -0.0790863037109375 -0.187744140625
0.61749267578125 -0.1153717041015625 -0.19287109375
0.66668701171875 -0.070556640625 -0.222900390625
0.704833984375 -0.04150390625 -0.2149658203125
0.700714111328125 -0.040252685546875 -0.1990966796875
0.616302490234375 -0.1125335693359375 -0.1739501953125
0.620941162109375 -0.1028594970703125 -0.2100830078125
0.7091064453125 -0.029296875 -0.22900390625
-0.82708740234375 -0.42840576171875 -0.2103271484375
-0.79193115234375 -0.4295654296875 -0.17236328125
-0.8251953125 -0.4220123291015625 -0.1888427734375
-0.857574462890625 -0.4170074462890625 -0.2449951171875
-0.8248291015625 -0.423126220703125 -0.238525390625
-0.7900390625 -0.4258880615234375 -0.2061767578125
-0.790740966796875 -0.42529296875 -0.1488037109375
-0.854217529296875 -0.4131317138671875 -0.2239990234375
-0.855316162109375 -0.4135284423828125 -0.271240234375
0.794677734375 0.115814208984375 -0.2076416015625
0.78948974609375 0.1187744140625 -0.1949462890625
0.771270751953125 0.059112548828125 -0.2138671875
0.79730224609375 0.11553955078125 -0.2191162109375
0.809539794921875 0.1703643798828125 -0.19970703125
0.80523681640625 0.1750335693359375 -0.188232421875
0.765533447265625 0.061492919921875 -0.2022705078125
0.77545166015625 0.064422607421875 -0.226806640625
0.811431884765625 0.165802001953125 -0.209716796875
-0.895721435546875 -0.350433349609375 -0.3524169921875
-0.89178466796875 -0.376861572265625 -0.3170166015625
-0.89178466796875 -0.3432159423828125 -0.3402099609375
-0.891448974609375 -0.319610595703125 -0.387939453125
-0.8955078125 -0.35223388671875 -0.3699951171875
-0.891448974609375 -0.3771209716796875 -0.338134765625
-0.8880615234375 -0.3712005615234375 -0.3026123046875
-0.888031005859375 -0.311920166015625 -0.3765869140625
-0.890869140625 -0.324981689453125 -0.3984375
0.808990478515625 0.299163818359375 -0.1864013671875
0.805145263671875 0.31060791015625 -0.1727294921875
0.817108154296875 0.26422119140625 -0.1883544921875
0.811004638671875 0.279327392578125 -0.2001953125
0.79498291015625 0.3248291015625 -0.1844482421875
0.79034423828125 0.3389434814453125 -0.17041015625
0.812286376953125 0.2729339599609375 -0.176025390625
0.817901611328125 0.2488861083984375 -0.2015380859375
0.79632568359375 0.301483154296875 -0.201171875
-0.838958740234375 -0.227996826171875 -0.4832763671875
-0.8621826171875 -0.25616455078125 -0.4556884765625
-0.835540771484375 -0.2158203125 -0.4718017578125
-0.8115234375 -0.20196533203125 -0.5013427734375
-0.842620849609375 -0.24365234375 -0.4866943359375
-0.863555908203125 -0.26806640625 -0.4595947265625
-0.858245849609375 -0.2466278076171875 -0.4462890625
-0.808349609375 -0.186492919921875 -0.4906005859375
-0.81683349609375 -0.22064208984375 -0.50390625
0.711761474609375 0.3448333740234375 -0.1763916015625
0.708526611328125 0.3634033203125 -0.15625
0.74395751953125 0.3457794189453125 -0.1807861328125
0.7120361328125 0.310028076171875 -0.197021484375
0.677398681640625 0.333587646484375 -0.16845703125
0.67498779296875 0.3538818359375 -0.1478271484375
0.740570068359375 0.3638916015625 -0.1630859375
0.74615478515625 0.3133544921875 -0.2010498046875
0.676422119140625 0.299102783203125 -0.189208984375
-0.723419189453125 -0.1405792236328125 -0.4857177734375
-0.75384521484375 -0.1564483642578125 -0.501953125
-0.721832275390625 -0.1240081787109375 -0.472412109375
-0.6954345703125 -0.12823486328125 -0.4613037109375
-0.72857666015625 -0.167572021484375 -0.488037109375
-0.759521484375 -0.180816650390625 -0.505126953125
-0.75115966796875 -0.1415557861328125 -0.48974609375
-0.69464111328125 -0.11065673828125 -0.44580078125
-0.69903564453125 -0.1557159423828125 -0.4642333984375
0.583831787109375 0.2913055419921875 -0.1434326171875
0.58465576171875 0.3120880126953125 -0.122802734375
0.612030029296875 0.306640625 -0.15185546875
0.578857421875 0.2551116943359375 -0.16455078125
0.5576171875 0.275238037109375 -0.1365966796875
0.5606689453125 0.2958984375 -0.11572265625
0.611785888671875 0.32635498046875 -0.130126953125
0.608642578125 0.2694244384765625 -0.1734619140625
0.552825927734375 0.24072265625 -0.1566162109375
-0.624755859375 -0.107086181640625 -0.3831787109375
-0.64508056640625 -0.1118011474609375 -0.4085693359375
-0.62762451171875 -0.0921630859375 -0.3692626953125
-0.605865478515625 -0.1054229736328125 -0.355712890625
-0.6239013671875 -0.13372802734375 -0.3868408203125
-0.646820068359375 -0.139862060546875 -0.4122314453125
-0.64703369140625 -0.09600830078125 -0.3951416015625
-0.611053466796875 -0.0901031494140625 -0.3427734375
-0.603729248046875 -0.130645751953125 -0.3582763671875
0.536163330078125 0.0351104736328125 -0.1873779296875
0.572174072265625 0.0457000732421875 -0.20361328125
0.51885986328125 -0.0493621826171875 -0.18408203125
0.50543212890625 0.0249176025390625 -0.1773681640625
0.554901123046875 0.1212921142578125 -0.1875
0.588653564453125 0.13482666015625 -0.2000732421875
0.555908203125 -0.0388336181640625 -0.2005615234375
0.485626220703125 -0.057098388671875 -0.169189453125
0.524749755859375 0.1102142333984375 -0.177734375
-0.64801025390625 -0.2846832275390625 -0.2777099609375
-0.659423828125 -0.339111328125 -0.218017578125
-0.67901611328125 -0.2941741943359375 -0.3046875
-0.635986328125 -0.2263946533203125 -0.331787109375
-0.61895751953125 -0.2752532958984375 -0.2537841796875
-0.62750244140625 -0.3275604248046875 -0.1951904296875
-0.69384765625 -0.3503875732421875 -0.2449951171875
-0.663970947265625 -0.2333526611328125 -0.3587646484375
-0.610595703125 -0.2186126708984375 -0.305419921875
0.69244384765625 0.1002197265625 -0.234619140625
0.702056884765625 0.18414306640625 -0.2264404296875
0.730682373046875 0.1259918212890625 -0.2392578125
0.681610107421875 0.024810791015625 -0.2373046875
0.65167236328125 0.080078125 -0.2276611328125
0.66326904296875 0.1664276123046875 -0.22216796875
0.738250732421875 0.2002716064453125 -0.230712890625
0.722076416015625 0.0551605224609375 -0.241943359375
0.63885498046875 -0.00177001953125 -0.2314453125
-0.778228759765625 -0.3087005615234375 -0.386474609375
-0.809112548828125 -0.310882568359375 -0.40966796875
-0.757049560546875 -0.2542266845703125 -0.43798828125
-0.74591064453125 -0.3067626953125 -0.3614501953125
-0.79986572265625 -0.3614349365234375 -0.331787109375
-0.82940673828125 -0.3585968017578125 -0.357421875
-0.78826904296875 -0.26116943359375 -0.4576416015625
-0.725616455078125 -0.24737548828125 -0.411865234375
-0.766326904296875 -0.3625030517578125 -0.303955078125
0.798614501953125 0.175933837890625 -0.230712890625
0.80615234375 0.2113037109375 -0.2252197265625
0.800567626953125 0.151153564453125 -0.233154296875
0.78643798828125 0.16412353515625 -0.23681640625
0.7913818359375 0.216461181640625 -0.22705078125
0.810943603515625 0.1901397705078125 -0.2235107421875
0.782073974609375 0.118438720703125 -0.23876953125
-0.86376953125 -0.312042236328125 -0.439208984375
-0.877960205078125 -0.3315582275390625 -0.4169921875
-0.857879638671875 -0.28955078125 -0.4603271484375
-0.85333251953125 -0.3138580322265625 -0.4364013671875
-0.87127685546875 -0.3440093994140625 -0.39892578125
-0.873992919921875 -0.307281494140625 -0.4388427734375
-0.838348388671875 -0.278656005859375 -0.4691162109375
0.498809814453125 0.219024658203125 -0.1278076171875
0.48638916015625 0.21099853515625 -0.1282958984375
0.504486083984375 0.242431640625 -0.103515625
0.515594482421875 0.235687255859375 -0.12841796875
0.490081787109375 0.1829681396484375 -0.1529541015625
0.47576904296875 0.1726837158203125 -0.1573486328125
0.491912841796875 0.2353057861328125 -0.0982666015625
0.52001953125 0.25848388671875 -0.10498046875
0.507171630859375 0.2006683349609375 -0.1505126953125
-0.568389892578125 -0.117095947265625 -0.3021240234375
-0.57550048828125 -0.099609375 -0.28369140625
-0.558624267578125 -0.1165008544921875 -0.2958984375
-0.561309814453125 -0.1421661376953125 -0.3115234375
-0.578857421875 -0.113311767578125 -0.3143310546875
-0.5853271484375 -0.0970916748046875 -0.2989501953125
-0.567138671875 -0.09808349609375 -0.2716064453125
-0.549346923828125 -0.1441650390625 -0.3111572265625
-0.5731201171875 -0.137420654296875 -0.3192138671875
0.4302978515625 -0.0046234130859375 -0.1788330078125
0.454620361328125 0.065673828125 -0.18115234375
0.45196533203125 0.0059356689453125 -0.1717529296875
0.405548095703125 -0.07135009765625 -0.1669921875
0.40997314453125 -0.014251708984375 -0.1915283203125
0.436798095703125 0.053863525390625 -0.1942138671875
0.4739990234375 0.0814208984375 -0.172119140625
0.428955078125 -0.0670623779296875 -0.159912109375
0.38458251953125 -0.0771026611328125 -0.17919921875
-0.549591064453125 -0.2653350830078125 -0.241943359375
-0.571380615234375 -0.26654052734375 -0.2376708984375
-0.551910400390625 -0.2193145751953125 -0.2813720703125
-0.528411865234375 -0.2637939453125 -0.254150390625
-0.54754638671875 -0.3063201904296875 -0.1915283203125
-0.5714111328125 -0.31256103515625 -0.1820068359375
-0.569854736328125 -0.216461181640625 -0.281494140625
-0.533111572265625 -0.2200927734375 -0.2889404296875
-0.524078369140625 -0.3017425537109375 -0.20703125
0.3626708984375 -0.1641082763671875 -0.0845947265625
0.336456298828125 -0.1640777587890625 -0.09375
0.3704833984375 -0.15478515625 -0.1160888671875
0.390289306640625 -0.1636962890625 -0.0828857421875
0.361419677734375 -0.1592864990234375 -0.0537109375
0.334320068359375 -0.1613922119140625 -0.055908203125
0.345703125 -0.1547393798828125 -0.12841796875
0.397064208984375 -0.1553192138671875 -0.1112060546875
0.389739990234375 -0.1594390869140625 -0.052978515625
-0.53521728515625 -0.3505096435546875 -0.04345703125
-0.53997802734375 -0.348846435546875 -0.0875244140625
-0.5074462890625 -0.3437347412109375 -0.0560302734375
-0.532623291015625 -0.3436737060546875 -0.0052490234375
-0.565460205078125 -0.3607330322265625 -0.032470703125
-0.56890869140625 -0.3584442138671875 -0.075927734375
-0.51348876953125 -0.342071533203125 -0.105712890625
-0.50518798828125 -0.3381805419921875 -0.0128173828125
-0.562652587890625 -0.3526611328125 0.000244140625
0.247467041015625 0.4016571044921875 0.522705078125
0.235260009765625 0.4056243896484375 0.5355224609375
0.224761962890625 0.4083404541015625 0.5462646484375
0.218994140625 0.3939971923828125 0.5595703125
0.218170166015625 0.3771820068359375 0.5638427734375
0.214813232421875 0.360626220703125 0.567626953125
0.21533203125 0.33636474609375 0.5653076171875
0.224029541015625 0.3224945068359375 0.5556640625
0.23455810546875 0.309295654296875 0.5469970703125
0.255645751953125 0.3167877197265625 0.5267333984375
0.261993408203125 0.3425140380859375 0.5206298828125
0.263519287109375 0.3700408935546875 0.514404296875
-0.42230224609375 0.174774169921875 0.44775390625
-0.410491943359375 0.15692138671875 0.465087890625
-0.394317626953125 0.1439971923828125 0.4832763671875
-0.36895751953125 0.15057373046875 0.51220703125
-0.36346435546875 0.1674957275390625 0.519287109375
-0.358612060546875 0.18292236328125 0.525390625
-0.36749267578125 0.2019500732421875 0.520751953125
-0.377655029296875 0.2105712890625 0.50927734375
-0.385589599609375 0.219573974609375 0.498291015625
-0.398101806640625 0.2272796630859375 0.4755859375
-0.4078369140625 0.217254638671875 0.4630126953125
-0.418853759765625 0.2060089111328125 0.4476318359375
0.292510986328125 0.379852294921875 0.460693359375
0.28228759765625 0.38568115234375 0.47705078125
0.271728515625 0.3920440673828125 0.4932861328125
0.254241943359375 0.2787933349609375 0.520263671875
0.262542724609375 0.2642364501953125 0.504638671875
0.270721435546875 0.2502899169921875 0.4874267578125
0.293853759765625 0.2670135498046875 0.463134765625
0.303131103515625 0.30255126953125 0.4547119140625
0.305999755859375 0.3382568359375 0.4486083984375
-0.457061767578125 0.122833251953125 0.377197265625
-0.442413330078125 0.0990447998046875 0.4013671875
-0.422760009765625 0.0817108154296875 0.4254150390625
-0.392364501953125 0.0807647705078125 0.4615478515625
-0.38623046875 0.0979461669921875 0.4757080078125
-0.3809814453125 0.11492919921875 0.489501953125
-0.438873291015625 0.18408203125 0.4130859375
-0.4486083984375 0.1722412109375 0.394287109375
-0.45745849609375 0.1599884033203125 0.3759765625
0.23016357421875 0.2746124267578125 0.540283203125
0.211639404296875 0.259429931640625 0.5465087890625
0.190765380859375 0.2479248046875 0.5504150390625
0.170166015625 0.2220306396484375 0.543212890625
0.17156982421875 0.2039794921875 0.53076171875
0.1728515625 0.1846466064453125 0.51708984375
0.20574951171875 0.17529296875 0.4949951171875
0.23388671875 0.190216064453125 0.4871826171875
0.25787353515625 0.211700439453125 0.4786376953125
-0.36932373046875 0.0548858642578125 0.4637451171875
-0.338470458984375 0.05059814453125 0.480712890625
-0.306549072265625 0.05511474609375 0.4931640625
-0.275970458984375 0.078094482421875 0.5125732421875
-0.277587890625 0.0960235595703125 0.52490234375
-0.279449462890625 0.113006591796875 0.5372314453125
-0.30517578125 0.1248931884765625 0.5379638671875
-0.329498291015625 0.1225433349609375 0.5262451171875
-0.35321044921875 0.124542236328125 0.516845703125
0.198455810546875 0.3342742919921875 0.575927734375
0.186798095703125 0.324737548828125 0.57861328125
0.172637939453125 0.316497802734375 0.581787109375
0.160430908203125 0.298614501953125 0.578857421875
0.162841796875 0.282012939453125 0.572509765625
0.165863037109375 0.2622222900390625 0.5638427734375
-0.2845458984375 0.149688720703125 0.55029296875
-0.287628173828125 0.1669464111328125 0.55517578125
-0.290740966796875 0.181976318359375 0.5579833984375
-0.30877685546875 0.1904296875 0.55712890625
-0.32489013671875 0.1900177001953125 0.5496826171875
-0.34033203125 0.19097900390625 0.540771484375
0.1431884765625 0.310791015625 0.5855712890625
0.12774658203125 0.313079833984375 0.5849609375
0.11248779296875 0.318359375 0.58447265625
0.094818115234375 0.3138275146484375 0.5758056640625
0.08929443359375 0.29815673828125 0.5711669921875
0.0833740234375 0.281463623046875 0.5634765625
0.097412109375 0.2516632080078125 0.5572509765625
0.120758056640625 0.2439727783203125 0.5576171875
0.14447021484375 0.24041748046875 0.55615234375
-0.258544921875 0.140625 0.548583984375
-0.2381591796875 0.1546478271484375 0.549072265625
-0.220306396484375 0.1715087890625 0.5462646484375
-0.2174072265625 0.2051544189453125 0.5467529296875
-0.228179931640625 0.2165374755859375 0.5523681640625
-0.238006591796875 0.2256622314453125 0.5577392578125
-0.254364013671875 0.22125244140625 0.5633544921875
-0.26556396484375 0.2103271484375 0.5645751953125
-0.2783203125 0.2006988525390625 0.56396484375
0.07037353515625 0.2469329833984375 0.5428466796875
0.064239501953125 0.2308502197265625 0.53076171875
0.05816650390625 0.215911865234375 0.5162353515625
0.080047607421875 0.1838531494140625 0.505615234375
0.11041259765625 0.1721343994140625 0.5076904296875
0.14263916015625 0.1666717529296875 0.5062255859375
-0.2445068359375 0.0761566162109375 0.5048828125
-0.21624755859375 0.0955963134765625 0.5054931640625
-0.19061279296875 0.1180419921875 0.5029296875
-0.17852783203125 0.1571502685546875 0.5108642578125
-0.186767578125 0.168701171875 0.521484375
-0.195770263671875 0.18121337890625 0.5313720703125
0.057281494140625 0.2806243896484375 0.5477294921875
0.040924072265625 0.3010711669921875 0.5391845703125
0.027740478515625 0.324249267578125 0.531005859375
0.008270263671875 0.339111328125 0.509521484375
-0.001129150390625 0.3296051025390625 0.4949951171875
-0.009857177734375 0.3206024169921875 0.4810791015625
