# XYZ point cloud file
0.51676441741395429 0.65022553203807476 -0.26669250136477274
-0.59991535187478195 -0.94480213943510449 -0.39926927714794491
0.36147337294928761 0.057848696584413162 0.53313888705904589
-0.16396138163669605 -0.36046130358251283 -0.56509555906979436
-0.20010685953490936 0.51731956629847886 0.75201749170015475
0.74354960217038801 -0.46332188362276705 0.68944413879795796
-0.34372225304422965 -0.32448779301636677 0.70634636525856109
-0.46491794611461135 -0.29556625616232246 0.72220129897889507
0.11110124668013643 0.3646616373857885 0.72626285299611126
0.13469536300169693 -0.094091675214411197 0.79065666292045478
-0.69211649271466413 -0.66771868598273088 -0.32232782950349481
0.22775386885281712 0.98571220033654683 -0.32202342794189498
0.79785744770177836 -0.40124069303458221 0.68177357844159658
-0.36792676063744345 -0.84172847432430409 -0.25921446440638007
-0.062909284863932768 0.74218592377525461 0.70785387303097735
0.70203385564742149 -0.052168301423476393 0.58625005577960287
-0.16035592229574647 -0.23225046561667817 0.73196232583752163
0.18423140586546616 -0.25864445707898653 0.72403646005784417
0.55943670372115584 -0.60963370290951024 0.66235591545409278
0.27482202609778028 -0.12084367743955582 0.78014926786714511
0.47745303215151935 -0.58591710413880405 0.65202210792347159
0.52629528772162182 -0.31813615664171646 0.73477626657567363
-0.38173633711650723 0.090047783182543029 0.78879871623663966
-0.42810416578395483 -0.10380205749192406 0.81843987050147859
-0.10501854201895178 -0.40115057765537543 -0.46873749726044522
0.34397326084960866 -0.32363812805360226 0.73103324427867378
0.70343212048777026 -0.46551644014152549 0.65479744133141082
0.52157531445762118 0.64616915625362203 -0.23173519253002794
-0.70139893394227215 -0.71653350959412876 -0.35787669174134429
-0.48238613949160136 -0.6539275714068058 -0.30849584054455548
-0.7585559211571451 -0.21367500031695563 0.62628564454249513
-0.30960992277555466 0.049887474608850013 0.65831896367190446
-0.077514573153896649 0.21567144692105522 0.75958471919118864
0.38362396156253808 -0.10172011482283594 -0.063700523001143594
-0.10224705168513326 0.93274305107314248 0.079674946828514948
0.40741793864106768 -0.40042947239919258 0.34421402049290961
0.58422831972235123 -0.72001665640564871 0.50439576478606618
-0.79057697887578371 -0.99135681397064346 -0.40825880587503072
0.14833755101215917 -0.085911881461537831 0.76674887230554845
-0.47163009059317851 -0.57371908336858368 0.47130693668446888
0.75988243999304039 -0.46499961467209161 0.68314312109768416
-0.41413038621366116 -0.69057637086896584 -0.25207585816663958
-0.28458722402684877 0.12745136573105142 0.79037209501450079
0.080613339877448453 0.61416572027356509 0.66977154363588198
0.13469832814765414 0.76249274729314465 -0.43590067941777377
0.40428281011251244 0.69883752242701291 -0.26442679655300694
-0.040092732482253979 -0.25833002192207033 -0.61111961212523802
-0.24514081090274065 -0.11757653160986514 0.75571495215745621
-0.75574041224014543 -0.36089852170957926 0.64406887113507416
-0.98539572194112779 -0.74700907370825931 -0.41064647076938154
0.40360143928950087 0.68228978016488284 -0.24731287052098239
-0.31350418025475513 -0.64715250187695261 -0.15198760029882052
0.24040446327464782 -0.073216443208816706 0.80784296171224135
-0.64097264199229187 -0.25837893717466365 0.70798356519322425
-0.68571190395958492 -0.6927345674247718 -0.34293773092116897
0.67287563702662823 -0.478474877596482 0.68640442638218424
-0.45348764631406091 -0.732015303077727 -0.31631348289274008
0.19516313079824332 1.0818631560430134 -0.32368730844106253
0.23635192897250157 0.94212935181998247 -0.30969682735894466
0.32857400136024495 -0.34916261677454763 0.72226788148091892
0.13647012366763533 0.89114037003249535 -0.30892330263116818
-0.060528026473820162 0.49556735791776063 0.79594228509684584
0.16662019345047874 -0.086819663417037951 0.8081377572331867
0.39073790080899684 0.041295602837433165 -0.13977939522149541
-0.50428611371970078 -0.3445354162356189 -0.57237798055546829
-0.72832017335712429 -0.69078917562634778 -0.35162321850824085
0.26663582690269827 -0.39355557209016467 0.34390469208308261
-0.93707577543094178 -0.71742944586610591 -0.36970156139424759
0.63304434554187416 -0.43234178138429247 0.67809912538633732
-0.72042661310918521 0.20444633834449277 0.37135416037602553
0.26958421623314877 0.81832468206091669 -0.28370864838463916
0.41485083781475751 -0.30607215227200246 0.7380218758030157
0.20983763819269363 0.45371604342113159 0.66343028330192766
-0.4890216741121387 -0.67203176347307192 -0.31667868455718828
0.1029362088485879 -0.18687613816129378 0.77404793112392589
-0.45751683240531182 -0.61441210020834447 -0.19131488099204397
-0.54064087771186209 -0.2948740750257528 0.68383410670872813
0.19202492643724778 -0.17966131434876509 0.79842691898232587
-0.84279779908142594 -0.91636317585523308 -0.47084657789065254
0.11757649023021965 -0.19876582911753005 0.77556533830358632
-0.71448840107080436 -0.90920799790307072 -0.4299579221000851
0.032244852790098477 -0.3413573811398134 0.45972946302989826
0.12221386101580745 -0.093357599003526914 0.77113604217699461
0.10634858407149572 0.36695873700742965 0.72238628668693394
-0.37391523282141748 -0.40624453212276634 0.60919992570770987
0.32131088908525207 0.5385780467132637 0.51827647784300623
0.12470176632505758 0.86141587974919531 0.070103660595179917
-0.28553325476828118 -0.16687847667376587 0.80316629503169423
-0.34127579342236203 -0.70193062374591442 -0.16918099030025857
-0.16799200136208192 0.23191287575745179 0.76853369686907236
-0.16008159466843175 -0.21415789377693706 0.66283496257759467
0.1821992801705985 0.83688306163143267 -0.14701503582175057
0.094507449730194537 -0.3175828663029483 0.51657449407378131
0.14953931191198055 1.0724312571092689 -0.2958192498270833
0.46955414087918079 0.67370084624595883 -0.16307344859067641
-0.11754346756813394 0.44626442213643003 0.80757784810127298
-0.068308228213288302 0.76289165771877698 0.70778247914297054
-0.13830505636142831 -0.1525140980726416 0.75203442447003432
-0.33220031956811447 -0.13773420735561359 0.82072328061821409
0.65912182066946912 -0.59341148823682355 0.42182658576188636
0.11640446318990527 -0.11610841105388126 0.80321811766558326
-0.37655912655375445 0.078664685586453231 -0.74751207026123101
0.36338826595786422 0.091639612104138735 0.3584651079880139
0.92589711096141691 -0.23806874223266261 0.57355032361617653
-0.7498314375125843 0.012852790544098269 0.61802143887337735
-0.32737515968410769 -0.52316879127815241 -0.42854486525770152
0.13210384792203556 -0.1729586332983537 0.81132492238973519
-0.4059487665953716 -0.80083446302653982 -0.21320383986878166
-0.3773801982330145 0.24665219123168569 0.62856162322170483
-0.47109372302403507 -0.34100524838241419 0.68064504712874552
0.24993906556624523 0.25843041540061584 -0.53669484801409517
0.20129638004461903 -0.17204173350201479 0.79839836666949715
-0.43774022549986569 -0.76786700275387787 -0.2927823055040939
-0.23790660648923456 -0.44360933966419758 0.61985657837215946
0.0055050895408612632 0.26819295840828872 0.75567567517277645
-0.79421368904489142 -0.76507439953365797 -0.41130393541582855
-0.73521544814521533 -0.54447862460472685 -0.28546473854518695
0.18271856936653741 0.83147556397549494 -0.096929299050856343
0.16668958753991348 -0.0064892064481867351 0.79088100698138675
-0.41050055020795817 -0.62382909688601629 -0.10813079853361529
-0.54276305694225524 -0.031096930685244217 0.70005725220632975
-0.19013892510616071 0.91225271289435739 0.074556190899050634
0.69865091162214021 -0.31943304837714237 0.69995534981437935
0.2581676419758514 -0.0029839024569957573 0.79084585296476462
-0.39022398967457583 -0.62738976368901866 -0.16393410330283764
0.92842911250483695 -0.25936598595661753 0.57280109587525807
0.017805938688746359 -0.08480223249464558 0.75752535892909023
0.74113185485147248 -0.2052662076074574 0.69301469818968542
-0.63477607993647744 0.52213706424539907 -0.52516142215897688
0.005142948638845013 0.36995431206913487 0.81087084988814517
0.11091617524228781 0.42687539635174865 -0.61452998844854534
0.37682118613931337 0.12374559235084881 -0.21806626042411814
-0.91672780412208166 -0.29328469571260207 -0.10580374744256815
-0.022016444280007708 0.89012016515464509 -0.39342004199743563
-0.021300874691304372 0.16991540140322492 0.65015048943049614
0.25175001270943298 -0.10816468883150243 0.79789092885518542
0.30071159599988562 0.097215524695638322 0.49025802750503367
0.3304249609233576 0.82838550913538533 -0.31781196879323126
-0.70168578257170289 -0.64809830140048419 -0.28123682446893916
0.17767575304495509 -0.27752317082509137 0.71041545427442898
0.085257888168545293 -0.13634860155343631 0.7551636021321162
0.070416529905261704 -0.10186988603475911 0.7514785936341859
0.46175016858968565 0.6998926192887982 -0.3341473596573401
0.90003013308406921 -0.36385243781948695 0.56636006083040336
0.37361421127197048 0.26402008896694262 -0.10196866641263469
-0.12645519936572924 0.2618770459959574 0.7368497779828207
-0.040259908558785362 0.24201564981869161 0.76530949927801117
-0.3739406995163721 0.00063866486790864485 0.77409555993690127
0.1437121508883763 0.11810590338780003 -0.65111170698181553
-0.63795964532928107 -0.50637353681152852 0.58360300318785008
0.33055498248429771 0.23710233831417682 -0.36210661154204971
-0.8013625973579046 -0.1240431814160079 -0.49508395655958282
-0.57272574009425981 0.19804753573396994 0.6816415283535342
-0.04195487471371262 0.8301870809635794 0.29614723124632825
-0.21048976467818648 -0.13465703705291432 0.73589529073509041
0.21003941720639752 0.093192530734549806 0.71116354657114833
0.083681088874558718 0.58693516957460368 0.66694711415832941
0.37985423720296652 0.054328299587593776 0.5302309229194595
-0.57038846774388174 0.21037350157705781 0.71143635031318908
0.43783907004594624 -0.051705304201250968 0.29669790426402365
-0.40242272706758264 -0.74259296032151489 -0.24057782556660889
-0.02150255883568164 0.62591702389294213 0.68762411145230473
-0.42031835345853352 -0.74198157258300945 -0.29821815819227293
-0.54094674607902249 -0.89585040802462856 -0.38651858390169025
-0.36244010618721934 0.55042761322273748 0.60151581122743281
-0.36719193488554858 -0.27032708955495011 0.78226500208818806
-0.34462415386167189 0.60075696518222799 0.59593533126958675
-0.5116088079478569 -0.38566143127630248 0.57702046325274736
-0.071177160959264185 0.25373713257202013 0.76530164587112282
0.019786138425009092 0.040038396464593617 0.74885288065024724
-0.17474706147882202 0.05611968137568013 0.7569767430169172
0.28085189356026152 -0.012962120687955547 0.74386465145202507
-0.027720200007814277 0.25907273224075844 0.75588204931258574
-0.49568449260431269 -0.21336831299547221 0.76733302619965649
0.7457397076849599 -0.46960369862893536 0.68879136124240148
-0.25070170940381509 -0.29972743635280885 0.70807515052095837
0.43293929463261094 1.2667320043970101 -0.48023847014964183
0.25153762838124827 -0.40608827044794005 0.37491836549857283
-0.29137909776059878 -0.31249699395590191 0.72627278396047323
-0.81191141291755731 -0.72519198099948667 -0.39551211455354718
-0.67934382399151083 -0.97482298222835873 -0.40704527245455147
-0.11262496584468451 0.29059991505442184 0.75139911271124227
-0.84248415365937301 -0.61141646002759487 -0.28085762976184903
-0.30346677276742717 -0.34045932217774855 0.71276901626278821
0.87345793499741475 -0.23728144847482113 0.63072123077875908
-0.30089465703232765 -0.052455366276907611 0.75377034080761618
-0.37721281692857467 -0.63334684165236332 -0.022429583945260845
0.45681664570028246 -0.35669473588258338 0.32890545924449555
-0.68063391653102112 -0.97030593182233282 -0.42781335681952726
-0.85148234931785538 -0.77340377739144728 -0.43199528611825588
0.73000750724633967 -0.23747567875441522 0.70507175298542357
-0.73129192550433508 0.19277124911961607 0.72881223077049917
0.41724800796421668 -0.20466569244051147 0.24860347741425137
0.32430594007561808 1.0621701480696757 -0.40332364674399557
-0.19920818234781779 0.44749753979844975 0.76213747312866076
-0.55292385363975072 0.77562918371182121 0.054105860634567904
0.30586065178282595 0.68858196921862103 -0.028122881708776859
-0.052358708585491076 0.84051243400714171 0.58652711141895608
-0.500568270908893 0.085422483056056819 0.78947665492551167
-0.49600824925946796 -0.1269474783702389 0.79404239831796453
-0.099417395461192104 0.69492287979057998 0.71692519091538998
0.13987670224933169 0.51069712810713064 0.67336863515052414
-0.85071973687257652 -0.1495244247296732 -0.44035252890904886
-0.60963252646285326 -0.28687157488418791 0.69128296045579241
-0.46290099669298179 -0.39204264570435932 0.60380177908054655
0.65539498504642779 -0.29829738951798834 0.72836924596663266
-0.29896024306149105 -0.3041088288829048 0.72243261252265256
-0.58405779385384271 -0.6725778850724744 -0.32441056855976313
0.16858524229859917 -0.21447512686417269 0.76336693581599491
-0.4313945977939122 0.19496929425285892 0.76560762589313214
0.13991232655475461 -0.066098289033304169 0.75550230263745455
0.20668363305313298 1.2031993477426752 -0.44990747312099444
0.28060340609869705 0.66249736486802924 0.30079338269096567
0.59303032043216852 -0.29485675873195571 0.73132178812624637
0.31171826558480387 0.91338239694021084 -0.34075540533626203
-0.37423999794625296 -0.52552817657843143 0.57019067205713014
0.2854320807088726 0.098304373696205261 0.51459659534487834
0.11606198322096706 -0.085326527834926225 0.7533957622051215
0.04856693841806603 -0.30185306397692457 0.51316769761783121
0.28407373102876399 0.77099539430246722 -0.28128957061334781
-0.27835635241207868 0.0023858157352094622 0.76903342950148179
-0.6459129171181015 -0.53152758246291931 0.44750937044784855
-0.34478257342061447 -0.026344028778421347 0.75771470886720849
-0.74817624764641089 -0.41958474740677687 -0.39323264060084107
0.15024639699425357 -0.091587026837121499 0.80021609192282384
-0.54278757156936353 -0.12641022749717301 0.74866179632053509
-0.090502948203626588 0.56524246923442867 0.72678095105633211
0.36739198918692928 -0.23184488941683057 0.11456666298203544
-0.48344984279008774 -0.085420923602065102 0.78030711457477331
0.47386751954074668 0.84891848349001187 -0.35115858392175703
-0.64714660276991509 -0.76403432521806813 -0.36107861132968555
-0.49999579740808464 -0.73115587315795061 -0.32740485276086151
-0.75262787979047641 0.53874692542344249 0.065053178943031753
-0.83733179649723155 -0.59302326018984175 -0.37085602475504409
0.74117466738692706 -0.11086366884985743 0.64071407843424666
-0.37605897294662771 0.22534940523880742 0.73722723038747517
-0.53600356276943328 -0.079541709900881941 0.73403245516821158
0.69720290138993946 -0.58002872801498429 0.6565100132748789
0.13238068189621721 0.2784322016872931 0.67137288061789668
0.28543343621048489 0.086595896661629368 0.55220968273268412
-0.72970810873578884 -0.27164212592096071 0.47056720212067304
-0.9649354828987784 -0.70817426702502573 -0.38957008491541867
-0.25719550609493025 0.29276461475378568 0.78774017483133463
-0.38089443007762114 -0.071426864019741743 0.81633317270846995
0.22299074467515112 1.066884290862923 -0.34803342786850955
0.84399058083155865 -0.47206643015408467 0.56212625220681822
-0.025985817573886294 -0.42791954611134031 -0.32440050091719108
-0.57696392777808825 -0.5807023387196768 0.19330743184304033
0.17527019141275524 -0.05312015849111873 0.80853724667737481
0.019372560977077846 0.22441233652500436 0.71083987202671395
0.82622783809820355 -0.47307358943615574 0.48188558605340148
-0.38078065644362402 0.5092489451531641 0.47767665042838026
-0.099080103589297863 0.43231575639012298 0.8116374965887907
-0.13011525090578058 0.46896706077299122 0.79618695007461504
0.45361364865738185 0.62122888032952162 -0.14339631395207064
-0.95491108527544544 -0.058609061579653954 -0.047838636993233763
-0.10743835546517744 0.71464364779512835 0.72349407532651
-0.16523318767319939 0.27301356605721594 0.77133634513220173
0.7017348629349538 -0.38257263658066831 0.65337354870640496
-0.03414915066600166 0.82273047249767117 -0.47267443540185461
-0.48196419558955661 -0.66735240133934326 -0.3086858828142427
0.031999773533922138 0.35165473965854943 0.80208468213798767
0.44788502353907589 -0.57746649652442805 0.40809014564270463
-0.28050297096847565 -0.62037974520777972 -0.071685370691216832
0.31703536944521993 -0.17145659621564757 0.74219843486223702
-0.55392008574261808 0.070610791811578366 0.78467626131751089
-0.31087537375636298 0.045018634696367243 0.77394917918471684
0.15326051559449638 0.89494347027047638 -0.34083356199542791
0.63018286617929853 -0.61966486627383066 0.41835088238855889
0.3348248259250779 0.99899144518597005 -0.37539656506927521
-0.59475216352155869 -0.56086895301006656 0.48585167097009219
0.080262261010648039 0.84353396258234348 0.61952621724794454
-0.21725490916515633 0.91238567415473071 -0.36811018152185149
0.54177393836613064 0.0063832664993217492 0.48319352214472033
-0.15050972584682398 0.16120975971588969 0.7628343906964119
-0.52525292558593772 -0.81936321575360438 -0.34774519157693362
0.13108863846206287 -0.13857759702794059 0.81268811621488268
0.413314894079436 0.49763198370946249 -0.20464220058779858
0.48862112820014403 1.05958654416402 -0.45322195350245664
-0.78878816495887882 -0.71484469351998392 -0.38747106551689559
-0.040439442062798037 -0.22401887921452435 0.73400600752560585
-0.79541542274962818 0.42209626176452275 0.15213960101336532
0.2266375643532319 0.80929316572733612 -0.21350800527574698
-0.74715952939504326 -0.96916526592281116 -0.5072092053613666
0.29657202651818082 0.54457273647233606 0.56800043466920691
-0.3156152833400121 0.51963985091169285 0.58064368310120429
0.21878393860286494 -0.053000620165685852 0.81357216548087763
0.013855897669419193 0.54525702303281065 0.74229361367724955
0.030774710186227239 0.63130286985827766 0.67133414828579063
0.49718247302765484 0.69230446145102498 -0.17929407315736334
-0.35918054627373852 0.06371909655429242 0.77905499097729702
0.47059044345941992 1.1216446020516333 -0.41915918635506699
-0.48581741955349145 -0.63301399438836015 -0.29843816538607193
-0.22191932188059393 -0.25223328124233291 0.73608499474757139
0.23422810630563795 -0.34842173747270966 0.691898604787065
0.19064348107408158 0.0080330656423228675 0.79180471157491716
-0.69242144879794232 -1.0391038334122555 -0.41729428300832616
-0.021675303271746493 0.74318710306188329 0.68803379500894657
-0.21365672630843591 0.74608762808833262 -0.54710357847559976
0.34352650800342133 0.20937923458896535 0.30126485866763275
-0.51535943409498586 -0.059990649532883467 0.75695240833274191
-0.18053706794396307 0.36812158086404878 0.75720681044961324
-0.092148905119878499 0.51974071486420748 0.78172946247498487
-0.9781168764806969 -0.83323592532228119 -0.42061400826943096
0.1346385367530587 -0.20879804505604049 0.76641380184863728
-0.51645693189735198 -0.77305650094748302 -0.33232474503038034
-0.070955326864633683 0.2705500710479587 0.74888478796401792
0.28675598282009673 -0.058784709354060993 0.77489313850521135
-0.051596671786951376 -0.40207619599694766 0.39959808394561769
0.64794734196132886 -0.045213243974589368 0.62222482419793224
0.27598388766390869 0.19277609137487595 0.60383088874083946
-0.33007154140991446 -0.0037634399548451825 0.73924240506987715
-0.74808959400323616 -0.9363744020355842 -0.45012861613137112
0.12238508794090919 0.87821849733687962 0.50638927298478897
-0.51245485878954877 -0.14689393360732694 0.76811699967577951
0.12985383718209054 0.30945454358832514 0.72020680895241185
-0.057050711977009172 0.93342272045232377 0.074002497956504598
-0.54077964428090475 -0.23769522267925502 0.70849464025038422
-0.35396594481052035 0.60794253029589562 0.79428758201071403
-0.13746844176362361 0.57791693404232447 0.69466960723021742
0.27565436458894421 0.90547663029891368 -0.32633367374184985
-0.91435870195865743 -0.039136505456513149 0.11897393271468282
0.72552778518942418 -0.46256787619206241 0.67318033498596641
0.49903752384173572 -0.30529893347156811 0.32396246490891478
-0.16638953212264562 0.57986684053030224 0.73611683293924202
-0.12578790317918198 0.51970961151444683 0.75325610607337978
0.049699977062600986 0.84281227374431822 0.35996293985935779
0.15055721954522827 -0.079183058638255588 0.76213858253188604
-0.34738267256423683 -0.22892090012627087 0.80430126800089852
0.76022418762962829 -0.21771121831048035 0.68929251999824359
0.11808767741248261 -0.20445167475515014 0.75074788929132019
0.80234942376857354 -0.28926124642095363 0.68566716499043423
-0.91166279369891523 -0.87108814176584204 -0.4197491128647366
0.51541948944529814 -0.57875238339150314 0.67164224332596589
-0.65431293222711773 -0.65344345810099469 -0.30006272679217005
0.24933455124215342 -0.39559163010362042 0.66647071417064829
-0.22062065095934535 0.70507938155572702 0.38214288255217532
-0.49267006605367314 -0.34181884489409597 0.68245042391751198
-1.0023671844039823 -0.84050878256588391 -0.44733195388831248
-0.62769548007562115 0.11381094068120845 0.48095603440051526
0.28487745287442223 0.11351681486183018 0.50411986448175128
0.28332590742495878 0.065199314043830725 0.61574000060778644
0.33587973527301607 -0.27575825529174303 0.11160359138907872
0.35092169544462237 0.34670007572781714 -0.25207046360691798
0.31186627469017747 0.68779055917983634 -0.22167906717246311
0.37341402000098078 -0.20180400670614507 0.74111617381230133
0.01379802096879601 0.16470067255301757 0.75276844409988541
-0.54950509312198692 -0.10860370637528405 0.72851238827531617
-0.57011734136470338 -1.0010751914462883 -0.38774330425785575
0.42507597849507128 0.031197835638336002 0.45192496597869258
-0.52107337669659515 -0.7936552767537961 -0.33662291919823684
-0.26947536355083113 0.26645881683578665 -0.77404956616222265
0.10282142843936981 -0.1906028809990552 0.75260681079786451
-0.43486091776909763 -0.72901638639077859 -0.30831692888311046
-0.36116043029564082 -0.63229148750123798 -0.13412633784121297
0.16695612602455334 0.27613792750471156 -0.61496290578349022
-0.39376735491030956 -0.67537517632357691 -0.22836493892522114
0.33493551134670962 0.48746476943288464 0.26584456982807581
-0.10331748295945697 0.20215741379785968 0.75882349431818774
0.52044389545899605 -0.12226681259406469 0.3497878374980683
-0.37011981619074952 0.33003621568019703 0.79062945248346495
0.69172314513023636 -0.37232485200773757 0.66303265183872107
-0.10733974331565754 0.39427818949264548 0.81342330870123192
0.14472728307928229 0.56079399781754979 0.61982448901264675
-0.37809091725338595 0.41831826131607386 0.62799305065026445
-0.27875462448651378 0.40905498424081976 0.77757605331737878
0.72206307311008011 -0.076298870446141365 0.46701953685084874
-0.43032230772852476 0.388955201079348 -0.72491432651383292
-0.12050046957031579 0.62498003777148092 0.63944614441937375
0.43053342172596665 0.5392184839748797 -0.24395916911052495
-0.84084027908937919 -0.27009281194427182 -0.40583838135658468
-0.32661392053621796 -0.3056185314743125 0.7349832849601885
-0.72182392690289388 0.18777996338034519 0.7567158246119412
0.14504288230194184 -0.36891964678027112 0.33930955540784424
-0.53252627977051059 -0.3322614097575709 0.63154997814864089
0.49739103654582628 -0.36435841069522468 0.73367118485012384
0.51732152265067644 0.80399620999750709 -0.26436732048164657
-0.45874161748199782 0.03795883462919214 0.77474220021657025
0.89576707029079294 -0.16831345282319532 0.55446061066653485
0.59411341852153399 -0.023833602772546314 0.62568242307593813
0.077214423084086548 -0.29018254283295786 0.58073969270776082
-0.2024799142671263 -0.31096925230351857 0.70423028691962131
-0.78234949226188988 -0.67859639986726883 -0.3303928650175143
-0.31181902987122889 -0.48421668683733721 -0.45677257169466579
0.052172167252319213 -0.3591316315993236 0.41139959920799285
-0.31280051925788399 -0.66623391187712144 -0.15896508774113194
-0.4774376947450758 -0.6508801568005893 -0.29892719789562783
-0.63355936093019771 -1.0341942315233918 -0.42593203565695958
-0.62377360534888382 -0.29214276328788102 0.69079048776461427
0.16922166160734076 0.85387566175031537 -0.16465406115705505
-0.50015604370318201 -0.29169612043852311 0.7030483423659124
-0.26234402906924359 0.25306500342619387 0.79368353037150108
0.65364266261039816 -0.4708839048606217 0.65403460175941497
0.3716611202632949 0.98497589443555711 -0.3791295106540673
0.78348578615148945 -0.35800057554004994 0.69557054982993094
-0.23279783448780567 0.48985256514218278 0.75654189104683311
0.69132132938227997 -0.48339833590386183 0.69896237076775414
0.10372308410107234 -0.18779189674727981 0.76519169326756042
0.66285547775714271 -0.45496428011410162 0.64937728229259406
-0.040934753911894717 0.34331846114434761 0.81344252676552031
-0.560743487705893 -0.54909956809500571 -0.41832586813048245
-0.74603630514908303 -0.56692853538480392 -0.36510374684646951
-0.46153713861997314 0.13558817141688628 -0.7308841421065857
-0.17500615778606043 0.50350686105762676 0.75186220408565774
0.047764102576401513 0.64726703244341621 0.58988847701416702
-0.2426008443287726 0.38880432637703066 0.77252293158944951
-0.28184237770662257 0.79368940180620484 -0.49351530356489093
0.25407723596442011 1.0579116756303648 -0.38761449589140895
-0.55282266930396684 -0.20622693937410652 0.71258119340070714
-0.69029410968846072 -0.54372618188628863 -0.36032218748595035
0.784604761340713 -0.44996824553505554 0.42606017974354238
-0.66823212003062871 -0.58110930052913545 -0.19969365570202413
0.36711364279920389 1.173921078608025 -0.45859561429258555
-0.36215175238240338 -0.67320876594886059 -0.19521606746587317
-0.39438507108081833 -0.36688168506105967 0.69663766065805
0.58542674485459401 -0.043836967217966816 0.6547245528995127
0.77036239171909848 -0.41735623439901914 0.68470699023672665
-0.82419295485718447 -0.93899910156404331 -0.46466852494210631
-0.70209881802037621 -0.59448608668454028 -0.22456602132456638
0.38609873981044096 -0.25863021669886699 0.74083735601381662
0.4018943927840315 0.64634303227070511 -0.1983177449235427
0.034092858837437401 0.90307304473171612 -0.2796486456981544
0.3174557502627664 -0.12711185547716575 -0.28857733729601698
0.28041028805226986 0.88510266300793639 -0.3207733369789203
0.35883451304107972 -0.29962349890763917 0.73645063610599237
-0.098258841855688228 0.58089318856379712 0.70821008155358456
-0.39528442991137602 -0.008411765015944539 0.7653189843698982
-0.82232097957121653 -0.57911259719493202 -0.29205934302121861
0.1459264949143968 -0.34557540163218903 0.59832519541205009
0.35032043859339623 0.25572957582561706 -0.27586884979189286
0.16546975543856579 -0.020098297629322914 0.79761278284092541
0.34010407881095084 0.8745528368673412 -0.33276076465636351
-0.47796405229406869 -0.569303705445801 0.36560634005062198
-0.080831594270097895 -0.27005701439564866 0.70969445083099636
0.32692846624086336 0.031296069684094263 0.66518609130864803
-0.49003145129462666 -0.65833155726686954 -0.31609314362993146
-0.67869456727513455 -0.34245907276635279 0.69400554496086286
0.13176393979819245 -0.28850669490651804 0.6687667323848494
-0.63838189873133011 -0.21397121858006329 0.72061493259541365
-0.44164409017866291 -0.72118960637892826 -0.29837435529284306
0.3197309997335438 0.29441447306101765 0.39093601432728242
0.30708668494560065 0.73759191540970548 -0.29445445713352747
0.32316322520684793 0.47610392993263595 0.47568725072883034
0.80639389771607917 -0.34916452817626098 0.68701969046597533
-0.36576291358634627 0.0066218538963127571 0.7384354826187991
0.090482909401555567 -0.12131527011686849 0.76035670354573881
-0.46623275962985566 0.069967936212803394 0.78106603041738154
0.41378253611401572 0.71832729869917955 -0.29255743909470766
-0.2291419326046471 -0.34245334302493369 0.69242831366768876
0.012617594065130078 -0.32387253524362869 0.49337917555894961
-0.086920756022310641 0.04580679597782833 0.74470067527425243
-0.22975184821088979 0.64380347363231394 0.49190244937104133
0.034779886146499628 0.47832181212324798 0.78423314631492858
-0.19036729179122291 0.75688104963317215 0.63025173527168477
-0.48119493077610365 -0.91082982019140601 -0.30171593287754916
-0.31462371109672471 0.54984564982361839 0.78472221423394117
-0.17721745366362462 0.74263209514042217 0.35059418571111145
0.076187223774748958 0.38815260286051689 -0.64798113328583185
-0.18767628690999771 -0.17000496622246963 0.71288304732430419
0.25874886226813842 -0.089096723679025658 0.79769931477927258
-0.81971001243352504 -1.039063715366499 -0.44505110212748189
-0.89878069769732871 -0.057047361732992741 -0.3900028568926821
0.42775733433208707 -0.21279120165648813 0.2688417488734629
-0.31454184871454594 -0.014695286403172858 0.77506098544000857
0.34735529096579665 0.34192922554848337 0.22997006072184512
0.23055958290369993 -0.014685036888231195 0.80869267026484515
-0.22265621399782365 -0.21989113975608632 -0.66563760959137142
0.17932448248367816 0.40475095125192517 0.69258417698020303
-0.30979100365171064 -0.24532050027871399 0.78094960665576352
0.65705295316592505 -0.6877628842193606 0.51715690238493117
0.48637367996202574 1.1581320343168287 -0.42063868347870859
-0.00015121147668484269 -0.3011027964610804 0.61588530008411979
-0.79593206242444126 -0.95478604269486489 -0.45407686294272853
0.056020130027235382 0.28086256968136247 0.75415608473418771
0.04601088442186807 0.36528892377469369 0.79843615787093647
-0.19339015549665772 0.44625513584536947 0.75967969305988881
-0.53488830492192019 -0.93570143042413534 -0.33462301121877225
-0.092449024326345608 -0.44404790188879595 0.31728114698573329
-0.46228380697227323 0.052905448790133036 0.77624058589820244
0.24438012453115388 0.0065867235155945281 0.77251609606248017
0.67993488935290181 -0.2185950985174383 0.36988167547384165
-0.74629279704448948 -0.85691425199584081 -0.40835661526014544
-0.75329669163709934 -0.31736573299553328 0.65669604662869574
0.6924064775265748 -0.088133409546252928 0.6459541131868427
0.048340839592301066 0.69706748075105551 0.65738303252178554
-0.73675949298040599 -0.47213977241301208 0.57690061437846474
-0.92011351884269743 -0.76544564410310834 -0.39326741731971726
0.46578003589501726 -0.22680495805360756 0.73803455646381622
-0.062473825006424732 -0.38064300301374665 0.4763833061017948
0.31802868397035589 -0.096618301445529298 0.74272545802531198
-0.38708181529157581 -0.27293747452880979 0.77939671728099569
-0.51256722521567433 0.2015351409984838 0.76764820735751549
-0.58005819365448463 -0.27317488264825407 0.70401645438201399
0.92838957487557927 -0.23993181314282808 0.45954058246534579
-0.11551385931151525 0.73436887666753137 0.72402719054108999
-0.97196006145041203 -0.74877606506506389 -0.39782697484287954
0.0076200570274824742 0.020840644989622348 -0.7223558159291219
0.70808867787352803 -0.30485200239975097 0.70908194644087885
-0.35811260985824944 -0.1882939733959148 0.81603388072202776
-0.91018456040770612 -0.69880935355254437 -0.46935351602446929
-0.77875812669225208 -0.64717590856694684 -0.2829870831511716
0.36846687977860526 0.020836034025803585 0.66067389065334936
0.37639245141702649 0.46534347687726729 0.040222528569975324
0.20431256102085449 -0.37731440895369683 0.1456712279212784
-0.7147535778826466 -0.66616077629070247 -0.317895787501703
0.72859786726557907 -0.46462764986204697 0.68242766943426325
-0.35709976888497774 0.063703482654775101 0.65602583045940221
0.36831307020025861 0.7543298517758501 -0.30318093741742125
-0.84785850026002008 0.26735981314900314 -0.39949858144178307
-0.32657415702511905 -0.4147322115886265 0.5875764264552874
-0.57928683913817736 -0.68885798012351529 -0.32933397415470722
-0.70080810811161065 -0.50572046309338248 0.55516310511908351
0.78371484896913834 -0.38999073737814882 0.68964228833386798
-0.40871748279578046 -0.72951028381782024 -0.28870565511044255
-0.40380630029882525 -0.12750928769448855 0.82114399507402069
0.35343786050162151 -0.4069065738576132 0.70695688374916976
-0.94062485837631016 -0.16818720189424496 -0.19382402137046384
-0.66747749021120306 -0.76823996770698777 -0.36665073430642625
0.19508689238852384 0.94518631159336586 -0.254533346244882
-0.09318944890182479 0.24627832145799999 0.73601140719453362
-0.26734934692824375 -0.26528788412526794 0.73528630650222482
-0.44776463764512031 0.46907079346162206 0.77090690129541528
-0.45289963497529939 -0.78747041380561988 -0.29795141195156116
0.53882599214817439 -0.68785102843049062 0.5769891433091523
0.43020459044418757 0.66465277514727639 -0.18474666707271403
-0.52478198887249405 -0.051974894333433497 0.76055413665572402
0.50138173632630867 -0.44366882539133368 0.7217309134361507
-0.43466854287192369 -0.65551618512159315 -0.37422095800342436
-0.24859286240621792 -0.14147140448371331 0.76702541493149745
-0.78970291040545071 -0.78146228082626301 -0.40996168039474767
-0.09934613918308699 -0.15582834697145387 0.75601814701784953
0.16921075307715405 -0.072778483812124151 0.80688194687714798
0.58104261047492489 0.95976033366317814 -0.4460430885176434
-0.41720723913934066 -0.73040895720185617 -0.30286647091737517
0.095453782732569437 0.59904080771086754 0.67060597939511979
0.35307830315044164 0.61721768656618714 -0.14457515226788153
-0.12125494837266171 0.96202471530835965 -0.22029549652780389
-0.40599969611665099 -0.67089741103466061 -0.2322291674011403
0.28177171879922458 0.48877676633917844 0.60116908897168386
-0.27235902669589152 0.016949083310201729 0.68102013835322595
0.027213716456851778 0.20307631881473576 0.75034482060198648
-0.31256828872792308 -0.52244342819556522 0.55459217748335732
-0.39152413630812966 0.63127345486949871 0.62348180242990736
0.47371329086657799 1.1324084177438039 -0.41604776867756854
-0.62117690025300121 -0.43085771305314502 0.6468018539170366
-0.51253348770139517 -0.96852651886084296 -0.36409935613953159
-0.72181960594775507 -0.97340583476142584 -0.44621606316961948
-0.44089598875962999 0.111359968911243 0.80175552679087048
0.16216998224170798 -0.072283470511701253 0.80025335534533859
0.035316261269017879 0.46576771591305821 0.78802926790346817
-0.7338004253558128 -0.29645409330715822 0.36466597138335288
-0.47331747396186774 -0.66227140650357619 -0.28958085769559716
-0.49214548035309225 0.064831924366421489 0.77910443278917363
-0.037663024117531307 -0.33377612607111828 0.6053256375486189
0.22491156111171051 0.75400441728952572 0.35646738635115938
-0.46457226034876697 -0.7249853533579742 -0.31691790255586749
0.28357652628542596 0.088311792136634537 -0.48120534222460165
-0.38929210554946625 0.2116729593896185 0.73760692761847757
-0.062432764635261151 -0.47900981259382647 -0.1331866338312313
0.20048948789010446 -0.10448892832805434 0.81273027784961549
0.51435667917245809 -0.63833409495077831 0.4126543327338652
0.60369798187297974 -0.64363040141206751 0.41666649930634847
0.19404614665679354 1.1873379591343856 -0.36926920447706735
0.44739057973460827 0.71967254010868409 -0.2488175585728829
-0.46317169202607644 -0.70411726589498791 -0.29861846316147389
0.60214143545978516 -0.069863622201223663 0.40898266265286587
0.56855738661460009 -0.69816798655191326 0.44739105717918548
-0.32378254583525568 -0.16929276072682242 0.81787110566407684
0.48478589448067133 -0.25494255910198849 0.31600262358792719
-0.49859817492905822 0.024440469530567555 0.76991734645984344
0.69633367130550994 -0.62669484752749716 0.47242326066998075
0.15961437011043689 -0.017873660654306178 0.79150728344315979
-0.59186570789469428 0.12576651045299059 0.80777246472976927
0.34747376296072918 0.91980535878853509 -0.35040907886986616
-0.063778396636744006 0.20228607985565539 0.69652642503567819
0.12598542419655701 -0.089123295421721593 0.76259193134558778
-0.62540514108497725 -0.68030670901152135 -0.32872391911490073
-0.31736286869508312 -0.69248788815706419 -0.15974384923203111
0.5419437219169847 0.70197042990655234 -0.23764440113188279
0.17448179267959851 -0.38551709492021402 0.45138410799421713
-0.4164775786273518 -0.71876696187773526 -0.28442917980963855
0.0091410336307617968 0.5329326815099833 0.76519439364114028
0.44666136812665336 0.69801150308841464 -0.20186497255268776
0.059976003447369308 0.3085620396332871 0.75292346554046752
-0.53317497281022241 -0.85189287695601124 -0.36710504656730514
-0.37426362876813668 0.58646170188904811 0.80054733858471039
-0.76105762711575364 -0.40359725261357937 0.54810477652467604
0.91572553881033336 -0.18895951162082092 0.54946970260256833
-0.11034060081328123 0.62310768579236075 0.7161796686162365
-0.42414612854385947 -0.34987258741107929 0.69001266009094486
-0.63048834797297815 -1.0253418918716131 -0.40526426836971741
0.42101393881750582 0.68242922278191642 -0.25412512545487331
0.79057894110229299 -0.19979357805499909 0.67036342605958588
-0.54989370536828019 -0.92595479002314818 -0.35183189449740571
-0.96283616268251571 -0.94291036312129961 -0.45814534676160612
0.088248351340922682 -0.14187308885900229 0.79306304121304905
0.45755519026820934 0.97934907053898002 -0.41091679851855822
-0.75354526061144078 -0.48832585863730138 -0.24743643029629148
-0.34397104002458612 -0.037324220428793353 0.76981318643839813
-0.44765954533509777 -0.010226831987996121 0.76637178379397675
0.29565344651134229 0.65704057127867443 0.4902136760890734
-0.14065705093484215 0.31014940027500337 0.75441834996061985
-0.32425207143230406 -0.38884378266936181 0.67736904336098291
-0.59130663638503034 -0.6407965825573374 -0.28505955400496319
-0.90385364484396469 -0.77340021117728242 -0.40125127395038529
0.018425502986806563 0.22266345673950028 0.75210545674596752
0.23920231967025618 0.041539811170313357 0.72361710544888069
-0.9201892453955054 -0.72481990346549097 -0.36890357363040849
-0.098722384669978958 0.60554768834245287 0.72701149738562343
0.79194827699528858 -0.38778507891651426 0.68831941048837209
0.79296317952709927 -0.35448984302501518 0.69357461673555498
-0.2481410214210058 -0.42415137391139268 0.64145400113847906
-0.081675388350364475 0.79758562816890866 0.68045095089883212
0.45250734011646454 1.0087645324153467 -0.41987144751863603
0.15979226194625484 1.1091928099952604 -0.31900055567662911
-0.70083625406434735 0.21225621154645324 0.73372133737249712
0.32534270382640607 0.7161005929035209 -0.27923094369356782
-0.47129043231186252 0.0092143969384714808 0.77352183536500085
-0.7413645606919248 -0.56148538526359992 -0.23432844675888376
-0.68316298462065905 -0.97273383669938873 -0.44702564246140408
0.6202840955837523 -0.47919537845346527 0.71894961837023352
-0.26698649009412634 -0.064682868277175842 0.76482871798403629
0.3172903934554725 -0.034857886795869319 0.73141688713626252
-0.22916258408699619 -0.59742087688589507 -0.11806846081186961
-0.59604674381554212 0.53508686056209598 0.31590990869169033
-0.46738749089173304 -0.70906982273759134 -0.30867202141448136
-0.071202643187049386 0.94850349137265511 0.018600403987276692
0.48925772747048235 0.60652102082304715 -0.24526809846813968
-0.92820331175962689 -0.87085726801781504 -0.41629544747366687
0.31540327977818272 1.1038386098384443 -0.43267821859457811
-0.46260406437406942 -0.24294475656000714 0.77652569242047065
-0.37231977132260075 0.89470013544275773 -0.011318156704909654
-0.5370842211563458 -0.27828318069102131 0.68327428871483242
0.20726184278866278 0.73573574135174091 0.56276410325184401
0.2079782384800124 -0.041980138689749147 0.81321958702808139
-0.49274903626024935 -0.034104940962308206 0.7442375446698879
0.49392307579423722 1.1361449674669863 -0.51082243523169346
-0.12946603735456907 0.42872069463287943 0.80728490438948697
0.41129524663975481 1.0439314759354339 -0.41437377162274736
-0.255407969393592 -0.034848921127068166 0.76832226933569814
0.59419293359261971 -0.71894461307669033 0.53720215849388886
-0.3721565888685241 0.24387292073828171 0.65230281103779575
0.027450792708905603 0.12935036125020005 0.75479174664579141
-0.085003599694010834 0.65341501348645359 0.60536960296295383
0.65230819898087056 -0.64046088650359012 0.44038062947368317
-0.51982320830756734 -0.86257389316461008 -0.36492257161022579
-0.019093863059068461 0.65189450910376046 0.69110515999252975
0.5920254989928555 -0.13675718352989641 0.7082020525777466
0.19226069445200444 -0.18488766672917478 0.79503215166642427
-0.61000066008796772 0.21520113424336706 0.76671355850534795
0.19701479357194174 -0.4156251274285454 0.48997749053880035
-0.64939620104497031 -0.53660475493000526 0.47857826000455717
-0.80278366415842894 -0.056186117322495122 -0.5035413159168769
0.15504481488063693 -0.017469926996176 0.78426863455822193
-0.53008065507319913 -0.047161189349367305 0.76134002676915458
-0.49694125579275972 0.77220968221245911 -0.38271182457773634
-0.39166921790649578 0.33201949946971254 0.74310802796382092
-0.12215617253158406 0.90053436015422506 0.13636426431026649
0.11007198781349814 0.30139077225557642 0.71384491345360246
-0.21040061800909893 0.3963276793600361 0.77036130802427039
-0.99251171700438512 -0.83609946410952674 -0.43154319223170656
-0.11058819577206958 0.24116408426379721 0.76704710150425726
0.05100471490273506 -0.19932422188817611 0.74347626489417173
0.1547563112367305 -0.096123505524567499 0.80691169049864264
0.38601771913143246 0.49166040373980735 -0.036914030481506543
-0.81110234501545975 -0.6464598883826973 -0.28728926364712493
-0.46889655878160497 -0.11887552617704955 0.80797873429949441
-0.48867375186787632 0.4471487336729929 0.45434801265520797
0.41188583963935521 -0.41327237473689582 0.71746197052910965
0.51483056812394956 1.1941442774191717 -0.48977215181728262
-0.18254712008714513 -0.53932642564292266 0.1117746054975548
-0.52154415556901634 0.20205059185594898 0.71186054941009047
-0.96301413227043797 0.031927365613285019 -0.17461795978742423
-0.13143026615346409 0.49297259709550012 0.7701035697705052
-0.16825099600486482 0.052030715997149812 -0.75878616700206081
0.36489168973012731 0.27808959903844155 -0.18469366022799427
-0.39373604860285116 0.19015699006467202 0.78469228833987081
-0.1758254907388066 0.45128756564673189 0.755981769268816
-0.54260409766586459 -0.31712407338472559 0.68789550803382049
-0.76572709733891431 -0.40419670295192311 0.57872646571108888
-0.39027093524173928 -0.51172960321193628 -0.4585534017661077
0.24259775187016253 0.88024672567444107 -0.27731667519094572
0.84359175917933094 -0.39378550255378508 0.44444513007431929
-0.60626030297893996 -0.21575975126458857 0.71432386969177841
-0.015922682210638417 0.86685882662697722 0.57433786427608524
-0.66578036001787044 -0.68801862659859303 -0.33691445872961623
-0.73796752580779401 -0.4749687890283365 0.55037555930385018
0.33624540632220956 0.65272256958946429 -0.35068501400179031
-0.49669343559678225 0.15133800598838931 0.59742965284123528
0.46844339403332746 0.031022706345844142 0.48784999215779834
-0.98644511493699927 -0.88909433037241747 -0.44587845055455677
-0.095315086452556042 0.78350601243521112 0.49884422577054721
-0.28316678750064961 0.85697227244433449 -0.42703862514763813
-0.68254844843208939 -0.09302124356499597 0.49628612004122807
-0.30738618795305062 0.18389708539639038 0.80377226425618531
-0.96094430260471153 -0.83210952798504501 -0.41447268551265104
-0.32142133071735923 0.40998858656200632 0.80124215121487907
-0.8259876728553821 -0.1705214819163654 0.21966893442550628
-0.85766680224380831 -0.86109846138362656 -0.46780041168510156
0.7629479080544801 -0.15016472185715113 0.65940987442936816
0.24907411315604833 0.58896770371406149 0.60144713408539907
-0.70985714457793847 -0.51204108092259837 -0.31455311414150167
-0.095357290783844029 0.59882719065923418 0.7320277176993919
-0.17119423033411607 0.51519681554609598 0.72880333309165657
-0.34781415292712481 -0.63439781063975254 -0.11947371010257513
-0.76954667790035636 -0.70069895922602043 -0.37033247623758037
0.63928396943083321 -0.06526540357021382 0.65065002811378037
-0.74022851542438017 -0.15989650347445483 0.57657848985776461
0.76600082448219098 -0.40430874648918858 0.67052393751314554
0.54038101084972379 0.99264984407827939 -0.37592540515404416
0.54011522401791723 -0.11566749765812911 0.71241152383397832
0.49865816238302241 0.66698994521250654 -0.30245734163976046
0.057786776438117471 -0.023283431101054575 -0.69149909828800826
-0.37740077038238606 -0.69046800648253104 -0.21793317675133039
0.032004162018662186 -0.27899974224793578 0.62252994033088171
-0.37726867679296028 0.2965174870457421 0.74126806366121478
-0.53143759625793052 -0.89858950790393077 -0.36566928298189971
0.11513453996953782 0.86675888530307788 -0.30088711315652716
-0.59918474673053801 0.041301625620235427 0.56257573179795628
-0.75711770642619225 -0.63853204353502946 -0.2692865510485376
-0.41333461037114461 -0.00079856004659184521 0.77031428970404114
0.62388018806488965 -0.46948236124643739 0.71975157519563737
-0.4544553025904845 -0.60538007333881616 0.1656345123506906
-0.7056493837926503 -0.77845028859147369 -0.37716194124369817
-0.18548935077830908 0.36562212051100218 0.76257617316242943
-0.81493216341497732 -1.0289067548880055 -0.42929571947606782
0.021939361032943694 -0.31533599340467688 0.50516360853709408
-0.34653734952463733 -0.38765319780489627 -0.55477860143989588
0.40553394019006639 -0.52599984819152112 0.65934222049351376
0.46491655082668615 -0.60801788751777863 0.62405404435984657
0.041275264725127769 0.17547140489396895 0.75256807596871411
-0.50514882927459936 -0.6426262738260089 -0.31459752332172108
0.16389607767690073 -0.29031526709799671 -0.38271448500814564
-0.0050724587788817388 0.12235891830604828 0.75090616618553163
0.1523399144177251 0.16756058946468677 0.74242480747199124
0.38567706034199478 0.59986913618331705 -0.14992606071891501
-0.30320469700188735 0.06810858853145163 0.77836302181146877
-0.711289449923874 -0.14639806155735258 0.43198026544571988
-0.18257214646059339 0.28790823009355826 0.77250259763446572
-0.52051905999573123 -0.088953239382068006 0.75058781814202113
0.4704284664020344 1.1065342932122721 -0.43295397880636521
-0.88498657306490358 -0.1886247021959413 -0.37744616076018467
-0.036645293992572547 -0.45415164826955312 -0.22876007343500504
-0.67152920094915114 -0.56993707134417981 -0.11897306347017533
-0.55101099103114271 -0.051023772161819636 0.75686264316151686
-0.21441238483233249 -0.30012738651668869 0.71115480324202807
-0.22884032065920756 -0.1809501428966005 0.76182219031423415
0.017258419183749041 0.33637301759291205 0.80106511637839262
-0.31454596210499375 -0.043157069642784762 0.75496315444053153
-0.58276798260965679 -0.097137726721772566 0.68721494913881642
0.53462048935556972 0.78347578696088682 -0.25060485148370049
0.096297628812377134 -0.15359920197738663 0.80007115235100024
-0.66637647897365682 -0.51830022864117353 0.26591451912171671
-0.56639044204079569 -0.14837361156692452 0.75171733424020282
-0.49940016734675741 -0.35555698917379708 0.68535896975206789
-0.99613717803131063 -0.75082208197124167 -0.45445073821372528
-0.37785071743665477 0.90374289464338631 -0.083294921529619259
0.18352224315974208 1.1378410824659575 -0.33926487537984862
-0.61987539201346609 0.70666873607930825 0.062486753344265011
-0.11905355704705922 0.63510813951445755 0.71579401562628675
0.75114480979230791 -0.3789678747006735 0.64512237189199517
-0.018189665371420638 0.1901764206512393 0.75232897937539356
0.15900435951714087 0.37522069721682527 0.70964668932790431
0.10324957974496485 -0.31404424285456045 0.57127610114250693
-0.7820350345860021 -0.98054012127712298 -0.40923553333674167
0.18792286896523702 -0.12683913805606473 0.81304829368528431
0.39449385114146107 0.85496717271137612 -0.33383593419837254
0.15640909938613401 -0.030878694602101575 0.79294955887840324
-0.15918875582808578 -0.45795959962118893 0.42501114926018602
-0.45781624624736494 0.18082926150425926 0.60696818233805772
-0.46326373822167 -0.21649167669569991 0.78951206551298547
-0.010535150022403794 0.82791656318770634 0.38562462550894061
0.050583105330672673 0.36122679323745466 0.79367194535815599
-0.049794788856822869 0.93244311570574823 -0.31514407588178983
0.88618618480795419 -0.17783631670561473 0.58617958301534223
-0.85449985756192515 -0.40551455785650425 -0.10598584216330487
-0.11229673338177903 0.17725075873199003 0.7573002423419819
-0.11129569485871738 0.19714093033312885 0.67780012933291367
-0.71966951185263728 -0.21570736903766274 0.4480130209962887
0.47935190347154943 -0.33218383341213809 0.32489076195968103
