# XYZ point cloud file
-0.80223942410617077 -1.02158496864977 -0.41641618831222083
0.38482458362300775 0.15600870998633365 -0.11977685905640811
0.17554716089750499 0.39865077096363244 -0.57687890913125983
0.15525805004346438 -0.014458605321495455 0.75952930451227019
-0.57292323084222652 -0.039218444123791052 0.75427220500768399
0.66101471010851753 -0.41272206773743747 0.36062320195258835
-0.67698113745371913 -1.0039450578582354 -0.39193230902784038
-0.33885133999683248 -0.021994050857647274 0.76863915033287356
0.29229175209260561 0.08635427409486951 0.50850963220342749
0.37304456835240885 0.72601477940361203 -0.27189429686947797
0.49107106010216484 0.80382076908124667 -0.2917850625483478
-0.42324450619493703 -0.57662226789231408 0.30117787659086659
0.81499326414999373 -0.41871461713496538 0.66109292963084876
0.88792340325095509 -0.28636383427872847 0.42631026120779936
0.34585201721297665 0.64072407579509871 -0.17361493889293733
0.71640150981237838 -0.19190131054376858 0.6971982871740785
-0.44839630814400522 -0.87053565538090005 -0.27052529156200222
0.59640973444595602 -0.6641429085185 0.6244190407870196
0.029382218071212662 0.26329189448482015 0.76105428010543719
0.76382652004935636 -0.43093918698425426 0.68414878368815835
-0.0063748862832717634 0.63370001315038138 0.67899397592368871
-0.27311834902056553 -0.054140543538004238 0.76935082208257555
-0.088368691170735758 -0.013092054777088968 0.74435678743511247
0.18666175757078562 -0.21346148135017984 0.76106335864096408
-0.099089493439800336 0.52315063422004204 0.77017554412336864
0.41991596715125468 -0.44475542425694847 0.35881173616218298
0.19948058991595374 -0.40359558246710758 0.59790681868988571
0.31066662323287275 0.068235109277199335 0.54400288876948011
0.21717014133463408 0.85762340187639197 -0.23674987490287336
-0.57771236794904546 -0.0083449165008042669 0.62650144390612184
0.58528179872693187 0.82400268562918821 -0.34476860338174831
-0.25645078435507074 0.10645616046098727 0.78150877753397907
-0.12640123889610422 0.20857553018516395 0.76211292648251217
0.14877830723942864 -0.024521880676394048 0.76832037580287249
-0.44941545055589138 -0.37856821093070092 0.68327386895412801
0.48896973621627993 -0.5603611042933947 0.67344278080192588
-0.74939723971369077 -0.15636951806520827 0.69787845475429933
-0.85108608694931398 -0.40428925939570881 -0.16440916541659156
0.090148589038538063 0.26199830810989422 0.70000748067526075
-0.4830399615195855 -0.62255128909001911 0.044695841123742142
0.16965306965832028 -0.11969543920905767 -0.55000852558623414
0.53921634831153753 -0.20944524680660503 0.73182382964053971
0.47465326449529854 1.1111070571673594 -0.46045586128773408
0.47634281537470002 0.7719968833501003 -0.26402315478591376
-0.29144491680943219 -0.048304237835043118 0.76585004896597653
-0.4108681240743195 0.0860043569500899 0.79083645566134209
-0.40564375881606907 -0.88888147535192275 -0.32707340250526862
-0.96512802090486183 -0.72122193510058796 -0.46308789180396381
0.25578140600686439 0.5434535357414001 0.6112867828495645
0.64427643059871897 -0.42059783861964473 0.67661505680298895
-0.21627146672300412 0.45271787408121966 0.72329209614472134
0.18236798466891457 -0.40542417406314435 0.52503165893842763
-0.61244362553605391 -0.79481309081920148 -0.36492615301419562
-0.54097706197370599 0.009871033305247856 0.76458627295676251
0.079760262040485586 0.66772752376010747 0.65793462174969619
0.66660564909347997 -0.40994298373707938 0.66343813441954502
0.27124376159213881 -0.17345922600406816 0.75040135660687213
0.44017904988977818 1.2104770106455689 -0.42574317961115149
0.028997457721558817 -0.31062433868641559 0.51009486894855982
0.71642126501798131 -0.47381937297753884 0.68395130119288439
-0.58116191637768466 0.17205061879963779 0.65163329891588262
-0.44466371077452216 0.87652479714455822 -0.14194238867500175
-0.041704939479217273 0.23427315002214044 0.76425038444066118
0.63143591486089434 -0.029981310558718555 0.47663322390117102
-0.5966052049705084 -0.047681511265917464 0.7546695720054295
-0.44138411047270765 -0.16296074291341078 0.81049618882070362
0.2595601586638594 0.35094795519233468 -0.48717165036428867
-0.058034651577756335 0.25497347662466829 0.76087874492519347
-0.2347570924059994 -0.31428842839345794 0.68310248912541738
-0.75462261360357274 -0.42236823497427256 0.23724572497625296
0.39734394756446534 0.75486882396394073 -0.30533025757424959
-0.62234906456301253 -1.0041702884037473 -0.38108864759832883
-0.21612351508527894 0.32137601944105043 0.77466984371107372
-0.83882219908452527 -0.42787382843932953 0.006940017364941653
0.108560630948773 -0.18196619653614032 0.79951352471066883
0.31776047647017691 -0.068976834516487173 0.73993620816582606
-0.3254939001807351 -0.23181708571557635 0.80355268316720796
0.68740627437426838 -0.51919246269920816 0.40177685190627166
0.18061858501818762 0.37310466194561798 0.69244000453590004
0.28604203225355818 -0.043040682994363699 0.76969122118477529
-0.13898945996552214 0.11493046532299189 0.75645445161063662
-0.27365351622870548 0.49902256438637949 0.76354765169243066
0.37740776332403669 0.7311548243289403 -0.28233066296888154
-0.17034535445418975 0.70396341252707906 0.74010785389091893
0.24631367373422464 0.0059760626076688084 0.74861419421415576
0.74785332378593949 -0.3187825079399591 0.69942477353324151
-0.43209668231015641 0.61457810092842635 0.6396011330900464
-0.51811711563063589 -0.39900997785997205 0.66347305140217472
0.27051790086835226 0.29513356463990359 -0.48970326590763946
0.316405008028811 0.98300604862171959 -0.36758107209809943
-0.22663873245674893 -0.27432601079820707 0.71255396142321814
-0.37289437267350856 -0.36037446609650825 0.68198787752130485
0.093977238238235117 -0.29021450920968128 0.60952575353515215
0.1697680459393851 0.43987139196481362 0.69490411875730729
0.28673525638233954 0.69895579887512316 0.16234448368712151
0.3757922617965832 0.59605896640063261 -0.12877707109593928
-0.5466657779205768 -0.051654321711193774 -0.67474382606516414
0.67594352312558925 -0.62109906045216512 0.63738639487679016
-0.010954174908071934 0.25057770671299284 0.76490124441978935
-0.73183123472783151 -1.0048641949905504 -0.40125153933839375
-0.29028975333054419 -0.15134245752182984 0.81068346590368989
0.7161986772784239 -0.35172928873331122 0.6532666955639197
-0.076925919019970479 0.52987943936529991 0.77851478325514378
-0.40507688732367875 -0.30414340076223745 0.73945508478264443
0.3100868305932174 0.13221538591905713 0.46343472125553831
-0.35145948782181691 -0.55092160574613658 0.51085864325183117
-0.11797313825984013 0.27874085949537797 0.75256638246160179
-0.58255493895434007 0.65158319700142187 0.22259990819059539
-0.50983123296247967 -0.62136135211883481 -0.25872628097318362
-0.091622228435490172 0.32546095948039877 0.78897451839493726
-0.19511207295312616 0.38426938870963046 0.7493390583516657
0.099650348438764524 -0.10702252479546193 0.76027202259909643
0.18802567169188933 0.99539463800162054 -0.27953332982254153
-0.73824324953349496 -0.32724076879723363 0.49512798494649601
-0.14446712032935416 0.59885095740258443 0.72760696935482372
0.48177559093146982 1.0357405306894467 -0.48699270347994705
-0.87703644861690577 -0.6651320857011811 -0.44627309386250502
-0.3380193423454827 -0.33294492333453807 0.70708173925834927
0.52494556655005553 1.1323280920462917 -0.42152556616082393
-0.58333437842030378 -0.2679325074165515 0.63587926364587588
0.94624247739618284 -0.24463164870449283 0.5170934706519219
0.34509144511210721 0.62664356790822495 -0.10643635932025042
0.37338204055937751 0.10995632402205668 0.27638842409124997
0.4129010604102703 1.1279383379943422 -0.45535571265714658
-0.30293346930885967 -0.13432885274162754 0.81609521237213656
-0.32260513139398839 -0.26423362756840962 0.77553423110843056
-0.73046159609435435 -0.60677357983773206 -0.40011141176482212
0.023113607450499174 0.70167801024149412 0.66171334692300832
-0.51463507318606538 -0.43393059035599357 0.6469762945666595
-0.06234231565992232 0.21855940256151474 0.71578297065074992
-0.41593612274105141 -0.42131659774168462 0.5742288587471478
0.090660464521892692 0.34099390731839563 0.73463489086299916
-0.82558654442266999 -0.12003649218380019 0.24712680251365526
0.023742054562184478 0.92295446496879485 -0.026891109828234505
0.24588438417492853 -0.37150552789248525 0.28646790557914947
0.20116222533371086 0.81632991511817288 0.48733459272517266
-0.078236872644628974 0.8029483194156164 -0.4944786427525294
0.28310362840434067 0.95462119511910615 -0.34985463181737408
0.52375958195009176 -0.48055435831457105 0.36314444978762239
-0.28358981057044907 -0.19149522477973147 0.79968364035508444
-0.58159455692250539 -0.95490309065022405 -0.36564138745151809
0.17845046083315808 -0.19213992452660555 0.7989077412258041
0.02878154364505825 0.53119483760237163 0.7527130448127437
0.31132074572772694 0.73229762104319462 -0.29484188159505287
0.17292974190823074 0.0041365284159633475 0.7848160009699896
-0.083818963540647218 0.64705500576325825 0.70253406805349883
-0.45092011088358319 0.26415780592332894 0.57483538341030638
-0.98825587898858203 -0.76424042898967581 -0.47925048465951292
0.52342881546909048 0.91549446201254003 -0.36942246722498062
0.0067825108073762408 -0.32390299149531199 0.54406825562779559
-0.03781733824057909 0.12028696066113831 0.74779289521633174
-0.91490184659379103 -0.9812473604434846 -0.43431726732373566
-0.40346346910880193 -0.28044537047062956 0.77038387768722316
0.064242331300281563 0.9013680921756908 -0.19101463004413866
-0.085753338801772827 0.64028191251470012 0.6296216062267419
0.393367195742373 1.1730494283201534 -0.46731736823125658
0.15917762064269958 1.0021570525356793 -0.25882967028046266
0.1405373095253708 0.83168325990252256 0.38768881853521009
-0.8673482575018987 -0.30259774576347098 -0.34042228462810087
-0.88581998107895998 -0.82363765761934982 -0.43581830637964458
0.67876980663203312 -0.41705369978241968 0.65364087857634168
-0.6569708285347069 0.069524799010396876 0.79886347586475992
0.051263087847228661 0.28662020334579275 0.75535996347333523
-0.26689761384107413 0.911915313450951 0.0092397224854217086
0.34641119413180377 0.026960360847757769 0.66202217973648558
-0.19471932550986004 0.38020889438411842 0.76297014408902086
0.23629115856054028 0.76452351465485702 0.42519192286690455
-0.54096972140497712 -0.65417076206470437 -0.39127631252722495
0.096172728127758234 -0.27500175260717175 0.64789504638677897
0.27559738865725691 0.0084367505455631431 0.73066154921848181
0.46071868143123851 0.018157089469797327 0.62989523446202611
0.74964921239475046 -0.43883530787059888 0.67016519429920329
-0.62337273619567313 -0.59014103635656756 -0.18144858331290514
-0.025379508932417139 0.33119948669612054 0.81162945722765301
-0.15465140244719144 0.21552991812379663 0.67751126539502948
0.67579501211928417 -0.35322493051246484 0.7186639058896116
0.090114153404940112 -0.1568821211932141 0.79478588113653359
-0.39075707272762195 0.67522091772792514 0.70771824515309589
-0.66266533965190355 -0.63291876892813548 -0.25994062040779475
0.2412843095151711 0.90388352781396186 -0.29591385815817972
-0.159673927354131 0.28078881072476047 0.77296796439525295
-0.34272602992878554 -0.27208166418175495 0.7786865152518665
-0.63842959714815706 -0.18733215907777723 0.59574457935311997
-0.37498207860239319 -0.5090263266260644 0.59026012781795956
0.25114473337027832 0.99026434012719911 -0.3561885163961076
-0.35973089324248875 0.89241225392560253 -0.29996283302567406
-0.40594806114401827 0.59654908900366443 0.79451923445476424
-0.40065160884217654 -0.25870034013499943 0.78890490576685224
0.019688204687536626 0.88846381740346736 0.14433575360110495
-0.27666958742115177 -0.14998711466407677 0.78956929947051435
-0.57098181083251731 0.78113824949643451 -0.035764884589941204
0.31262222382455107 -0.37697421522465024 0.70798292726356493
0.2949155111630084 -0.26761652961292093 -0.082443334763414811
-0.51540423902668131 -0.046374081903615583 0.76256980573067423
0.24438004446996331 0.76783853947578962 0.10623595199706415
-0.050440286325395434 0.36276179839102607 0.81753654479397397
0.21110739378121224 0.77752347228869922 0.24053257465372369
0.23061214984959122 -0.28428895286382527 0.72262914640978693
-0.53508458418113669 -0.6930043024995669 -0.3300200863536471
0.86471656430602906 -0.44047714087444811 0.53217558507643759
-0.44147576006528233 0.41310878931331985 0.50319736272118121
0.3767117796487085 0.035081129151020463 0.62911186359598759
-0.1235479702827007 -0.4990199252871319 -0.21177901054596404
0.79599447266172518 -0.11329260953295339 0.60717366610596812
-0.26411263568206422 0.40639659960768526 0.77233307936058893
-0.15517400541787474 0.54039035406119851 0.72140047551776121
0.4282375048198297 0.82365075285274614 -0.3227680506301116
0.53052648575179973 0.85834451869752648 -0.3035421424277569
-0.41837994272054857 -0.73578406285929532 -0.30336800826328059
-0.16779035554331756 -0.54288100933377947 0.026542432593874565
0.21770531425184458 -0.19169513543710526 0.77490982394750674
-0.48783718184982838 0.16512842640747394 0.64769116841631558
0.056090733286380257 0.66524982251330478 0.66645169960892403
-0.92332148809161296 -0.20394255105638948 0.0076269860901412301
0.0014401734284312795 0.78457705364599128 0.67842908860958673
-0.24392839289975399 -0.2133197675439007 0.74792765445675968
-0.23494486718889362 0.81287572908398253 -0.48095370255608749
-0.60981069979206026 -0.66336834891116236 -0.32064076633892391
0.0021881386759474708 0.19372182248129555 0.75241848928264687
0.11726402485751919 0.55789271144896624 0.67909332204650141
0.6937758959040039 -0.6067497992882398 0.63713212706538869
-0.78225259294523219 -0.8993703471494765 -0.44004403073717757
0.27628457464291323 0.76808145188568133 -0.2585242772012819
0.90286494241563986 -0.1706316603332052 0.48410333103319836
-0.68224375832148709 -0.71223156311985125 -0.35212003030695982
-0.068073954438931494 0.9142864645277573 -0.36550546835411168
0.12366181304518875 1.0418273448091231 -0.30276468533656953
0.26119901754942632 0.71714087888019939 0.50653817476479546
-0.683666691572272 0.095819302949248453 0.80243295133038828
0.61637725975487356 -0.66656298727580365 0.62036702843982283
-0.91171638093036655 0.025143349353001554 0.151797397756674
-0.74866830993925149 -0.27522411509102263 0.66997984921686893
-0.36439158803474569 -0.56695593132921918 0.30684548922912391
0.24580947179600088 -0.18473722404411763 0.75770335330844674
0.071554188706874911 0.60643605626581998 0.64052810525705084
0.16554546664821856 0.48354821539715687 0.6554300417361425
-0.55285104525601803 -0.92435927508963012 -0.36473817518191343
0.31731915213565642 0.36626107864313351 0.46442033278114891
0.092432808688901247 -0.17462437642484385 0.76348960329697846
0.086455491173856203 0.46516465850112887 0.75053940426712984
-0.19636008110275682 0.41413316936992928 0.75984604788663646
-0.37168046330974924 0.0035856051781717468 0.7760090571488405
0.20506587430719492 0.055375603748724522 0.74031649986237369
-0.62716769492484303 0.24800120308830209 -0.63999657132782595
-0.2573914265543209 -0.11831314818446703 0.76802494852253389
-0.55545149353605439 -0.14710933473195098 0.72175452701409526
-0.37408415792937078 0.23978860175623495 0.6779974828402402
0.031747470211689333 0.65114401728119287 0.67465610907898821
0.38273553991544773 -0.18481700334294615 0.74129135893217679
-0.24938365254541317 0.60510301602010941 -0.64965299441396951
0.75291447599157379 -0.33518825271555786 0.67324475855453159
0.88044250848208705 -0.19148238024521813 0.42739175079053737
-0.59703865076561158 -0.27527359081902425 0.6097467568774988
-0.056364577374678149 0.84403432001654544 0.61358819089181438
0.40924625088974409 -0.22356384655732153 0.74093747119598419
0.29304562503739362 0.026504887338277605 0.69929370567653493
0.066844761151912735 0.60318878362595196 0.66532451761204214
0.10242528641060744 -0.15386284418455354 0.80442460387176595
-0.41320415424304358 0.74878192663688914 0.24776940099453526
-0.026810334854840079 0.61903753693896846 0.68329483794573065
-0.32881101727095796 -0.38809715062641192 0.63689024056026255
0.70769324104007225 -0.30949800774719227 0.6989360036297434
-0.70967530405707535 0.16309850734387688 0.78209410723183126
-0.89663659651049876 -0.81707465994663497 -0.42430525383708506
0.13081111803572121 0.91984196443901389 -0.31443120318578899
-0.75760283058119349 -0.37366027704392835 0.55681259592636323
0.42039600808504929 0.69473904041905765 -0.2753377658930507
-0.10187207001193954 0.35068938442251341 0.80963813497325532
-0.41228935129586475 -0.39146588340175903 0.62829479921448339
0.9233020200484745 -0.19240559907070898 0.48310256203469848
-0.57078424862919519 0.34730384903062905 -0.66101004849253542
0.23293899712652788 -0.35161071324637039 0.029821564307185966
-0.55373077373173807 -0.13014278928223177 0.75744068817673238
0.15132224144432982 0.47222747752299732 0.70075042160651435
0.3723935783636918 -0.38457611340407816 0.33018006213519335
0.29553372566045155 -0.046485797335984458 0.75083879904298456
0.30221441602608046 0.80538810868340249 -0.30906993578405917
-0.41984456638375711 -0.47472566892884505 0.62410032524967463
0.28773902816048391 0.37495673049775124 -0.41756763971030253
0.27765656588371357 -0.15116512668747895 0.75772216687269278
-0.40938083364178368 -0.20570088632935857 0.80725567981050617
-0.28675903255770052 0.23317575094216991 0.80260502077723217
-0.60636994018095258 -0.046544123947888316 0.61902649788412489
0.46269429011790564 0.73821113343066802 -0.22946408198453128
0.44406940419785101 -0.16551055252349389 0.73733063145619226
-0.3036180913366664 -0.17826305550975974 -0.68815511084984315
-0.79906313153328057 0.020063181842541411 -0.51020174230232129
0.31305511604348624 0.097726313888485628 0.47780413312701597
-0.67516116735694176 -0.65796854996211795 -0.3053562099263587
-0.18191330924356919 0.56301474775014881 0.6793089920712454
-0.18915956049082894 0.38237780534519494 0.75783092257032791
-0.030222161575540696 -0.34825828732436381 0.56549818463313528
-0.84140497755051236 -0.82609662035665021 -0.51038179797313887
0.69279687770051268 -0.30066306566660295 0.72382573643237258
-0.52462659056484995 -0.36778675205047762 0.67806256702338175
-0.74964094814555438 -0.32201081671565657 0.30525826629872554
-0.24798982342606024 -0.27742887591893606 0.7366613257299619
-0.21751043622767163 0.3341770538024722 0.71673677880160724
0.67895296564803687 -0.47712385852320205 0.65891945959799081
0.0988375020739376 -0.19503023209725612 0.75050112402783498
-0.56457608049780461 -0.020372839160538447 0.75759746859426258
-0.41496649907160688 0.2412133767560487 -0.75319050419853895
0.41825445251019389 0.55395670013252296 -0.13649034393851878
0.16615355497459205 -0.002785387047288701 0.75368458527405835
0.71146507323726027 -0.63810682971309607 0.52741951905198192
0.3158886701199215 0.71227314837402389 -0.27068208530942073
0.60435495334106903 -0.33674970910010504 0.73143519279939895
0.16014486839598874 0.44043727311545577 0.70290079668707506
0.24696363115079123 1.2333772985868983 -0.48859132604743394
-0.91659511831921847 -0.99863814463385214 -0.48339906180017245
-0.027155295259781553 0.24756682886013337 0.76478576994366776
-0.74953382417322345 -0.024031531631147018 0.36988869451900541
-0.41341666155979873 0.021431330736752408 0.77644843252457818
0.030805184552741949 0.60658968605138952 0.66636402631994329
0.32633281403682091 0.48230349439048759 0.50247529790594214
0.59024034879891119 -0.39530788243164361 0.73128830745381457
0.44332721348883908 -0.27222827502985059 0.29985096782903931
-0.34566578707099183 0.13537265344333704 0.80275816167626957
-0.80627116573065472 -0.95646339856582063 -0.42315873449070018
-0.39462681126830113 0.20601104951567883 0.70762390744801706
-0.50640045000684886 -0.28980564114383878 -0.60665647243001786
0.67318298205104199 -0.34997598989202849 0.72383158962103522
0.21420586437447398 -0.084521861662462783 0.81390514453356388
0.64638606093872397 -0.090331902773965744 0.40674181627193384
-0.85474296759570301 0.32010937182108279 0.14254524733109974
-0.77488042213191477 0.068975331380055849 0.71054552238798507
0.27073825438297838 1.0378600978675614 -0.38979713404259542
0.45479057156432745 -0.18573116981153159 0.28864525843166078
0.5099903749746737 -0.42893886583792185 0.35012398616801477
-0.36668039793394236 0.025577538637548969 0.77546902435265253
-0.71160474040177313 -0.54124794093851136 0.035457435033354301
0.24282085943075415 -0.38477347017100971 0.33136927378638248
0.8193010209595748 -0.50385740545153457 0.58620232874626943
0.32758339821970139 0.42547810279544773 0.51064342540875174
0.16487660460966502 1.1506300621970187 -0.34334084887489347
-0.59893878238547948 -0.1846110037898443 0.72517081818639895
0.091960800579045099 -0.30108566748701726 0.57306255071594592
-0.58695533083010432 -0.18644695828390656 0.72972516527044462
0.28187175502450046 0.11547163747450728 0.52937845825288576
0.12576421461908538 -0.24428592029960505 0.72024167098126668
-0.25525620594021703 -0.57820160208711968 -0.30732152989946115
-0.19994067580725172 -0.08847023188995351 0.75762649329288223
-0.5907249049101857 -0.78805543573286307 -0.35752387367337413
0.5367209989095052 1.1201519395129562 -0.49793520635813948
0.15737023127929817 -0.010231832783525796 0.76769006960671504
0.3604352379878808 1.2098693788279569 -0.42587597131469757
-0.44230675472079639 -0.78772500682131597 -0.28759816103510794
0.41252950070616379 0.83356286335930996 -0.3265733705466829
-0.065560174160239626 0.32943905194066225 0.80905878660434638
-0.036423406298007777 0.55304277040449357 0.74796564723775205
0.56459107819928533 0.76675299606295511 -0.28129288137833797
0.43038686433544981 0.65031901928578328 -0.16972259603669926
0.43630293282258492 -0.62190880510067625 0.55311212099812224
0.85476826824003282 -0.36693834338689246 0.64385724481469531
0.29138982755086218 0.75099557306563902 -0.28268700172049677
0.47014993491672641 -0.40225387514598054 0.34305441132670467
-0.22720544479369309 0.50360340406221127 0.75302742604652906
0.31721627413476305 0.8084014330000997 -0.31317079018048233
0.26692939331425514 1.0151706071066808 -0.37592497743467135
-0.00055087205869774891 0.65986960407117756 0.59105745895637796
-0.38983566383689805 -0.17209984476807172 0.81975082569782387
-0.53556173000184515 -0.048508979643138161 0.76056169784831695
-0.52570311061755248 -0.57687246588774155 0.46813189992576021
0.12640273186440965 -0.1852362977123434 0.80754792042133161
0.54436848546097849 1.0609346321619242 -0.48712615506153334
0.161343995016896 -0.14626274751243784 0.81625693717431247
-0.23318301657408469 -0.11745597244289474 0.76501847464085415
-0.87611699296614809 -0.8652356199710125 -0.52109290114968321
0.88094994740158228 -0.36506991098952568 0.4639501718973662
0.39092037959706261 0.72631396560097805 -0.28162869867948004
0.64919101854859562 -0.36463586858597941 0.72929042330038563
-0.47392998845344003 -0.19081778696855523 0.79434419337929185
0.068210930161191285 0.73550121220479348 0.64548788123185474
-0.61215873982124336 -0.65467956835850849 -0.31096268587345399
0.073014968988701412 0.48469413034477604 0.75705158928305138
0.71316999218711885 -0.3959448168429347 0.64638549161789705
-0.13534517989036132 0.54346801878358875 0.74156411576076309
-0.24667424525234694 0.31892622084430222 0.67491263361660003
0.62382914302993697 -0.24910503253659844 0.7269300698675778
-0.73768813635469499 -0.57536696401608278 -0.2269733023871332
0.75589274172903131 -0.31195610955005071 0.70799986381271474
0.34932672205183479 1.0460485592110444 -0.39307333645436593
-0.24314334896549283 -0.18478339247984721 0.74897480563252827
0.07024957903372453 0.3988850069929919 0.78648765323328007
0.14388521837940971 -0.05960831444899295 0.76297721611168967
0.23710238417548268 -0.15158109570655842 0.79340222602173327
0.3630829949603438 1.1202294728964564 -0.43913013702370307
0.94024436637339903 -0.268612184841027 0.49325883936645809
0.10769790699452031 -0.30510672948939632 0.60296286351756123
-0.42558768672580882 0.5742434457093939 0.62290860782915658
0.48570819733846093 0.81119641230448458 -0.3158290563873507
0.13256885256173945 0.82839871488235417 0.34374178523135868
-0.33291406656455536 0.6732304589371374 0.75153625487421039
0.71828716410729854 -0.52323967557993267 0.68010301822180708
0.72047828431589878 -0.38057854707952954 0.64651759905697048
-0.61916633411090061 -0.029691370121332383 0.76499057265957404
0.29872408612374635 0.97946285939469568 -0.36360844517048108
-0.18179037762158856 -0.51807509063197976 -0.27630471307974602
-0.67393344142942091 -0.37718689622161428 -0.49014721651408877
-0.48979837517773817 -0.032310290179887957 0.76553007918756322
0.37373839333424641 0.055209095263875518 0.40308272532660894
-0.2469867595653259 0.66959176006477961 0.55472337211421774
-0.11457314897192106 -0.46394330638025227 -0.30464821610178738
-0.4986257978431059 -0.36883503224113845 0.68126917942342402
-0.23936638421742273 -0.45891132843146742 -0.43654842289968876
0.62498459343359514 -0.45803265597762266 0.675428928739219
-0.137740707831707 -0.30011723265551371 0.70101277559995623
0.15471522503025881 0.84601678735877961 0.53350912479338319
-0.77349744331431403 -0.93182254129236686 -0.45304603323771175
0.46628381036603628 1.0595164936389754 -0.44427298760720824
-0.19024275604159513 0.24356625450888814 0.77190639199946887
0.28082811473396774 0.99656835785856046 -0.36820476833514171
-0.48374976031647776 -0.85329835406981935 -0.42110119053140416
-0.81995021436525839 0.15113093877215178 0.27926894879481168
-0.53999702672130567 -0.60375071172474648 -0.19695351404735639
-0.17334790809503353 0.94098920222572602 0.011298349862908452
-0.23821742524764034 -0.37602353556628643 0.59842178086088182
-0.52206256087486302 -0.23578087171170292 0.72635145840795801
-0.53952904962240211 -0.11127036815311264 0.75488574421606813
0.73295961724154779 -0.31137319489040616 0.69298573626773141
-0.32340110183382365 -0.19430752654895578 0.81468139157580666
0.31726378681635836 -0.27285790444547331 0.021912637002884594
-0.22192096571790643 0.94384515618911458 -0.24488317827903927
-0.75498830693186747 -0.33036084508417929 0.56746975221995655
0.74499378130375504 -0.43699159852020841 0.66018163769063065
0.21429255037122807 1.1084391445959501 -0.35614162303730801
0.37537743234878818 0.56730985355811647 -0.010022941000098484
-0.40379297307718254 -0.28442799587463341 0.76323774156410096
0.18509577703982849 0.89437468352432958 -0.36485894700386545
0.37921166184380084 -0.10552449528716501 0.73531865275784369
-0.54326356053152303 -0.6334386604070712 -0.28874266704554863
0.084438750677829688 -0.15832231682276454 0.77012137214734366
0.2981334277411527 0.23725169818780589 0.47848004120200471
-0.45437412525571119 -0.18629285597872869 0.80168803078642981
-0.47867714540348949 -0.53319786019225734 -0.44785155093388695
-0.24887514613836181 0.4079328641484139 0.77051411925123503
-0.7054037381049838 -0.55369408187585645 -0.085549648464414929
0.34521085190857903 0.15682053037219923 0.34621265663214373
-0.5647050301498826 -0.82148678341921322 -0.36433229873395234
0.36879779147801628 -0.12708621474956683 0.7390206737663938
-0.33667923497955776 0.32650069749715449 0.81411985562807843
-0.56896922782122061 -0.64222138699993181 -0.30059378965890282
0.43548447497166798 1.194842982149833 -0.42159884477499965
-0.21337307123275728 0.54280827311836788 0.74633036817839127
-0.42433271433399433 0.49753042026502747 0.80749349299903628
-0.74934212905626829 -0.60736525220849202 -0.23863092316120849
-0.31758001843584793 -0.096607508971500167 0.80084336653474963
-0.74430575728871418 -0.7159989670973701 -0.37186573351671015
0.41975509488607798 -0.5783124338851473 0.43559381394947572
0.23465749893959753 1.0108900353489378 -0.3514611647267305
-0.26085466704012106 -0.25328814602182437 0.74869185590263143
0.1918530779616674 0.0021521002886935037 0.79916845091134192
-0.27795078457419642 0.58318896230147566 0.54064165329881675
0.084095461251280312 -0.31939166039315925 0.49111632970351593
-0.22893328753106879 0.34179944192038647 0.77489037184092879
0.29635209046435307 1.0200499577882187 -0.45563791665168196
0.87556249235233707 -0.32032820144679963 0.43188608458296152
-0.24993214788262819 0.00010619437127878939 0.76367675032283344
-0.22766957717877467 -0.09879964735064295 0.76875367220137036
0.025778909138631789 0.74230128444187571 0.66066326254702545
0.3538255678972515 1.2611163040023481 -0.42868005438208989
-0.83924168955071821 0.14610692692319027 -0.45511471486892141
0.28310043998802215 0.12940912158771667 0.50623030233913369
0.26431901938275004 0.8858071913927219 -0.3135254687365201
-0.30476020471671283 -0.17156562778224149 0.81593340041961326
0.69807974863218192 -0.44373938114778078 0.64436053423931305
0.33932285487266967 -0.061208347174241062 -0.27442633027460772
-0.71725919152278728 -0.15541038835824583 0.74125886349461823
0.12729839593692205 -0.037675141757689268 0.74791149985744454
0.35903495464095414 -0.5578847391455044 0.55997225083552138
0.32694873972273797 0.6526912548269852 0.09504469328877363
-0.11964517627104421 0.32886759348504402 0.77902437412145886
0.41259362221722995 0.81027109908717065 -0.31772931900874113
0.62151261791995793 -0.40947290174476469 0.7282466250819688
-0.84704700557953849 -0.98894360690904115 -0.41310971663130669
0.61035635893861695 -0.69188520620353655 0.59385296674535759
-0.5816259788682796 -0.004147365036025974 0.76282484013070828
-0.5016829568282084 -0.6309198870636008 -0.30135862611143338
-0.64544514529347019 -0.5448544709906491 0.50271605877024683
0.21025680295701221 -0.39053516434175162 0.63281864946826616
0.88260774152848143 -0.33792923897532345 0.62392662038966762
0.4913175012042359 0.62350662037797644 -0.16341905894745068
0.27529639999361777 -0.058345306260126684 0.78982567695377526
0.004465767254529851 0.48871462848695835 0.79010731287002756
-0.79411823651350311 -0.34775225038440638 -0.41229670672363739
-0.13134018281961879 0.31463150142620933 0.76695280175617953
-0.76733486876000967 0.0053845752647081468 0.64261730947745122
0.049160300475147523 -0.30874959757267995 0.49194718303191109
-0.059973532559624232 -0.29327861292882051 0.67839611407355704
-0.20079323028825868 0.20675947800130423 -0.77990523998309413
0.36365301136793349 -0.49342931222623276 0.66004253265528767
0.19043512406275909 -0.1539914814390908 0.80995668039573587
-0.45000176642147061 -0.21556434838427929 0.79443560974808491
-0.64645954471139255 -0.6848119730019766 -0.33392637887645726
-0.016851713253188905 -0.45584061072305282 -0.14321463673691959
0.049279389171951848 0.47256590830982148 0.78273920332803471
-0.55862236388729514 -0.15670889651443787 0.75221258749121844
0.22516382171905747 0.010007103153770736 0.75560792248995057
0.15178549470985558 0.44171117707059793 0.70823079690071111
-0.4323689555320307 -0.6423346565968675 -0.23392248659886938
0.69111826374571095 -0.40151094332607329 0.65307990199478994
-0.70654867180120817 -0.16430799817797936 0.46911422094799349
0.13889207228311484 0.57332432049292947 0.67238367231276186
0.27653028923239198 1.2668196894672139 -0.4998816591011721
-0.50267586408477527 -0.6069174953649803 -0.16587937237809314
-0.3389703467541878 -0.63935788655368775 -0.14729947496002538
0.37731752649564143 -0.17371199591884778 0.028656749683674931
-0.47550595035450627 -0.37562992049742228 0.68138196408007801
-0.54468232850467402 -0.63736535987005993 -0.30117496575892311
0.24077523061734141 0.4816642291328721 0.63820602132540216
0.57982408083723413 0.95479133831505969 -0.36684196991843088
0.76978832426435062 -0.40640340697240696 0.67927703741575307
0.36332748774390211 0.060887905452762681 0.4639289049954094
-0.8435643551056522 -0.6945852939413415 -0.33931436294992778
-0.34394716734592379 0.85386717297785886 0.1187074811670783
-0.16021251218570143 -0.073848211289512911 -0.73024353842692769
-0.79266586188421329 -0.57893116074934436 -0.25771811695074121
-0.6740590843387988 -0.022379096543390098 0.78030113438093451
-0.13706971637821752 0.54693023864344958 0.74589940293422785
-0.13546282138805488 0.59024219077154605 0.73217096845359109
-0.57362519704668635 -0.85563707771815434 -0.3845105645199105
-0.35465975362321345 0.081047091533962501 0.78610110887081319
0.57558030235525237 -0.65717469315624744 0.62933024819470162
0.49177227971203585 1.0790303587457739 -0.43672401907189951
0.76335249221826373 -0.39150297226251141 0.66107581506383895
0.27115794044138042 0.76290603888005215 -0.2436356182666426
-0.01807052738222481 0.84388889439653703 0.2852345445256077
-0.56912853332513791 -0.26036765562302833 0.6610593961350375
-0.92594125849119635 -0.6832003225049581 -0.35037135975451505
0.23635202389026588 1.2506847637155882 -0.40870011325811006
0.36534070298790056 1.178190198649558 -0.46587465493148983
0.54452870889154781 -0.68603321424532426 0.43856631310232785
0.46633203936168499 -0.4194429418828447 0.72331224518058335
-0.43238619558711733 0.19642785390122341 0.6079746542944342
-0.1419132494641584 0.8961932238330057 -0.40535203511236872
-0.69976245883900923 -0.58550501946974887 -0.3875583013869619
0.2731305687956791 -0.3449026604215284 0.17888578694756063
0.79003772837223707 -0.54531879703205632 0.51245603752102298
0.010923497668862581 -0.4447599703534717 0.040652734488467956
0.52365094291307379 0.86799590006165861 -0.42702864554637721
0.75065469527899253 -0.34565467970117059 0.65195568378139512
-0.15103624540080318 -0.37874408015725169 -0.5287144894145186
-0.71576037863670194 -0.5711341351064334 -0.2171000789301285
-0.59451866673425435 -0.28904398412537624 0.69340878072201306
0.001545363525867316 0.71509492827183152 0.66673705514462611
-0.49172284396098931 0.29409904509071971 0.5389811432032765
-0.48747443602144358 -0.19413925333420501 0.78777238921705717
-0.54871620954148703 -0.10696221533428751 0.75931267108742517
0.57291974447055694 -0.16206877746620041 0.71971428515921509
-0.70004345432484172 -0.0054533917350267913 0.78281855500231146
0.21460192733927741 1.2096859203209593 -0.38487237830531384
0.29539246042881118 0.68773763327351212 -0.14957761047933893
0.36322927901630209 0.73302245298766611 -0.28295812841017209
0.028000344773911223 0.86627172611632197 0.44846750521048051
-0.47582217605635613 -0.09742574901097445 0.79628629936999928
-0.44797674532495435 -0.81244931139874854 -0.27810095962185954
-0.10144600666836112 0.90803029723332607 -0.38680867255088991
-0.41992920179380988 -0.36861359512021341 0.68938402735697935
-0.33337788812347391 -0.11269017095716372 0.81999342928141061
0.085452932174060692 0.86261113064604444 0.14931193848234514
0.025390403838926545 0.27431639023409904 0.75836413830315053
0.75813063593922791 -0.30280304033002592 0.38363116968855415
0.39810731955428125 -0.36392757272583243 0.32125823161922185
0.082723198831757827 -0.15578713146690149 0.75357995128371869
-0.30261140628432415 -0.11270496260087892 0.80062861857793521
0.41734717297271473 1.0904691646622631 -0.43680549251499379
-0.044682928225167728 0.33062679884692603 0.81253020461378256
-0.86087426473305584 -0.80849130043785511 -0.45358902853558636
-0.49242956045554642 -0.63680885334182324 -0.30999910523874163
-0.31694088221082595 -0.63685715476742999 -0.13443032104044939
-0.25421989080816942 -0.27388885044859812 0.73784838314867329
-0.35785840954527259 -0.11893425039750571 0.82202954801010009
0.14724632535807203 -0.034685012162337436 0.77852118201994713
-0.28811575101557629 -0.21131082375111632 0.79585954596160491
-0.12720359733635789 0.35742652269527309 0.78910167429701872
-0.47987681395573034 -0.75001378327619594 -0.32641163382879945
0.5207104626899639 1.000015710115763 -0.41187173507982777
-0.17942707391920365 0.79196947240012427 0.26640769191352476
0.49409050850757197 1.0761638836541145 -0.4576793205006755
-0.15210020487565501 -0.46727043021796266 0.36036381323676814
-0.40092590380235116 -0.058404486877634554 0.79108725103585087
0.28850314600187232 0.74765982844347079 -0.27084253202126618
0.26754502916650402 1.0894171770463679 -0.41483153674942663
-0.24947633498525512 -0.10658870692631783 0.75365946696154751
-0.74152532528778536 -0.55369723531972515 -0.25438848169834749
0.41865175852819903 0.0090033721223798935 0.6608932397866738
0.69964128173169371 -0.55793436328992296 0.67019456381589571
-0.37765679293203824 0.90002569311054081 -0.23100727822159683
0.29101977270686241 0.91346273133912703 -0.3356995706545387
0.20872808533654563 0.87932411887314643 -0.23935490313931851
-0.086328731695576977 0.33509945916869821 0.8041223568345508
0.32458107640585609 0.3691003132663262 0.51770121973631689
-0.72199890710101933 -0.53639591115221119 -0.27618124193236504
-0.48823984088126693 -0.6866209087315065 -0.31923351761640717
-0.18193960864906344 0.5263396406121359 0.75376324800033245
0.5148588562818297 -0.41760884505674456 0.72763249194253454
0.33831788547919572 0.73124562507336321 -0.29186013345900541
-0.38283017355821869 -0.28196036877369668 0.7723928545002785
-0.65519466434058771 0.12897659497926206 0.6167638369878361
0.35569536494409348 0.039340262209477395 0.63010663555656166
-0.048850464363171753 0.64735210283397571 0.69902335538399996
-0.74285967271024589 -0.38504276712901575 -0.43505055262259162
-0.79344777869096106 -0.44891887569611022 0.11048316942950898
-0.34055783393029948 0.53175681935976193 0.58831280328164226
0.41351409347293711 0.045989343022559304 0.49044295881986599
0.72156008821413309 -0.4394240386628212 0.64508984234846167
0.67336598502488343 -0.48323512105662569 0.69598511891375736
-0.56846626523304877 -0.63790980392936181 -0.2881599077894279
0.19167091627722499 -0.30145921274970622 -0.29305254611399079
-0.87801843164493931 -0.79268006927381496 -0.4235936812719876
-0.37208853806023967 -0.83843328633086234 -0.24184746506756127
0.48287104342729492 -0.60930377943525738 0.4070406424028512
0.38666948864423922 0.9065053258076432 -0.35404690460409149
0.38076380043888136 0.18658000881564174 0.067220740574150284
-0.34634634774981166 0.69361932601733045 0.66618376997795536
0.1645115362650813 -0.21167264352738879 0.78195464800099401
0.43612803355779306 1.2554379559092013 -0.51621513322318435
-0.39378239614125299 0.24999659976202793 0.60813344218491849
0.64863062435705388 -0.57324512876932276 0.67897200907648525
0.46675130155891154 1.1010005845349529 -0.46116696982267058
0.39660926124882678 -0.24664236112690396 0.24650101636890831
-0.60763812020240593 -0.18406668877715671 0.64766497497966569
0.35125192313281417 0.41997730538656075 0.20577047307955176
0.77714879333084497 -0.39268779393742381 0.68688830774955889
-0.2591973793394029 0.8489353025588855 0.15265146576799538
0.11609133162910368 -0.27162681451335846 -0.46566777407448967
0.50660659188517343 0.80891267229824937 -0.39647146950118284
-0.30338269675047691 -0.1875764745253452 0.81342838290559172
-0.024948167019854139 0.22520712706200552 0.76000217334940601
0.52408598985698163 -0.54834110485878584 0.68947850696311974
0.2916850981977106 0.19900225203488198 0.50468428971247548
0.4193963861680956 -0.5197819506611232 0.38576611057882282
-0.15580069791356266 0.42238092779440173 -0.73563738654468125
-0.69575876635320455 0.16880575237555107 0.64939653571362399
0.33690568031641632 0.42358254605299805 0.28102943920592338
0.56816937882211249 0.89529834463927038 -0.32884741814810603
-0.47205730257172362 -0.69144759995560356 -0.30150069799242551
0.39349756856955409 0.12350210966748776 0.060596822351046242
-0.22901815606954656 0.089178228456221476 0.77273142347334556
-0.60655472137820787 -0.26074232950731258 0.70078960851238747
-0.74526590202693832 -0.28148764598398213 0.54565333574431207
0.14352129789783064 0.86999785256712947 -0.14668872689198409
0.34296097230504685 -0.0077044398517234214 0.7072479253310533
-0.47400626799650425 -0.031042141238344811 0.76332692622121101
-0.6527877773637254 -0.66071443546626618 -0.31411039346046543
-0.63638970678443663 -0.58442834357573226 -0.10257897659720427
-0.92086670040270313 -0.11104722403936584 -0.32618382561084758
0.49586941100756476 -0.63556393590623816 0.61631232842891315
-0.50142916830238704 -0.19884408129060471 0.76942376873408946
-0.31922790918748767 0.021644861172678276 0.69897989291015961
-0.87930593905869969 0.36095614040742063 -0.034463960320245235
0.26334288698114605 -0.3740719191228461 0.69016812337124023
0.74345526308187715 -0.32309322611531899 0.67703774958051177
-0.74738012588319869 -0.35846060664101209 0.30368607195930508
-0.50798404766928229 -0.31163446577391429 0.67825227768934582
-0.58001601077053877 -0.30799941691333288 0.69034214867492949
0.64492057463236563 -0.4730559008550177 0.66063833512058068
-0.20712004055651256 0.22561867492184451 0.77660941199948752
0.37976168781232289 -0.020116646986948261 -0.15664030141877916
0.0028276925690562393 0.86968481681666177 0.49569043839585802
0.020222461507353628 0.86762450193590901 0.63505989585551248
0.32837844773479219 0.68999509984774132 -0.23101487872963311
0.9401990899805277 -0.22793794898153674 0.54504779377504953
0.26463528173665551 0.9715724615917587 -0.3518491335400924
0.76715591817732687 -0.36340164369158057 0.67707757311701577
0.91626248370222996 -0.26427979107884747 0.44340037430415613
0.4014689731254073 0.54410960279469389 -0.12640623139494345
0.36773821683334162 0.23003401489367814 -0.19792371583783641
-0.55408776267828941 -0.25243267332495734 0.6848266006504744
0.50634975261308668 0.99948533246156757 -0.43493662965946278
-0.5999035770172032 -0.94686512434807302 -0.41136134530637669
0.38021569601148286 0.71794196025510892 -0.3455263446266521
0.23037109318666538 0.031807431333181313 0.73989780312025033
0.23006318118375368 1.1401747665661652 -0.37748472980279146
-0.3174874670342831 0.022819659795415781 0.77252351431393862
0.85964852893576449 -0.4280154871128099 0.5985182878958728
0.22392999884229781 0.012037644930535052 0.78141284481221618
0.076683345057380947 0.87206295709915338 0.60105019632402801
0.20560282549240227 0.49917378332535378 0.65517716754220601
0.39262757479436416 0.65198527977618514 -0.20747075606763943
0.74521333870067608 -0.42331028804061788 0.65071595382137026
-0.76507232804767078 -0.50166273119115523 -0.14235405713341898
-0.087460081997960515 0.55106852531373285 0.7429825435588775
0.15101143131076356 0.96809021791958116 -0.36212951100558932
0.22379200223948104 -0.37798173075262298 0.3220909654172317
0.25905352087219669 0.90598380082936814 -0.31849169035984914
-0.43925507420732224 0.51324135521299752 0.64098022047349801
-0.75649533530919477 -0.21976531373736297 0.65566406465447358
0.18195781762439189 1.209887776727566 -0.42102613294705193
0.71987938493988324 -0.50468473172759998 0.68839165752102183
0.43420810280886712 0.60090096449683816 -0.14322389415334769
0.69114562134819124 -0.11239636958415478 0.40448178373140742
0.57636404281540976 -0.31990976479437228 0.73233298687212312
0.57665814353003242 -0.35625953655036025 0.33873990043903923
-0.091245136622895018 0.24323330389191877 0.76832735221607251
-0.39740993270497604 0.8240299534737634 0.15066872052087632
0.28052566702497828 0.49994025404499975 -0.42084347779782227
0.3512857210595719 1.1851174245036109 -0.44739835205535172
-0.58622908470011836 -0.55031937763260874 0.53575646681990285
-0.4638298511206731 -0.5743581312719348 0.43816141765372052
0.29901228275087277 0.73186508524474547 -0.28176918709005605
-0.7289307785249175 -0.43388539275419191 0.28537339299453102
0.003083398031829887 -0.32817224140482182 0.49621675463363601
0.3010679343766931 0.60934588032793346 0.30730414179910781
-0.65635754001922031 -0.31129096775131426 0.7016058096254767
-0.34812625500779859 -0.55059044049331263 0.45411881421021683
-0.051206983219563185 0.51660110584955277 0.7877276650065248
-0.43523915758696674 0.87595984554677742 -0.21767031883921462
-0.6670426092402586 0.043803944865423716 0.79360752154856939
-0.26216234792520154 0.3633957350142154 0.67092916592278939
-0.59393072724261309 -0.55384330681653537 0.33514227893273052
0.17272226355387232 0.89997938731092653 -0.22130949602227368
-0.73640318590250864 -0.36731698397409751 0.66523849384800471
-0.37522612028265456 -0.01055245935640059 0.76960507754959551
0.25077861374736798 -0.03297100377434603 0.80890569013087443
-0.16148371871829248 0.73347249252927504 0.39101035896441161
-0.32800912531551774 -0.0018790833819961605 0.77485717941142696
0.2803731407387513 0.96983971849092931 -0.42970639362629015
0.22731781577294896 -0.39342970026558799 0.3672900697037722
-0.16876627792508003 -0.25913966055760085 0.65189622759308463
-0.58888186075966509 -0.11468981731580641 0.7426409239487306
-0.34842261325325374 -0.10327637810759338 0.82018744076870931
0.29739950203373411 0.59971050538751669 0.3676745351283941
0.29872579318283599 0.12947948875832882 0.47828638427986192
0.4493516698800768 0.71499706729825263 -0.22296858828745414
0.58422621115080986 -0.20312222242360001 0.35501091260061202
-0.22864750439248027 0.3123220323527649 0.77579946465673189
-0.42535430733139634 -0.61892128059627272 -0.38874773945001806
-0.89707408037208758 0.22565385665788185 0.12835884848328405
-0.54331458292580592 -0.73474148541512818 -0.33599271782850693
-0.56689811559268044 -0.92477646925133872 -0.40233429963600997
0.53581492227170102 -0.32956831672179554 0.33123639985220876
0.15043876783933641 -0.066020729199668615 0.77379855887010507
-0.67664275694539278 -0.31633717851901899 0.70689365207406851
-0.82769126840919327 -0.93671895244060277 -0.44434675408229207
-0.57928075193459883 -0.060953630231305844 0.75121982294801981
-0.67475901497058288 0.14776110371469642 -0.61276861029283936
0.76512094227886962 -0.53017612963860739 0.45522992122733719
0.11732700139402397 0.88375688285495002 0.53072102985923664
0.28902448599962938 -0.061562987908189371 0.76776185277270059
0.077546313350953966 -0.24063395951432653 0.69618649415961542
0.69542422256531111 -0.31365079242098792 0.71781953917848895
0.3429372733370144 0.69736596546265517 -0.24000691018526865
0.0995086540872272 0.28139805572438625 0.73102752980656405
-0.39596902359657449 -0.22159372406534761 0.80460844081574834
0.35966683713613179 0.0040484024629634519 -0.25519338323827334
-0.90580453123627436 -0.16735696471426209 0.074957196217809496
-0.21532725686695287 0.0036556255590323161 0.75797403547939624
0.231456466067959 0.76610127792832206 0.50479102433297385
0.12555628077959469 0.35695548082850781 0.7302509033895852
0.1412565677092914 0.3474721795186424 0.71862543452398597
0.73382358470536957 -0.50993974579622536 0.67801069784906254
-0.18926887769509726 0.48339166856018601 0.73500012817303428
-0.14721123191129948 0.77701307445112811 0.58081621442614662
-0.17969562269315276 0.34693219818059973 0.7625930523779445
-0.76224212111142542 -0.5816169774757487 -0.23642211164317217
-0.20714223511136254 -0.43031577637445739 -0.45748892536352059
-0.46575359667792782 -0.76788451117002854 -0.3159623992730296
-0.76301888453419942 -0.72670459064142712 -0.38447850014985363
-0.030632663888400913 -0.35671961172736122 0.51561610765150689
0.43899700291320798 0.57468017440219565 -0.14003712956047742
-0.38552584826410019 0.1708613341501195 0.80000120341219372
0.84683054223534171 -0.43837104047097908 0.47774564048745738
-0.19382185787157091 0.57298394213401949 0.6553491925120376
-0.23201733403439562 -0.28717045411351538 0.72497759172548371
0.29090817499180766 1.296265568385504 -0.48519309032736757
0.12910763240627077 0.41588247671093725 0.71325562647583141
-0.17790680489565247 -0.13026707788412306 0.69415318904773216
-0.46431884765775955 0.19734041995940821 0.59046512769014114
0.010623565884966268 -0.38181089842851357 0.37354633709275831
-0.87917746117093643 -0.24936692285253592 -0.35860751269071045
0.18962703836968942 -0.24205106193195292 0.73340019093044617
0.79384590119134302 -0.31563701018643986 0.69383092362030752
0.33072142244802905 -0.21664495369549641 -0.080701684976087762
-0.41522840164712349 0.4123294687600616 0.79412368504493358
0.066459107312102361 0.90692237508857509 -0.098967944936291019
-0.53044676420362435 -0.45000601195020895 0.63802688657866113
-0.7648636700720477 -0.97106294069407806 -0.42029344781123168
-0.15142171407986638 0.37119939723596307 0.77800411477254627
0.58969577118886818 0.95556835730608825 -0.38144495290506164
0.26825378713615677 0.059047550890233502 0.65526292110465434
-0.59092500925140534 -0.65145852295765661 -0.31086535602645071
0.38187894372496167 1.0559066504296251 -0.4059514765525627
