# XYZ point cloud file
-0.94468298176529863 -0.89331965124472978 -0.43324769314473288
0.7574788614823369 -0.55729886796163131 0.59006485892645455
0.49936653237214834 0.62491739018663828 -0.25219371600821283
-0.61604375382964349 -0.93778162260701536 -0.39519456856719071
0.35832696492851568 0.050279283460617163 0.53623065938066317
-0.15897854127525335 -0.40523307404612297 -0.54513334314264128
-0.18345832762613057 0.52055589510306577 0.74755604693364219
0.7378593808544629 -0.45393535566651844 0.68922304082657537
-0.35675515080084352 -0.30465574349580837 0.71181960112662601
-0.47880257382654356 -0.27197737777794817 0.72544306595538455
0.11546463597340839 0.35539658563956245 0.72373701363033804
0.13660411671193451 -0.088816916539168123 0.7879121884750151
-0.68931153983609583 -0.66339500352455427 -0.31378258725044628
0.24482430333265803 0.9817376365910071 -0.31230775125189369
0.79014227508977619 -0.39634826342982787 0.68000383029039302
-0.38998226964552529 -0.8490263093209367 -0.24807237773529955
-0.044252674182267526 0.72891382120576154 0.70247573688159148
0.69075429291478763 -0.065554745263801006 0.58209644817440198
-0.16587400777861383 -0.21774808043775717 0.73603752484929741
0.18346205395095083 -0.25081680303486875 0.72511110312485894
0.553553328979973 -0.59273956250620419 0.66735114649571714
0.27654403624725887 -0.11838401774503238 0.77621552012285688
0.47160062757931875 -0.5708140444740688 0.65704694791471208
0.52567410891828104 -0.31272131169415518 0.73178916252258763
-0.37840358071409597 0.1080184959141135 0.78686549667680694
-0.43365486393727259 -0.081735625912778387 0.81579973908571679
-0.10301663173054365 -0.44046744584850517 -0.4494470133712074
0.34374188781903214 -0.31573024469586386 0.73034323521498234
0.6979052957145484 -0.45692096966197537 0.65538179895151338
0.50349589315130139 0.62095657991677011 -0.2177690880847365
-0.69956771584771005 -0.71187069912488066 -0.35059874349778042
-0.48588105767427869 -0.66232148336353891 -0.29505494393979159
-0.76613112589132903 -0.18136703178757807 0.62571932481584547
-0.30629951854244197 0.065222343485975109 0.66468367737867373
-0.071026374817297011 0.21987254623679875 0.75845234585040489
0.37990819534570619 -0.12360210950757322 -0.049723634639775138
-0.064236491430449405 0.94637882846656818 0.089460567950516712
0.40104233979179682 -0.40488420559309812 0.35271528423495879
0.57042830546900447 -0.70621189160527065 0.51476175228046195
-0.79990611171520065 -0.96535911448816392 -0.40949427843385688
0.15003938232225522 -0.081624838573112424 0.76499148888330293
-0.49601163334918219 -0.55301027514748169 0.48290353050490431
0.75357759024023174 -0.4558889260691692 0.68303901137808598
-0.42331608667774567 -0.69893211860308768 -0.23808465972708381
-0.27959345231517929 0.14149139681102452 0.78862288592593766
0.088471781621729306 0.59729927568911967 0.66790191376057573
0.15176269867336956 0.76967308516829469 -0.42329966707236899
0.39552714369711595 0.68279573834245755 -0.25002668506172032
-0.03525204666971149 -0.31102627594584475 -0.58947026399262104
-0.2479855150211101 -0.10196663688530561 0.75810384434893896
-0.77223577684632616 -0.32603863366363162 0.64281841036573706
-0.97239572566008903 -0.72333292499884494 -0.41394733717439491
0.39456609045895874 0.66646333080644116 -0.23286380557244479
-0.32508102650821513 -0.65644074473134451 -0.13565059984807926
0.24279867577834402 -0.071330234602132059 0.80261448283932468
-0.65409335686506864 -0.22912723810397395 0.70782132838202472
-0.68371820663428018 -0.6891801248071221 -0.33474041979657754
0.66865391667174379 -0.46778105467132303 0.68686352584299337
-0.46231330222700784 -0.74055419458992011 -0.30412148360204672
0.22164458104608542 1.0770725501084282 -0.31591147903354155
0.25001613717815374 0.93839813517176651 -0.29908688393678151
0.32778147964815219 -0.3403598874784004 0.72242199551070985
0.15748228054498981 0.89858943482994347 -0.29796579080587415
-0.048555073203100818 0.48978647298084843 0.78908442643799459
0.16896012065080512 -0.082380200973589002 0.80399101131082906
0.38624110099402742 0.01803441115528992 -0.12417098533721393
-0.49172098106999051 -0.37396003397561306 -0.5571225180567092
-0.72448607128321996 -0.6849767400203699 -0.34464948071489587
0.26040171727138706 -0.39678828618487216 0.35510729981757283
-0.92597216173410679 -0.69647035369283217 -0.37057558591530304
0.62955134003509983 -0.42411745179202498 0.67786090053805736
-0.70064157662666737 0.23587864639621858 0.37732082744437534
0.27464635345430999 0.81345285962780101 -0.27079494914377022
0.41500358403445503 -0.2996170922037571 0.73597024116031085
0.21032496932764388 0.43636111918949938 0.66198106171475102
-0.49309867401734309 -0.68008458252303683 -0.30374390451550237
0.10312981678641364 -0.17830310527790116 0.77328985623092228
-0.46277955600480247 -0.61842882055967763 -0.17609332325292293
-0.55443032641706935 -0.26954337927141458 0.68752305035628947
0.19350870252045382 -0.17271340594032836 0.79525362908210506
-0.84221263470899999 -0.8960171329580916 -0.47180003165918727
0.11775974544095114 -0.19011818113843582 0.77464340673883747
-0.7210443256284087 -0.89722543384518816 -0.42739732705411981
0.026105475879809603 -0.337279696414712 0.47247206450848367
0.12381816061577311 -0.08807776628729469 0.76956886899540011
0.11083673421288864 0.35794828477589924 0.72010649240741742
-0.39023210532119812 -0.38727816414130212 0.61863074158679598
0.31493825595640956 0.5147830271813354 0.52037557998205708
0.13843299741385806 0.85707857716213387 0.081674976833148172
-0.29116237409284196 -0.14844583085967811 0.80301970417739854
-0.35553831814580583 -0.70983745919811603 -0.15413919463610348
-0.16025076913763669 0.23964110943325911 0.76710416615722155
-0.16477774742815043 -0.20152393910059629 0.67014602750150276
0.19331436670555391 0.83685021200538179 -0.13438864370353798
0.08975903067565838 -0.31305603081898381 0.52679530050440881
0.17985323676269438 1.0722175456772147 -0.28799302018663475
0.45461658340166622 0.65266013156148361 -0.14998534731535695
-0.10513798490789483 0.44545354218584843 0.80076398185014463
-0.048645546878812951 0.74909560671476472 0.70202028046975951
-0.14076934352443082 -0.13940311322359067 0.75452509463619855
-0.33762696981724361 -0.11804207687546242 0.81908799161069945
0.64748549053072502 -0.58920195080540072 0.42868695687548963
0.11814335188335967 -0.10942622395191037 0.80021243088558514
-0.35873940692310669 0.043495998925019874 -0.73398918340391184
0.35893812801555569 0.08295475125558438 0.36628689642947609
0.90790161430719785 -0.24746596966616163 0.56983879480970767
-0.74595267904224372 0.043221015350115577 0.61687454976557987
-0.3259268567406437 -0.54970203131362738 -0.41164881407489018
0.13335998873183108 -0.16460816297961944 0.8081723619501533
-0.42471843532771558 -0.8047420235822742 -0.20114710845665584
-0.36621786330915995 0.26418002319208522 0.63391239086186291
-0.48663022657983035 -0.31767162142723615 0.68584404714512726
0.24935068945379868 0.22347700184535257 -0.51405455623510399
0.2029137565927428 -0.16557594058244263 0.79503769281990522
-0.45027860746737858 -0.77494870187121778 -0.28101569134513982
-0.25400308855083509 -0.42765643729235192 0.62963228969581753
0.011667430922440047 0.26723731391393701 0.75357307108354421
-0.78964314507797795 -0.75486771410385078 -0.40782046282802664
-0.72697779774033577 -0.53871693184134084 -0.27643297564546288
0.19277096160008611 0.82995625581815902 -0.084303468204589116
0.16927148334662512 -0.0050900580077968272 0.78702029502683413
-0.41983964032305288 -0.62618730740143058 -0.092048910024445263
-0.54383393279233516 -0.0074345735685996672 0.70185137667965503
-0.14553110378678369 0.93481720211434061 0.083625100825028831
0.6939340998757384 -0.31731388199486776 0.69650866042052706
0.26018659020061108 -0.0046222779869065089 0.78565930196949552
-0.39860345578673595 -0.6335166910699106 -0.14795319840131782
0.91072145444686292 -0.26761638500917284 0.56944491630146543
0.018802789371962447 -0.077124372526391038 0.75792854506673102
0.73331830805612341 -0.21048986588054941 0.6875318583191441
-0.58186815881550302 0.55951453985541755 -0.53464877405087563
0.013153594265553181 0.36473643661319821 0.80432919153770799
0.11863817231683171 0.40675219018866948 -0.59505485555484761
0.37214039266420684 0.098963514121256368 -0.2007484050838837
-0.89944883801859632 -0.27049808705104084 -0.10267811321846487
0.016496254825504764 0.91470477074118683 -0.38565779588900373
-0.016644258558578429 0.17351422444838871 0.65474926723712557
0.25385896156704568 -0.1053396844701866 0.79331117601300782
0.29841098734533489 0.090801437481594416 0.49587151773364901
0.3309985774877866 0.8179531901753101 -0.30496338017468094
-0.69884024921021748 -0.64134827092350999 -0.27244208735591791
0.17632620608531901 -0.26941706334662285 0.71231693312585875
0.085873152033377309 -0.12917886515282873 0.75520774107404876
0.071420773812141292 -0.095288167628477805 0.75166522818591197
0.44937487754705074 0.67811913750226449 -0.31917919545115758
0.88533353049954933 -0.3658343467315559 0.56514489318587202
0.36729106403056733 0.24819555813394978 -0.08616868352080953
-0.11846329548270162 0.26745000147471165 0.73685738547581359
-0.033718657250663142 0.24384249414248815 0.76330005265435119
-0.37390004360951501 0.019140700339692396 0.77401267964093678
0.14644297036796061 0.069080209073659415 -0.62673869148590988
-0.66177931472780038 -0.4758865652816473 0.58826005126653502
0.32680889604450059 0.20987389875362916 -0.34200062646137042
-0.77672469421986889 -0.12813743094076591 -0.49292348912898554
-0.56289614019141254 0.22224289993985913 0.68118236713692015
-0.018433513551926239 0.83065840117663547 0.30533415301071543
-0.21338170873897866 -0.1201609598549167 0.73943562202137691
0.21141292906768427 0.089488131580262475 0.70996847389463102
0.09095469970446679 0.57130888371964617 0.66552259863506746
0.3762778161910596 0.046255340231831532 0.53303728186279553
-0.56063654878242986 0.23430086722129229 0.70919554781875949
0.43258012942143509 -0.061976007033885505 0.30428492658307782
-0.41585653257315869 -0.74977458567744337 -0.22744906761452022
-0.0083371747479414893 0.61541420794571855 0.68525128723177264
-0.43140544858249008 -0.75123397732227493 -0.28570999289797561
-0.55625554670260158 -0.89555611871879759 -0.38006281857117852
-0.33839747437908763 0.56647145586236658 0.60325939178858112
-0.37898247755368786 -0.24850919643129954 0.78340660828120479
-0.31865361445042595 0.61546557041429983 0.59715732363556118
-0.52729031226897405 -0.36288082951412082 0.58565832050914191
-0.064010248570507855 0.25667545809168835 0.76340150322868849
0.022717608744642348 0.04461922999847534 0.74884815479626932
-0.17157677775926317 0.067127479675682 0.75795137207020202
0.2819160192712431 -0.015207631070006222 0.74068178665028572
-0.021138355648933072 0.25994977917273943 0.75415772596110298
-0.50664531320044048 -0.18876811233618396 0.76737170972495772
0.73996121109954949 -0.459895838823146 0.68874290146373984
-0.26067590220420023 -0.28266026161165714 0.71376904618537296
0.44848385124857337 1.2243345187755466 -0.4748198458251558
0.24501740961051155 -0.40778407844923104 0.38595752057394828
-0.3029700937895381 -0.29368672143178509 0.73102260733271196
-0.8053053122252809 -0.71479495031188867 -0.39191434738803377
-0.69354212843615493 -0.95967194119771804 -0.40533820813039334
-0.10415190095825544 0.29473598113344512 0.75016645642533097
-0.83335281410542272 -0.59654976389791381 -0.27642538630793512
-0.31656393969156937 -0.32132079476793751 0.71821172324020921
0.85922601425635214 -0.24454663944603761 0.62627682164485954
-0.30202585051131514 -0.035974447017833366 0.75575902852651389
-0.39039808328717918 -0.63349652023736391 -0.0058358497370192275
0.4507929648886595 -0.36287427381281168 0.33636879372170303
-0.69359985506367039 -0.95658977964281 -0.42610454568393408
-0.84442581087779622 -0.75985900029889031 -0.43057494327469925
0.72339307054587643 -0.24042424213153657 0.69987403419525762
-0.72208525828680692 0.22205064549125553 0.7202835981239768
0.41263377835506176 -0.21484557065446097 0.25760326097357122
0.33736618917386352 1.0463810075607818 -0.39486941423045518
-0.18488797250564737 0.45221036504565437 0.7581978992308871
-0.49356745212704745 0.82348509277426829 0.055748513684314105
0.30198397206418193 0.67857585510047258 -0.01509009016726548
-0.030311766181272404 0.82673067411074741 0.58574847718295731
-0.49799110534014801 0.10754573725564975 0.78577455619872971
-0.50320329688988785 -0.1028641730323574 0.79203614104053077
-0.080507558283738234 0.68635756875050502 0.71178671774516333
0.14372578269196623 0.49469243019739761 0.67185659818198973
-0.82578322892791611 -0.14805863283890996 -0.43946013495324365
-0.62366879851127166 -0.25883309609199667 0.69289437988468983
-0.47934885077806655 -0.37036286205690705 0.61231030107226836
0.65226312192374003 -0.29598578058630443 0.7241271813679464
-0.31027024703774941 -0.28532883131137043 0.72731658219448736
-0.58500408518659697 -0.6752145489418826 -0.31328488375888464
0.16889273160953877 -0.20668959714447466 0.76250835423329111
-0.42368600227135111 0.21376435649286352 0.76325280419224173
0.14163777638386144 -0.062335583385386695 0.75428855038789289
0.24586060158554091 1.1949196025729925 -0.44591015008190826
0.27632933744556354 0.64411306549796266 0.30908418040972618
0.59128165647508268 -0.29167779855090448 0.72743593280314989
0.31737318233090051 0.90337300785238228 -0.32942713105861676
-0.39716568164563348 -0.50620405272568103 0.58075970027659984
0.2836254506161886 0.092359025903219649 0.51975659294870802
0.11751841430762511 -0.080379070954842202 0.75275874043159297
0.043802865411716851 -0.29675546216541582 0.5241336978432054
0.28646946264895057 0.76516943891675404 -0.26758979873236299
-0.27743187089418342 0.017691232203268292 0.76978754907146829
-0.66569362353087946 -0.50357719224942743 0.45570771219162598
-0.34537844853693933 -0.0086934122123805135 0.7590600262549696
-0.73342493271508324 -0.4220881656017339 -0.38471742722022118
0.15237642117960348 -0.086661473186103066 0.79674278431625511
-0.54949002066621588 -0.10152653767622399 0.74839531759983879
-0.075958757827173429 0.56070658398468165 0.72325264632328823
0.36319336801956936 -0.24630451130026598 0.12640452249979539
-0.48827322763388814 -0.062433352936940079 0.77908270486002884
0.46269372445148527 0.82425735532520239 -0.33831358466310135
-0.64974816987256112 -0.76121661840844668 -0.35336125930933893
-0.50692201619618338 -0.73745066416693117 -0.31593353891926146
-0.70461302120298797 0.58457963796108303 0.063910508692136325
-0.82549497755057999 -0.5849886641932287 -0.3665622847215273
0.73045799081390328 -0.12193497172013945 0.63529351660570987
-0.36699672828017782 0.24194106102274648 0.73694365447674626
-0.54006338418659183 -0.055482376692869595 0.7344534185249203
0.69066903890228915 -0.56506328490570024 0.66026012854633831
0.13523507451325401 0.27229828192998706 0.67207414320014491
0.28393903445652668 0.080837638964954106 0.55614493902409778
-0.73468850261535401 -0.24246625653131115 0.4767876689990338
-0.95190924232557705 -0.68702085734943996 -0.39159469524824253
-0.24692474431828515 0.30316212529755671 0.78424729187724429
-0.38430826807228513 -0.05130666250881788 0.81411594109320617
0.24606976390785817 1.0606683406922122 -0.34000820723989644
0.83215773534164938 -0.46762486387234858 0.56362024526341714
-0.027716130717934107 -0.45962308132651652 -0.30585296598199507
-0.59063207195875123 -0.56280208380301122 0.20676239733080237
0.1778518963564597 -0.050132854440483543 0.80398024608615737
0.024444327221075923 0.22456451243084952 0.71147512892769926
0.81355235897203038 -0.47151462054709858 0.4842331870413048
-0.35628436178723888 0.53021872166233741 0.48511210710330488
-0.087439444050666282 0.4308069279043909 0.80472791502021179
-0.11683528058336279 0.4684023241267502 0.78979860469897156
0.43980568805362452 0.6022070281589551 -0.12994633370255926
-0.93020192467501595 -0.029990266654396414 -0.048507293012634456
-0.087466229231074166 0.70565127054861487 0.71757348374271501
-0.15645844456926561 0.27976907333099788 0.76925254772567664
0.69629931987771165 -0.37839052187318778 0.65213661485406527
0.0022165301964633954 0.84730684950787305 -0.46501182656709172
-0.48620803546394065 -0.67546781392422406 -0.29550026018596176
0.039061956923516661 0.34580197328168882 0.79609489735961514
0.43721733869979751 -0.57513903028549418 0.41713519603191318
-0.29303859647282238 -0.62759324456171406 -0.054344646313364997
0.31788661687368602 -0.16868150398651016 0.73979775975246032
-0.55215125271156218 0.094643119777004792 0.7802839450330703
-0.30871663117211057 0.060946758702237869 0.77392611127919286
0.17356760155800011 0.90132390731611345 -0.33008598719519
0.61800585141024911 -0.61471564783587773 0.42613088318279724
0.34266593574031212 0.98427419706135799 -0.36558136203340474
-0.61856894452716915 -0.53405301059762755 0.49433506696100338
0.092985360895703195 0.81549584258083097 0.61705863250961457
-0.15820167541572872 0.95518466709508987 -0.3653393648365304
0.53394555001069754 -0.0053938564057833815 0.48411245128039404
-0.1446594049484009 0.16956988768586934 0.76243579199472178
-0.53659616483023775 -0.82176212824182748 -0.33883065313441652
0.13280199859299735 -0.13133845229524832 0.80917879421129912
0.4031780097812323 0.48065442818862314 -0.18888948069685751
0.4851293044602798 1.025931496461516 -0.44364708127213071
-0.78282815915213 -0.70608149063867853 -0.38292268539537844
-0.04352362148731892 -0.21237879793570524 0.73710102340021244
-0.75630785816098545 0.46318128249669255 0.15222110655477206
0.23399072807621124 0.80742306806519282 -0.2004747408644052
-0.75371914592052036 -0.95499525285824949 -0.50708453902382278
0.29186869989201725 0.52012564110627846 0.56862671389812647
-0.29415380241291089 0.53412691191563155 0.58461490520572079
0.22138538598479762 -0.05122683653251392 0.80816629985341537
0.023933402814451554 0.53395541788198886 0.73776963736142731
0.041479113549419466 0.61726016714969256 0.66951309534190617
0.48026432992125123 0.66866132551103719 -0.16639136758343742
-0.35664990569539157 0.081128068769600992 0.77821996277367944
0.47055985279930823 1.0850515885078058 -0.41072347621007665
-0.48836855578715621 -0.64105678715897463 -0.2845966014534822
-0.22942602387378308 -0.23580549170554033 0.74020182492263142
0.23197210167029958 -0.33957879491878229 0.69440760738928864
0.19318309693372271 0.0081475069447498605 0.78745005333038964
-0.71121002300679237 -1.0184614721915191 -0.41769729698948854
-0.0052658565501104704 0.72717330467408514 0.68379368052284661
-0.16664132098785345 0.78099535834108225 -0.54442807204741062
0.33840074344199422 0.19999391863787075 0.31065133646610299
-0.51884475776019556 -0.036496638465829623 0.75634753202867477
-0.16896654165990199 0.37376417092648517 0.75478970138628876
-0.078661142879196788 0.51543455489467682 0.77549626618818746
-0.9685086523636226 -0.80465856605034414 -0.42459295320461399
0.13472495229758152 -0.20042715313991177 0.76580660767116759
-0.52538233314204597 -0.77707898260694308 -0.32207670269115507
-0.063538967443498962 0.27323071045581715 0.74778512651810791
0.28835128061937532 -0.05916437932188412 0.77051288998658785
-0.060663279969052297 -0.39805538379836847 0.41476837369514552
0.63912376995381948 -0.057249661503658178 0.61783355478892843
0.27455044201255419 0.18399063873296728 0.60553486809809298
-0.32952464289891203 0.013022403262897164 0.74158155105815027
-0.75416727121071148 -0.92096025693415351 -0.44907323212721728
0.13298140689220439 0.84951196144737262 0.50810614369797502
-0.52029989014980949 -0.12250558303161263 0.76747378999825289
0.13332904017913627 0.30147921135197442 0.71824093201620443
-0.023105175891195984 0.94300058993945624 0.084199637274663619
-0.55213963887124784 -0.21248540340841116 0.71088169942846413
-0.32982244870890298 0.61719393251018151 0.78351969244475805
-0.12074588755050364 0.57707897143604237 0.69279540595870825
0.28418068704503163 0.89909229481113084 -0.31497021146595872
-0.89416381821060398 -0.0072965054054950906 0.12111325205500378
0.71991897808494087 -0.45363935394748767 0.67327764357147668
0.49304405096449244 -0.3129119919241381 0.33035367398022286
-0.14864506363769436 0.57962689477522655 0.73168358541309519
-0.11128332932345941 0.51826973496888695 0.74884530898266854
0.065840434887984856 0.83112988920252517 0.3672598400210827
0.15226221839854226 -0.075229452429121713 0.76053312176971932
-0.35699360809610958 -0.20773076128868961 0.80412325516923788
0.75182596477205088 -0.2226910052484361 0.683955035106248
0.11785560182510935 -0.19625006702815151 0.75107503385542618
0.79337341707108244 -0.29097051843888 0.68141623878200752
-0.90687044460560529 -0.84507860588469097 -0.42191072474921665
0.51046299931740258 -0.56299516651385018 0.67582033481442894
-0.65273426940504287 -0.65071852356752613 -0.29013536281220187
0.2458845955058333 -0.386355253560136 0.67018881085408166
-0.19217566330893021 0.71892900572377694 0.39070392438366452
-0.50856839007981769 -0.31767594628456197 0.68718921921062659
-0.99127678465949565 -0.81122609494076425 -0.45235767506511815
-0.61646339153681495 0.14045557651917839 0.48859835636529025
0.28294371144993846 0.10729538827313201 0.50957463324253771
0.2825123678522985 0.059979741736420511 0.61748123465323657
0.33155330022206186 -0.28996420505626386 0.12407465053599198
0.34533061525423392 0.32862657034095122 -0.23405847782188705
0.30955261784076882 0.67962942532127635 -0.20706653091399385
0.37400493889975372 -0.19899272741225715 0.73824321808892868
0.018469100382393577 0.16634784281311177 0.75166593094772383
-0.5549160398646702 -0.083935485458725756 0.7291220629346542
-0.59355924700072649 -0.99217897320043791 -0.3846609195299
0.42002914260843127 0.0220396220734842 0.45609642033907516
-0.5311041783004562 -0.79679878684131089 -0.32695360178737332
-0.24969938313685702 0.24009699194116152 -0.76205490055582814
0.10268246480189802 -0.18242033680800773 0.75293913981396532
-0.44431141440026956 -0.73832642194774967 -0.29576900412687746
-0.37130932583201215 -0.63841164651036841 -0.11779483141423963
0.16969996970778567 0.24031632901464728 -0.59211014160820508
-0.4032052897865217 -0.68391911040607223 -0.21369171732042513
0.32758370549807836 0.47358553784682011 0.27514395057883956
-0.096854830164410544 0.20777842942535596 0.75803351964530297
0.51400002321922855 -0.13239495651548161 0.35458398637208122
-0.35754246034069226 0.34483886728711788 0.78544865678397757
0.68671724304775239 -0.36827374295606052 0.66146182387884433
-0.096401011470602427 0.39443296610696255 0.80693881831000347
0.14842394519866353 0.5438941204285852 0.62031409514524993
-0.35996027172491729 0.43536751193848949 0.63074249208234257
-0.26422596592431979 0.41851403983450708 0.77285384014808534
0.70915277820846967 -0.090194464663489793 0.46542397397513247
-0.39685142963529607 0.38999122793131868 -0.72421660434252111
-0.10277477677744251 0.62336197182933328 0.63978894288435173
0.41934945996078099 0.52062749067588254 -0.22814852178702472
-0.8195924858675756 -0.26863363111931915 -0.40222461961819889
-0.3387164073399358 -0.28571785754987422 0.73910010671613824
-0.7137170648337996 0.21670990110741617 0.74698181279710241
0.13901060988333924 -0.37080261972641537 0.35279355728381168
-0.54686550137742707 -0.30797421320009022 0.63774013459573009
0.49690063732727729 -0.35637155646362695 0.7317696812656056
0.50017166229741505 0.77602884250703774 -0.25173971955681029
-0.45777580019809427 0.058954207697903271 0.77322705387429869
0.87757956318310448 -0.18116119771268302 0.55018494939539497
0.58677323811637905 -0.03533735550211814 0.62184680531176206
0.073247920921541976 -0.28381980699498377 0.58910065104303078
-0.211912384935113 -0.29502669827807271 0.71012853386831098
-0.77663408793509348 -0.66823782841340296 -0.32483893276871267
-0.30875527167226124 -0.5137684380248313 -0.43922927460290095
0.045714241020640145 -0.35690576035390542 0.4250095524425439
-0.32547779815442723 -0.6756791093883936 -0.14300057032272306
-0.48116707972276984 -0.65906548426117229 -0.28529331564345917
-0.65507288849424938 -1.0196055579516703 -0.42514914578254359
-0.63815839935738339 -0.26347402594083702 0.6920280907359313
0.18247004424822322 0.85513834389247756 -0.15228317566824945
-0.51385854696941813 -0.2674206472133136 0.70662979167842499
-0.25332779931640736 0.26431884876649514 0.79031356862057089
0.64903412251783266 -0.46170963301849755 0.65502993694677225
0.37512692227736721 0.96688221674304886 -0.3688721954882368
0.7762783208072257 -0.35508158342214813 0.69259671997129546
-0.21625100270462205 0.49557302193003849 0.75210431835079783
0.68702911466990635 -0.4720831836401862 0.69923829207527777
0.10379660425781978 -0.17941628778869223 0.76487346566035264
0.65808384779411355 -0.4468398866095602 0.65003408106656591
-0.032348252019225754 0.34153018864501927 0.80733996131635521
-0.55471753738312657 -0.56226707777090912 -0.40524907153411416
-0.73638130665862178 -0.56509225030301269 -0.35716725446292941
-0.43915613570035461 0.11105024405770747 -0.72247518263570409
-0.15951749310187147 0.50561049800947422 0.7477314649610558
0.057757510185091121 0.63441658458270633 0.59170623783438003
-0.22934696194516135 0.39691259045496385 0.76867546788865404
-0.22566685905598405 0.83787352123785541 -0.49334731318997793
0.27435007508936771 1.0499729467242642 -0.37954989994578092
-0.56274360713667271 -0.1808358481786001 0.71440284952219768
-0.68161515038403309 -0.54547642119147366 -0.35029226571670069
0.77257085174804274 -0.45145012118972749 0.42868662994296147
-0.66583661990218701 -0.57375145358138169 -0.18853230706547608
0.38389677069617001 1.1475768473567753 -0.45217812193261731
-0.37318170432582498 -0.68179439708557332 -0.17998100047094923
-0.41050764542920959 -0.34526047177721586 0.70217804023021424
0.57919518578184714 -0.054043319987328253 0.65028906979738665
0.76372813194027245 -0.41107904180917831 0.68334076429917956
-0.82609540914391566 -0.91796260160998 -0.46559896119282884
-0.6985244136432911 -0.58605139685759444 -0.21471809326262026
0.38654403866386566 -0.25369579305905843 0.73843639311302756
0.3922896372587239 0.63103039327029498 -0.1839575272929288
0.06518070640452045 0.91970572611854551 -0.2695899051215096
0.31576753164045712 -0.16152394685225713 -0.27116262387962253
0.287546232330401 0.87860313429497872 -0.30901835090758745
0.35897465893886071 -0.29270997117353348 0.73506707881740918
-0.082976988118796058 0.57689952005690304 0.70552806577603988
-0.39568041699846823 0.010789301445664368 0.76563446986619255
-0.81240386564543776 -0.56736995186055617 -0.28658694674228435
0.14146607920644172 -0.33882301823785443 0.60537080464920523
0.34549447521274956 0.23339944684371106 -0.25721813611885613
0.1680828659369471 -0.018121859892051839 0.79351273836781999
0.34148802552698498 0.86249629399465944 -0.3206613112055412
-0.49842018968063506 -0.55153118436846404 0.37925214221327508
-0.08617545194702636 -0.25732466161142487 0.71456145947912431
0.3260539860400602 0.025725486454910129 0.66432928051833962
-0.49333883102744558 -0.66662504156225699 -0.30290301552811494
-0.69629716822851684 -0.3105695553151322 0.69336453031935452
0.12913863658869751 -0.2805775070312535 0.67309029782728791
-0.64946342764364218 -0.18515745878781886 0.71977292773643242
-0.45065969752296375 -0.72973745023291603 -0.28567047989683125
0.31484339377471926 0.28385036055276247 0.39833515784315221
0.30697203957816832 0.72980451979008287 -0.2801849864520336
0.31688294912067505 0.45696134762325258 0.479583158984354
0.79804774000776746 -0.34735139048569952 0.68394723699374227
-0.36503931510825716 0.024487576431783786 0.74049060898200425
0.091422945083399654 -0.11458755684434552 0.75996429346530858
-0.4640326270839914 0.090997295647797016 0.77870157977490262
0.40482341323808768 0.70121181704012503 -0.27819097480362576
-0.24051477939106292 -0.32577234059341231 0.69900174584170394
0.0068019121486422307 -0.31849690529531527 0.50546438127218618
-0.083861720806218898 0.053894130913550331 0.74594986876826219
-0.20514157643126296 0.65470834333155103 0.49802174731164994
0.043269361875170276 0.46743064005611967 0.77788593309300857
-0.16398496224558379 0.75643644285625622 0.62822201696223212
-0.50368166703742467 -0.90965072774131239 -0.29405279512457749
-0.29393428635827412 0.55827200785350151 0.77650493127395626
-0.14904847599366633 0.75406971610407925 0.35959533618443196
0.084739114508995073 0.36434533278741754 -0.62821787384678895
-0.19139625233546731 -0.15611936993822706 0.71773834109648327
0.26088146883862962 -0.087215474193666598 0.79286679585183695
-0.82969280288841496 -1.0084890243199411 -0.44829169759958098
-0.87020415490906977 -0.047290684563884966 -0.39278991192968604
0.42301312066936703 -0.22241980922665894 0.27730338818338529
-0.31457345387603119 0.0020479177345229527 0.77545501774925318
0.34065609964657639 0.33113153504226678 0.24045240550511204
0.23309214801271416 -0.014844000448488215 0.80306825470647425
-0.2135244948170012 -0.26917093439933371 -0.64462482482278416
0.181246233677264 0.39071250519511613 0.69055784392778241
-0.31912838904563401 -0.22552296368943936 0.78244022979782546
0.64464397042636357 -0.67427151158964627 0.52604111395132902
0.48629017625910542 1.1166395685363251 -0.41267590012162225
-0.0053474022691517575 -0.2921519915907469 0.62405920876965704
-0.80067188198410832 -0.93416712038247596 -0.45463211562588235
0.061353539603647533 0.27707340911974931 0.7514960611343855
0.052856921712463034 0.35818579708803355 0.79240740081440597
-0.17923768516793537 0.45072548349677077 0.75593203366368744
-0.55593437879261387 -0.93084380227849728 -0.32872847256308413
-0.10302166776484611 -0.44192614120927898 0.33420545407331748
-0.4607206682223417 0.073909683134730342 0.77442485960032892
0.24621766175177839 0.0049013671466220377 0.76838003772552055
0.67006773162401423 -0.22894018944764927 0.37163971908255733
-0.74870203092572574 -0.84456241110976893 -0.40527881136834276
-0.76778351928952482 -0.28321365210511185 0.65505105755623116
0.68322638660678514 -0.099089159348572764 0.64070911788881069
0.059492408276783593 0.67888593827577459 0.65528179740329318
-0.75737432401800397 -0.43732443874161242 0.57856823624490605
-0.91093125544369613 -0.74445426477529575 -0.39409869884421056
0.4656615265731876 -0.22469827439856704 0.7343295643143557
-0.071256890068603695 -0.37394460536790319 0.48986487770558096
0.3189070991339662 -0.096720804252528048 0.73964267052178689
-0.39939133739892085 -0.25058626784122096 0.78052209058172695
-0.50448574535685431 0.22323000242950175 0.76356156132584063
-0.59353400067762152 -0.24619691360077711 0.70577171020309581
0.90878339218290094 -0.25159564949176705 0.45739360264586004
-0.094427432068032502 0.72517473981015423 0.71766505760945254
-0.95988638742317178 -0.72513000437054853 -0.40054749061513206
0.013561807628850175 -0.035035395240594402 -0.69813196684669565
0.70315664276713541 -0.30347981389819001 0.70509233188572162
-0.36620080093951657 -0.1671575708566222 0.81483166381677208
-0.89716732983382208 -0.68809188813048749 -0.46933654570045391
-0.77319193502019523 -0.63541739550277765 -0.27664458174326789
0.36683845774476254 0.014316897172927945 0.65929444849771102
0.36745861529874091 0.45287983262237219 0.053079108584487944
0.19849663700365738 -0.38811554256233682 0.16037807619735966
-0.71122864841049349 -0.66011666054551044 -0.30995786031557904
0.72312720538431918 -0.45527968368307503 0.68240430697539223
-0.35323311801019841 0.080620261060238896 0.66211679982730676
0.36368172856051295 0.74103948431555899 -0.28918473823317203
-0.80652791572739346 0.29287271347321719 -0.40859294249540135
-0.34224624181965169 -0.39775683676503482 0.5981736203062602
-0.58109883720015887 -0.69158614243454009 -0.3184431450518046
-0.72300577611553862 -0.47262851630928004 0.55868572489305413
0.77661257896376945 -0.38534376690869587 0.68750158892129631
-0.41957909655273085 -0.73927410545337269 -0.27572624033907944
-0.41006760784309293 -0.10581707383251149 0.81879295009279085
0.35168436188365604 -0.39664474361351942 0.70814699308599072
-0.91696139907411833 -0.14790354406733885 -0.19383435452285003
-0.66936324225443045 -0.76413630883046557 -0.35953012201808132
0.21176251002100699 0.9439979643527594 -0.24387431299975448
-0.085981114731424668 0.25068614546958479 0.73605510386008222
-0.27632973677730988 -0.24753278509053245 0.73947569071645436
-0.42805317015542421 0.48592652036185985 0.76309254906250734
-0.46620675347880436 -0.79320848824239376 -0.28686355875101111
0.52808468273208931 -0.67170788006992233 0.58579169381430352
0.41843543826666263 0.64695617651507697 -0.17096087892039868
-0.52803718929235188 -0.028186760530941601 0.7594837642863328
0.50000268373323387 -0.43229368982675931 0.7216343731044863
-0.43792758926085362 -0.67074385839292705 -0.36056184676531622
-0.2524123426922813 -0.12522722480771797 0.76891214330211577
-0.78612762346897469 -0.770556436499785 -0.40661607681290501
-0.10132158905465793 -0.143588605488572 0.75806560715580762
0.17163808823127091 -0.068930330723136812 0.80265317747357523
0.56446368013055093 0.920358272263746 -0.43396209786525519
-0.42745686410513883 -0.74043906959500361 -0.29010428616259443
0.10233772251760342 0.58181894140728163 0.66874771912249686
0.34635156737937578 0.60590856969647566 -0.13007843712961886
-0.071552992753609601 0.99118902563410605 -0.21311012475224178
-0.41472553629030529 -0.67904220348066291 -0.21762578929724929
0.27832210247093947 0.46717466012799469 0.60109320942994726
-0.27032929729649524 0.031278924453815193 0.68657652685065429
0.032177621016446167 0.20310173146014376 0.74890911196892418
-0.33395308795454071 -0.50565470446378491 0.56622512952688098
-0.36283751605482806 0.64732286127379279 0.62180137660964041
0.47370005826934936 1.0944810066901196 -0.40775434232051166
-0.64240820438519819 -0.40107264797594522 0.64990688324889101
-0.53673606530343854 -0.96507860605343376 -0.35900443509566449
-0.73213365564213184 -0.95710295360522823 -0.4455115750482026
-0.43712202971577163 0.13124639347391254 0.79798464701830873
0.16448844672215657 -0.068349015759542775 0.79646638301292283
0.043640020420420811 0.45530224348187676 0.78159421389821038
-0.73604115592630315 -0.26878581728736539 0.37331143939884814
-0.47805528534187047 -0.66989877262718611 -0.27604638926964054
-0.49026183646350319 0.08677369103600574 0.77645860568952019
-0.044588239822260789 -0.32397655316574925 0.61442668769406117
0.22530554315736495 0.7323054839345311 0.36338675728911829
-0.47257024474588505 -0.73308330948364309 -0.304725186738807
0.28240194306202326 0.047260403455385847 -0.4591623418829025
-0.3807001921645714 0.2288768069142405 0.73732848798406714
-0.06838678446164792 -0.49792930764054799 -0.11460978277694833
0.20285872889207646 -0.10023382970639982 0.8080493209068087
0.5016958740469768 -0.63359262411097639 0.42204064386037921
0.59084560783378315 -0.63797117431500183 0.42529157689309605
0.23000217806540135 1.1779324297371183 -0.3638584838906409
0.43523827240917257 0.69981079574624216 -0.23503184696154733
-0.47043214174420278 -0.711835753718148 -0.28583969228869144
0.59309002536417132 -0.081827248163584443 0.41070155825626742
0.55425807788707893 -0.68879373865060334 0.45758212359139283
-0.33035692379805148 -0.14940155534073218 0.81667186530718539
0.47922467507817501 -0.26341616071720608 0.32258293109583125
-0.49837611384991654 0.046846099968735455 0.76813708236798117
0.68432143240299936 -0.61831358515387658 0.47954703875910387
0.16216501217473045 -0.015850796923933874 0.78779709117192676
-0.58812930519216167 0.15077484868579649 0.80016920528546054
0.35009913786851854 0.90608505181692545 -0.33907241269090349
-0.057908429439795128 0.20668361465811502 0.69895093135770825
0.1275421462893167 -0.084199293765316874 0.7613794106119629
-0.62526918830691081 -0.68030921070347583 -0.31869621465100861
-0.33175924889580166 -0.70135900169553111 -0.14428673170273498
0.52215369009868695 0.67424311845664509 -0.22427585517811366
0.16833174169726917 -0.38360196861622908 0.46221799842694988
-0.42650334023847414 -0.72810793785620054 -0.27127423545314677
0.019308656732400564 0.52182809107259154 0.75948433710678476
0.43390902954876864 0.67853096272874436 -0.18835721626944846
0.065481212973383052 0.30363044935768047 0.75003334108961761
-0.54598514972344958 -0.85332862040811008 -0.35925443397316847
-0.35072161866624008 0.59716892018054391 0.78948229071455867
-0.77588435739125217 -0.3695937500614852 0.55019951166961656
0.89684127225819843 -0.20125699979558398 0.54543646190763884
-0.093294781597361265 0.61818663186810996 0.71233023661503259
-0.43970317695240091 -0.32773797109311564 0.69548265153145117
-0.65215833196174167 -1.0105544691235719 -0.40403971045269937
0.4107331802179921 0.66510199850785667 -0.23969174639059254
0.78021331466653265 -0.20676607374765998 0.66498178414427667
-0.56865145305987852 -0.92138828575386333 -0.34606103312193692
-0.95812105047475704 -0.9090245997248001 -0.46327031404434393
0.089259639597026208 -0.13387727809221239 0.79114899492809032
0.4528800726541764 0.95258035567968879 -0.4001071247072332
-0.74372380394293103 -0.4802494919879956 -0.238321246814718
-0.34509918850655552 -0.019447924954375306 0.77052751108754203
-0.4485584304210235 0.010722768484203726 0.76597927353547224
0.29041888092269197 0.6291833319640745 0.49289107726614834
-0.13129062069207897 0.31514385356605579 0.75287622835237311
-0.3398957289464537 -0.36953174765824759 0.68441919712544674
-0.591536877553132 -0.6415321002681299 -0.27330013745037185
-0.89545769793948793 -0.75370936083799212 -0.40159826713266167
0.023764940288689473 0.22249629748956545 0.75049562264355352
0.24036526184980289 0.03857027641938604 0.72168422753608974
-0.91005343692902585 -0.70465428619495296 -0.36917260019417419
-0.082699618469558089 0.60010218880178379 0.72282320959703572
0.78450932488658864 -0.38342108752219106 0.68613059504296503
0.78532913447658714 -0.35197919655348553 0.69053402077930981
-0.26362609088583433 -0.40748735875550812 0.65036128404954807
-0.059902589834869957 0.78439071777840752 0.67555800548707401
0.44970030550273421 0.98137095229328697 -0.40961656148309666
0.19224969933127056 1.1067780337140025 -0.31198200893483552
-0.69093602377982855 0.2404507605323416 0.72580240365546445
0.32314437831274034 0.70673628778680531 -0.26472308987539295
-0.47163079360042737 0.030855601171011049 0.77215122136160863
-0.73493357164720052 -0.55195259134833308 -0.22539396016142499
-0.69548405503252475 -0.95977889889062151 -0.44551451226138949
0.61768269319965796 -0.46685900540786651 0.71897208876363217
-0.26826648433616818 -0.048959484054007074 0.76634518697739473
0.31782640951904639 -0.037432821870425848 0.72836679628619549
-0.23987128331687657 -0.60934784599479519 -0.10043800442155648
-0.55982608595935801 0.57024857784485083 0.32118997205434408
-0.47453368116817174 -0.71697569484838353 -0.29612290525264839
-0.033731106429460311 0.96183093938485809 0.028554650045942154
0.47382908758773112 0.58387719940340355 -0.23049340445999089
-0.92272709358133298 -0.84323948215493083 -0.41901308971089612
0.33297234275244314 1.0877074994082452 -0.42530553194848864
-0.47476624002698919 -0.21880994595616698 0.77671980954106701
-0.31181156193849446 0.9365607023737228 -0.0065614242060956229
-0.54991865490286962 -0.25328456356744811 0.68705269923203893
0.20873413542139296 0.70625228743360469 0.56321556094103897
0.2106356080814713 -0.040322579468737629 0.80788536505057307
-0.49464103513773416 -0.011703951645412269 0.74460981835420048
0.49574218141201776 1.0982276252729788 -0.50278726544264263
-0.11723337061015826 0.42915617720492805 0.80075553274172773
0.41417290038760513 1.0193445273427009 -0.40501089194505902
-0.25554824839749024 -0.019819145989648623 0.76943909809296551
0.58133466059930328 -0.70319640524725191 0.54721431872311599
-0.36145196891600762 0.26094232218177238 0.65655617708047931
0.031566015187149077 0.1313916459858866 0.75370598062155336
-0.067897632831304122 0.64957431049257552 0.60693561804995877
0.63971663232598885 -0.63336700995662953 0.44838751207676286
-0.53411076609957142 -0.86431932192430849 -0.3571200352619428
-0.0053809313167221262 0.63993427247164514 0.68814342939457118
0.58812529463034657 -0.14211961084983971 0.70287830057328482
0.19363468157428976 -0.17783505106554331 0.79207212027707241
-0.6010914503773126 0.24022702915049843 0.75989716585597344
0.19039104114571082 -0.41210573780081239 0.49971324702363429
-0.67080549198123229 -0.50756773220627061 0.48584273000674116
-0.77612825654778916 -0.058301358182337282 -0.50306539885653301
0.15750661828033863 -0.015385445659104935 0.78100348501090222
-0.53316495061968716 -0.023224805714520791 0.76007395402954891
-0.42919976473650934 0.82857942371773374 -0.38801830093808842
-0.37832901636840965 0.34826698384910915 0.7406800029440026
-0.085634049629261355 0.91404994100700132 0.1462280920521839
0.11396734520045015 0.29483100440817278 0.71254531936634091
-0.19746484327728098 0.40266540254718441 0.76665731790919711
-0.98208774761552853 -0.806863182753777 -0.43612285615849888
-0.1031913535350526 0.24617901548218701 0.76540217775762009
0.049981825110739564 -0.19000284718639571 0.74496403024938385
0.15696403834512296 -0.09105540996451178 0.80306053946487976
0.37666996945458564 0.47851657757190136 -0.023177409549580918
-0.80424637804574495 -0.6327802444426982 -0.28210077711808612
-0.47558842412148294 -0.095514130641641604 0.8055173148906829
-0.46366886963778953 0.47322008081094602 0.46155596452628256
0.41064545849426537 -0.40281566878804176 0.71776407593611258
0.51631488549772797 1.1482791141500981 -0.48244373662032691
-0.19518679947851325 -0.54261780889243116 0.13036201189574914
-0.51240648943436184 0.22429108074873483 0.71094298881572415
-0.93223600991626654 0.058303479684020942 -0.17908138049445643
-0.11749714986512316 0.49231075061028773 0.76504616341817311
-0.15729688666688091 0.0029801977910339783 -0.73796751889428247
0.35902800812985802 0.26003363834866411 -0.16757233479628253
-0.38648738944495697 0.2075435645459609 0.78169460926761269
-0.16192917421449948 0.45472682519051255 0.75242550822871301
-0.55777178399826077 -0.29135273535994521 0.69136078882597296
-0.78188121766440588 -0.36928416690406607 0.57954045619134931
-0.38643882832525556 -0.53743156299437644 -0.44221842605959427
0.25222293761037484 0.87678046539322341 -0.26548981965066609
0.82973971074448016 -0.39741867624094196 0.44540080080852662
-0.61708911849714632 -0.18827238512749367 0.71474173527833607
0.0046812070669179917 0.84883081588287834 0.57371326712299009
-0.66442321702463225 -0.68560085913829405 -0.32807371054036238
-0.75754738983068215 -0.44063758623682903 0.55288974239436595
0.33298333414678183 0.64091369677532528 -0.3347698590492354
-0.48776747437317169 0.17331641806433029 0.60354414344083729
0.4624702997443535 0.02071660245060869 0.4900933601375872
-0.97823828696262716 -0.85702837503396401 -0.45095181441080712
-0.072150102147649164 0.78023627361032444 0.50274628356908524
-0.22198874660288936 0.90452275011766448 -0.42675241592709501
-0.6804402539151635 -0.065876718599341411 0.50318372569871084
-0.30056418472499757 0.19802133254801735 0.80038680095961157
-0.95222480326696157 -0.80462233529979321 -0.41777831145447752
-0.30634777715141404 0.42118641463615458 0.7945256781641632
-0.81603221634123813 -0.14141970969949991 0.22672372402630625
-0.85347938865622552 -0.84360973840483411 -0.46810855269642726
0.75251601149587266 -0.15944778073860943 0.65379838225904163
0.24721341770453975 0.56385716644283934 0.60110152502179037
-0.70052651516664355 -0.51022799194954438 -0.30454578976136126
-0.0796674888954918 0.59323798256260862 0.72764978682714654
-0.15540295669256388 0.51733317216978214 0.72590827000788938
-0.35877930008130576 -0.64047124730146843 -0.10299148392582858
-0.76414834105472274 -0.69282214850191981 -0.36487405419436136
0.6316346503433703 -0.075932046667710473 0.64574304257051418
-0.74340571184531079 -0.12952887358873122 0.57867912645881159
0.75914075412327087 -0.39916151304866121 0.66911152853751332
0.52668444532255698 0.95543343528523916 -0.36507642304044952
0.53728037906885717 -0.12079103448404771 0.70739273647930134
0.48296459526763336 0.64256562695574437 -0.28754507605968449
0.062365815886082032 -0.080480815387051652 -0.66706878148315374
-0.38855106034047893 -0.69909098659424584 -0.20332151828005607
0.027951440865148669 -0.27080262120397558 0.629959995231407
-0.36547226183829729 0.31251410932566503 0.73970670757992663
-0.54815726016972022 -0.89768296341266074 -0.35898377084842226
0.13671322245288309 0.87634617583693264 -0.28954874972601097
-0.59354199784375616 0.066323441169304331 0.56880808755946077
-0.75233013392094428 -0.627734599950872 -0.26202773916183997
-0.4136252701071168 0.018976141380771194 0.77005958511314754
0.62132565482837876 -0.45767398703831264 0.71949872202953791
-0.47066385904967944 -0.59465295950840469 0.18141594755292578
-0.70627618522622804 -0.77175901535255953 -0.37125693701948848
-0.17390615065715842 0.37148514524490661 0.75985567048367342
-0.82499205793667407 -0.99873418302293371 -0.43213533104504975
0.016487936842978002 -0.30985343570767498 0.51677088972587981
-0.3386212830866846 -0.42344384537754465 -0.53659622761739012
0.40079299571955751 -0.51317452571304312 0.66344298867234808
0.45760834873051159 -0.59335342266717772 0.63029633738406998
0.045762152725625782 0.17567513190902107 0.75107688313083809
-0.50722229597514712 -0.6502966193349462 -0.30134799750264563
0.16364915047031303 -0.33080304273404715 -0.36426179227398592
-0.00083594800144837222 0.12585205516162312 0.7504541059455847
0.15507447686831988 0.1634231847432317 0.74006769807661721
0.37670224943144603 0.58614784496432792 -0.13551033826206682
-0.30022301352951786 0.083531080567944116 0.77789058198245487
-0.70925248256606288 -0.11888613386292929 0.43993686485197614
-0.17320154492110795 0.29514268106866859 0.77018387365146967
-0.52527344859345781 -0.065128923518354753 0.75045256595604526
0.47025662939464929 1.0715101493683463 -0.42430830011849707
-0.86075225354058205 -0.18200989479150254 -0.37675961660709856
-0.040443703696659838 -0.47939143397733064 -0.21030331210919195
-0.67102937831433884 -0.55855721663643365 -0.10742646506052855
-0.55432092070415884 -0.026399673999336293 0.75542828376531723
-0.22366318145100195 -0.28386039074735558 0.71669983397716264
-0.23378359516960501 -0.1647822606207141 0.7642201040087877
0.024451187170825506 0.33191107713474466 0.79542594779454756
-0.31547606819552421 -0.026331584769017979 0.75676240206217882
-0.58674686332113524 -0.071898570934907258 0.68915165705369708
0.51565316071383016 0.75444742010553323 -0.2379484034764916
0.097301894004173661 -0.14529331455118077 0.7977804614855617
-0.67748064079566817 -0.49417793494197215 0.27691195974446448
-0.5744578698147329 -0.12240653286348935 0.75085278188509985
-0.51624866085845156 -0.33091536900934848 0.6898389486346419
-0.98183744387188376 -0.72926301107695279 -0.45834984222092334
-0.31384862283460357 0.94937866797735881 -0.079770351676958562
0.21586581473385635 1.1317362236703539 -0.33273818799645838
-0.56351792527179789 0.75500628718195184 0.063184097730186295
-0.10125429548264719 0.63038489070370918 0.7117453246487222
0.74410514240813619 -0.37579777781367607 0.64366836402367356
-0.012821343190948298 0.19249636723073449 0.75136422505826372
0.16173673961266211 0.36322752032841499 0.70728355666981413
0.098907401512676074 -0.30805326687013102 0.57967249861255077
-0.79097653777257904 -0.9562418759448339 -0.40998840951086235
0.19010552282712823 -0.12141999797893721 0.80870828453073251
0.39031149252583397 0.83795314801592968 -0.32130011683566995
0.15890656863851227 -0.028295654863794484 0.78930538718913912
-0.17242082730978936 -0.45038703988515105 0.44033517017215607
-0.44815216431886995 0.2014832990737252 0.613027525573695
-0.47432022331351398 -0.19239943463650033 0.78882713358486667
0.0095067516344951031 0.82106245375452158 0.39260275242598475
0.05722330865788372 0.35411644508109474 0.78793969531349317
-0.0072302030629547431 0.95815589366326859 -0.30747483791227204
0.86921696506446722 -0.18949165861392547 0.58154609692013626
-0.8426376475266224 -0.38528919547231932 -0.099791383217904261
-0.10630301232787076 0.1837752436676483 0.75689383316798597
-0.10497962920171133 0.20377315648650041 0.6816145678100618
