# XYZ point cloud file
-0.22398968465944336 -0.094744748285339853 0.74022004732705504
0.7782281572838663 -0.13530022850930301 0.63304447800040187
-0.82049376329833024 -0.62828869023815059 -0.27693000588039851
-0.22931382082633078 -0.28490547271965738 0.7223324908211799
0.2533112468852714 0.85755034406284913 -0.26957470675558604
-0.93727079851436557 -0.95643363368415457 -0.50835519526562933
-0.32385542373328846 0.81225298420888947 0.22890824450362857
0.74872850974329452 -0.33372871288995221 0.66272998792896942
0.17294293679607264 0.0032854593791675768 0.76570798857137135
-0.72858664139295826 0.20357646656792738 0.69554370709273883
-0.19269058011677132 -0.31487207425433716 -0.61695834320084408
0.5457173787191465 -0.69986147306741842 0.47455345007789784
-0.4187212377657481 -0.88855810255302181 -0.29439628309421906
-0.039081537243149 0.26049368653973204 0.75453634098592559
0.26588417420015986 0.14051205208304474 0.61516687144308424
-0.3640964497467003 -0.54529356508171745 0.49731585593901428
0.45833951143670504 0.90536194781397583 -0.38162949419189296
0.43070290470826578 1.1369822915707557 -0.45662252862653041
-0.54252090417244503 -0.65142757501370951 -0.31197281768609386
0.20793621914210192 0.61216569103391549 -0.45738052503049431
0.19241346867903886 0.5701225968855077 0.63972988806582265
0.45041851564857538 -0.042194125922199177 0.34256644504912259
-0.72515220829674831 -0.20695392975219917 0.49227689544364139
-0.071286177507051462 0.23194878346181724 0.76271997643350531
-0.40189903236532132 -0.072578579282470912 0.81793383387631291
-0.10625883033241834 0.46255459175289104 0.80150628951147063
0.2358112597465265 0.94056478817389522 -0.29235351905912133
-0.86805483629952462 -0.82749403149574086 -0.46452209858661675
-0.81338575234671495 -1.0041631572937462 -0.41994197847088799
0.38421515832142461 0.14904315980582616 -0.11136086378655996
0.18096720035405411 0.38473484439590955 -0.56258034528788947
0.15804997056556402 -0.012637027349516217 0.75810467957973859
-0.57470753152108855 -0.019760621615382945 0.75370120487517767
0.65912843187008363 -0.41362987452558286 0.36130701995561942
-0.68989612418024038 -0.99319652417471183 -0.39348462570959164
-0.33965524685133275 -0.0097153546550750036 0.76975832699068469
0.29323900416300575 0.083033567062948066 0.51241147317691649
0.36949694855809412 0.71494555284344585 -0.26303914902124603
0.48401075442071928 0.78354764020552103 -0.28299884417534393
-0.43628570234413644 -0.57004168228269414 0.31529494002022851
0.81233647342476445 -0.41420087843341769 0.66202568235104131
0.87998959035308033 -0.29096576291533438 0.42500365291573328
0.34170917085813457 0.63232394965853445 -0.1646348518587164
0.71519287477895332 -0.19290036385526932 0.69469267495032039
-0.46012689575820431 -0.87089046789242808 -0.26582167170773907
0.59357629273478452 -0.65433937477456716 0.63109893600267064
0.034076600178494232 0.26303030392659288 0.75899768049907568
0.76278162906586289 -0.42497282089579258 0.6851603699312836
0.0038009183396994217 0.62784202066633377 0.67881328253612416
-0.27434785787105653 -0.043526228232224184 0.77076981399747346
-0.086914110868470118 -0.0072717720441275446 0.74603609063851017
0.18826372325915841 -0.20855388410815934 0.76094298711849362
-0.089351543342299777 0.52361270062921861 0.76682037734430253
0.41923795026654531 -0.4455650649984122 0.36380858725881104
0.19794728321531352 -0.4001396972811051 0.6042780756592343
0.31169612730282736 0.064880303141672258 0.54686792659417449
0.2238333511346724 0.85390919314922087 -0.22967226657796935
-0.57533099501698004 0.0091297896165887238 0.63150741995668369
0.57583641295762789 0.79611775848411703 -0.33414034028818662
-0.25378192742673278 0.11629830628343285 0.78114217326984026
-0.12156923412819864 0.21369165670664358 0.76169123281767881
0.15151499920796141 -0.022296560147248456 0.76665845816790679
-0.46276263393745865 -0.36474468408783167 0.68979709025613278
0.48856611063582989 -0.55150465550841155 0.67798652179143293
-0.75385754353505519 -0.13135036861288363 0.69613930079638564
-0.84672720305032456 -0.39384281669040178 -0.16211335172459407
0.094289131901753365 0.25978829736775744 0.70016178637558379
-0.49106262549024393 -0.61739349841903213 0.056809693735004885
0.18494899365921569 -0.14187748566634362 -0.53805648016120422
0.54150182075965247 -0.20739698084401681 0.72950818753073232
0.48216636511812538 1.0828082452842809 -0.45626656844159719
0.46905620211062882 0.75354946266559963 -0.25531499094759447
-0.2926119221022212 -0.037307128896785002 0.76740572134964857
-0.40917151282386399 0.10084962142322951 0.78949377415712441
-0.41686707876119655 -0.89213392956895454 -0.32364655577144141
-0.96250774568549247 -0.71286325225351987 -0.46622721909518106
0.25710591149991302 0.52870676723083498 0.61073037332468338
0.64511921621956603 -0.41450055754981818 0.67760972639865891
-0.205408812655822 0.45898275841468106 0.72375154063558789
0.18053702041021324 -0.4034769459416605 0.53292428590972563
-0.6146860569565078 -0.79257777895419323 -0.36085085212700818
-0.54123908933609144 0.028510671179338587 0.76368707695767668
0.087898115842524049 0.65674889322860786 0.65732240813087905
0.66701706219803114 -0.4045403544059365 0.66427520766468451
0.27387633154515711 -0.17008446940460331 0.74941957481847776
0.45408909653645324 1.1800421035737578 -0.42462753359833627
0.027359398778507682 -0.30839100416827847 0.51988682887103721
0.7161860575018153 -0.4663090269120751 0.68575570617929671
-0.57295749175046495 0.19106899841685987 0.65454203812467071
-0.39655672404185793 0.91056002235808187 -0.13256307978205761
-0.036873569162427344 0.23659311348493617 0.7629032770753188
0.6276125443064835 -0.036291583422569218 0.4761179084308278
-0.5987065617033771 -0.027369046659933005 0.75365921382885226
-0.44866903510058975 -0.14657748072880494 0.80964126850887208
0.26280225254663492 0.33748053967438274 -0.47309544429147543
-0.05283863629765051 0.25749234026579337 0.75971021026092345
-0.24219106432181192 -0.30567471141901059 0.69014822949254473
-0.75819156975935442 -0.40471921812559941 0.24491911553749723
0.39362199974805279 0.74180684153994569 -0.2964469617248735
-0.63674271179477415 -0.99600283305107773 -0.38212526734416308
-0.20880769591286352 0.32875692578950755 0.77311665226676585
-0.8375633579319377 -0.41201770765059109 0.010971518407721703
0.10954813263671781 -0.17603830291697165 0.79820861702684187
0.320593407087852 -0.068431613257860846 0.73790331184959435
-0.33363237343680652 -0.21858988297076465 0.80438470813370433
0.68442276516877953 -0.5180295022369048 0.40351444523562208
0.18383976694872217 0.36565812533268094 0.69100925937371382
0.2890865752705345 -0.042289563369147132 0.76667672453028413
-0.13565987342006736 0.12110944277238644 0.75703367863293458
-0.26121722713834572 0.50780547600428605 0.76133649104507484
0.37387231154734835 0.7197322681718088 -0.27343907782532106
-0.15437886123045885 0.70577788809644382 0.73748678262873479
0.24922082492753006 0.005890356361920368 0.74646418120085745
0.74705992419607981 -0.3158586826360299 0.69849706860702021
-0.41003265870912031 0.6308061982120563 0.64260483293164938
-0.53258119315461627 -0.38337649037366717 0.66990963149990357
0.2746666485628424 0.28011304454370745 -0.47540129766584727
0.32431801603200583 0.97144211863955121 -0.36273628591768592
-0.2329917853952459 -0.26529466269944102 0.71812998039393694
-0.38437251141833428 -0.3487257482916899 0.68909501084415758
0.093168733176188567 -0.2869227142907036 0.61606721272840925
0.17341908828351293 0.43098831266135207 0.69306995072203748
0.28527951839163279 0.68705219286374053 0.16928540175868712
0.37010688804902259 0.5867289148878907 -0.11997560323505496
-0.53437187940862785 -0.073278975689603953 -0.66814558749080355
0.67393362869181317 -0.61132240702338159 0.64263025933787965
-0.0061148759002698228 0.25175367589951669 0.76312912455052917
-0.74351800004538404 -0.99145501005261849 -0.40343383916019171
-0.29525840557800009 -0.1390586523557662 0.81054512440164572
0.71559331287955885 -0.34846258918288164 0.65313867005556858
-0.067566890412816605 0.52923061390808179 0.77445101252510984
-0.41589477347526937 -0.29036519967556806 0.74358875684448389
0.31025181560512038 0.12796880684147816 0.46778454928259272
-0.368159316119268 -0.54334979124959304 0.52368001606874692
-0.11198189487886978 0.28284596456294153 0.75213845024950565
-0.54760716659680497 0.67865021610410992 0.23379066645374458
-0.50887657953339982 -0.6221014174796462 -0.24989145404169477
-0.085394668276581598 0.32840965919361942 0.78597501913065848
-0.1863877450629623 0.39023719867639883 0.74875234297663162
0.10138421846377099 -0.10294374660707994 0.7601294268743688
0.20301955146413064 0.99171351646589834 -0.27463081092981945
-0.74442062079500104 -0.30633013814989241 0.50067937362246973
-0.13170973042402778 0.6004618938070152 0.72642176701313943
0.48621642336885174 1.0097731180216476 -0.48063361100441071
-0.87303396489379281 -0.6611913153864073 -0.44633724687029641
-0.34833936185055947 -0.32160792482639877 0.71319699335593789
0.52950655741941688 1.0976631964242358 -0.41709531420535484
-0.59115522529760867 -0.25070002675291114 0.64153472844995107
0.93605380828093132 -0.25065848131517043 0.51616703579383572
0.34053298527985731 0.6182125842951347 -0.097814827566255147
0.37190614364140728 0.10560955799953398 0.28208330161721129
0.42466779776887265 1.1046767840279239 -0.45266036859625913
-0.30764375036755354 -0.12166782274346843 0.81548900391018542
-0.33134001751211883 -0.25171509203811304 0.77809248883228577
-0.72556495257732934 -0.6067383049493742 -0.39568253195475123
0.033716592459335004 0.69282107212140076 0.66145600473851296
-0.53039718976308237 -0.41870950606208801 0.65419361559431621
-0.057365183089732596 0.2213481799693362 0.71719103834017872
-0.42816470468084233 -0.41066873000105808 0.58472952103190323
0.095288137729816924 0.33722049301168688 0.73268078813463422
-0.81868117831688991 -0.099959961078706527 0.25200429032934579
0.043645613763708013 0.92537640923940678 -0.017363680190884523
0.24597538791747908 -0.3734031678857157 0.29461632741348431
0.2067954231112914 0.7963221747335858 0.48954784410574526
-0.055345988795661327 0.81884252821977022 -0.49076292279466571
0.29135048704003452 0.94604931579150708 -0.34462972270205405
0.52249060153502214 -0.48087893441989848 0.36654842328294546
-0.28955482048666781 -0.17948955024727198 0.80048511182285331
-0.59360541511225762 -0.94981651675331946 -0.36492708508293781
0.18029324793642587 -0.18665674305005986 0.79711652996721494
0.036186603474298806 0.52561852568276102 0.74914698789414658
0.3106651145274455 0.72478285987639346 -0.28606979135435218
0.17593365632393443 0.0056938681522584744 0.78193899154375757
-0.071301245688289328 0.64487209873766815 0.70188985358136424
-0.43980357426199745 0.2787096289650286 0.58254671140074521
-0.98639633381932157 -0.75392903892713292 -0.48322697639896717
0.51868245064119378 0.88952018314501036 -0.36092626352059654
0.0043515971329703973 -0.32098109510606676 0.55353402176249134
-0.0342876131586074 0.12376321211010044 0.74801655339506379
-0.92187446368410164 -0.96058602392711023 -0.4388597960093481
-0.4140004320005346 -0.26597442954706452 0.77289600128530456
0.081493415679023684 0.90601686963740846 -0.18327455183207064
-0.072741194312293089 0.63874423665721558 0.63258782985614026
0.40940546540698364 1.1499982024418918 -0.46603115318218613
0.17618120929457959 0.99997094695587485 -0.25371446897404226
0.14935982780822954 0.81713088524006494 0.39330526201874605
-0.85983350581662066 -0.30037532845138948 -0.34094598396051268
-0.88624507724479429 -0.81238431662669264 -0.43735035508049691
0.67886563309574299 -0.4117578699681399 0.65461425043218835
-0.65562627866291123 0.093459824283600668 0.79299594119677508
0.055968283354566495 0.28524656373072865 0.75320286257746893
-0.2286574769627201 0.93215538134321996 0.022315014854450865
0.34815225740214473 0.024177959374107161 0.66146331599074504
-0.18624274591688916 0.38627733336535286 0.76162041906716471
0.23920708162366111 0.74605437605798208 0.42869398540872972
-0.53708968031707727 -0.65824347033354869 -0.38420712218767683
0.095605277334108507 -0.27112523335338423 0.65322099029857394
0.27833064733973956 0.0076646646087308312 0.72884191872284898
0.46092599170958337 0.013712943181731774 0.62876554376545002
0.74869453263794483 -0.43289366295501175 0.671346154264576
-0.62338264919528541 -0.58532812650152799 -0.17324452718731109
-0.019763072200785103 0.33191415650198053 0.80676058026622322
-0.14889479071707257 0.2208413085584251 0.68148667438109811
0.67683203383171531 -0.34812578016707008 0.7180753399963713
0.091159691864003634 -0.15126009861677936 0.79362187566355402
-0.36889740501785795 0.68964965950175916 0.70690659666210465
-0.6618915613524905 -0.62868669533293442 -0.25355658878333465
0.24899302401918888 0.89860919149527518 -0.28975969792852929
-0.15354550714906523 0.28644109940033324 0.77161573029132846
-0.35217011508632012 -0.25898055484811522 0.78107662461750671
-0.64181303467472617 -0.16877304080261979 0.60121301725774146
-0.39167215572103586 -0.49925798668354027 0.60107408391717954
0.26307361215671676 0.9834466744874133 -0.35176121892084389
-0.31403054199233438 0.92589930028295697 -0.29432196147468126
-0.38864494000593908 0.6120971019282706 0.78862328266317494
-0.41069165062816637 -0.24386662688893068 0.7903326055138038
0.037502129005229534 0.88662947623834043 0.154589739077581
-0.28103008972646037 -0.13854252314362903 0.79059535533389891
-0.52521762879018397 0.81565711791057716 -0.026620369760786744
0.31362729542114209 -0.37103260719968745 0.71018449422721908
0.2999563381030903 -0.27468086381021095 -0.076541800985259201
-0.51761816321220522 -0.028761911387984895 0.7625912678893183
0.24593420031674995 0.75735341913664911 0.11374100005548549
-0.044260660366365556 0.36391559031888576 0.81224768570968564
0.2148222886607698 0.76486282304101572 0.24743205905105192
0.23182692969446705 -0.27935883297787534 0.72413487109262764
-0.53447936007675168 -0.69436162450099559 -0.32309984169693529
0.85906767873984435 -0.43887688595612317 0.53298578491523863
-0.42466652567538432 0.42853597972722213 0.51280556988377235
0.37782793127038161 0.031500626865433645 0.62901036576263181
-0.11968757824540432 -0.50728974820644801 -0.20142542867103508
0.79025591433295261 -0.11947611164638339 0.60486124077991033
-0.25432914364421677 0.4152028270767758 0.77031908988413011
-0.14344535950244719 0.54318147944886164 0.7210674618388957
0.42465562488267139 0.80724853471985014 -0.31447035903287279
0.52288402249195087 0.83360648066480003 -0.29492058681827693
-0.42092039493599387 -0.73956541548162313 -0.29632864073120224
-0.17143684193911923 -0.54617790217847606 0.039642741335883969
0.21991271619382502 -0.18707165492721778 0.77373154298673796
-0.48061223182643431 0.18078227115884182 0.65245906747596116
0.064939100242526138 0.65550006699664642 0.66580989419106373
-0.91597150457617005 -0.18643446459714674 0.0073241665652901133
0.014470246140671605 0.77481060160231863 0.67699913881214169
-0.24910552304988798 -0.20333167071958336 0.75151723036265494
-0.202482529662106 0.83832468665800342 -0.47920872979504381
-0.608345256526448 -0.6624956187693698 -0.3141058996085917
0.0064256470058730031 0.19527464483902968 0.75154799191269106
0.12292255331088597 0.54797428734140574 0.67784037662074237
0.69183513887594472 -0.59727533712224457 0.64196912179049459
-0.78580410735573381 -0.88945598762484046 -0.44060777020687603
0.27753602137822142 0.76220995179695983 -0.25036400262140113
0.89309500698920274 -0.17832920398740271 0.48259658116576887
-0.68140931223505774 -0.70905280539243343 -0.34762485467183879
-0.039714250279580199 0.93124410168991822 -0.36041664906326076
0.14616605059798715 1.0426204272354749 -0.29857813396027311
0.26280124349562328 0.69739165089196042 0.50791974358054759
-0.68125714957510652 0.12101350010270551 0.79537125416180743
0.61343187409410049 -0.65673078684982045 0.62700860153225957
-0.89847587151811226 0.047314328436936393 0.15179021402786397
-0.75759926233264352 -0.25057896305747462 0.67004266246408228
-0.37682556138536327 -0.56209204524783729 0.32144993365796637
0.2482399662235899 -0.18081479902526354 0.75682840430087239
0.07907622746411036 0.59767870919478483 0.6412390407616293
0.16934701022908527 0.47387071871350983 0.65500469236399717
-0.56311944574735051 -0.92140211515060955 -0.36306993601078652
0.31588028078000363 0.35683728381392932 0.46790178883229316
0.093284663518058863 -0.1694636452721614 0.76385059057929361
0.092027948145886995 0.45868072214573807 0.74695111462047947
-0.18710933626381276 0.41999347148789568 0.75843407552510556
-0.37204552938276692 0.01693050891797121 0.77639383317517918
0.20801965969203451 0.054819961616390245 0.73862676784219428
-0.61285752187566445 0.24267317589249338 -0.64469768136627081
-0.2602149056652685 -0.1079021620611158 0.76995536013592947
-0.56051822988294475 -0.12909924257992245 0.7238297281959909
-0.36607718523601918 0.25213438375558006 0.68202054326969375
0.041101577906829334 0.64295459588109161 0.67407019926545075
0.38567294885629622 -0.18213985006313926 0.73963235648013903
-0.22923209510905806 0.615281356312261 -0.64909221449455501
0.75171642219838475 -0.33234013310396548 0.67273319013726685
0.87156539543707368 -0.19850672556307813 0.42582700668425133
-0.60447877134633288 -0.25802955759227153 0.61602222984362243
-0.038818268602526018 0.83723640738805294 0.61546584201717991
0.41219141114912361 -0.22013226302527222 0.73947510804002548
0.29544991460556602 0.024785749976265592 0.69825064725454133
0.074438028660907207 0.59451340881308923 0.66505239543069727
0.10367842049515019 -0.14819800971942065 0.80267684384362514
-0.37962599621460313 0.76973622583735057 0.26148668418833232
-0.016340387480198615 0.61449137953730215 0.68325398942880788
-0.33988278861028931 -0.37848184452957412 0.64595034522034034
0.70770217820787451 -0.306468146978645 0.6978694194534274
-0.70383889819796508 0.18922404242233171 0.77482164732600189
-0.89717375978768388 -0.80508559934253654 -0.42607078903117035
0.1460128818885984 0.92230935085896704 -0.30860536737797517
-0.76758369746360344 -0.35050505922963815 0.56040232431080561
0.41474387977968163 0.68130020763477361 -0.26593949360198721
-0.095348044765035667 0.3538670218522455 0.80526331710141807
-0.42440808952135711 -0.37988485803695582 0.63714767411925699
0.91306355491108349 -0.19993213263545684 0.48173225926801511
-0.55424549506486187 0.34631562811281213 -0.66648716764159843
0.23579366728667139 -0.35698000957746423 0.037189602182344572
-0.55907767421136967 -0.11139742156142773 0.75768962507045678
0.15554661691876959 0.46312016989100613 0.6986839007800949
0.37249841894390556 -0.38601116904307986 0.3357404953158003
0.29844152716033179 -0.046042411097975133 0.74846932189954085
0.3037018513046803 0.79767250097978959 -0.30129334057414781
-0.43615723040171872 -0.4629894893762323 0.63343319555119848
0.28897607523042979 0.36395958742807011 -0.40449934372466601
0.28045990642499063 -0.14814812759688856 0.75620191404708059
-0.41786232913111832 -0.19025661013626127 0.80720784070128726
-0.28142248735001729 0.243845123117433 0.80002022485024593
-0.60506572639799572 -0.028362426333643498 0.62387785704114052
0.45516698934243038 0.72145337430886158 -0.220878343426957
0.44683306829826108 -0.16383266268911356 0.73505922525269263
-0.28739102564392383 -0.20539012423248337 -0.67428892503030013
-0.78780835199456334 0.015094468713241938 -0.51503360876512794
0.31348547088408196 0.093938290502920907 0.48191563907669988
-0.67391682311135881 -0.65447835887122707 -0.29979457429392298
-0.16857095818422607 0.56690401675995616 0.68120106078279541
-0.18064424689130121 0.38817684761102988 0.75674700309442766
-0.033983291014081374 -0.34464836852833969 0.57505650045918699
-0.83969445846816981 -0.82039723060120195 -0.51066802185907889
0.69341040838944679 -0.29724587192415797 0.72236836857357556
-0.53800516962195033 -0.35166223278645603 0.68371077890907195
-0.75100681636004651 -0.30383882779165816 0.31295245409135397
-0.25520232425619938 -0.2674320989043153 0.74124459474766713
-0.20922355693044992 0.34112265059054714 0.71836472024082276
0.6788851567395966 -0.47012826066748836 0.66093801068069169
0.099499792355157268 -0.1899383824387435 0.75151926550585735
-0.56574816164722819 -0.0011061688596818442 0.75687452929986954
-0.40212124387815251 0.22360124185455277 -0.7495141697333807
0.41122182621820969 0.54325268371756152 -0.12761527692862451
0.1690119168421127 -0.0014201457295168751 0.75230243554300724
0.70729786222744906 -0.63164297636458322 0.53230875213281781
0.31447095993353358 0.70470636007994969 -0.26177150561173512
0.60645193390121221 -0.33142344637588828 0.73054943004186068
0.16402889438991153 0.43185925130981673 0.70084338029594928
0.27848159465882105 1.2227913865362545 -0.49043159444191531
-0.9227308778679344 -0.97921214149793201 -0.48811063970933688
-0.02225101323131895 0.24927257045586693 0.76318996219318436
-0.74174009552049824 -0.0040317289583740035 0.37660906338596511
-0.41340340467617054 0.036061651989591326 0.77639599359201039
0.039488728991415201 0.59956678181569423 0.666506281354728
0.32456882691428746 0.46851252389980935 0.50437987077128277
0.5924018920206926 -0.38827373098485296 0.73140336903585901
0.44395917684476771 -0.27447023985905794 0.30365521793603989
-0.34274051639912173 0.14826733109775247 0.80073297505046792
-0.81318489720204568 -0.94215214043335571 -0.42525695199354274
-0.38789489923968645 0.21925429139509767 0.71022959155201448
-0.49306194786683122 -0.3095491644633519 -0.596428180030383
0.67433005817501979 -0.34483320745137647 0.72313475940305949
0.21719530875949999 -0.081188026794491108 0.81008376257221837
0.64273935274083271 -0.095711179475777897 0.40665597297363743
-0.8303778611086976 0.34643985431899793 0.14372079182442654
-0.77020396497566068 0.095743850743037484 0.70571556948906711
0.28459366805246233 1.028914579339669 -0.38638061094418674
0.45511709844518933 -0.18858325628875683 0.29222242144432009
0.50940088392949434 -0.42981702270221689 0.35329713505825566
-0.36636508389413791 0.038747941212690762 0.77575745266859908
-0.71508239809998031 -0.52828151160077752 0.043544150209216426
0.24245681971853372 -0.38608483350273737 0.33957898992302304
0.81540238069282012 -0.49884835875199762 0.58842077833766915
0.32600343267151288 0.41336558932077772 0.51261059421939414
0.19241013633550352 1.1461627832489114 -0.34155254965155102
-0.6057167437005333 -0.16497985573461094 0.72647189020603875
0.091006692329351324 -0.29834857670319437 0.58060192856483983
-0.59391788324433392 -0.16715227791815757 0.73107269285779708
0.28293089466615839 0.11180281243963819 0.53290467685005893
0.12608623162562083 -0.23943988861482879 0.72257874946385581
-0.25133057545004434 -0.58705702347460864 -0.29794892338311918
-0.20117606791356124 -0.079657196502486372 0.75976989527258709
-0.59302666068028032 -0.78655328447404216 -0.3530384504217885
0.54278410712989 1.0859099527623908 -0.49236160633009085
0.16021182559743252 -0.0084039883581059627 0.76585418737149791
0.37964783440230221 1.1872862712439156 -0.42565840137587685
-0.44807679298866177 -0.7897071363290511 -0.28142029557093906
0.40990228663351758 0.81804210992329374 -0.31852385813568418
-0.059632598338893672 0.33157960201949521 0.80465402623506055
-0.027267291061125576 0.5500367181407313 0.74514661065022025
0.55411596018955578 0.74243760941586956 -0.2714394666169504
0.42304544939920419 0.63731050548270218 -0.16108440189859508
0.43259123982502956 -0.61664327242756478 0.56025518261552687
0.85050231596971315 -0.36499999089160617 0.64408848089288018
0.29181992666628531 0.74449072684874196 -0.2742406180810999
0.46996873106824921 -0.40341197497967052 0.34678129999244867
-0.21531370765187674 0.51014966774618742 0.75141295515666506
0.31813166387763303 0.79969148482532582 -0.30537555565945418
0.27952596146085185 1.0068608812875643 -0.37200806388538865
0.010306464678102145 0.65399189726105789 0.59443425133116001
-0.397085935748688 -0.15695022762117894 0.81886487305257383
-0.53783635708336064 -0.030251475597262711 0.76038943465055731
-0.54406903673140761 -0.56426195086640618 0.47957521464355324
0.12762049329893088 -0.17922479156881366 0.80575672578065216
0.54694541837228883 1.028288472480849 -0.47991249050150842
0.16345350442403728 -0.14106032567289972 0.81338033976511603
-0.23564904047792723 -0.10765474624435178 0.76706999564819434
-0.87546835364511466 -0.85685321531683023 -0.52258578240147813
0.87404631948271216 -0.36695198393946171 0.46338637549891804
0.38677551238469121 0.71414610635778075 -0.27263590774209945
0.65078248104369152 -0.35876277679886925 0.72879000771348412
-0.48221317853136725 -0.17380767945799391 0.79425359135975793
0.077925912573522993 0.72336310127394299 0.645061102446288
-0.61069168657894224 -0.65353504331229395 -0.30428412433239238
0.079007546047112243 0.47828095410245197 0.75312839569769974
0.71261479991943588 -0.39156871410972371 0.64695798034311025
-0.12418816537453736 0.54530237954091554 0.73995573458271569
-0.23793092563266782 0.32680722144224816 0.67883167153875235
0.62530475593425194 -0.24664876756738963 0.72483025801381729
-0.7360406866128919 -0.56846356826229183 -0.22165750890112079
0.75499552448713203 -0.30917343202551528 0.70691698341389042
0.35884105898244911 1.0303653012084339 -0.38926319443278423
-0.24743829946294227 -0.17487693119524472 0.75231011449800445
0.075540529497907016 0.39465499875641363 0.78166848559049829
0.14637205196273939 -0.056788688333732296 0.76187334573658205
0.23984817549768067 -0.14749093809406411 0.79090444235609869
0.37697134046508651 1.1015779752142123 -0.43689999881000574
0.93044066654799806 -0.27400470643478236 0.49233899626508038
0.10680363395837844 -0.30192567559202921 0.60959812663803525
-0.40495433761284971 0.58991962535909437 0.62708212809367403
0.47938266363908255 0.79108004398848131 -0.30688170700257977
0.14169455951422094 0.81559661788372217 0.35034859029524767
-0.31365269600787471 0.68459869407143259 0.74842583176209931
0.71766285401215768 -0.5144755027270449 0.68295545869889729
0.71977027187228515 -0.37667427220177707 0.64683738829208792
-0.62082425270178732 -0.0082736835574195311 0.76280238147994872
0.30742365607938282 0.96931478348841793 -0.35879725063250056
-0.17682851808060818 -0.52722871339579491 -0.26626383550864929
-0.66415258113211451 -0.38681354466066331 -0.48383892543042073
-0.49152786153842598 -0.015477319579945359 0.76565274278238959
0.37323250807214592 0.051248431875862366 0.40735052591447385
-0.2271313579083909 0.67687063068224695 0.56185270180163904
-0.10732336318558922 -0.47467890880669117 -0.29482449042862591
-0.51194005990611302 -0.35351518233929369 0.68719559932667451
-0.22872578863864135 -0.4726273420889413 -0.42624040230722571
0.62582884828992036 -0.45097535436868164 0.67716985050558254
-0.14319418654243776 -0.29271097379714739 0.70690403412919345
0.16317392332329561 0.82672418206372633 0.53497341978959412
-0.77824241268530159 -0.92145170797535059 -0.45415247782966617
0.47125559302401854 1.0338372259124089 -0.43907560300161563
-0.18463291998483555 0.25051866905520548 0.77100287449824911
0.29148287760465053 0.98747818108998953 -0.36382789966441109
-0.48780091824574257 -0.85657267996448816 -0.41805101168635694
-0.80401844517285781 0.17432718095067834 0.28324614237292423
-0.54017141450205841 -0.60191973118593545 -0.18767986302565554
-0.13938340443766251 0.95509589301783748 0.023624339319995968
-0.24666124692740254 -0.36903337313622941 0.60866091309833159
-0.53075106344056522 -0.21881159159639374 0.72930243491432023
-0.54402771269508321 -0.093066613585307323 0.75537895573105907
0.7323635063292393 -0.30866201973347707 0.69199351484926019
-0.33038232182894944 -0.18096230959921833 0.81459505800020882
0.32063496686268067 -0.27817212586736062 0.027768465068771064
-0.18180305143421549 0.96873483579193653 -0.23700049609279894
-0.76327347874054396 -0.30735529631819425 0.5707729163526416
0.74399377829326596 -0.43133154492827153 0.66135345602451334
0.23547354917047514 1.1014104189913203 -0.35390174334781577
0.36928010792698629 0.55780453977114952 -0.0020683549886513219
-0.41432881257660625 -0.27012422563652727 0.76612594790761968
0.19649306106531839 0.89395305295152205 -0.35902228199799424
0.38197383431676712 -0.10482716192643515 0.73311837197627483
-0.54180382450153175 -0.6339974697641928 -0.28068609149250356
0.085398720814197304 -0.15315881490402106 0.77013115341887239
0.29793887372215977 0.23121733950190304 0.48245067924252005
-0.46247677098860507 -0.16970646874645823 0.80137949344444248
-0.47006024978204053 -0.54284659426032889 -0.43879090142312016
-0.23921991155868483 0.41608137006696388 0.76860102389827301
-0.70643633404098338 -0.54377637810561907 -0.078183464592525453
0.34396382710743367 0.15212393967677329 0.35169160036230807
-0.56857360606532836 -0.82044303118277639 -0.36034856423382067
0.37166352084777543 -0.12570982457817337 0.73700042190307791
-0.32892344110550553 0.33896426861386075 0.80987375351186053
-0.56743109270156111 -0.64227418318404794 -0.29306289378484962
0.44861558649542488 1.1655987009307314 -0.42016701891068209
-0.20067457241156816 0.54840514803427176 0.74478335939214357
-0.41034719000398923 0.51384910339270284 0.8014418215599699
-0.74828927768765396 -0.5998833974586617 -0.23393526299368261
-0.32101554447414671 -0.084068803765921629 0.80077504568441071
-0.74299172975864991 -0.71133082319968644 -0.36872988520032912
0.41635612065319094 -0.57698395777146416 0.44221623585528125
0.24860167252604271 1.0047980445252822 -0.34741952025158973
-0.2676450125832126 -0.24281767592527004 0.75255062769631653
0.19495956482195353 0.0036690909287813156 0.79546227198904607
-0.25990172866762862 0.59233330217383795 0.54885950393585681
0.08297730126751901 -0.31780995925394784 0.50048223482108689
-0.22106844642901891 0.34954315358705479 0.77319522639623628
0.30916910314558166 1.0103693975167012 -0.45199637355135813
0.86839319868707676 -0.32375306802551762 0.43078561450787856
-0.24950649024919969 0.0098594836635772509 0.76502137894217981
-0.22962410253353127 -0.08911703564451301 0.77047165988957111
0.037107437369179763 0.73227897435911515 0.66010144625426026
0.3771156429644833 1.2366553665058069 -0.42970698936372287
-0.82501046830270752 0.14941333171606175 -0.46413545636042386
0.28393802129923884 0.12554661818464297 0.51020914876550982
0.27028893685139366 0.87947193328589357 -0.30710326174580516
-0.31069903513063579 -0.15872275188612051 0.81563773019138708
0.69769204844313393 -0.43806010922774696 0.64576823988619836
0.34606028990317483 -0.072356689042434752 -0.26661441282035803
-0.72315191394795875 -0.13073607969960754 0.73858512977639634
0.12981356903613772 -0.035212979320979443 0.74746996754370265
0.35612693144897989 -0.55363290116104835 0.56681459769815312
0.32308446578123551 0.64173646151397534 0.10226274899999588
-0.11304695108550078 0.33269788894762442 0.77675990124434069
0.40934563541932434 0.79521820827715928 -0.30940372614142753
0.62335065259158284 -0.4022033598889454 0.7285783634681664
-0.85577552252246747 -0.97056174554241359 -0.41656429250976501
0.60637268939834854 -0.68263868108156345 0.60115502080378391
-0.58231551082628741 0.015883561930779777 0.7613701933166741
-0.49979155377204165 -0.63316121111936141 -0.29295367459432775
-0.66310771808198865 -0.5267366501323405 0.51099430874437957
0.20922029889069904 -0.38637947060597355 0.63816729655341131
0.87695130394330789 -0.33781324270684721 0.62385400551746617
0.48171134255326464 0.60776723601879112 -0.15472591498056865
0.27847261971389159 -0.056781953383772787 0.78624498110732599
0.011653548084449739 0.48518354775797157 0.78501485246640801
-0.78603858971306195 -0.35077138458064105 -0.40988241878533671
-0.12477338073056643 0.31893698616119082 0.76555660046014129
-0.76351556461330006 0.030232520846960043 0.64151298821572666
0.047886093747759872 -0.30692041676037007 0.50177096561302115
-0.063586051555219569 -0.28735836600803033 0.68453170640328587
-0.18796149684926178 0.18092590425678701 -0.76759216753831794
0.3630400618250782 -0.48689291846829796 0.66451625368440848
0.19279363826884932 -0.14906654842886624 0.80719268862807692
-0.45904557577847882 -0.19925157661118753 0.79479636009587473
-0.64527928372677934 -0.68280083711697692 -0.32834200309614836
-0.013259810789548965 -0.46358227549670161 -0.13315140857905305
0.055541126013586961 0.46745739034263778 0.77776650600504738
-0.56490764862286724 -0.13791707909337347 0.7528197034260522
0.2281254830288475 0.010238144214245182 0.75338468648288348
0.15586469725447571 0.4333893250838301 0.70603815347534749
-0.43303427744438494 -0.64450274497838755 -0.2245673009118363
0.69103393224996879 -0.39669883707885845 0.65376617307832507
-0.70580048108082494 -0.14517850521481002 0.47594815602168161
0.14409031907997516 0.56204269448002542 0.67100419103517872
0.30882140865558938 1.2522412355219377 -0.5024161183296183
-0.50390152784954623 -0.60539889401921698 -0.15589750409422187
-0.34231545779467254 -0.6421995953515065 -0.13661979368507993
0.38000963211865724 -0.17883149329234627 0.033908319599602166
-0.48893853344959126 -0.36104593641429261 0.68765175922833421
-0.54298463329012847 -0.63824882327963373 -0.29328746183430177
0.24255726307396941 0.46927943255645665 0.63733046364697543
0.57358707792155883 0.92271232370636369 -0.35808182070073613
0.76852177238201591 -0.40136585894697951 0.67987581141604192
0.36323213197306359 0.05689888512602792 0.46746616611097735
-0.84254633176342608 -0.68548334598947136 -0.33843548495954145
-0.30607655366983977 0.87526316108536051 0.13282862548268781
-0.14319446483071374 -0.10446008925445227 -0.71431943076656879
-0.79045291569353893 -0.57127671020097637 -0.25422218579783262
-0.67571818609894052 0.001545672800990161 0.77584231375986512
-0.12584926274541175 0.54881221964560822 0.74402498140428097
-0.1231732174727469 0.59150163190609106 0.73073826416763854
-0.57850876676434027 -0.85407789129056511 -0.38151175207205412
-0.35292735961352406 0.093998764048864203 0.7854423370852377
0.57294343270183745 -0.64746918131202058 0.63593411007750156
0.49607455645950438 1.0501755322894981 -0.43155720853980206
0.76194824424278806 -0.38729648025308983 0.66147578219989178
0.27239795239360731 0.75731513333190215 -0.23542791107045424
-0.0003102758628372726 0.84132399211350339 0.29542748377862615
-0.5772835811914625 -0.24315369747061588 0.66604568008908949
-0.92456387565591314 -0.67183783916168061 -0.35213983241194136
0.26739613802518747 1.2377967618300216 -0.40974783044306307
0.38348180101146667 1.1575944682200134 -0.46508557930109262
0.53875761478394324 -0.68296841717319445 0.44534601316618083
0.4683626576956712 -0.41201388042458653 0.72455566789152304
-0.42403681369555457 0.21007990903408214 0.61490882488682175
-0.10948892572015367 0.91832883275485777 -0.40133617907814489
-0.69460424433831136 -0.58621541339443972 -0.38220888975956413
0.27439915756682254 -0.34818827123493357 0.18620459136628931
0.78573557563424501 -0.54112970331929233 0.5148925701599536
0.011129844866626826 -0.44932559500373515 0.052188617756597111
0.51919243173155394 0.84309374784320834 -0.41682793272572027
0.74926795785082589 -0.3429039266592433 0.65170068134578152
-0.13639189749711633 -0.39789782193567902 -0.51783942487521095
-0.71423313019435852 -0.56468181662601502 -0.21110116515402311
-0.60495840782100174 -0.27019359079934802 0.69676901397708768
0.013126057687991022 0.70708253358629847 0.6664230392795476
-0.47853268464577425 0.31020790658586961 0.54731335249968005
-0.49583832416353246 -0.17686253789693396 0.78789412325289643
-0.55319070959677319 -0.088337748441823294 0.7593924547052211
0.57435532239382781 -0.16194702111279646 0.7169584218741214
-0.70098617850638689 0.019617226084683637 0.77734072613006866
0.24355985825599191 1.1998347336020556 -0.3848097077335364
0.29359726747055248 0.68116164547493518 -0.14090017004831878
0.3603022809929648 0.72242772921570619 -0.27413072247651549
0.04345680884185299 0.85618164998941637 0.45458903048777621
-0.48057911587190816 -0.080387362633119963 0.7953516353096779
-0.45553613304017659 -0.81369175622436352 -0.27230486486748795
-0.071049212569828768 0.92747451427069194 -0.38224649420337897
-0.43260339738834119 -0.35552396547262433 0.69590901607649958
-0.33787215058469044 -0.099228551320758029 0.81889858542767335
0.098315518198916152 0.8571984260177512 0.15855631488421196
0.030215860615975032 0.27397000338126709 0.75641167494932304
0.75416564624332594 -0.30563297483924678 0.38276765256130307
0.39844660459444015 -0.36553196029483104 0.32620451398675421
0.083704429611341169 -0.1509777720776011 0.75429723910994984
-0.30636144661822939 -0.10050350567774124 0.80072977402322998
0.42627505882768801 1.0679604336365669 -0.43316565921229611
-0.038925246191990226 0.33203933955309495 0.80775791027771859
-0.86027252014759625 -0.79984064186723103 -0.45428618835494561
-0.49047959124935758 -0.63954097084125472 -0.30167800227627772
-0.32058079894419578 -0.64004772134272692 -0.12355521797288205
-0.26143580819809742 -0.263751344742996 0.74235587088760813
-0.36289541618956989 -0.10474577174322164 0.8207604909230799
0.14994214814921492 -0.032096828545784106 0.77650041432985617
-0.29475074614798302 -0.19922620442158312 0.79702108223582346
-0.12015254695014832 0.36129567489570924 0.78607027921541395
-0.48202397555222021 -0.75222801647213799 -0.32009847437938177
0.51968543481895324 0.97146300121102769 -0.4045800252153775
-0.15514216075691678 0.80012628220403492 0.27937752702419516
0.49880151136775197 1.0474350104176811 -0.45225824103399148
-0.15913591364582302 -0.46576643184315181 0.37457766633183454
-0.40370721708166002 -0.04383030325893067 0.79087702897067302
0.28887647668066663 0.74133610613998613 -0.2623895772462923
0.28517298428526061 1.0798131209936166 -0.41264485866867417
-0.25166353757720117 -0.096688582191976735 0.75623534142444271
-0.73873620608822321 -0.54807122714275813 -0.24922390969045694
0.41978872543245771 0.0055820013815193192 0.65955386379166026
0.69879108612009588 -0.5485354384206147 0.67385987049093643
-0.33075511327528062 0.93323494392717166 -0.22334159828110778
0.29690383121070241 0.90497987842715055 -0.32968767002604515
0.21669074913575415 0.87582288648692064 -0.23255930207987241
-0.080121012021582061 0.33786143806753266 0.80011117969022028
0.32337588581687271 0.35868776167447791 0.51980414828382138
-0.71833378776174328 -0.53251033154569782 -0.27052010541332017
-0.48783094540549854 -0.68919379462824892 -0.31175359782428558
-0.17036317502282827 0.53059612409150603 0.7518052518344982
0.51708304327599208 -0.41004130018348839 0.72849218643164892
0.33648917655150612 0.72214613256174687 -0.28302288288584343
-0.39317435745171991 -0.26798735141955987 0.77496213681863235
-0.64710712645483781 0.14991290081304776 0.61957371407230433
0.35701598527245082 0.035989539603665577 0.63025133885359974
-0.037298827692083592 0.64332141884155547 0.69821924163489513
-0.73444653040582608 -0.39011445857868132 -0.43068584136652355
-0.79498511142729456 -0.4320178535291852 0.11665610898172041
-0.32307771266190599 0.54341653077791285 0.59488067747773954
0.41296853555451918 0.041445981429047762 0.49269328447634209
0.72079675324486914 -0.43394678017411259 0.64636564341701952
0.67386749635018717 -0.47497291256398277 0.69795237490292905
-0.56715034021929611 -0.63761506133132961 -0.28046969698352164
0.20129487357926124 -0.31365333826964381 -0.28620273797652729
-0.87776972029316269 -0.78251121700644788 -0.42460891989259508
-0.38344839104468775 -0.84161774061361605 -0.23584664503355945
0.47894067264205731 -0.60816116744917714 0.41300752233528826
0.3876674380552636 0.89130984732248741 -0.34725497640114611
0.37826677694579658 0.18149494766736929 0.074557895245124683
-0.32417203765775682 0.70560516716652444 0.66791417779239382
0.16590939117059023 -0.20615416501266282 0.78120017990281632
0.45669792486686589 1.2253188187485655 -0.51652243136619802
-0.38427469221113242 0.26264080465876916 0.61511285792873593
0.64820778430720694 -0.56319741479415697 0.68305981595111209
0.47420623203307244 1.0738701837165356 -0.45687665608394745
0.3976989556836763 -0.24933680316101103 0.25129771780122034
-0.61227576775240777 -0.16570518706253168 0.65202327101068214
0.34689452089225981 0.41190785394536711 0.21251299715184224
0.77579366298976637 -0.38796590181135571 0.68724023736243467
-0.22678380816071808 0.86447711376197667 0.16665928506414929
0.13036258990053895 -0.2898085119413718 -0.45670412042949238
0.50101851160336608 0.78684597051272398 -0.38604602011749556
-0.30978890614194654 -0.17477059779566417 0.81340979218487952
-0.020286490774264365 0.22712695820534101 0.75879154115030101
0.52431797007469783 -0.53896847752502097 0.69338366265558093
0.29200532081877029 0.19369488995588569 0.50831921999059304
0.41732632011310855 -0.51986286185538511 0.3915100614938174
-0.14347364847456134 0.41126687890689517 -0.72796054940239152
-0.68644219900915715 0.19201331119388598 0.64937519468245242
0.3333437949353204 0.41482601286362986 0.2871091626983624
0.56015691810841872 0.86639775308898503 -0.319863742878983
-0.47246564204619546 -0.69391360624790543 -0.29383678944612157
0.39180124071713962 0.11845605071799348 0.06748045171105943
-0.22655332826935393 0.098171934047988074 0.77294998774306212
-0.61595388561124409 -0.24131603458423712 0.7034395235402009
-0.75080032461656643 -0.25951776781409208 0.54972597837439885
0.15418441235172509 0.86902453258157664 -0.13888626119601355
0.34526967396477559 -0.0092898936326797354 0.70556060134411691
-0.47559873921964879 -0.014772540402645973 0.76375977395639438
-0.65139684582473478 -0.65824550503260149 -0.30820968101024171
-0.63822480728060071 -0.57706049271739346 -0.093928637100326284
-0.91107478562193833 -0.10630817697165895 -0.33185052379323032
0.49310330954115145 -0.62737937335329974 0.62294872114257061
-0.50960270380897654 -0.18156900591017155 0.77035324646946801
-0.31757939424831605 0.032224377293861295 0.70342926345509227
-0.85254875036527977 0.38717459430121437 -0.037578818244343282
0.26361445707019371 -0.36867499030963558 0.69330105595102509
0.7424637466179469 -0.32044699015627742 0.67632986212018409
-0.75007449318452757 -0.34028287312184347 0.31143384861112722
-0.51859490639935757 -0.29613540821763706 0.68385574352325307
-0.59119621738438255 -0.28972546786962816 0.69421886273733513
0.64528686624905163 -0.46606441147981315 0.66268154487787889
-0.20185165488131673 0.23329202591939691 0.77561131624826718
0.38314993595910707 -0.028214279897262884 -0.14961594980703907
0.019410382614822197 0.86016997552388119 0.50089197709210964
0.034909334464195751 0.85487618051640624 0.63474009912502805
0.32579189552169296 0.68197104933836528 -0.22207519498107331
0.93026504599543358 -0.23404634460508333 0.54406144786531119
0.27476472085498571 0.96406103828007605 -0.34701344653096555
0.76580386171482218 -0.35973258129252983 0.67697788275262916
0.9070944230610074 -0.26987020439125509 0.44212672571763623
0.39497539555826222 0.53434124619001189 -0.11750479996678465
0.36691248995248671 0.222054480955169 -0.18811972749265138
-0.56250669611554471 -0.23526481762933038 0.68912238226690192
0.50662011501034954 0.97230856305514735 -0.42767245162681355
-0.60908423585474836 -0.94249895306348286 -0.41099839875454691
0.37724082040525886 0.70612873262806275 -0.33588948515564176
0.23325586382508234 0.031317703308273437 0.73808994503698777
0.25267669083190825 1.1312964554667362 -0.37605226053537777
-0.31698761665368025 0.034498209160650717 0.77318678804506735
0.8548600813308127 -0.42522951831381128 0.5995626594217649
0.22702927091611969 0.012576342071314528 0.77809937347772706
0.089185851947711114 0.85579000926397519 0.60124984141370419
0.20845765612644129 0.48745029446406285 0.65406343871181072
0.38703781265775916 0.64097986379893257 -0.19841760315957657
0.74408947814092485 -0.41827952122458889 0.6516711744893886
-0.76328090138584059 -0.49204188792204206 -0.13687237712849765
-0.077186178452738119 0.55051884672097273 0.74089926784328064
0.16817758592752696 0.96937898303437642 -0.35759297941186574
0.22347786933876534 -0.37936235785972805 0.33067893226641409
0.26615011069682026 0.89972484756980631 -0.31242167836031776
-0.42092013325551392 0.52917542028188258 0.64453697891194572
-0.76242095842083302 -0.19527086052857001 0.6557155759014659
0.2146642254966693 1.2043557617957283 -0.42151809015926744
0.71949069575583735 -0.49618318803106121 0.69082054753291278
0.42651428358067989 0.58862533060684008 -0.13456949416798203
0.68674921335809813 -0.11799794688572618 0.40390862333087973
0.57870171000927328 -0.31491599724401986 0.73127115997124204
0.57600979013311004 -0.357871954327182 0.34029471835309266
-0.086072678127703028 0.24698187691645046 0.76709189581961468
-0.35893638527739213 0.84725879264142101 0.16469274092357722
0.28080914292106485 0.49094915839740594 -0.40857162366611455
0.37021194428865556 1.165131361588311 -0.44683154889530741
-0.60537788943753057 -0.53419035798187409 0.54486435494652241
-0.48086411026503484 -0.56451333432448081 0.45093830724670703
0.29873380097252422 0.72508763755246974 -0.2730682796187498
-0.7342528168982021 -0.41638076480967179 0.29369600274010388
0.00082183796787660413 -0.32593283974693321 0.50669717061598263
0.29892590924103501 0.596249654807254 0.31284047138370674
-0.66822127548476118 -0.2897701109368267 0.70332756112919981
-0.36332532876957657 -0.5440604513352536 0.46778481168154684
-0.042625611761820892 0.51501521434066611 0.78302329906705914
-0.38702737627361117 0.9112402554767538 -0.21034541445546218
-0.66649800526118952 0.067931816627723407 0.78801308779883961
-0.25211299902905182 0.37172972210164978 0.67480119352340573
-0.6067745162224405 -0.54051926030304642 0.34647260491148835
0.18345404339516946 0.89815407630394262 -0.21454290765485773
-0.74973646512968983 -0.34288111871575921 0.6663078105579725
-0.37590779452831669 0.0027824159848144348 0.77042425014789373
0.25403828670502193 -0.031365964779540789 0.80451271615424247
-0.14123530521598582 0.73829547830428233 0.40208939012720535
-0.32828646817261031 0.010182959795201896 0.77553175437567123
0.29098071903273848 0.9620851636166341 -0.42505693879973094
0.22655255292328036 -0.39420993638250934 0.37574042208384206
-0.17289996926298201 -0.25235607457720199 0.65951077403386904
-0.59327463106146539 -0.09501340406966996 0.74286662991383778
-0.35279619998581779 -0.089434904616854993 0.81894439647971229
0.29574782709540415 0.58573964633893816 0.37233692992371381
0.29917026706571548 0.12542865577698237 0.48256474832533414
0.44209897084341065 0.69958831775553598 -0.21427110692634876
0.58297868496526561 -0.20621058383606972 0.35608020466791768
-0.22143896302548427 0.32023000693090964 0.77426808247632017
-0.42036698689406293 -0.62642937838187329 -0.38041650685141093
-0.87631093293902396 0.25051707006726964 0.12767996761121658
-0.54417971903664508 -0.73532238806321537 -0.32990682711585784
-0.57540001995331735 -0.92228199630783436 -0.40114383201007264
0.53562910150037268 -0.33139112525451786 0.33338855325966321
0.15294924408828692 -0.062998622170544749 0.77220624485074918
-0.68893261916098325 -0.29382527475052811 0.70789965170593128
-0.83263599370438968 -0.92318982321777021 -0.44639203512011072
-0.58180674373084074 -0.041370613217518226 0.75083669896494598
-0.66211076054418427 0.13947555676751833 -0.61632448202041346
0.76101452498071254 -0.52766342618965112 0.4569588770451114
0.12847419434936924 0.8655387151588485 0.53265413683368479
0.29206387116672161 -0.060446412086552215 0.76494910653835291
0.077247626714374462 -0.23597748884987269 0.69988767603377866
0.69596827197247535 -0.3099688326634471 0.71662115851608732
0.33992919702513191 0.68844545390181722 -0.23109850341611704
0.1036928064650624 0.27859384028271883 0.72953748804738972
-0.40482781132007162 -0.20655692569632755 0.80493537677718763
0.36461303504087894 -0.0063771145120679051 -0.24690486459728511
-0.89804359452179483 -0.14848929888753304 0.075879281907324625
-0.21452281130014939 0.012430255461218565 0.75953124350735379
0.23493447457299155 0.74600046984645019 0.50636838426967046
0.12976596618292291 0.3516667357783323 0.72797002898785301
0.14515966529816637 0.34190081333400535 0.71674623461358422
0.73301212398498805 -0.50165992495613132 0.68057905989037781
-0.17830757489350901 0.48829646994229137 0.73448887939400187
-0.12767598055136276 0.77748149231766561 0.58558084790177389
