# XYZ point cloud file
0.37999786919919865 -0.30292479670794015 0.67493952161285664
-0.1557633427762169 0.01707107123800744 0.65486977469887886
-0.039816884757946674 0.19707912066150646 0.67601411860943683
-0.36431629405001187 -0.13664399090609569 -0.083393175176450951
0.10242086763854232 -0.05189942682066051 0.71865966305650264
0.56330576087680084 -0.31470474456895858 0.59811988509492131
-0.30804118261791014 0.13667757741492581 0.57610095022653462
0.050139058548789056 0.51410315732993295 0.52960700479783562
0.29412993550628341 0.7774533768383044 -0.2346933057448729
0.26487353878844661 0.86809064351476906 -0.2258826624907006
-0.57670753338204539 -0.5375467849827642 -0.28544979359390332
0.056943594623573131 0.55699634576196522 -0.29403462729094371
-0.73783231267705696 -0.78411615476325136 -0.36501369823697827
0.099591832523298479 -0.085366123449071574 0.71927977383536867
-0.051617490332472538 -0.057024153821115586 0.72272189367602091
-0.6086367858608992 -0.62569515773466966 -0.20402331434069643
0.12001471614996964 -0.085898422041228883 0.69269599043093977
-0.05120100468206068 0.27149093347867137 0.67201828398271191
0.066590775810054126 -0.033032409540770025 0.72025617771627892
0.3066971299003578 -0.30040210178393345 0.67323344960104392
-0.2066635562231251 0.064334833605296682 0.73970122085798562
0.029292472901651767 0.13515682829321984 0.65681645521566057
0.51187761074504101 -0.33246950023095079 0.57186425705077326
0.1983333557629893 0.57933556835414879 -0.10631986493085471
-0.22466026249935495 -0.36487016731391542 0.064669638758296621
0.42976361910875788 -0.20902004402055252 0.61029234585851111
0.08394247581251843 0.20253008233400649 0.6469923132135923
0.27711326981232121 -0.12434334872433628 0.62257369173431021
-0.049909465234728112 0.36749436679094316 0.51283767518786183
0.1679225564910905 0.44167484468947404 0.47536161999134752
0.33759992961840379 -0.29517194487605058 0.65877698893932901
-0.023102363119115565 -0.10049732187680116 0.71350399537772791
0.29997725689289334 0.89965497180781362 -0.30301866380808029
-0.7700603113668858 -0.80471560743451509 -0.26169208782346842
0.33902633277873617 0.95280463795829107 -0.34990364464315554
-0.20715797555695431 -0.13827266688906803 0.64384707470441349
-0.2629403219512923 0.16302891250089413 0.69476464519250181
-0.47226464279547736 -0.20767928122835122 0.45488686293112657
-0.42418879608387533 -0.28678406061359474 -0.21184429691536799
0.19190719227839423 0.39289373200428168 0.26903326038158182
-0.64071061939599483 -0.67710951198541736 -0.16729707629500645
0.57758682553945662 -0.3381598754594789 0.63099521129690639
-0.19247710423157638 0.16709441220285859 0.71959677508699627
-0.021065759140223517 -0.084024746661512828 0.73605568544852185
0.36740305136645179 0.84926265094274989 -0.33714288624648048
0.18745017052947135 0.67804473844909663 -0.078951547258297256
-0.12862436067178681 -0.082838816977523932 0.70058152058538892
-0.28529670690685471 0.1121366016833264 0.70628706789858442
-0.053989852130661597 0.21430613842984469 0.68210198083838847
0.068360269828496106 0.51358418545912798 0.39991258913508637
0.28901608544788338 0.8372970874213358 -0.25911883289504262
0.10379147117734588 -0.064720920239836222 0.72078787134888134
0.0026437606027562843 0.36027533210421137 0.62269450224610168
-0.29558106763538378 0.10268095380489983 0.70106160121722494
-0.21271754953218669 0.14925749992705428 0.71898555419891408
0.19015376286579169 0.55926573097999932 -0.095697664207845923
-0.28611311964318076 -0.024234777457198486 0.73456706573476171
0.20543829901856064 0.9114389174340527 -0.21337131944449442
-0.25843350516576191 0.1215418815190058 0.69138705178763116
-0.61222316461688819 -0.62973151471120348 -0.43260622049327069
0.21264494477249204 -0.38530247136450874 0.56359287891258647
-0.7045852946533967 -0.73592381929455364 -0.11427721860998585
0.058054141611422694 0.4667671643343696 0.57449161950479566
0.19460370671552252 0.54707752752338212 0.14935237932533604
-0.030098325061358733 0.13464258775821059 0.68054757823584744
0.062499326625371443 -0.10755851143936146 0.71933368795078867
-0.75473788950677201 -0.83478224852573502 -0.31419703112962805
-0.073734038811509861 0.37435434743362672 0.69412884919599183
0.026129691223020585 -0.049661626844426654 0.72149168228882399
0.19942908772132995 0.97918798315422295 -0.35109308849147436
-0.55556394955644617 -0.56972060503953093 -0.088569175807047151
0.15684899369307204 0.50599218562430714 -0.047028322165367342
-0.16748966608007726 0.26038909917881803 0.61557948488886383
-0.22174396057139262 0.095215807830030808 -0.32344372216665362
-0.012406972548058309 0.20221282917498096 0.68838561934875364
-0.26684909496372233 0.087885435531612655 0.76269265677992526
-0.008049520269693855 0.55428093966055902 -0.31619683107007013
-0.47757234950374156 -0.28694073021271682 0.32615219419372388
-0.54455315587277719 -0.54170856030559533 -0.09293582718966098
0.45034018182571317 -0.2691042453514646 0.67171586216989987
0.33007943197384071 0.80632271425603197 -0.27022266426866337
-0.19099789577160897 -0.18109704391726911 0.55803779305115564
-0.11202831910928962 -0.084918487885859095 -0.022484292284862817
0.14050588442710066 0.13666595717760133 0.58576305105105397
-0.31199054507490165 0.15238096423740077 0.62876708164004547
0.20629865271951708 0.40947817716077328 0.42265488620040215
-0.0068362798829058324 0.28719555201064129 0.66032947465532843
-0.026813143618169138 -0.052417757690914724 0.73235360231961599
-0.5833900587709655 -0.60729793450448111 -0.14092134855295968
-0.60182369664721724 -0.63687175208870228 -0.064084563336176958
0.30211147608193001 -0.28341473649738369 0.68145233214848688
-0.017049986841425002 -0.060565457776837306 0.74327065606345044
0.039422070108621282 0.25598042443816649 0.66626517201751889
-0.27645335226325374 -0.068538747442990045 0.70706894852771351
-0.43290776139269338 -0.49699494682856976 -0.21882473371303357
0.19721259634628396 0.39590627295584757 0.44369036720467459
0.19062662205048114 0.75517032600865219 0.01985332592346073
0.43845836550323325 1.0586745687751238 -0.40410600123647478
-0.22736506119200273 0.027132281987837792 0.76686994948778286
0.31600338039537162 -0.2756664218678827 0.68499778300903835
-0.008897282406079593 0.26879763359626696 0.68074998088044603
0.10429592861543127 0.018328975816473192 0.48101345970735365
0.36079534114367556 -0.30492296835041499 0.65967190441690726
0.13286274406970849 0.067354749201690378 0.52909034713076719
-0.28483180989735896 0.091729491974779309 0.71391123791889566
-0.53649617335347699 -0.58461571383034672 -0.15932344135821819
-0.39292695864751603 -0.46166969268273078 0.11256079648266482
0.033439891605003352 0.41735027100236899 0.60148691990023107
-0.25507638805862803 -0.07837576862131479 0.6802081087391556
0.16530429451223039 0.47605072972445073 -0.021941887718362696
0.20205462525892004 0.49735447175412173 -0.051693242010093454
0.038956391794011752 0.41879544194199647 0.51300914426399269
-0.18884075704901276 0.067233954613057922 0.72541107538036331
-0.061778055178831059 0.27474485351635536 0.67582978517429393
0.16534641797033581 0.60279815572378326 0.21053367137207363
-0.24782643955449257 0.095422499762872759 0.76375303579563913
-0.23955455573000084 0.077063862658394489 0.7695065914280218
0.33204302577524347 -0.32587343729442231 0.65960036400536781
-0.19661036845036645 0.11431280759100959 0.72528849956641372
0.22884002088124905 0.77556687608185604 -0.25094262827037239
0.52775027186435852 -0.31052207387164954 0.65781836886615142
0.25496959037549355 0.90491131643273515 -0.29867966421825143
0.31523138053504141 0.91598190360559073 -0.31806469984982588
-0.26370410798834815 -0.038556312065438414 0.72082329589925409
-0.04446765422587648 -0.1408076739980183 0.67805907855871383
-0.14848784052350952 -0.25290822718699446 0.084936015857271618
0.1863218530541853 0.48329048859660118 -0.05195914535792906
0.52513086649078611 -0.27089645101625015 0.60966461128247673
-0.20262306596931584 0.23256585424977028 0.72961236317540479
-0.22993464767893834 0.029340832634972225 0.76979061892936396
0.0012651465078371837 -0.051241446308221139 0.73321869324878208
-0.57193343963696186 -0.52553473071053292 -0.33839418298411028
0.15334776832336333 0.57052000485018683 -0.13875856617433863
-0.51082389287565433 -0.42043083731717101 0.056106961441174108
0.22087556155696192 0.35173585759672155 0.40554557094233512
0.029807300198012393 -0.044507183551982687 0.72361895679755561
0.072964975107703167 0.30634271521864387 0.59855670889889756
-0.35913629993128116 0.014754517329583328 0.66643536836313266
0.33715966974935374 -0.34093515034911198 0.64854759658481043
-0.24602279694065793 0.17960624389062851 0.7002317997230123
-0.66958814577834391 -0.69683737048162775 -0.060799668940076157
-0.062820571925485569 -0.21874199371672842 0.61138073486162081
-0.36973721073892218 -0.11614095577456596 0.65583554861678273
0.29331956355211358 0.91183954969641745 -0.28404685756673742
-0.066604163167817587 0.43254009096865043 0.66631992586267974
-0.60483743875654583 -0.6411125961217703 -0.12154162363566734
-0.18677609298311881 0.05180969415499137 0.72702743456282126
0.012718387000349524 0.17627727969217899 0.69232912800058488
-0.24908291294459045 0.073590327288918123 0.77091657346946252
-0.54860571965521387 -0.55019354619130589 -0.10691694354263159
0.03596696218140738 0.14732578811401498 0.65282263901831938
-0.28136910757440659 0.00092970161538641349 0.76070355040727133
0.17418327675372755 0.56912899065426081 -0.10091100193743036
0.21059002184934281 0.30050316014528344 0.45804974447562075
-0.61285748984236132 -0.59544957266678589 -0.35667969541546618
-0.22473817692856329 0.023039419728722255 0.75832109175050699
-0.1242118633363038 0.0079857276054033921 0.72046256892974825
0.12436263658316032 0.31740691869387472 0.54302306263565958
0.39344990773255939 -0.28341880572827172 0.65996457933394592
0.30116711361514803 0.70066547272890645 -0.21300352395309041
0.34990881173441418 0.76380347554380679 -0.24262407403021485
-0.21866897161782167 0.18142143974514247 0.26172953677431599
-0.45056314237073752 -0.064376133278555181 0.59924328542433669
-0.19298488239520178 0.057520804552827931 0.71808641734585577
-0.19597219826644396 0.10288769081506555 0.72535047788200879
-0.015511781612992187 0.25848783696124089 0.67804657722986472
0.19583225662647996 0.44157834259918716 0.24918123138663084
-0.27167112462915444 0.071077774359903034 0.76682933392658159
-0.017784601092739744 0.15894130103356241 0.67106291193848777
0.27175092886388424 0.85577262687747147 -0.26348824565474388
-0.18515723649576951 -0.35970404901635067 0.20844745931222414
0.10863588132143451 0.21152901378261135 0.59048313085791448
-0.27613772667875902 0.12179724300702899 0.70542356787140248
0.37061214892890937 -0.29883002016454907 0.54651891212069059
-0.59934737811560679 -0.64071578837817156 -0.092305405164391563
0.0089661337757440118 0.38490137170500061 0.61447786275072858
0.12433091679998395 0.3338877560817376 0.53828789843267977
-0.1793410830678942 0.30844256398086234 0.65034043714815815
-0.057915178492392971 0.20057870548030921 0.64830440975262005
-0.31465312617111241 -0.048180314925186041 0.69816406543284271
0.0068724302279382365 -0.24474231066313767 0.45265351532329601
-0.35644714580099862 -0.021777295425999155 0.66460135701860035
-0.33111326710197403 0.01735071461922677 0.69732137158633256
-0.20658354137560264 0.12746411069183572 0.69256390486884467
0.18998289558025816 1.0074601043877571 -0.35026027628588613
0.43142164739382993 -0.29464014028438368 0.64738398916370421
0.075526164245343363 0.1786075303891913 0.64724344575918136
0.22596125361336589 0.54026785731204352 -0.081302689635805142
0.34313076635864947 -0.28325561482732609 0.68122803602685966
0.24794638600900804 0.88590961469341911 -0.23070787230737438
0.18911612807831069 0.66385041548813895 -0.099992339211115611
-0.22910485251588836 -0.03068153196162049 0.72844762862840517
0.09455857744505046 -0.045430413480260445 0.71864777360434373
0.25975022210364684 0.66116910763716163 -0.16804543325880386
0.14054011411333123 0.34471525168914163 0.0064312166454225939
0.11974727035418642 0.2594696423261228 0.10753831302680639
-0.7333533014642718 -0.79207815766155265 -0.25511503274692038
0.11157719173318523 0.36923547039956506 0.53542791055421168
-0.04948982994995027 0.17504673663876491 0.68478575068930603
0.032384261446784177 -0.20582081277828357 0.42830854511092203
0.27958267469205145 0.84876472126313052 -0.26415262359729025
-0.21748389255919504 0.12431528777644618 0.71578597078980666
0.18490891758255354 0.33070259702781823 0.079056048739525042
0.080946773070692729 0.46634045653580447 0.554366433532541
0.086487110297426978 -0.037404628407635365 0.71414640393711648
-0.37189486041372277 -0.0022277786202731242 0.65672344583663045
-0.20114230879545125 0.17048937595581304 -0.11261227557648268
0.07558915646261799 -0.047537654322184042 0.40820064571233533
0.041319322693744498 0.43478330506737795 0.4909380544299386
-0.045163489872206974 0.32098048626253151 0.65907587577343918
0.14502471588394855 0.44429153202352056 0.025723381731841688
0.3982531700365558 -0.31313015890206952 0.66373819343377938
-0.0028874733481109305 0.10416506035136741 0.6246760767757038
-0.2492788265850685 0.13643601133426342 0.71114219845530002
-0.53075733741331588 -0.46692242358312647 -0.17607233531710875
-0.68898559310073859 -0.71345587572271274 -0.45125315417700973
-0.21337518031003533 0.13261502090320199 0.72084174073843821
-0.47824844284760237 -0.34267158092059913 -0.0088830023839743255
0.55941164428614221 -0.33614395213367831 0.59041183346958515
0.37963685935836422 -0.35749821392259684 0.63809500880836034
0.27034689014213914 0.54619308485470708 -0.13907531098014758
0.034437511023115375 0.65262900405045909 -0.31799816650567569
-0.31963980932938779 -0.38682694990646338 0.25168174476845312
0.4465637596355283 -0.29405910169961846 0.65119971484444106
0.34621703036964524 -0.28106091679370504 0.67426507325719598
0.40671266543449952 -0.32140589424461896 0.6689031791037906
-0.55351353247165114 -0.50028518457839377 -0.31544404525849123
0.5162249057850008 -0.32924530177164668 0.65720371699186542
-0.67329406747899134 -0.67872678082507742 -0.43767885885214219
-0.090258943800188007 0.28126676731213762 0.707574561910012
-0.60510987963588236 -0.64254141491444883 -0.076369708309716344
-0.43817992650115278 -0.15658882741102431 0.37232959269412957
-0.056136271614830091 0.27313940892968025 0.67328805181203411
-0.1033173566998824 0.33819274162872648 -0.57515706207186668
0.18360087266792627 -0.1396343441774156 0.68811417987647416
0.27453591607561773 -0.25783644011082896 0.68821097783078489
0.058754550774965719 0.35145860025227371 0.57490105299364602
-0.079910395369650999 0.25749491743942443 0.69332383159901168
0.18306175660969951 -0.25507080087286893 0.52273587258048992
-0.5801145172858182 -0.56035757767662986 -0.24165854250281948
0.024362582233260849 0.34511537816890259 0.61923335107641597
0.2417820838452418 0.47914116217929059 -0.0076623098616078189
-0.59981320946980232 -0.59337033462841804 -0.30127014033213761
-0.1632545414364886 0.1707119385798177 0.72630257558374711
-0.010702816604630017 0.21636216535983033 0.69591405711829468
0.068632816400082813 0.14973080087104162 0.64057797127946203
0.075053592301642769 0.35462498869632741 -0.06734558189660389
0.12179194613288911 -0.047352814478350491 0.5576895423819116
-0.017433084591699677 0.2790383735231069 0.66028900529246193
-0.54965057898786041 -0.60841349298967651 -0.09556661946979117
-0.77970088479775279 -0.83619164280342506 -0.38223738920078865
0.028618848885739956 0.45088865219656915 -0.24702493709379314
0.19920599209999512 -0.36534744010944381 0.59128069296901931
0.097615359310152292 -0.26350671238497636 0.65709219782784845
0.10063924878716718 -0.099754929254513902 0.71146087847079087
-0.043134376400573216 0.34301768918290398 0.65676224425841367
-0.0051317723935133952 -0.099439876377390601 0.72432515397442976
-0.059223222269746356 -0.15011837159952313 0.66235338363883356
-0.58964463101153397 -0.55703833442967765 -0.31897163133860718
0.42355570831034223 -0.33861293641087536 0.65784040201919036
0.067056627199730934 0.37866100188855556 0.57029029914154106
-0.50083599174609017 -0.54756299598211289 0.048382620284118327
0.052447991804489696 -0.31759567857352555 0.53841642691600944
-0.48185981692408913 -0.29982815976967514 0.22561475545614096
-0.76752898674928804 -0.80844711821718696 -0.40938680546510264
-0.17305741504009003 0.051802565663524036 0.7260748943603188
-0.2519469704561948 0.13874567258175829 0.50664089047607808
-0.1251499269797583 -0.14604361279426326 0.6039990173005223
0.20037458915706274 0.4822825149743466 -0.038691636554833625
0.13133897946925494 0.2235443716348503 0.57646211767511357
-0.51678466522713684 -0.50671503300262566 -0.26051166957414307
-0.44403727313406943 -0.044943526372280052 0.60674535631042303
0.0033977437194666615 0.38182828195605878 0.56101574813151356
0.19440579296479871 -0.13551827671895411 0.68394883485935909
-0.18394695927660881 0.11198732627057195 0.72310276918411898
0.06748528266746745 0.51800424698565606 0.37354696338388271
-0.31634720063255672 -0.049764088269710571 0.70091647445624283
0.15263147529072521 0.25487987530989076 0.54255248078353502
0.34983885833232681 -0.33241702354791675 0.65701620992111531
0.22912845606975066 -0.26135677837607119 0.52993160375425141
-0.11084314716103333 0.31737157971356911 -0.44141211676673009
0.3988343963660077 -0.19111655589835375 0.62326399211646455
-0.010096903918427991 -0.2781633901589492 0.52023780415110066
-0.77237529040348707 -0.82868896140264126 -0.37861339787473391
0.2127317680837251 0.45486048450639904 0.012102300634792368
0.06778790621486061 0.099050104909971459 0.64643418884914294
0.51198995690783355 -0.32201509413724694 0.66077482722756031
-0.10429465791569065 0.34115994565956531 -0.59193636605102862
-0.77230300746374259 -0.79604094769379374 -0.39879513516559206
0.0098115887443110394 -0.051699593534573096 0.71358803863524145
-0.064715415970957452 -0.14227442429569503 0.66332622760547921
-0.36256786604347047 -0.046313063268747623 0.6775549774373657
-0.75280676824095449 -0.81078104924405459 -0.28412043600991732
-0.18745055643503716 0.037071880286351777 0.73021252568882988
-0.42995081313238931 -0.082830687538401837 0.62305306996252052
-0.086031117025506809 0.35417801081604272 0.69511553822816052
0.038718234546308156 0.1992687322423311 0.68333445403009896
-0.10197613862192997 -0.00026555993349264284 0.719814193553308
-0.24330440203413878 0.1140586401861442 0.72633923152105595
-0.15647754942572251 0.040626987690864147 0.71841736711642334
-0.42491164728344383 -0.036727379691075757 0.63061236845602853
0.052814344570670024 -0.025629433535245161 0.69297344780663794
-0.32316954534603592 -0.33728740085584741 -0.25022642509454807
0.089531049503126056 0.059672783954730746 0.35920196448735242
0.011684575533100289 -0.21019385188336659 0.396093121693257
0.094366802808646733 0.81706586508700951 -0.54204690994764682
-0.011206513540063606 -0.25088078907505329 0.43009166129315196
0.31223162037594077 0.68629756059931502 -0.20988885419099854
-0.59352936415618096 -0.62407673284339382 -0.12858891278716411
-0.22763584367327389 0.25098648522649136 0.71779917394122472
0.11279402147342599 -0.10228635958531462 0.69756167227179044
-0.095738462995441143 0.18348892882518908 0.70387072329110167
-0.35501033436192847 -0.03456102491788815 0.66953240401675107
0.0066874072048110633 0.32718867527982465 0.62526139474200615
-0.14269876424277844 0.052003242149352036 0.71281044351619682
0.25692718685735216 0.57136001664158986 -0.11467540689485844
-0.46516509120210314 -0.22410790282818227 0.46049510206374578
-0.30814437587124527 0.057900151283733048 0.734698077776202
-0.4747926199949557 -0.34808525046227234 -0.053584973098939392
-0.00015008404115635088 -0.15814328249248699 0.69004305080747086
-0.24831422403334019 0.16511771185013524 0.69940481457324566
-0.59361353962148344 -0.60660177203819299 -0.18751461804765013
-0.26837465099828295 0.1258580207488359 0.70630098400426355
-0.68819352376680298 -0.71729633706446516 -0.35210275618393905
0.059928308120095003 -0.087812167722001733 0.73321361656230977
0.36858063502669264 -0.1778742706225358 0.59491758688115126
0.15407652630802854 0.69951839684059991 0.12693942923698215
-0.062422722870888736 -0.11230138619568852 0.6875731762957884
0.57277109834565099 -0.32724932696517539 0.63771349345289252
0.099328706837067654 0.39289215411886547 0.53705674856095953
0.13193521600829003 -0.22114076363260737 0.50800356469065988
0.088473211274697039 -0.13118025511402176 0.70207254303514555
-0.74781268910779741 -0.78980865255678478 -0.45615513738574753
0.16499535398175857 0.55319173385513687 0.31179381896654346
0.091541326341697371 0.42115449088096535 0.46354818823148175
-0.17774058140502064 0.043825515811000137 0.72977484704165363
0.15217173296959197 0.49499385937480145 -0.033374671595973016
0.11510426663364519 0.079437268524024773 0.61784905423104419
-0.028593248588171694 -0.076777633885624308 0.73528011461313558
-0.005165407560508456 0.21807345509118703 0.69565072840428821
0.4806343875659867 -0.3720377876736084 0.58531610963635594
0.31387428574753373 0.68188496790609154 -0.20409220870294265
-0.090800325975710139 0.41925825736476496 0.13815005611835562
-0.35222077792947482 0.0040098134246555617 0.66629359988389092
0.54937988564667051 -0.30526380059022795 0.64601381227490839
0.052236957294515024 0.58004003085789602 0.28969350789876658
-0.4508815112181952 -0.2309925968553298 0.47308505843116644
-0.13746517986080073 -0.18837490823391201 0.55960330053428975
0.22394054772195643 0.71072094104839401 -0.17355655708996029
-0.041044651372384444 0.36914880762870883 0.6586101848102287
0.19928220827734919 0.66899887377129619 -0.143628078152998
-0.3724982922801045 -0.10407077630866735 0.17533564747407371
-0.37732641539089656 -0.1037693018670639 0.6572959480356978
-0.56094976738597202 -0.57581579545862849 -0.080157018392012169
0.33664354621797582 0.88093601491462281 -0.30212636718310376
-0.35621611536856956 -0.12760216526707135 0.65420773317686187
0.51321162277263466 -0.3510462722818869 0.64405195301011808
0.36441326520237916 -0.26957279562825187 0.68349123327984829
0.095148072016905783 0.28742735113376172 0.58297531547340786
0.22983180743405049 0.70727088055490361 -0.17474799590652074
-0.53848778385748175 -0.49001605604763387 -0.32277148582680015
-0.048648305930519664 -0.06998737201038252 0.72169474599566863
0.47433462362636514 -0.31058368370752976 0.65796049796915301
0.14633813267563614 0.31454290060228474 0.044354576485236774
0.38949817948235649 0.97587490060371862 -0.35248302381838326
-0.21619947252128263 -0.044876612723695919 0.70091370383598428
-0.23293636379696137 0.20371985239650658 0.53129679863698787
0.47968464856248738 -0.29313557791457845 0.66710406538667355
0.053933025191582412 0.22304327179141792 0.66723243002367572
-0.18159972963631393 0.028909092532805158 0.71188281310563273
0.47386151212785388 -0.2368752843115256 0.63420487221800526
-0.55881438144748108 -0.50742806151676323 -0.25273812857393496
-0.24113431365205273 -0.053407345344092305 0.71618503197563987
0.20298734467413226 0.69093464361289381 -0.13531633627855977
-0.78763132384785761 -0.82881185068101082 -0.54893749944504355
0.10363214887359179 0.73081087524902699 0.13357275695201423
0.45140838102419861 -0.29391539992921301 0.65345722507431281
0.046926232921608219 -0.025032788508983828 0.70287113229068254
-0.19926938772041425 0.31700301755702753 0.59986144165381816
-0.4219211950256968 -0.4661610956761279 -0.25944426922300623
0.17510931315464534 -0.36881500993909466 0.57766898969640579
-0.67632859007992296 -0.71708587655362133 -0.078425309370939611
-0.01220413381789992 0.15335318685672228 0.67092131744541605
0.10535660737901865 0.015139849574200226 0.59966825862296025
-0.40198545608037928 -0.20264922493636528 0.55749543495600751
0.27824987915505789 0.67721463829642314 -0.18817167170171339
0.3841848385429904 0.93051974389740622 -0.34718210958452733
-0.56518966624576272 -0.57560633383661264 -0.14550188627171778
0.065243301031526479 0.48307871140642289 -0.19872344887001397
0.16134356374749026 0.26279255051794648 0.53192222597086869
0.12140844099670053 -0.13158604202152979 0.49635997934984805
-0.33860570109722732 0.016277927080810439 0.45392925536231593
-0.032648027328877866 0.14804077391033821 0.68227014339447956
-0.24130998289977962 0.092448213554722103 0.76487979174855436
0.0079525103785258455 0.27797948190705457 0.67464306799264051
0.23572426810297065 0.78438767319488745 -0.18897716304310891
-0.69552662869054593 -0.72808205104669299 -0.45989058839278973
-0.80834109053966552 -0.83289886731505558 -0.39659128635130014
0.0036268415445983443 -0.041147101054821 0.21776174311420649
-0.056147549869271215 0.223187851442332 -0.21391045837284806
0.033540965760665342 -0.027775729300222873 0.70135263139443516
-0.26444068649562158 0.14979474350431643 0.69483057418741123
0.24510599976421771 -0.34144312587044401 0.53688983225537534
-0.78928914717372223 -0.82081049623648972 -0.30321999610485428
-0.19849324035898036 0.10060433787614587 0.72279491557232634
0.090192361744701813 -0.01909686389294396 0.55523037545559051
0.17401272226913619 0.50210608451658822 -0.048633164481689445
0.24263423091867864 0.5260576069320908 -0.062873575698446538
-0.44714304943520655 -0.27712386780281573 0.40487579639712168
0.51575304619934703 -0.33687059955340948 0.65331468100798018
0.48115927019035265 -0.34504806519464382 0.56772832914275406
0.14477143649635166 0.41791078959923644 0.041289043213484755
0.43478131279681753 -0.23775770727478807 0.66109313857348484
-0.66946950561711338 -0.69338594746170723 -0.072436370932271066
0.28571593149702601 -0.33714635941209364 0.64335483994220588
0.022269020297836645 0.13199200303096448 0.67012832023877422
0.47490596125837709 -0.32256100785255304 0.66245281373775244
0.092227544048407023 0.35447362127191273 0.54903981238099409
-0.18587553011287439 0.068307932444184649 0.72815667672198203
-0.098780106359291686 0.036258055320197102 0.70449666626620622
0.018731166811141342 -0.10771397996927579 0.71942863299562732
0.029994818259258427 0.31103904608385002 0.63727085666893657
0.042174360065004857 -0.30170387360418371 0.53118041611430256
-0.043101528948785717 -0.19474689141443979 0.64786329198991455
0.10498830004348075 -0.032810619240934757 0.57589483331628621
0.19676029850198429 0.68924917620327042 -0.11227365726701752
-0.24024351982365494 0.14913564768824028 0.58792874087810876
0.27908315383906851 0.51010507025899032 -0.086380919870733708
-0.13300778099404159 0.14210645903928687 0.7169356005934846
-0.057848764690019649 0.15377774179089199 0.68618953081818423
0.028974460548388176 -0.029801272715802796 0.70762997248469794
-0.35983636353218651 -0.054618813005344657 0.68164249273240141
0.20266974237083449 -0.28053892503283639 0.67061251501637309
-0.33583813610401947 0.11381842841020406 0.62243137520730163
-0.4213877147907848 -0.26805068147025024 -0.16221485752888021
0.047070554901174594 0.11720001969497673 0.63128916233074617
-0.50191160358977593 -0.40252271984844751 0.18393533868543221
-0.2698190971356646 -0.36215660520119974 -0.070591089076130542
0.28787353339034011 -0.1949149389385233 0.68200513590685896
0.37311703633130155 0.8567435126496209 -0.31347869595843902
0.22766186635784957 0.49819887377907712 -0.035392221113378641
-0.19065236067086272 0.075318292226133843 0.72484285244316593
-0.18650221705831721 0.17760707886797567 0.72410322933481475
-0.68268091064968994 -0.73466325635341112 -0.10216532160311698
-0.62271426548588082 -0.61922772274050919 -0.51072017153956895
0.18323239860157403 0.22444448855098231 0.52342011675647138
0.35529786323257839 -0.28690777967063708 0.66297583581366781
-0.022636608913265688 0.32085939831281651 0.62028529008009758
-0.07336673207654934 -0.2076347505608227 0.61071556829502027
-0.65472594326599332 -0.68856202112453913 -0.22624521239037665
-0.24089240985001892 0.16984417213428171 0.70233782184285176
0.13354908876514562 0.34524862930581612 0.52594108267832484
0.37154971650462815 -0.29151163893136467 0.65696552538458275
0.082956814306764562 -0.11573993782495928 0.70474063052785119
0.41613269699807298 0.94377734373224165 -0.33328035613591378
-0.14639251200265743 -0.14968758811358895 0.59519514906159832
0.42865604659619083 -0.31972067948567418 0.66380966092784977
-0.17641746263379349 0.2664160430151622 0.58712517478646253
0.1800649203589903 0.97035685114202674 -0.22323049139426127
-0.016545132036882459 0.14000579584437944 0.68020595845778198
0.29460008637836133 -0.16123187169729125 0.56292281273553613
-0.27250363432286751 0.15115285210856588 0.69256574533523574
-0.28076196400266279 0.067970334776086494 0.76268585585211124
-0.048081694425038637 0.14225807510565491 -0.10355240948816674
-0.018737528656791319 0.15568319385698803 0.67547890751088957
-0.25499114246203342 -0.066456144720379084 0.69498884481692413
-0.42263483525640932 -0.17550556298028031 0.23768199441089177
0.18928525077528791 0.52471644549362961 -0.076600019446139783
-0.78483054940615637 -0.81777069653020418 -0.26470217755103298
-0.060391708608979744 0.2420517338527457 0.67972743055436435
-0.42836270374330887 -0.23792241778046608 -0.0015966547083434701
-0.021375140660016112 -0.074699957175677234 0.74306479069311471
0.12929599302983838 -0.091050247639458348 0.68720862119954074
-0.26278001659232852 0.01118957277529109 0.76830213260735603
0.28224434660112718 -0.37278720980682972 0.55413664886821701
0.11575884953334935 0.1457523452383207 0.60451149917415781
0.11682940908074507 -0.072796105662364274 0.7009634130016188
-0.086994725734026612 0.1108712008261461 0.69664240437259506
-0.028095554016978219 0.36499387988521048 0.64337276314400538
0.1761232638462385 0.50683053591896254 -0.05668641666075469
0.055076781123464813 0.44942231017303569 0.58505149759788599
0.093396350750785548 -0.043844058709010758 0.68766204355206384
0.46386478846721685 -0.28556560189492664 0.66634282805543088
-0.0094598901225815824 0.51708022603525705 0.52199957159001065
-0.38865966783894895 -0.058569416773216476 0.6569645705678091
-0.069492857896638977 0.072274640321168482 -0.085308296470020917
0.26975394453118812 0.79559607971865809 -0.23186495075298408
-0.23695485313662146 -0.045919806789221695 0.7117232273537154
-0.3263598614164005 -0.060295733950188612 0.68835419084907801
-0.086179743330059233 -0.13464680510236537 0.6498962559980348
0.12441332455545831 0.1828530734277658 0.59366013527970152
0.19087263332970805 0.42101067852317853 0.22302267540289042
0.14453505125242058 0.3591220989107935 0.091772764405759155
-0.29767036050358953 -0.11142330577667947 -0.49860213953651389
0.37140590216128633 -0.34838612890656551 0.64625669462600388
0.00092612703279951192 0.13829487200159318 0.67656560175497649
-0.79337574833732849 -0.82232143663155077 -0.34153302606537772
-0.22274925367695247 0.036461350671480264 0.76664633989415254
0.4151450008622129 -0.28975311519402924 0.65074195122182454
0.039264021974002139 0.30495741184618841 0.64070514947528967
-0.3171151267645797 -0.016330627888714311 0.72353835119034782
0.10043263289850134 0.001073056567220565 0.52583549491967863
-0.40109408140496516 -0.1919015631155766 0.57636571966980865
-0.036908547007339476 0.18766925777924914 0.66844197952648943
0.051439403981117626 0.68716410592798205 0.13403762524872465
-0.53950298770572458 -0.53182711408213657 -0.076904260385209811
-0.015284334569070523 0.20079234258044243 0.68400988669867135
-0.036024445004247951 0.27134041043850898 0.65070425034369883
-0.018290074453917921 -0.049300249182488765 0.71542033439201513
0.25282400021089108 0.84100529902807608 -0.20423052295538985
-0.38786914182823234 -0.040326181920205317 0.46119106531750742
0.036228003389606855 0.37882626110758333 0.59459281681569343
0.33432863872868673 0.79403005398110882 -0.30254748999081765
-0.59003708488899831 -0.58609965138599707 -0.43919370377554001
-0.3029344585145286 -0.048773316853909954 0.70736929198757847
0.40145593493524889 0.8338875524070315 -0.27840576227762248
-0.3466239335962954 0.0055750628857701434 0.61575166478545773
0.57627295114043076 -0.33576433064334832 0.60106099115459233
0.14932240217061321 0.39584518373214761 0.089384537280400356
0.087778367813708361 -0.031201110407112709 0.43914307213013387
0.36489857461029446 0.90294418845907132 -0.33225622764095653
-0.22248519674236733 0.047562144124286609 0.76876604725758968
-0.2723768083210189 -0.0082656801898253196 0.75130420736830694
-0.5551137465196071 -0.54834029021302177 -0.31104341695213666
0.11998594399981934 0.38587103915571852 0.5222344945836952
-0.4022735392719663 -0.079113889085868472 0.64630753316139766
-0.030701467772228042 0.14056658830843016 0.65260262978133321
-0.36585056386715337 -0.11107326062673017 0.6073656880781455
0.067014981452699685 0.15318118558936933 0.63814577068792044
-0.27833717461713631 0.064657874147650118 0.20425584599585905
0.19601158219240872 0.76275089367075088 -0.027526272823697004
-0.087905906478115192 -0.26334255117534866 0.4854645330138434
0.21690718313489984 0.43208977608449028 0.38269266795942403
0.14160022870195588 0.84289093468056497 -0.38972302036204098
0.24955028850074618 0.78073941041324746 -0.21631629292567733
0.12333459479626487 -0.33259374013961851 0.53545049133073452
-0.23262311669490632 0.01662754071871253 0.76274399518409153
-0.74838767529146155 -0.78544200426152788 -0.22499134946014887
0.023905713367282561 -0.095358527863410036 0.73771704801656113
0.081504298889705368 0.26998952966030532 0.61742501340525913
0.15748200975342994 0.53968592294584727 -0.082835645040485628
0.051728264111605887 -0.024695473895523179 0.71142921184337948
0.068493026607892388 0.38772787287448984 0.56499895707907732
-0.11891680519134024 0.28900294647014713 0.52883855045243511
-0.65018773640663019 -0.65479864066160687 -0.5426277503152156
0.29560395110900556 0.63038396607845804 -0.15360198061818914
-0.15609419423347701 -0.14403507853085207 0.61533660302420168
-0.042518673287311182 0.083954456532173038 0.68698847546554187
-0.78483925271536426 -0.80271710465428836 -0.47416274430633321
-0.30862023543823036 0.00088315910734082514 0.74466305897542151
0.19283341206836563 0.78537997855496422 -0.1346629242909495
0.069018205577861091 0.40017608153664452 0.5142898425025153
0.3841497233477682 0.9562202504900551 -0.36514415635025138
0.25139121297960448 0.8535190746995196 -0.19869086103913619
0.19562652184300217 0.49858245270174273 0.30992535141989708
-0.37584615448280295 -0.21897842494895048 -0.33674501750916919
-0.68388546336134337 -0.70251911387864152 -0.44396341157293262
0.37924227518809395 -0.29780424109111758 0.65295452889062755
-0.24603275164575561 0.23942086859009615 0.70975063949295247
0.037494905910156251 0.13688119455332681 0.66173888160439098
0.16978450957666866 0.8694501061585872 -0.057598987969094351
0.14640685898513656 -0.061029941275274724 0.63822221940364909
-0.037555783661004594 0.26779802554203247 0.66111724909756653
0.21429646329815527 0.40734496025066069 0.35930067404558114
-0.57758801428770157 -0.61206591954985745 -0.20563558850718211
-0.074295681633388538 -0.1232357968455049 0.66960091579976855
0.10990458675212014 -0.050588187940743601 0.67672814947443505
0.21802049337151419 -0.093744042980543174 0.62183174576603129
0.45518111197792288 -0.32185725215983119 0.65765870263067883
-0.52064276892845407 -0.46219652612330858 -0.063201872754708344
0.01401332051871923 0.17924688455370386 0.69400885973103821
-0.066967539963364575 0.16815976511456521 0.62895050440002875
0.40226930625200596 -0.27369380354159478 0.67656534732995122
-0.029089111433873216 -0.062063390787276962 0.73974813998167677
0.0050121290856693368 0.53032121768399021 0.56924970822229526
-0.55324208265468056 -0.52111957257154617 -0.15155934453976128
0.21947224751003716 0.73785715699098808 -0.16723393215852256
-0.051888028481188841 0.20141699132759139 0.68332218649814025
-0.28308132363992161 -0.0063226411602754773 0.75339114390769824
-0.31929355646695357 0.049978322611556769 0.56587262226281676
-0.38851010649210554 -0.14556760392152635 0.62914327533326175
0.26042913549961755 0.8316628499381149 -0.24411339536768698
0.19581087751238188 1.0118216327098692 -0.34759360537720974
-0.032788471520311335 0.47340037871787022 0.65446332857343281
-0.30030756891147092 0.013627643481378682 0.75681927563486673
0.18046766237050699 0.67362651644591942 0.10957418339652684
-0.21678282071972127 0.030081146840581274 0.75200322591620239
0.13717094122586265 0.88314105215945571 -0.13169457344914604
0.075873377946613932 -0.19146993788927691 0.69428472920247608
-0.14198000389497589 -0.32976718857928133 0.28044866258078577
-0.25524751833882575 0.1329993401145021 0.70903888389610192
0.19388739640415209 0.50358512205833561 0.15965521835458632
0.010295017727513511 0.2030437016313984 0.69438555429315385
0.1965212666196654 0.48293698626080561 0.23743720788235856
0.030085093756095277 -0.14453861530798373 0.70209846439174406
-0.58905336538487696 -0.61174340879447486 -0.15169923515723671
0.5092284846463615 -0.37470991365663531 0.60746943544521503
-0.061317505445829701 0.39578959089482435 0.44673929588982697
0.16083699407879415 -0.065060254599229594 0.62094865845431779
-0.41186871138584713 -0.46933482592881431 0.10818693451289052
0.47523596838676863 -0.23509490903925423 0.62287378373819779
-0.051535038888190998 0.30661605802875835 0.66532635015288621
0.018271612112697705 0.3497913850108364 0.60147622086402053
0.2270664647796431 0.5800455596352968 -0.10725561424009969
0.2794437097331024 0.56011430762641667 -0.082607946902584134
-0.59676006769523393 -0.63690169194574664 -0.077684771410354903
-0.39509070353214454 -0.38901873641066864 0.26804018708089994
0.046922790582784091 -0.10686980583037464 0.72229175933077361
-0.16456401026435946 0.23563753276469379 0.59701049900114134
0.12355902926115761 0.35096938000178701 0.53254199974304017
-0.31044856235290608 -0.031491495223532229 -0.049847424852183742
0.13235387654249386 0.43829476145077007 0.51686478660738711
-0.22370885272925661 -0.010946058238140655 0.72986083657455048
0.15622912730590893 0.92646595998087777 -0.43931546723197035
-0.57541057786212191 -0.57728622241986005 -0.17905003210742332
-0.0066119766192370422 0.10715434790893341 0.67717026548660741
0.12439342306461421 0.26607034510481742 0.56189833433031799
0.38912612152821607 -0.35050975863757977 0.64583959278369496
-0.73142150526542205 -0.77341245623635824 -0.39406510615386192
0.16848705290874674 0.5835007266736506 -0.079308862935269703
0.52075871607996316 -0.29652596117662477 0.58458641491500218
-0.60830746491673815 -0.61703117494419735 -0.24624735888440219
0.1941553146027063 0.92182846372281435 -0.31917493868557079
0.26567212977497845 0.92299769686494693 -0.25817120236766894
0.21821408411505233 0.34570780780221555 0.42226147191465613
-0.24131024936473744 0.26254757669796558 0.7063358461155671
0.30422794940692677 -0.34380052113790238 0.64081434471242327
-0.20241226718752814 0.19574778645817181 0.070044422390299177
-0.38484371026694625 0.041097250435783494 0.60458619732222929
-0.4263512241607425 -0.27474031229893137 0.42397021596615847
0.064488567807264779 -0.11278312535860013 0.71105540506628451
0.1152172195867486 0.31794084042122306 0.52787614917399384
0.12883144123447532 0.21405235323641514 0.56188042066786059
-0.72708526325348311 -0.76998504992058991 -0.20676513365181304
0.15568225694943613 0.13209516075022976 0.48286439607353521
-0.035883600783539665 -0.071840322194117623 0.72415104072527547
0.09254566205875317 0.21515438443689439 0.62559057442324295
-0.029021247553640217 0.2876375823916385 0.65316003610282269
-0.20085681237068892 0.12285479458404336 0.72416982136584918
0.07412955275413638 -0.012710505789776172 0.67971024893368781
-0.10988281649754053 0.3249478416570456 -0.57494757192762325
-0.19943092649985666 0.035442320172526576 0.73422857070831382
-0.29848965906566161 0.082576000754146062 0.68056557536950602
-0.12061861547218072 0.2489909064212994 0.61925873881819027
0.11070344979499117 0.35054753369903635 0.54154599406595183
0.1635967491673983 -0.14733044155119701 0.69371840994884759
0.046942717882857005 0.69248222096769541 -0.51929644430499178
0.45828858309363313 -0.29360130023053244 0.65707894810068301
0.47550212662253666 -0.30449645274485571 0.56419177834186196
-0.35064308244220921 -0.0027547143117220285 0.59229919768396488
0.1327852635521011 0.51701079070413891 0.4580873147205986
0.18050316051440723 -0.16615822277555015 0.69445774164404694
0.11832366463030738 -0.04768732903428019 0.65824095490010315
0.11297387256712707 0.31234717580083737 0.54472750285529892
-0.019224939572116101 -0.063249677115546299 0.74372832827279611
0.082999869721005426 0.70485675308454954 0.16424918486353984
0.081235687961728364 0.35306851393036764 0.5555228414342045
-0.32131493834991876 -0.091204855917952132 0.66207337265452204
0.42532389112474966 -0.27154303390783807 0.66686806033709056
-0.21654248017033273 0.30774415365554975 0.67843269477723012
-0.67851078320742308 -0.69059944461547518 -0.43921691757849524
0.20863669716908168 0.81224349934864759 -0.21874378516646023
-0.41902576201424413 -0.044913135293004669 0.50871003766340572
0.17464824535834128 0.45128271640538398 -0.028101700434132126
-0.013460284440367648 0.21567643533655056 0.69432835578238994
-0.35220167244833905 -0.082314341990969875 0.64639700583412252
0.53911879393774609 -0.3117450231235197 0.5860972193170878
-0.059489302617912965 0.44682089857049589 -0.59375272509390709
-0.16281345135644634 -0.33017579450545242 0.34079517493250472
-0.29503189620811759 0.098379643873861666 0.70777737740697133
0.12256528244612647 0.20472336866958585 0.59138580819044617
0.0067085490363523737 -0.27842755455657586 0.51448763096926853
0.11912638325130936 -0.076813612057819447 0.69152868267022916
0.18649138952007549 0.61864389645168738 -0.12293708161398759
-0.38946024380568695 -0.11569669773894109 0.64624272747400879
-0.018854776674141524 0.16785418032862043 -0.052724006713399663
0.092492588558043404 -0.10933805199955682 0.70596657225975445
-0.28516128101663857 0.041522114722508885 0.76569129237429934
-0.10788290141312135 0.21755753635412567 0.71477194122574295
-0.25881854159214973 0.13136894592830439 0.58029080399663013
0.21387677204322597 0.46719190017721957 -0.0029518609685888486
0.21347706897156735 -0.15649881711629809 0.68673236412286354
-0.38124502551247047 -0.34413876641403884 -0.36501049601656232
-0.21290723073024009 0.090125954468246228 -0.49433760726110543
0.098070553132838731 -0.018386116462493218 0.53862049630979225
-0.5723362052407579 -0.55744869048857493 -0.19871224307583502
0.019007120451933479 0.38042313187083021 0.56686995233603676
-0.035012970550734768 0.26747127572092333 0.65692837016024508
-0.17918280500302186 -0.14243739175905434 0.62890846488548457
-0.69470042885915084 -0.74655152103903166 -0.48677192527783208
0.42086025208446687 -0.26338252821346086 0.67636820892651839
-0.37776001640601592 -0.039576166239376764 0.6656681488813716
-0.37448506665306774 -0.088044386390233265 0.29537747281369719
-0.24626919110016893 -0.037571050763038571 0.7276214852874956
-0.055017728568267699 0.25306879375730462 0.63627632503784637
0.38150068435279605 -0.31286522760608737 0.65547168914129339
-0.038024573426175629 -0.081871688954861632 0.7184951134143297
-0.25608624304455374 0.15844940806730801 0.69685733772758196
-0.15127277700693934 0.22462945666507816 -0.5701490967427254
0.14274635636665059 0.30498768368984297 0.10946013463771087
0.041543112094925616 -0.026111236500961144 0.6961931724150402
0.36011718374047424 -0.38263449971807934 0.60213940898231788
0.15270596030919012 0.51380894053573845 -0.05719966646480526
0.34007825599213387 -0.24897197512542768 0.6841961788737817
0.12030194169874273 0.18502976618355738 0.5985216875568532
0.38870501221435683 1.0979110859996879 -0.44886688851764445
-0.80163944461339165 -0.83736284572562703 -0.5224737980189107
-0.0070241715962229834 0.14195241703864026 0.67775619095095097
-0.24082088065303298 0.14293859584915036 0.3311483393171662
-0.2070495983436535 0.14327718929164479 0.7206239655500174
0.099538994889437932 0.32756408609820087 0.54537143462693427
0.19295845958648028 0.1900411813352747 0.47839945437711051
0.32526598376140142 -0.26062241769012129 0.68644274517817316
0.06517310510587182 -0.25183925653829797 0.49782802932350584
-0.15385522650557448 0.1848436624197064 0.72845032780396624
-0.76609625943966442 -0.79770041834441718 -0.39799467071558237
-0.13789469104338431 0.23524354931395841 0.64572945949790261
-0.42066569755703115 -0.37967794940660538 -0.38426944849620048
0.40178335451461272 -0.2717210950511364 0.67854505500599849
0.068901671493004357 -0.067657010088611913 0.73271674418404831
0.27548498913542863 -0.19800562716758507 0.54035810937258411
-0.065886519411393563 0.46260300268178067 0.046242118768290374
-0.24766357026396185 0.25766152443235535 0.61148425557319264
0.28716689678779922 0.87632361946651682 -0.28367984707042898
0.083274071560861015 -0.21564588217919223 0.48731363577040099
0.11230460976418133 -0.31585056799905986 0.52888288372070003
-0.19230378957266564 0.13245846622592061 0.72141690234058609
-0.48364022270992707 -0.33149010345616847 0.083139336497366934
-0.080265269023056612 -0.25649287682865707 0.50966009543242619
0.49053921996787114 -0.37077160482324767 0.62631837694560388
0.18198254376754269 0.15605329000703527 0.49519915565202971
0.32539157290973914 1.0108724793640367 -0.32028336795247758
-0.32346677546178421 0.073570208630359457 0.67908133388414837
-0.096843735242925305 -0.14479739957756976 0.63073712417081595
-0.32203387321122046 0.071201900739745527 0.68491402217915986
0.09424270023205919 -0.0015559280602971404 0.56116032516152181
-0.035795258636259097 -0.10851045006437066 0.70471738924265193
-0.49492431542562398 -0.55185621042137667 -0.0093639655834724111
-0.16748970168246613 0.032826103668613382 0.72402551579283303
-0.64875774062108615 -0.68271036449088784 -0.20826055177614866
0.39667556183724612 0.84324293679908047 -0.33200479907603497
0.036845691053490198 -0.026464969750522815 0.70507723517937704
0.39491301998951334 0.98738853097568979 -0.35449104993808056
-0.62506893001328789 -0.65802194452159135 -0.078105820797972125
0.22648152471660954 0.59771437879372702 -0.11770618222044754
-0.0037320933556108105 0.19236982079964526 0.69519593433026272
0.060539373697631682 0.30716554325369327 0.61326862095162715
0.25576177429178643 0.45621165653554729 -0.025592494816964184
0.17710616699860138 0.3915405989959353 0.059555722009241002
0.10510597450127325 -0.3052739594581978 0.620736494267355
0.54614390206303309 -0.33578993307570704 0.64650166175412349
0.16218113853445779 0.56495208291515098 -0.08631735841949717
0.081262609875462161 -0.30011645793603525 0.52415871416469662
-0.01388041790811928 0.35123144840420772 0.63346315413136356
0.19103125021862521 0.61546810651894479 -0.12307534202975068
0.27528511033944092 0.85296197543612962 -0.26486844180338504
0.10188856609905705 0.38801687181431288 0.48320816690603141
-0.2672267875644519 0.053705493314732844 0.7729853649799372
-0.26048283418385804 0.13659636968001643 0.70541275234141354
-0.46823979000594385 -0.20331685126989496 0.50771375119182172
-0.0088985365637698211 -0.079436281575368306 0.74613456205708995
0.36753313864303999 0.78338882447019964 -0.29738552721557948
0.022992406481560673 -0.074733707828266938 0.74428827120540286
-0.18951938533147061 0.029447261395011193 0.73217814061050479
-0.71976865869622408 -0.77319849851188382 -0.52052634943010612
0.49224725661217578 -0.36581305242409234 0.58275175911528576
0.17808628165387372 0.49596838044138991 -0.05107247621866004
0.38085878874089957 -0.26867246998790517 0.68200336856148547
-0.2998519308661084 0.059633690866129574 0.75023063797214795
0.14544527962085957 0.39129388363259843 0.50311387302542498
-0.56954284048945847 -0.56630593029780485 -0.17148083160908789
0.090764842776500321 0.22885804537805443 0.62670911771767979
0.4093788255870881 -0.30224864332164136 0.64906853473455428
0.024159017624266532 0.34079224139344189 0.61480517957153891
-0.065934298387677726 0.25642386634424497 0.60863786853638069
0.3592143676153487 -0.22936625850103898 0.67814328338499263
-0.51973546282713101 -0.4524682364959377 -0.15927015475535122
0.47500781286070087 -0.28539264441781109 0.66911481389999283
0.30774115681206682 0.84368015901529092 -0.26746461364019403
