# XYZ point cloud file
0.28976362969092939 0.73627069664659839 -0.25057248221812212
0.29786579132039925 1.0722517822847464 -0.40580490508045575
-0.25396089680821277 -0.083916851214414612 0.75727837682906596
-0.73124808681203568 -0.54120807013419703 -0.24266393273515008
0.4149119634048013 -0.0022715009384992602 0.6576550339927697
0.69230466657502454 -0.53727444718742012 0.67391067590477149
-0.28454477406865308 0.96830357514234633 -0.22842588499343197
0.30135387877578879 0.89923322510459069 -0.31993625957204541
0.22550389689909878 0.87492520739281554 -0.22272160085170722
-0.07329469403672384 0.33654319359017704 0.79629103087463049
0.31848168527737108 0.34504518827468011 0.52247722608534741
-0.71038717753505232 -0.52797438287796084 -0.26322343089385281
-0.49486259063437288 -0.69705474428196501 -0.30037667513815047
-0.15801529570973294 0.52891747810162903 0.74768129771990466
0.51333993170090508 -0.4026404825158203 0.72636003479462952
0.33389856727638723 0.71371275017822855 -0.27086048562520526
-0.40166222500331372 -0.24873598347870707 0.77489019049079744
-0.64030773717340672 0.1692849180538647 0.61939838087556331
0.35269750446903636 0.029120924678277205 0.63006343533678022
-0.026163665018515303 0.63275871790305782 0.69484739830785835
-0.71629816182836414 -0.39239508692827929 -0.42330546855892348
-0.79327020938648296 -0.41105617613069256 0.12073127431201058
-0.30726321513264132 0.55209009444604074 0.5950431602283679
0.4061169233685451 0.032692640527763661 0.49556190549838819
0.7132293912009029 -0.42981531327563594 0.64474029855996706
0.66837670131742932 -0.46692909936801297 0.69623961216122998
-0.56936567363321089 -0.64063233295439392 -0.27031987993300621
0.1920953579810849 -0.34737679470924099 -0.26751921417172175
-0.86729846812895062 -0.76741719611999581 -0.42367812708864994
-0.40621568040081613 -0.84633560995826262 -0.22460428221705431
0.46491740793831937 -0.60272860910603443 0.42077262714250563
0.38446350175437694 0.87880838031024489 -0.33685035001123032
0.37053860678338957 0.16812761095257533 0.086436831222454824
-0.30291955359767186 0.70889785403523398 0.66243085086946818
0.16395617034218901 -0.19977887471729561 0.77935701738020846
0.46048180140672024 1.1961968742980722 -0.50969302780499337
-0.37625217897532437 0.27529582308932965 0.61810568466753057
0.64228225459489074 -0.55040343245919021 0.68352996161864499
0.46900692923170695 1.0502269933573976 -0.44828305448003891
0.38776925841824372 -0.25889068051943309 0.2603914794933091
-0.61695978843105692 -0.14470378525597893 0.65284713637303526
0.34041021463270305 0.40113330883068454 0.22177680722399162
0.76802629553270485 -0.38631766054201966 0.68349992547832539
-0.19723869545512329 0.87993431039890169 0.16897895913968863
0.12446590324378093 -0.33267900909920423 -0.43594427231372745
0.48702905121084861 0.76643621476866497 -0.37439983237214114
-0.31422162576691193 -0.15844322822428358 0.81235382838895442
-0.016580318681997497 0.22704437076974271 0.75732296855045633
0.51891424503686778 -0.52614737281529345 0.69398975236092642
0.28787364801451432 0.18571680152011272 0.51219896461925918
0.40456135187500486 -0.51842071905561571 0.39915837099073626
-0.12172880647031903 0.40498940522737081 -0.71878976266578731
-0.67822305490763135 0.21183813717017896 0.64701040067168447
0.32742856139416432 0.40378013153584114 0.29510635329683055
0.54148112961726369 0.8404561638218484 -0.3090212414963609
-0.48085754302075223 -0.70158201843143519 -0.2822934106875461
0.38355215539015219 0.10375309982517233 0.079426689243046189
-0.22376680358402368 0.10725576147557514 0.77249341642940694
-0.62403115259589903 -0.21838886009609615 0.70250796043642771
-0.75594564135265152 -0.23432398185156522 0.54963562437091007
0.16621649829947316 0.87058482933986392 -0.12936631555782219
0.34222917158339428 -0.014487285990056886 0.70327442371317117
-0.47598167990167539 0.0021101823290226029 0.76285342007643675
-0.65027577007688464 -0.65721786595711706 -0.30014553437886771
-0.64078153805614946 -0.56912725177510359 -0.08559931893814765
-0.88194286146176104 -0.090694654276683107 -0.33214303208116314
0.48435658855692587 -0.6122616702057988 0.626903761302259
-0.51573922131021455 -0.16132609352106675 0.76911570942080998
-0.31666013121782122 0.044479205069061667 0.70572057783090203
-0.81988359319057835 0.41897116118236699 -0.042435894105230076
0.25845665676066254 -0.36038159742269582 0.69424889114173505
0.73453921484440876 -0.32197396594821903 0.6721741281661886
-0.75220135048659564 -0.31802233950519843 0.31536149294028726
-0.52866966853656194 -0.27528271721473452 0.6851630792552289
-0.60111998132593492 -0.26680728429287437 0.69393846996495645
0.63907053995998275 -0.45900464497343663 0.66185185190239126
-0.19601136509746375 0.23921677394319296 0.77402177158276764
0.37432875463135851 -0.053820304644963901 -0.13395360045883509
0.033633582347382784 0.84499703908026147 0.50111409727437373
0.048129140547432669 0.83246901528388273 0.63080887707316191
0.32308703383261062 0.67402271490860022 -0.20962508529908463
0.91202558655320054 -0.24520600614420496 0.53977897925609941
0.28302772398393472 0.95932678797473603 -0.33829526709490665
0.75774669866004984 -0.35959948369548778 0.67312647596406183
0.8882626559474911 -0.28065841681022763 0.4405444172883628
0.3866739263353498 0.52139019755688709 -0.10476733423401652
0.3597382693624791 0.20191524233263003 -0.1724509917698549
-0.5702946932018591 -0.21413618457983929 0.68967993733138211
0.49519886089126253 0.9490311924418191 -0.41790837195454267
-0.62324493859600238 -0.93768529445793236 -0.40491367693064018
0.37182752540928554 0.69446789021967925 -0.32342825168022071
0.23205279930561495 0.028151311451531935 0.73596305536221784
0.2701305839458108 1.1232945514095358 -0.36983331762106553
-0.31574909704385234 0.046954167239012801 0.77292207554610148
0.84312642325303955 -0.42433715502835256 0.59762928874167742
0.22646460387015921 0.010130085881675521 0.77465264523217159
0.099637621389238262 0.83077187334800495 0.59881475067636702
0.20865900785469016 0.47088980779003631 0.6530664784866459
0.37984055389664384 0.62887053649648017 -0.18580770007885583
0.73621265332828401 -0.41516041045106977 0.64947591378243219
-0.75644659913732859 -0.47999880392919714 -0.13092564915702254
-0.066691435603560834 0.54402433412584239 0.73708740849239762
0.18562968433540661 0.97348833799028434 -0.35059746513587964
0.21272670871050536 -0.38190270946566907 0.34064914171492311
0.27273327511774959 0.89619176659956423 -0.30278136707676206
-0.40401995932107759 0.53996793735615278 0.64222642543871555
-0.76712769193011532 -0.16932320628388786 0.65270458642633933
0.24070787632989088 1.197810625130924 -0.41767895914392916
0.71330933515322137 -0.48767055547260785 0.6893279186030743
0.41642376004556247 0.57407437266697925 -0.12224307695271919
0.67317388687295399 -0.13074619519149477 0.40502619436985809
0.57460381775739577 -0.31303748321426361 0.72731475142747115
0.56404500646527467 -0.36438929633096984 0.34577198678239562
-0.081164070134921218 0.24872563566290129 0.76547936761322488
-0.32477872045034673 0.86948432025726463 0.16405269682096368
0.2796448495057593 0.47741699750794409 -0.3932053129437354
0.37892336864789122 1.1463961990296023 -0.43985860932331167
-0.62395176949596198 -0.50899188379694627 0.54666107403119624
-0.50019379006424991 -0.54564296776928733 0.45685721030617232
0.29874797219548554 0.71926459552182509 -0.26102892163286096
-0.73918095875382406 -0.39425797463484225 0.29775011900605219
-0.0079598144532972981 -0.3199160483074357 0.5147166603315122
0.2950362412414993 0.58205784874268729 0.31998345340288714
-0.67805854755581052 -0.26439384564316359 0.70107890900300984
-0.38211157259405404 -0.52857907217753652 0.47524430577578547
-0.033420488794730474 0.5067299541031498 0.777887846242868
-0.33983800909897077 0.94837892476723873 -0.21674459509307331
-0.66393491610070932 0.088306933310726476 0.78249877230600418
-0.24273112593209767 0.37844169898724722 0.67547956324915703
-0.62130128426085385 -0.52046760965824745 0.35179753313220308
0.19518863155792054 0.89897059555838421 -0.20525590069320465
-0.76061792543583628 -0.31424814096790388 0.66274976944908981
-0.37563731134295963 0.017116259353154639 0.77011376141506005
0.25360402901542756 -0.033101921961360525 0.79995386207192176
-0.12314900419874597 0.74198555820773926 0.40538908537537788
-0.32772118580865772 0.023288595861766792 0.77525263248473031
0.29881337788132534 0.95738874697131893 -0.41686940057011546
0.21584583972562044 -0.39484330384849808 0.38485401364025296
-0.17972864724512227 -0.24040788030822768 0.66401674194208349
-0.59630616099452283 -0.074413961399023787 0.74113975292145107
-0.35492881056129733 -0.073713969996412665 0.81724579386400065
0.29193997103246083 0.57015118903533502 0.37827384648956186
0.29458979489981019 0.11859601554904842 0.48721320154492564
0.43149476103578976 0.68397459436229413 -0.20224154189637744
0.57168802572010513 -0.21594943525781318 0.36023617479800074
-0.21335542294835719 0.32512363045772563 0.77185950500811662
-0.42481896527841734 -0.64274472456665777 -0.36685280871641757
-0.85190960133083315 0.27882561006877404 0.12579430107665157
-0.55091119726715476 -0.73967253668524036 -0.32013196847054592
-0.59027371933208705 -0.92036765684640764 -0.39406179274745157
0.52424849336480328 -0.33840248055639932 0.339353671800524
0.15221849735346105 -0.060870554190819437 0.7701627991450728
-0.69890508599036849 -0.26762803555273029 0.70498305487534241
-0.83115955242042183 -0.9049552733728341 -0.44562721280633388
-0.58301929317775603 -0.02171351601747995 0.74891285408219421
-0.62867559238939386 0.14437994331737292 -0.61528076119451836
0.74783276631628581 -0.5248281791120567 0.46033693989366853
0.13700944342790677 0.84029640632732971 0.53254809865466157
0.29053818494324091 -0.062285459588826364 0.76152638519229743
0.072962979022111796 -0.22835910326785624 0.70177401454936628
0.68986181718851824 -0.31069413915580202 0.71180358775218133
0.33640275779784012 0.67960616480586822 -0.21868806388037054
0.10578195194013418 0.27264126985970782 0.72793997894445361
-0.41115312723639974 -0.1876705482923664 0.80365357792079162
0.35650003128232832 -0.036178249231550108 -0.22967395770668442
-0.88282981519978954 -0.12461361784897651 0.077564044522755893
-0.21391935214610491 0.022572399739855253 0.7600545959635846
0.23559468142514817 0.72116852318787306 0.50830850379924564
0.13192812110190566 0.34219407624016274 0.72574116486062201
0.14676529960340723 0.33232444681295092 0.71487989856028578
0.72636406477405657 -0.49323387662325391 0.67932061859287263
-0.16697524242053241 0.488551047876852 0.73165184774564107
-0.10976295679183501 0.7716978297168664 0.58345550080419561
-0.16391925337303448 0.35529019684851582 0.75924704199652482
-0.7537428378994111 -0.56478204789014508 -0.22621969527940244
-0.19763141794779848 -0.47695339782132651 -0.4286275447046628
-0.48176789384482888 -0.77652964038952921 -0.29901904271926227
-0.75596561682187158 -0.71517090600187272 -0.37715055067821357
-0.043884084712390248 -0.34635280134080648 0.53403301541395276
0.42078553000969343 0.54771289380258592 -0.11886939970317023
-0.37582383780792838 0.19691240685886102 0.79498547293326371
0.8269533850041082 -0.43913955921240422 0.47880604903920698
-0.16616720300303811 0.57768541662853945 0.65707812510397356
-0.24673836409377614 -0.26247666467037545 0.73238185035063474
0.34445612066907749 1.2582994537363694 -0.48342830279541893
0.1359084708282321 0.39775376798253848 0.70930294161855034
-0.18229092399372071 -0.11204202625340209 0.7024932114183069
-0.44806549583600486 0.22679897703356167 0.60097100276241511
-0.0028144909475109614 -0.37871895859305582 0.39623948975632439
-0.84589352427112274 -0.23804164892164525 -0.3580222124074055
0.18773763935617893 -0.23123804706604523 0.73420292497883333
0.7830201854789518 -0.31614260432771646 0.68787736268031274
0.32546676734273916 -0.24687258031680137 -0.059943394987801213
-0.39058845759152838 0.43648026364200554 0.78431440900799698
0.1008413861023687 0.91331462901011928 -0.082273764904425839
-0.56245666726398547 -0.41091632876144302 0.64665772769373187
-0.77836512360986987 -0.94093826817514414 -0.42032993033867239
-0.13543335050822058 0.37647244526364165 0.77260173299594626
0.56348848501154514 0.89371626962460105 -0.36182342879975526
0.26774039387588644 0.051923955908169228 0.65594201187250967
-0.59063615208869358 -0.65364726467628453 -0.29422759414290001
0.39131255799920517 1.0216554358296115 -0.39332244759863566
0.4186070039860823 1.1324889072612256 -0.42234311258209822
0.040802527853973203 0.66338794809672019 0.66385356908520243
-0.91378050272478895 -0.873779039563364 -0.42005474878098015
-0.21488224883392348 0.25819813050947937 0.77788157088380527
0.084874874732033589 -0.10253725865629049 0.75051388622927728
0.030794048556922249 0.95260872688738507 -0.26011774600724991
-0.048672031341439492 0.23909307755082021 0.762449823742124
-0.060128398719383469 0.7921034691671367 0.65168844996344266
0.28522853589096009 0.7049696561370915 -0.34766325009154531
-0.57673912046074349 -0.32475188058858118 0.67969460160381356
0.22659679991632231 0.0097180267243511809 0.76610962689560291
0.17311616936901331 0.79900654766998791 0.2230867406899486
0.04895735607084184 0.39986008522895222 0.79084791329492099
-0.31568583458483523 -0.26661066733404026 0.7440363866739802
-0.24906422699637432 -0.18955139039910096 0.75649001861213372
0.26939368617984272 0.56611922252086844 -0.39713370211538779
0.17323387669428492 -0.32020103623966256 0.66956282868402317
-0.34221875872288443 -0.58595715160889772 0.18668113137584652
0.35807902051250906 0.96231807824116933 -0.36016411801952586
-0.41461091333811417 -0.32454219576194165 0.70372028092464034
-0.44663601109652973 -0.71378657482283181 -0.25395204046492914
-0.95221672517753753 -0.68480956351694111 -0.4393316936763203
-0.20209296431610646 0.58823167898921858 0.7461181263512362
0.29550060533251532 0.4593981469563817 0.57870267998152047
0.26357592239861383 0.89580825541630693 -0.29203265609931695
-0.47487778899333399 0.0048520659548003664 -0.69016421945965245
0.2031769735553155 0.015859869743103272 0.74829653170157417
0.32936483033840958 0.98196349511879655 -0.36107075534469923
0.099898643239203722 0.47163482082810582 0.72719777071324454
-0.81950021348608715 -0.78685827769586325 -0.43667409066870566
-0.7759611446594068 -0.35392888181855775 0.62898881667458861
0.53480644026165436 -0.1910048280184895 0.35438713759264817
0.51193797612337022 0.9959692290678599 -0.38142690489356146
0.1175008591165021 0.63729099043368898 0.64698823275121287
-0.10814713193291503 0.23401425975685841 0.76241020594552711
0.12873614411862278 -0.0058046476998022678 0.74774251610767228
-0.62643438038958443 -0.77482990231689852 -0.34867062979486518
-0.81055255716138319 0.078001206753269159 -0.45667165505383944
-0.093631184190019923 0.50222346899709436 0.77367092900666001
0.2853035323173394 1.0470674937803448 -0.38677704230980847
0.70102992832423539 -0.60890165143824326 0.58655361393184435
0.26781809532225331 1.0240149081657766 -0.3579253747492932
-0.28204542699726431 -0.035958160710837017 0.75802396665207783
-0.80631611650777302 -0.70397594557781451 -0.37832813560475897
-0.066223481006487006 -0.49595278173659141 -0.020385049962757362
0.45740011291164606 1.0877572582876631 -0.45319954236823046
-0.21639667693675868 0.062794818689645648 0.76463768601791815
0.42408680612553695 -0.019402733462945965 0.37856680859091218
0.60556590663822973 -0.68735520144369255 0.49436608301703755
-0.033153952763573358 0.24949608299381065 0.76133264663650135
0.29311988296638347 1.0459831341255335 -0.39271524686865877
0.25944963589527248 1.1351388465469321 -0.36108871716157731
0.68284265173664416 -0.33361420906779282 0.69570269983268629
0.48655331238695787 1.0273341894921484 -0.41312840569311371
0.76597098216526582 -0.41098460938911452 0.68421600634548185
-0.66784107679616866 -1.0191992940646157 -0.44678608109854601
-0.69393193264302511 -0.5277056375665965 -0.30819486567555976
0.68708175947132055 -0.34297938379648474 0.6714058435537229
0.37608231882050802 0.81503498911830219 -0.30870584852682281
-0.3617564749366089 0.0023070920344525625 0.75984328300998949
-0.8596507548298522 0.03361394550985386 -0.3922533445065286
-0.16046538868723914 0.5080925958723026 0.74836408467694759
0.26309799198792128 0.72271586340313587 -0.10052938782318144
-0.45977354953365079 -0.83770025111935054 -0.22908691883530086
-0.65822010719612578 -0.26046758267954662 0.69533300577396273
0.31534257226737594 0.34176543579622032 0.38088359417394924
0.10330639989174095 0.10360875663828883 -0.65133269315581699
-0.42073010006932599 -0.23605206326971273 0.78321745747725036
-0.21699416145983541 -0.035991978344213749 0.70694404916285636
0.28401572972212286 0.011376653890637911 0.71470571544203776
-0.2749737206599967 -0.4922331468698995 0.52536005303524802
-0.63677871515085727 -0.90536683829482056 -0.41366366096865304
0.092630141573428304 -0.15963783135267129 0.78720806184487802
-0.49549902008598146 0.007576914352052988 0.7661796111326783
-0.38237734688026848 -0.33119976184373501 0.70967665717631656
0.43617414447571079 1.1118540101481722 -0.45671473023598486
-0.27599019383205636 -0.34555220724775071 0.69029282622179089
0.66947081159946542 -0.46991165536203128 0.70286034010077625
0.7460114156410409 -0.11891136429002758 0.45944277896198393
-0.30929337697551773 0.51468450906059005 0.78359647081573891
0.15282726022851811 -0.35224607611553282 0.60673290437714777
-0.45419344656576044 -0.75488401587213527 -0.29721776690433455
-0.25295707935439715 0.71450644663609442 0.62490249737070591
-0.21353670832051286 -0.18617916165508375 0.73217583047956825
-0.61693138037883521 0.19442665665997039 0.6349053268961965
0.27998670248328139 -0.35271112096427992 0.23697176066014358
-0.79607020609096146 -0.93105656541026671 -0.46642306695696389
0.65886335558724696 -0.33429978205022393 0.72348721706277952
-0.44868936313680052 0.089973189960522948 0.65440998403176198
-0.34629933878079022 0.63757530347678815 0.77348226254518737
-0.13473821454120838 0.56940282563646338 0.73395292120997846
-0.77875697546636857 -0.39342842241986231 0.59233267299526038
0.33428605874249762 1.1096321063145305 -0.44018477557095803
-0.52455363794869747 -0.66506546551753964 -0.30494131029712879
-0.5121599113969566 0.0053551583738804531 0.76452898843259387
-0.48108102911731976 -0.68477937416794177 -0.27328916515050672
0.5524082219367159 -0.28008542000077197 0.34603287914294201
0.26633877785435089 -0.018736202259745927 0.78985302127663215
-0.28568128434252138 0.0099462893252741935 0.77206002466254575
-0.47929026253889795 -0.21588028043116525 0.7708079543684927
-0.31899664315879761 -0.029425627395784471 0.77085404598336427
-0.20573817413530548 -0.41948032676141622 -0.54114573060706994
0.61628588191838141 -0.66172798301567226 0.60424866083499906
0.039945227593655375 0.91072799876692834 0.11434966333490348
-0.37484032451237326 0.35271145891687627 0.71297575709926986
-0.25776514300556386 -0.2965676194660658 0.71664244625201468
-0.48972215923771856 -0.60483204551065439 0.11855685013340356
-0.30984651972317501 -0.28378709913971523 0.7303928095070239
0.72868857279424226 -0.18110954797053069 0.67228965344517988
0.10943905125249564 0.51199910284688466 -0.57046639838718471
0.22647643522930139 0.83082495310297144 -0.20169667869127061
-0.32620272713159615 -0.63793415948231846 -0.065324865589159176
0.13282459936180224 0.81724029042898705 0.25943873256955574
-0.60322700151091624 0.18460897712322466 0.80078441362456643
0.13256118858078914 -0.19665958897839286 0.77447095569839464
-0.074761025048035279 0.76559098166471085 0.42508424424526714
-0.42390999819520481 -0.25781133951980495 0.75714133238979442
0.79021063226633537 -0.47120199146764974 0.63750404180602871
0.48347487043355741 0.79951067110541829 -0.31555564985488593
-0.11216342522238598 -0.47605298495042758 -0.36663195517326086
-0.16882397755891709 0.98095519593507019 -0.30771948465074073
0.1660902899068617 -0.18295217635768513 0.79820860601922261
0.12948893288890062 0.81300693765740073 0.57918898239746064
-0.28960782353842873 -0.21653584649581803 0.76709225692011918
0.19851639105344354 -0.19120399654034104 0.77354299448212993
0.024813443864369233 -0.46527044312590093 -0.12430129272711821
0.3453181200338733 0.99972393075199495 -0.37002569871236957
-0.68454925113083043 -0.78362169090908829 -0.36748177030619877
0.39608902035419113 0.018630857151726632 0.62797684652530283
-0.45576485020457014 -0.21922219611076654 0.78184010143802862
-0.22143796252328585 -0.37234177807850488 0.66252101833168453
0.26100076708013731 -0.024232252888072514 0.7955411467386021
-0.096841570209416972 0.37173844820983781 0.80416922536432767
-0.63413830395619541 0.17670215642384601 0.79745477375759455
0.75594608315950573 -0.30657770762514835 0.69917849889059913
0.44197994672366825 1.2149059139115477 -0.45610467504300778
-0.11458174965979673 0.93561638526885416 -0.41606818913248178
-0.23381775959589568 0.039917117709019845 0.76450979043230616
-0.37854502105823684 0.33002721133062751 0.60013931772687146
0.57703017139239599 -0.66449207226323415 0.60921374263707273
0.31416355929049722 0.50629506148165904 0.49681668527363199
-0.4386088989335164 0.6130235865209066 0.37700289372904927
-0.20792883454329036 -0.20090997139338762 0.74272483781028409
0.62146913542934357 -0.20821845786812854 0.37022439223506831
0.3581293077478982 1.2126492005203264 -0.51234613017887787
0.7513970165210111 -0.39760445697535263 0.65783937098122469
0.37903215148391389 0.44396919434449877 -0.19225502495472369
-0.86296745185881107 -0.59656363565673809 -0.360123970724604
-0.43337166545906136 0.53559345779561429 0.75810212852542447
0.44589785687633743 0.55428716628463359 -0.1306045222060308
0.34859225906949654 0.63299147938103628 -0.17410380943982595
0.1717340689433513 1.008643507908543 -0.24550010271643141
-0.48906704662326916 0.065413669471186431 0.67071835900000687
-0.04115391791161116 0.81761096219851881 0.30945917510919507
0.69270930672668918 -0.17373248941249109 0.38763160752438108
-0.017690876274125245 0.52804606030448209 0.76206908969845899
-0.91874698062380133 -0.0073007555092199361 -0.19416365254026813
0.26149933584874319 1.2038996973511922 -0.38589277956684009
-0.51643770379525655 -0.32883711056774678 0.63731194339592323
-0.032184742201797789 0.024992366650144371 0.74334508131706323
-0.17624131253987407 0.49842825366346455 0.75128043286597157
-0.30068480236727169 -0.37793535779632059 0.60642322959389072
-0.19823432983455191 0.66382348098401001 0.52950864364122929
-0.46719994473250104 -0.64832907076366197 -0.24231892586452775
0.3890322125833201 1.1068095672104126 -0.4467968350889846
-0.35210210816202725 -0.32083293515289812 0.71701468595043261
-0.94474681293535845 -0.91739454136023135 -0.49885265602512951
0.15925507482919699 -0.04147761883156531 0.79070078728561244
0.60317421336044852 -0.27424766628004427 0.35766932189345524
0.67715693442009517 -0.28280026168634886 0.71770630630056331
0.089147562979508876 -0.163739894092365 0.75388798206807062
0.18022989902633491 0.92444386830558445 -0.20685033884301807
0.37798700654139772 0.034306753431615822 0.59606692416792928
0.52028895817360876 -0.68379701245383795 0.51540170401268259
-0.60643128987071293 0.23608265497068537 0.67863926008880548
-0.17321791163655575 0.78388519265956091 0.31099180543314331
0.21454976514223745 0.35507557572691639 0.67251490788393742
0.12911787881689207 0.47299692141248473 0.68605864258192906
0.33026489806721493 0.62616753158913863 -0.023685746400224028
-0.43865300336343438 -0.22936555353927002 0.78219465121812837
0.27476278046300173 1.0802045202850863 -0.37296533191539294
0.21119165133685769 0.82138721238096357 -0.1564480393721861
-0.20850342230359331 0.292158401955942 0.6827038566351753
-0.20237819885252861 0.71372113102569745 0.71845549656348384
-0.83332613738171446 -0.79008921215788064 -0.44819896439173823
-0.62724809883870769 -0.051712559131330771 0.61764315976962425
0.29386577855208351 0.15542280585789703 0.48148411461936003
-0.3835390553374971 0.67623394731511377 0.70810291046175033
0.16442134917430096 -0.0039230274925654562 0.77916521401909122
-0.044186651719829939 0.46577839791236131 0.79436760981591192
0.21160675295811338 0.37839747591413886 0.59925511444572166
0.097513203248155378 0.85666292109775655 0.50272787660899887
0.34703354960644361 0.17321646984937944 -0.26344911137045823
-0.52109403398172738 0.034045087633012283 0.68654524564488351
0.40322681048912123 -0.57334856096455644 0.60402909874554833
-0.012432169664515769 0.80485445686061885 0.4000625631935939
-0.18592060035215319 0.59928689349442221 0.6096127588181568
-0.5127185510145118 -0.55458239099610029 0.32365123065634804
-0.67631553621506768 -0.48423812492905949 0.56292545851032383
-0.013615620823468788 0.25717151704604646 0.74732888461603797
0.31281290757772595 1.0427351272326324 -0.39347688491694632
0.26981703134588564 -0.21440160573945255 0.7388237532373404
-0.1577843265463521 -0.31418264849928912 -0.61924538155177311
0.42583736814269635 0.50856204216419654 -0.14540369409060938
0.31372554447543344 0.94191887474372793 -0.34157313158956648
-0.3025578621360161 -0.6506353308684858 -0.12451320637573704
0.14856286444894273 -0.083542249338844576 0.78863797017476633
0.35537998516568337 1.1937654188336428 -0.41437187857423985
-0.12813695205926123 0.52777927174491701 0.74020048462968246
0.39928729504391747 0.7389096322232791 -0.28657854424029905
0.6898060978566658 -0.62043846271635272 0.508979646274623
0.062318694778948469 0.34641470585305267 0.77490678347755138
-0.06574365256431669 0.47187279551081662 -0.68229372195710769
-0.38536341098751592 0.074029522690853167 0.77605634412562396
0.45522477664105843 0.025491785900261466 0.5606094328109299
-0.71851878253175983 0.18394406578971845 0.76253127765969264
0.44402878321627881 -0.030949094893820805 0.38180812027043209
-0.22358820606565111 0.60592359421757092 0.75637894197673339
0.27107433468401609 -0.074890992253562549 0.78630475439615866
-0.6558642648276809 -0.99595862455400663 -0.38683423150192087
-0.52416233711965177 -0.19113063043309486 0.74503607419391371
-0.13889770525307377 -0.39475568245106518 0.59467344819989432
0.58445315748233462 -0.41216196037287534 0.72709482807806225
0.16190392666107911 0.390164660846686 0.7060638180405483
0.30354757768257912 0.1648080356570456 0.46223628553905183
-0.22798297990607708 -0.46595618180064047 0.55593018023367513
-0.07727757455807982 0.26959854481817214 0.750302464467824
0.66414977848227608 -0.43690465760549491 0.64862521654347116
0.49613962535739731 0.83130351445947026 -0.33509807859605156
0.51697864444518515 0.66507746795010037 -0.27986110582931678
-0.22577409263350035 0.5734213542119706 0.75253854934801778
0.23898915030667922 0.092600796136828367 0.66514424970612307
0.1722613725902491 0.35603274918381644 0.69826933962476923
-0.26107635737038137 -0.41037104661223056 -0.55067294698561264
-0.48857115057591649 -0.6920993903376762 -0.29192278781285963
0.034968362556977439 0.30413424377801057 0.76557715442725638
0.16880328777170028 0.32153024825320209 0.70005750799853295
-0.24021668031128662 0.47098830347586618 0.66198901624327056
0.046296513315205345 -0.21288339590927519 0.71395716577702717
0.043782515811955136 -0.4555802575433221 -0.031170903258992189
0.89471617070852538 -0.23227563820475139 0.57061839848524176
0.33626520090896506 0.25774260538561311 0.27159720670778575
-0.16055968137026788 0.14381977591698747 0.76378531944861461
0.7022923857882386 -0.58431901525599339 0.62612211808500295
0.21218478113876138 0.80919191925599954 -0.11598261483747163
-0.33653765596223373 -0.28901305978306202 0.71836844055491711
0.55745946253031953 -0.47000058290111379 0.71659878088299944
0.64782508788020543 -0.38814141991865714 0.69851195304542602
-0.36968653588851197 0.15707774129773178 0.80083700857057272
0.28139839305904424 0.78865915586724178 -0.26602371841878569
-0.34079450259419097 -0.61353548328001373 0.094553031555701939
-0.73500499389123064 -0.72293212051764755 -0.36812720061520854
-0.079145301364428988 0.25612853510827005 0.76611824266202877
-0.50541152159753366 -0.1804841994439923 0.7733249596698879
-0.43562462784939449 0.1155590569346967 0.78785091188423284
-0.10693100105418729 0.6428665083605436 0.71625539182584708
-0.5928546469816709 -0.63527502852555484 -0.25644954048769897
0.42519942078940254 -0.040076860024351291 0.34026121356136985
-0.2262244942308822 0.51482244351936179 0.65326206953619326
0.28094981615337744 -0.042123592793761211 0.77832686801960593
-0.0069204806904075156 0.38502494741082627 0.80525734835454821
0.090684005787103672 0.44593248095079163 0.75239928311128113
-0.58804961123163046 -0.23581321471110384 0.70612752409886859
0.69025705917641389 -0.46126544617229714 0.66686058499855294
0.30456930048963926 0.062481347426451173 0.52754956325040425
0.31262616134677934 0.22021415135551248 0.41661599031270879
0.20289608318715935 0.97018070597353789 -0.24015081588998455
0.49584661257202356 -0.26766195177214258 0.73150802730580056
-0.083474047257306339 0.6056615376335297 0.71565852365775218
-0.66543838936921595 -0.93700659901993122 -0.43508209482161841
0.63253037733232986 -0.67004691654652282 0.49891593003217194
-0.050427194937766373 0.5039448235721069 0.78084854396321679
-0.33333359701746623 0.38671488619958128 0.80597256881686785
0.025136724003912647 0.71146439396435879 0.66612115303480035
0.028836747223598636 0.83450063848419931 0.46771253147180558
0.34958463904544246 0.11589746676105572 -0.2765914046672926
-0.74755639408537533 -0.63010301914957134 -0.41032740531590672
-0.20898996143831461 -0.13186026772788173 0.76047417932375794
-0.48812404476900539 -0.37887287268331526 0.58708720153023564
0.89337062653913435 -0.34219165390752726 0.50635452288756522
0.27058374408490415 0.91670846215331592 -0.3099685382856876
-0.0024563254109803978 0.49581656778113281 0.77733762951489227
0.25281844660384678 1.0026004344988038 -0.32680190502400341
0.014730199748735018 -0.038640213951622981 0.75015877659517649
-0.7403061939183555 0.1108219035713629 0.75083962579579788
-0.71958556966940357 -1.0230381889835101 -0.43503525770685225
0.14894676956113351 0.31103099321346939 0.68527518170422552
0.01068588409587079 0.96565637165661 -0.093091171367988945
0.40355349663418139 -0.018655440379666932 0.68295839697567784
-0.16941343089327354 -0.55423922499862721 -0.17444735214884854
-0.19455612354419394 0.4552719412142916 0.76031954336196395
0.11217818147781244 -0.11446299517831338 0.8002599699621693
-0.49885301098431789 -0.076792142990784962 0.78309849357327932
0.35040609546102175 0.36670432163197653 -0.21659102634268401
-0.37454207234128489 0.24801113958753929 0.63408445197686802
0.1687951751979071 1.0434284903653328 -0.31853461247851267
0.087626458369619797 -0.31712834154174763 -0.50248862627152113
-0.76854755558526833 -0.35945316251094228 0.51741806216145525
-0.30463265603946432 -0.66986503742636683 -0.13472638857834474
0.5982141619710255 -0.57218903373059016 0.67692898610191987
0.15631201176863208 0.9218798788300151 -0.23195628326297202
0.15699798706545742 0.97841836469295185 -0.2557968499917973
0.012520037446204668 0.96046845744561971 -0.038508800029788848
-0.81451368720711237 -0.74643405722972433 -0.42512048793029644
-0.61422217573664462 -0.056100985032847994 0.64224905158574519
-0.76991252508656061 -0.74117676102834817 -0.39265534182635009
-0.92850000428513724 -0.87861545260150553 -0.42503962018783981
-0.35834413031563273 0.36627639462909722 0.65542814239589586
0.19676821476230621 0.7031840720577458 -0.42140857861668657
0.15399283190963864 0.83591925600072958 0.12557911972551894
0.15330882922835976 -0.017140459273636832 0.77261966495853085
-0.26403504176482251 0.59547549705001268 0.49330166981570889
-0.91559898631675196 -0.08757069509930826 -0.061359846522846651
-0.44687574925636575 -0.043685681566643764 0.80496046377760977
-0.77978428436663627 -0.43386539908203403 -0.22503545545747117
0.34750814252564233 -0.23116914768578722 0.7380904967532631
0.20095690464638771 0.024760380388041625 0.74974819569122464
0.15717765115873483 -0.077408036875421971 0.78927970906712619
-0.23660578954404876 -0.13391218167464403 0.76608933915476729
0.066420801467762303 0.058158135915797438 0.75526094557261714
-0.25427274680964906 0.47395239568080472 0.63998806804094133
-0.2870714340343401 0.012121333854669736 0.72540410109483255
-0.39350480540405108 0.3955692913557991 0.71292587308120325
-0.086653260859012704 0.49569173509993325 0.78361489243760318
0.13606038813465204 -0.18659920348675951 0.79793720050133121
-0.35244283058858095 -0.029360542613500407 0.78184310500977838
0.1168667610230667 -0.18941300935196204 0.76540107713516248
-0.41446325443478038 -0.33137433530968841 0.7042038332616648
0.12952134450745412 -0.41107367531916206 0.14771786150680799
0.29599268529960732 0.56691180570127941 0.53205858151622121
-0.37421425859914947 -0.27136526482972545 0.75033062210212409
0.38999273659564615 0.48817801160193319 -0.23496713620429666
0.8015255144251956 -0.48698735841672891 0.60671923765916258
-0.30854708635672345 0.31077342668378938 0.8035874477338395
0.058683737394858326 0.79322799767967522 -0.48021663759041733
0.29839918321986225 0.23003261679009102 -0.40186612008139999
0.80025331200818073 -0.2676091551256734 0.66759293521387741
-0.10705635914112754 0.36522457526790575 0.79018429916170363
0.1675705273350232 -0.15774023002665982 0.80711909702117568
0.061185859030686629 0.028934141604012087 -0.67780398075145065
-0.8604701799153549 -0.77542646385738623 -0.43570482394632071
0.35728969219388063 0.30487692768988728 -0.1537648674160903
-0.29559290395292948 0.51865179679361706 0.54843175386197451
-0.15880000533548966 0.75399688989910918 0.65501627403465945
-0.21587788112510431 0.33962388370320173 0.69951867217962793
-0.22494381771537242 0.46093901590641351 0.7585085231874491
-0.48842066447358867 -0.37489373869942444 0.67329137143196238
0.50914048629103981 0.90469859609785552 -0.36280712432057216
-0.55882002463945923 -0.77519653050920789 -0.32817975692395329
0.41789224534245761 1.1717793003382377 -0.41543129281954516
0.028949995104005311 0.4907549959023958 0.77108346041242104
0.091066175258939452 0.40308014713301099 0.7608338096905114
-0.20322547351084808 -0.027867901911628357 0.75760355608247798
-0.94114900202150586 -0.88500743828651873 -0.43405033942006754
0.75401932487489809 -0.55459518829266585 0.59010297473198303
0.49423403379380559 0.61839375896821647 -0.24839473112505761
-0.62083591707137131 -0.93606704648148531 -0.39258252502724034
0.35595609814820506 0.04760818568248959 0.5369156485846116
-0.15926092955567128 -0.41699696761022897 -0.538966360134425
-0.17968799613303332 0.51997210681379991 0.7464138814848188
0.73547192744518597 -0.45235046514897825 0.68801393916138931
-0.3599089381982381 -0.29893014392539674 0.71224101418701158
-0.48153611778655936 -0.26559539030037516 0.72530951385605347
0.1160275048229451 0.35218439100973331 0.72295519231648386
0.13568557750634724 -0.087911312904463079 0.78710426741506534
-0.68839428150617721 -0.66226794469406824 -0.31170969762725464
0.24826178486175365 0.98068244219769252 -0.30981701219554858
0.7873147395705189 -0.39628753711404474 0.6784489176995061
-0.39805264546157026 -0.85040633895648332 -0.24383288638204603
-0.039998848405682352 0.72422790150661065 0.70083876657735478
0.68668679991003323 -0.070342228805722384 0.5810040574325086
-0.16798839200092175 -0.21365480906361378 0.73647607896519651
0.18151265943454042 -0.24869293179643237 0.72502539674320521
0.55098533564592778 -0.58769031668921667 0.66757963148955524
0.27538605284112982 -0.11838249388802768 0.77506708361668641
0.46873275581927132 -0.56599537640476427 0.65749485803046337
0.52388252474060693 -0.31202824609887247 0.73048594654186316
-0.37730610850508306 0.11181638817890405 0.78635465293430062
-0.43420776644523862 -0.076513506234166639 0.81503384913385502
-0.10524711886753835 -0.45135051779673852 -0.44319800793629671
0.34185721997931395 -0.31378015160960127 0.72976429338582305
0.69524178164854611 -0.45526058719511286 0.65461201496383215
0.49832842988760717 0.61439800588510929 -0.21401436997284917
-0.69878906530751195 -0.71067958940471887 -0.34862687767461376
-0.48829704596342971 -0.66466657656240802 -0.29125066495932272
-0.76670702334950214 -0.17341805826264811 0.62444070260167073
-0.30597098614055085 0.068806400831020742 0.66550760730095115
-0.070093145874876583 0.22015832441709371 0.75801917540712482
0.37526350571981837 -0.130960068133122 -0.045069223561420291
-0.055860813848024549 0.94871178814709012 0.090562788175215569
0.39605243778908594 -0.40578429994970533 0.35523006900457554
0.56579088316569148 -0.70084935297482809 0.51673524375064317
-0.80140546633608167 -0.95906507072349378 -0.40878440806634542
0.14899121068230237 -0.0809406468042696 0.76437595766183408
-0.50226974655037004 -0.54636073845509681 0.48403873761713012
0.7510764777866008 -0.45440514257565701 0.68183769475125366
-0.42787666331265051 -0.70116612473384832 -0.23398722283082996
-0.27845734139640932 0.14427948439054172 0.7881629080264092
0.090364048306087241 0.59221488468107442 0.66711271207604339
0.15558491913742856 0.77110108111489239 -0.42059568435992079
0.39303247414767561 0.678530326941849 -0.24629828721646629
-0.035701076315792335 -0.3248712517174619 -0.58288004668722437
-0.24905620407611728 -0.098020304064786679 0.75825629365028868
-0.77467931002380119 -0.31717301730415581 0.64110674589421046
-0.96578201553720255 -0.71660178882699332 -0.41491715591801592
0.39204597539242947 0.66217721211107317 -0.22910475122219576
-0.33086631756914286 -0.65870142983168956 -0.13115954661965956
0.24195390513424186 -0.07159627412075531 0.80123425562009909
-0.65597055968370022 -0.22173933601670148 0.70679998931476429
-0.68303950884408593 -0.68827292473575419 -0.33261119725811694
0.66639798519378246 -0.46552167017283053 0.68597311275425876
-0.4664544899654075 -0.74288458679512837 -0.30019901172793428
0.22689746648460307 1.0758086938373963 -0.3138822864212929
0.25283509821563221 0.93736628382857345 -0.29639799176583859
0.32574813418545645 -0.33801375510225196 0.72203118751397732
0.16215541373294506 0.89993926012411984 -0.29550725798609956
-0.045932350786131337 0.48700223347295446 0.78749417734395355
0.16815692053497422 -0.08182052243581317 0.80288593059960744
0.38213290487305329 0.010197069128332181 -0.11935539487986002
-0.48670147781317752 -0.3800593062436346 -0.55312080216393045
-0.72290535763661623 -0.68340160261181726 -0.34290230466950633
0.25550055511665626 -0.39711922940128197 0.35801184787557228
-0.92054834673485431 -0.69061759338499495 -0.37102241829034899
0.62720261260037269 -0.42249669250223132 0.67701203472095317
-0.69546471292797563 0.24335226043826719 0.37775683709270091
0.27573133542858308 0.81200334988778833 -0.26757513500732166
0.41325782304929071 -0.29833883086448942 0.73502945009027121
0.21031215956182514 0.43123736592624873 0.66144326633404837
-0.49563627793883924 -0.68233730651341284 -0.29999591541535864
0.10174692375238692 -0.17620093145894911 0.77286480715891703
-0.4660015306016394 -0.61958628956345008 -0.1723236573067366
-0.55704698607070213 -0.26280886848685081 0.68730305431522831
0.19237060763249403 -0.17129622410886902 0.79429594764411948
-0.84026902928602709 -0.89090734689864082 -0.47133152587946936
0.11634840807791491 -0.18799031245441788 0.77417657704163267
-0.72234866771104045 -0.89437570828629398 -0.42572271114035487
0.022090653546584349 -0.33548121118583674 0.47498148384754013
0.12278942022941131 -0.087092557551428418 0.76899988448156964
0.11143195969195752 0.35480982062516486 0.71937175421180388
-0.39450187662255942 -0.38144225107983232 0.61963154857038338
0.31383948098138781 0.50832361753871602 0.52084368502086009
0.14219649471119133 0.85563639380233392 0.084097301835635907
-0.29244486486498111 -0.14377412087466968 0.80271515019267681
-0.36188043287801719 -0.71163356255094179 -0.14982096851085158
-0.15879695926414428 0.24073674087589936 0.766647169463195
-0.16702599441972055 -0.19787370282760997 0.67117942745947379
0.19623935016205607 0.83641595874790342 -0.13139759676101415
0.086177553618574265 -0.31124640945749149 0.52877577042930179
0.18608231806056885 1.0718701137123854 -0.28612692764728309
0.45077221599379236 0.6470938953809533 -0.14634023726186673
-0.10239813298759692 0.44388989523798861 0.79926739940810887
-0.044171610096945813 0.74423345345260872 0.70028399225278093
-0.14217185155954049 -0.13596940923641665 0.75472499558811013
-0.33856766691775064 -0.11322886603374638 0.81853878009880687
0.64234590742126585 -0.58741995488581999 0.43043868175496103
0.11723584750894211 -0.10811892462597494 0.79935968880091179
-0.35008291361712551 0.038245072913879241 -0.73078829641728427
0.35608272811865582 0.079805362810058567 0.36833069299571997
0.90246156887424256 -0.25148777747472173 0.56827631936789547
-0.74395421159074715 0.050315248880661301 0.61593248221173336
-0.32734992445730704 -0.55684361011813799 -0.4064888275608447
0.13231064058326147 -0.16277878006976521 0.80726457050323108
-0.43180042044509115 -0.80538730408282144 -0.19725505299282053
-0.36375135726108354 0.2678837449178908 0.63452428319998067
-0.48993114315108599 -0.31116137450675896 0.68596329059662431
0.24825218855428943 0.21428495046788099 -0.50858756661071314
0.20179888214403618 -0.1643225671541263 0.7940378316980472
-0.45555451071161457 -0.77678633461100421 -0.27708838463829011
-0.2586461941760696 -0.42225013492801244 0.63092222141883947
0.012494458075897441 0.26614795220318754 0.75292132661307565
-0.78713862065080775 -0.75210107740316623 -0.4067352765610508
-0.72405479416452678 -0.53692987004327852 -0.27464226444087791
0.19555848546181132 0.82917030487495236 -0.081321756684792801
0.16859261806314052 -0.0054118062662824595 0.78598851837697625
-0.42447792037614818 -0.62671806185728274 -0.088209050080281681
-0.54351192392608461 -0.0018451847855369685 0.70166415525153836
-0.1359540693851482 0.9390723526137803 0.084330011860559884
0.69147102316264331 -0.31792761690061566 0.69488618261166946
0.25932561560233225 -0.0058884757271263632 0.78429837783329148
-0.4031040372128718 -0.63511962384486598 -0.1438415380901128
0.90534056882281178 -0.2713187547036765 0.5679299867757619
0.017804689330318979 -0.075377036679665776 0.75776990301393354
0.73028154990779015 -0.21332658078062205 0.68554572666093527
-0.56688989349778218 0.57022789627715698 -0.53680860160590638
0.014658011684739236 0.36225072498540811 0.80284144623603848
0.12097408774727825 0.40235394499092125 -0.59086364578091755
0.36847681531114773 0.090847149028596474 -0.19571742917081414
-0.89302838991764233 -0.26387867546855581 -0.10276412048148242
0.024872853570972353 0.91986914184748381 -0.38438643114944826
-0.016487743162478807 0.173935794853604 0.65537190530951062
0.2528683910481746 -0.10528146884564238 0.79204479620677359
0.29631590557760035 0.088476696583733694 0.49710959603224603
0.33075912311454481 0.81533428786888207 -0.3016817365366482
-0.6979699271691171 -0.63961834732238554 -0.27050160336130591
0.17419603418726126 -0.26711093470003311 0.71240505076761795
0.084584915618657774 -0.12750069309767909 0.75495906060516837
0.070273494948509097 -0.093822146885114921 0.75145380815835516
0.44548610365492536 0.67267010407122818 -0.31542874779952013
0.8805447875614707 -0.367645428629084 0.56407907036536109
0.36422042547514621 0.24263524493036925 -0.081809755459254951
-0.11706247900022149 0.26805297683613727 0.73661564852936035
-0.032781102252778638 0.24346868814989353 0.76269113867036253
-0.37367769940109596 0.023359432069615327 0.77375168500486868
0.14661443305170074 0.056984702590922698 -0.62073241129522017
-0.66660781623203746 -0.46738124964613093 0.58763808546415697
0.32420504525783045 0.20168131117718713 -0.33673280257393912
-0.76576565225061444 -0.12597218256012344 -0.49228925426605019
-0.55998853186929765 0.22742519451034227 0.68077586704268267
-0.012928500576158797 0.8300433860822114 0.30648048772714298
-0.21468989012184991 -0.1163949514557201 0.73979214319119657
0.21049775391138681 0.087858531664526396 0.70948983414994138
0.092670571391252565 0.56655318119920506 0.6648419607967031
0.37379415357997026 0.043425507924329976 0.53367973164812543
-0.55764377758771566 0.23930470723086694 0.70853766454387868
0.42865678203686741 -0.065659349012402779 0.30659936084554418
-0.42162982373668711 -0.75154118016615001 -0.22337559558098286
-0.0053463058517042583 0.61171671018251939 0.6843058651491426
-0.43640166699143101 -0.75367976447827534 -0.28160953901300467
-0.56133906319484339 -0.89553250203955015 -0.37689359403181921
-0.3330015976084848 0.56916412487729451 0.60305916233233281
-0.38132301006935343 -0.24264235592068573 0.78313682159520748
-0.31287551250446377 0.61773785262795178 0.59680368721359245
-0.53103474568267295 -0.3564097314493937 0.58625034747583893
-0.062859455704527889 0.2565613853535007 0.76281956829339881
0.022316252218676169 0.045313739011939358 0.74861967240208283
-0.17139419922924581 0.069461601028282249 0.757923349858724
0.28070529176192238 -0.016517108430727401 0.73974301660064623
-0.020192496717077901 0.25933759008910684 0.75358825367720828
-0.50835519364932757 -0.18252813666898549 0.76678107418240327
0.73757376281580278 -0.45821067300852758 0.68755737012007523
-0.26354333988154366 -0.27765282785461454 0.71437568496039916
0.44921149696522278 1.2155368139672205 -0.47242322997700192
0.24018365269966147 -0.40756765132391271 0.38870433978297436
-0.30591340927973754 -0.28824279195108105 0.73140713195633311
-0.80208027451846498 -0.71185723506297993 -0.39097697096373429
-0.69719201908702821 -0.9559907080665162 -0.40349535534335257
-0.10259737363391785 0.29489118731774933 0.74969731874293222
-0.82954880630929928 -0.59240544749012614 -0.27581814846051422
-0.31984513836373019 -0.31567576107113182 0.71867537926196401
0.85481594488952162 -0.24802824761733566 0.62442384445129528
-0.30247623200077456 -0.032014907817631721 0.75584293073006725
-0.39614344948408231 -0.63314747774101421 -0.0020723168241876255
0.44586113299894414 -0.36458210976258287 0.33875012280023054
-0.6968542141895373 -0.95328920212806922 -0.42420744494081997
-0.84060486350631969 -0.75607397995856451 -0.43005895560390361
0.72062400746873934 -0.24263027687023042 0.69788685941650064
-0.71849562428279512 0.22819180978606979 0.71851163460317846
0.40808606220700661 -0.21825166912661065 0.26046285456442675
0.33908140783542251 1.0429784692743134 -0.39241398329462385
-0.18166932602061081 0.45210859483969346 0.7572114241955159
-0.48091038441568834 0.83364768425288949 0.05478242688275814
0.30150891072147701 0.67559206729541277 -0.011703747954956212
-0.025296708542253299 0.82218975927783289 0.58479408531129384
-0.4965686971231289 0.11226361312131994 0.78491976059349999
-0.50394745830555721 -0.097080564034784267 0.79124425036069468
-0.076232640514417582 0.68280091376825069 0.71026149224788682
0.14455928413700114 0.48987870029597635 0.67123661795308254
-0.81494186159494753 -0.14474859523903971 -0.43918964352268786
-0.62598402778067985 -0.25158464202296904 0.69218552829371605
-0.48331783666732697 -0.36404839437581993 0.61297180656565009
0.65015935512659695 -0.29655868745570579 0.7223478905590448
-0.31315051968222285 -0.27992462845117239 0.72772054438410227
-0.58596116659021646 -0.67600861258765654 -0.3102675900733729
0.16737433540541069 -0.20479317225179738 0.76202973890416725
-0.42146413351203904 0.21752023039367252 0.76267519942274675
0.14060239524384421 -0.061785875047596139 0.75378968685894787
0.2526350339171799 1.192872234654236 -0.4446727536413444
0.27605877990188255 0.63921842265018047 0.31107808695192718
0.58934729700903254 -0.29183868840666383 0.72585544621377429
0.31814688675702207 0.90101082488362039 -0.32646859674087092
-0.40296148339087168 -0.49976383132231506 0.58188628247633367
0.28168735874104556 0.090188434767226044 0.52084315497589206
0.116421573273362 -0.079440183189537161 0.752378380622576
0.040309211346134077 -0.29481710273472206 0.52621081054129382
0.2869371617406884 0.76341728183173307 -0.26418803131324542
-0.27740849921554656 0.021181000856469234 0.7697037488973697
-0.67034671371619758 -0.49578516343769041 0.4558090329786737
-0.34550425748122748 -0.0045492272115863486 0.75902634248415257
-0.72743846406844881 -0.42152043405165429 -0.38289043553144309
0.15151796723009348 -0.085909483134410602 0.79578182241689699
