# XYZ point cloud file
-0.34341600819239559 0.1460292828692964 0.80119237650939468
-0.8124835266699435 -0.94553821842581165 -0.42502416756752126
-0.3888962652299206 0.21698591442919657 0.71011869008578454
-0.49413153509563656 -0.30488816635622129 -0.59824634287578071
0.67468267916190783 -0.34563192480937133 0.72350071093593549
0.21656035525655071 -0.081753673818189654 0.81069808542492172
0.64369177568534397 -0.094182840592335282 0.40654055814574175
-0.83525323847959498 0.34173068357622327 0.14337230635491593
-0.77016133151119703 0.091867248752404151 0.70681502627674941
0.28201199567566704 1.0299616359911674 -0.38768884734270515
0.45529449782164377 -0.18734593151768664 0.29121739476155994
0.509880887798289 -0.42918357513318739 0.35236155404254355
-0.36645960922804122 0.036298761264372814 0.77582882028514
-0.71479311616937835 -0.53105908163831295 0.041792581368802928
0.24284224342315852 -0.38549177391662504 0.33797365196277607
0.81677102154791825 -0.49994981911333625 0.58799891148731565
0.32716463896273495 0.41592293811623371 0.51230943691394248
0.18702574278429296 1.1465061868640731 -0.34257461317161209
-0.6042252381158626 -0.16866562198961077 0.72642983867960176
0.091313407520427603 -0.29907462459805778 0.57944448615525701
-0.59242318588029974 -0.17079989714894239 0.73102107572587727
0.28317320998505124 0.11264179363020865 0.53232465148717889
0.12596234963178787 -0.24057510594545128 0.72228361096198679
-0.25094594466605358 -0.58407510378236971 -0.30015311748964812
-0.20111355853385504 -0.081582617737158358 0.75946923186774562
-0.59229559277924793 -0.78664502425410809 -0.3540838130301367
0.54356772287824029 1.0921065049592267 -0.49353045583042565
0.1596926747045373 -0.0087340820029897515 0.76614610582546216
0.37726875894405865 1.191677636546749 -0.4265202003771531
-0.44651530221198144 -0.78893656039404547 -0.28287939980507915
0.41083025696561037 0.82055264237273384 -0.32026432840325825
-0.060946970228943798 0.33139301604322569 0.80536557373055651
-0.028968834821615275 0.55099309828697152 0.74576759603935106
0.55699557972113922 0.74683999007211277 -0.27311859283979523
0.4247577880618536 0.63971851572426885 -0.16288112864522475
0.43376904381409886 -0.6178656390998718 0.5591377169298033
0.85192143859158875 -0.36538218511226006 0.64425499819746079
0.2916299309682131 0.74519770768855942 -0.27620693840792576
0.47034835330592628 -0.40269762848148538 0.34577726689034272
-0.21770297913321812 0.50932131766156452 0.75208480296779889
0.3179620000613248 0.80077860181647509 -0.30722193748655791
0.27713620010516848 1.0077612979797959 -0.37337778862239546
0.0087115491909237619 0.65527196253217213 0.59422160915569044
-0.39608753976422051 -0.16004674398563346 0.81906830761848237
-0.53720158596135548 -0.033478328994053896 0.76059372002928072
-0.54082949587595763 -0.56755124335202467 0.47790881411980024
0.12714957012816441 -0.18050727215694096 0.80606433459391447
0.54817720338098042 1.0340284092909524 -0.48124700702083523
0.16286067455586561 -0.14210339729440236 0.8138482370470701
-0.23539148884251304 -0.10978881106558447 0.76678952710364534
-0.87588399361596814 -0.85887587513822794 -0.52219745391103523
0.87568244401756701 -0.36656719700571827 0.46325859307481476
0.38779130535272799 0.71614593406283689 -0.27456091111100989
0.65102918966739765 -0.35971474018376881 0.72911676432795858
-0.48084315875576067 -0.1771982200007951 0.79438226078755214
0.076638411309509991 0.72619626534869219 0.64534275360634474
-0.61075773062765037 -0.65348613848605019 -0.30575329716251787
0.078091766829569309 0.47988460272626199 0.7537622582162502
0.71327760348288649 -0.39230851220833962 0.64700654121475498
-0.12637832363173729 0.54531179070725955 0.74053668316238142
-0.2393828612618627 0.32535920903545268 0.67850972547686883
0.62554551968573691 -0.24683233333108667 0.72541848540365717
-0.73670822114689472 -0.56984399862917812 -0.22300454095890743
0.75579763529417932 -0.30951590090768732 0.7073841523189639
0.35758999968227911 1.0328796748428655 -0.39054740595366155
-0.24683833725409343 -0.17711880523375001 0.75184460718521429
0.07463199280584476 0.39579077969229104 0.78239657329558909
0.14588122876831733 -0.057362746398823106 0.76206068761323653
0.23929526359054876 -0.14824503142924783 0.79135277060781561
0.37515556423516472 1.1047939898354215 -0.43799364801047957
0.9325975200728287 -0.27303045924823444 0.49252415497410329
0.10706499434300198 -0.30275287971210929 0.6086054650566961
-0.40862275493411815 0.58751845983837114 0.62739831494609
0.48127685177027857 0.79456903994768258 -0.30860552751245329
0.14091594012066722 0.8181071394487649 0.34944839775052472
-0.3176409221626777 0.68337791608998266 0.7498190826687976
0.71846570921516673 -0.51622982770984294 0.68262855358064911
0.72045961975006279 -0.3773094284622367 0.64693633312488608
-0.62014563331446837 -0.011837250192501259 0.76336978956249002
0.30589851051002626 0.97060599584400808 -0.36025535269668651
-0.17663634877651191 -0.52405127225259207 -0.26865947606220786
-0.665607976946891 -0.38460642788685995 -0.48518413130538285
-0.49107116708710308 -0.018498551487777348 0.76579464631401528
0.37367916422784475 0.052337819849347156 0.4065224949432249
-0.23074722410144588 0.67557278555441158 0.56156295495963793
-0.10737926627580308 -0.4709166787626895 -0.29727623275706172
-0.50954933702639238 -0.35696961155534979 0.68643132041794352
-0.22902617194860397 -0.46826254938300238 -0.42857092699287236
0.62620598410043371 -0.45228703541025439 0.67704533615435825
-0.14235825749114994 -0.29460730449906514 0.70606567944298959
0.16266841789452968 0.83102539576045942 0.53489795758583103
-0.77759873072497498 -0.92385959988530786 -0.45404546136010282
0.47155670377715353 1.0383253257530294 -0.44035108931462119
-0.18578968939121765 0.24929349972541281 0.77126491970218147
0.28951632437894759 0.98854405997103711 -0.36524517956272717
-0.48621032112779972 -0.85543670451678722 -0.41892762337551659
-0.8065785443498541 0.17043913861641791 0.28247579321286587
-0.53996150511172658 -0.60199991760151583 -0.18965217756722907
-0.14675322275602554 0.95122006298437878 0.022203001962610713
-0.24509751202520391 -0.37091963604138023 0.60715590150244392
-0.52908624297574036 -0.22224426890677762 0.72898235023100355
-0.5430257729877539 -0.096413268439459188 0.75545951548135903
0.73307194131014342 -0.30898653650303309 0.69241307028720378
-0.32949630380788619 -0.18381948475890297 0.81465478308200456
0.32048709918571916 -0.2757714151036943 0.025900816934194992
-0.19181187700428737 0.96200066646237126 -0.23825549933319579
-0.76144791431574887 -0.31184559219807539 0.5703020059117474
0.74480013448228988 -0.43238782942464127 0.66131096140234469
0.23145776695228193 1.1022163768112812 -0.35503291424471506
0.37072220881371365 0.55963977738208115 -0.0037400478969011886
-0.4126323147574702 -0.27328610268374121 0.76579099943768725
0.19369153603182454 0.89303604362512257 -0.36071551835552285
0.38173164467421827 -0.10475291258391906 0.73357777543842495
-0.5417064313552018 -0.63346748640182682 -0.28242898312667108
0.085053050015957865 -0.15431935074559888 0.7701567786126029
0.29852079024711742 0.23251920984148455 0.48178238476412627
-0.4611877599119012 -0.1730316705987871 0.80153088647849557
-0.47050402618328846 -0.53998779814525832 -0.44063346616180787
-0.24117727026241909 0.41488872368823948 0.76922017513139096
-0.70659967593897832 -0.5458322400027793 -0.079876098398230511
0.34456577060105786 0.15331738460422706 0.35062527343974992
-0.56748488348677384 -0.82043637613589482 -0.3613243340651735
0.37137019489666301 -0.12579125918931666 0.73743114585820813
-0.33059601002450023 0.33710110937714255 0.81082598325162536
-0.56739551479550343 -0.64189159521908046 -0.29469944276109317
0.44787483739609257 1.1713163829743873 -0.4210704876111393
-0.20322539674774376 0.5477799815109563 0.7454785660620038
-0.413190272811228 0.51180504673423854 0.80305689978950845
-0.74889293993723172 -0.60142187467037012 -0.23515414638305643
-0.32064267384234668 -0.086621504619767364 0.80083318692140715
-0.74338191001863052 -0.7122724371194149 -0.36949287874283421
0.41745536185804255 -0.57720726673412237 0.4409704667717369
0.24582189515263764 1.0052387266062937 -0.34880477919579178
-0.26664176036261722 -0.24526178436302892 0.75202292354291256
0.19436895837052859 0.0034788330176880322 0.79603482061753983
-0.26307881545502454 0.59058738894959362 0.54829076141879796
0.0833907244987806 -0.31822875198247758 0.49896525734533981
-0.22267566062765454 0.34832391640457772 0.77368672135696404
0.30673835995570542 1.0114277013473885 -0.45334797123142323
0.87000690968015704 -0.322979690894865 0.43071992404797488
-0.24969644208216479 0.0078820812312745403 0.76486882108251919
-0.22946326915259263 -0.091206130274835928 0.77023949140469394
0.035347030503604771 0.73471328113453716 0.66047537669468781
0.37418848106241143 1.2416718353362297 -0.43044068209024822
-0.83035265770008237 0.14764106676364008 -0.46393018835710187
0.2842280859352897 0.1264271092567899 0.50954120298366234
0.26902600513026442 0.87997445110595063 -0.30879291991448277
-0.31000151876936144 -0.16145702555439989 0.81571941987247065
0.69833964222341294 -0.43910217519353978 0.64565367815544583
0.34585678553096244 -0.068118119154961576 -0.26899767885481296
-0.72164346738662033 -0.13501885467768027 0.73920318234739391
0.12935044187805289 -0.035730469920585151 0.74755160132195453
0.3570104441887878 -0.55462621876914042 0.565787971660491
0.32437838840989031 0.64375676338111631 0.10082874927798358
-0.1144111158405785 0.33213381621090932 0.77721828952220751
0.4103583278798304 0.7976652078644566 -0.31118509006062567
0.62352908205912883 -0.40348004542116378 0.72875340162497082
-0.85505085418086324 -0.97494973724680989 -0.41611597581770532
0.60789439845436277 -0.68473941440765174 0.59993540921810062
-0.58185624327482444 0.01253522069580093 0.76182074256637655
-0.49961805227979994 -0.63217104426494508 -0.29477064145057064
-0.66001902010099656 -0.53101570974035184 0.50981241169750291
0.209509337475005 -0.38738023572703639 0.63742817005284635
0.87859512843937182 -0.33786424737302667 0.62407464952133207
0.48396147557231117 0.61080321334752874 -0.15644622952268072
0.27796642060182108 -0.05692928412998377 0.7868512090051123
0.010260413343296193 0.4862701211401621 0.78585434709320268
-0.78801334112045041 -0.35021159182743311 -0.41081490959494182
-0.12609127652996577 0.31824726549252524 0.76589411147528441
-0.76334077074887219 0.026394239198392455 0.64191600852176478
0.048326537178652984 -0.30741754166271207 0.50018484663780161
-0.063015904173504111 -0.28890723932843088 0.68364640753629757
-0.18919418528605192 0.18594230680869295 -0.76981977402152069
0.36339610200634453 -0.48831078691331697 0.66396350992368447
0.19220646823777088 -0.15003127962991059 0.80765895548241851
-0.45759819915135935 -0.20259709535707771 0.79484718100214113
-0.64536170994974285 -0.68300237751347659 -0.32958867196811781
-0.013061454452646615 -0.4607026643029144 -0.13563937979406049
0.054438279779049026 0.46883472174502927 0.77854991146290509
-0.56359763870728941 -0.14144161892115292 0.75288075847399138
0.22770657802113803 0.010300144423112556 0.7537553404006081
0.15557483040403142 0.43528595660897196 0.7063926306439372
-0.43241490735864829 -0.64353562493671035 -0.22658392767643498
0.69160061921315119 -0.39751947935950938 0.65380130385690638
-0.7053540312809119 -0.14865232982828758 0.47482202176265709
0.14372788472459064 0.56458780231861994 0.67127703604154476
0.30331240476393617 1.2550200852759543 -0.50304922807406705
-0.50346556361354899 -0.60541146961298864 -0.15798627713100366
-0.34121723217166888 -0.64112505606422587 -0.13887011265827098
0.37988515892376284 -0.17648886590139234 0.032166286002876632
-0.48655287804945146 -0.36439351555151589 0.68683358774293701
-0.54290130593144426 -0.63763788285359446 -0.2949947591526616
0.24302643829355475 0.47199452771059391 0.63748394966014299
0.57630082028512319 0.92844226865450263 -0.35951962708378993
0.76939797291712608 -0.4022776025649577 0.67998246100661941
0.36364718989603162 0.05792800323561309 0.46682934595542935
-0.84340536486038076 -0.68753168547577026 -0.33889221607967812
-0.31420571334915337 0.8701086915587819 0.13163142438050457
-0.1434535544354425 -0.096888352850788451 -0.71702111313696903
-0.79139634847944507 -0.57287853723238769 -0.25527047912055423
-0.67496524085865772 -0.0022905623417823762 0.77679356037022007
-0.12807107642147386 0.5488307315372154 0.74464865373413591
-0.12558113804475113 0.59166697630869791 0.73135062043347876
-0.57722940179376891 -0.8542254294268723 -0.38230629148324802
-0.35331673146028919 0.091663722030526529 0.78567518773088718
0.57411712591467534 -0.64960268783218744 0.63493058501138488
0.49675922773963066 1.055361299775174 -0.4327757107852257
0.76281754572944394 -0.38803023614443788 0.66159114160727128
0.27204576706078498 0.75783420636322063 -0.23734721136639259
-0.003279387202088202 0.84147486133454485 0.29422556089511431
-0.57555247963306044 -0.24662851955903875 0.66539647330835017
-0.92586746796004604 -0.67447243372665078 -0.35218755847206396
0.26204419965942094 1.240284944911874 -0.41049016296605956
0.38106787326782054 1.161351740556638 -0.46602101381128413
0.54054354561738904 -0.68369559294794868 0.44393706813445366
0.468295891976787 -0.4134213257110666 0.72455160466954727
-0.42509788854692587 0.20764096140814203 0.61413216803282999
-0.11833712683355913 0.91196279807724956 -0.40264501481245496
-0.69542126155707962 -0.58584305573014106 -0.38339643500137655
0.27453912645654199 -0.34673842434837532 0.18442584759979042
0.78715378619430254 -0.54204962936505829 0.51421461570156968
0.011625292102060314 -0.44761250924547369 0.049699128504379075
0.52104494426595949 0.84730148047903597 -0.41861010631336804
0.75009735515968501 -0.34329727632255214 0.65193020212047337
-0.1367884789641991 -0.39201078580235915 -0.52026765713824474
-0.71481145534735191 -0.56594057622410787 -0.21256070715207009
-0.60290152078288273 -0.27401274702509681 0.6963985549749232
0.011240027853727241 0.70907152262648765 0.6667822645399859
-0.48040208860886224 0.30739125448413418 0.54645871373257826
-0.4944154877032787 -0.18029348756518893 0.7879974223785231
-0.55218730036223818 -0.091732232698021221 0.75954222088261503
0.57457702344017747 -0.16163439599056417 0.71762078723046585
-0.70029703187098846 0.015699734728467973 0.77847408589328371
0.23833914982818527 1.2015223362985612 -0.38566599673826474
0.29398128905108933 0.68208542480605949 -0.14281881649410977
0.3609958669890041 0.72407332861311779 -0.27607089710479649
0.041206917072216243 0.85829840531862267 0.45406670852861097
-0.4797547229594592 -0.083578405620567509 0.795619591361441
-0.45372400279303093 -0.8131681261113588 -0.27369151965966587
-0.079191655076705558 0.92179844532505406 -0.38363864936451364
-0.43039907103586827 -0.3586066520676372 0.69504090377372485
-0.3373824555497329 -0.10195559391999076 0.81910904577177313
0.096345430271956189 0.857849797853663 0.1571272167459643
0.02937147542181151 0.27413954953452269 0.75672676541331363
0.75515835416577559 -0.30468857871276533 0.38254514646321081
0.39870448730057717 -0.36469382278052365 0.32501233051581302
0.083398288493036432 -0.15207545562081215 0.75421671036650029
-0.30595462037259225 -0.10303005202296944 0.80075536875830178
0.42564847578620757 1.0719011632943385 -0.43434636512914793
-0.040200112494197526 0.33200317470116225 0.80850698225486095
-0.86085815765618534 -0.80187686962523053 -0.45421318140383526
-0.49026710290506514 -0.63841931170899713 -0.30348135898934636
-0.31941580567056249 -0.63889272280338183 -0.12584216850592611
-0.26034226158187934 -0.26616358337182433 0.74173468456447011
-0.36229599553076497 -0.1075946535665171 0.82100693471661756
0.14939560070177649 -0.032593439977794958 0.77681912394180053
-0.29389233490390865 -0.20189821661762863 0.79689039165762221
-0.12164987184795706 0.36078133980146987 0.78666026244946785
-0.48105160619346066 -0.75131443457649283 -0.3215497782759531
0.52124818283758145 0.97648012505756299 -0.4059848435940463
-0.15980484632724412 0.79793262115163266 0.27802521096440813
0.49938575904940308 1.0525344340283507 -0.45350334394584912
-0.15760970218730108 -0.46631181119234277 0.37225061307019303
-0.40329767938769123 -0.046610987310627294 0.79100644441393886
0.28869924660692448 0.74201904691712173 -0.26435342591368993
0.28193811115561829 1.0810538747042733 -0.41380832696861347
-0.25140188738459912 -0.098825160236930998 0.75588232779121167
-0.7395816228385641 -0.54915948885592236 -0.25054911804510027
0.42002535696685683 0.0065202736372391712 0.65986356034420979
0.69964955593691869 -0.55045901898522764 0.67337107449385769
-0.34267775416824975 0.92464111781448821 -0.22425538881827656
0.2957885717899984 0.90592489302074153 -0.33130704990508519
0.2149695040116022 0.87577040840032971 -0.23426357389467256
-0.081487103201911992 0.33755307688811875 0.80078668128997776
0.32437469516256812 0.36089596820192327 0.51947978387130078
-0.71923088651768197 -0.53318472709427667 -0.27191980262342419
-0.48732209120970893 -0.68813809723030239 -0.31340393435666059
-0.17269988622294719 0.53018665211696359 0.75248374330877699
0.51704699698038326 -0.41143393294868247 0.72855989359246731
0.33687884043833094 0.72345739454987346 -0.28500215199656864
-0.3915597384849363 -0.27109674079549251 0.7746679190370962
-0.64778882177340336 0.14665204559419642 0.61946862441405592
0.35719146914759037 0.036846112082624671 0.6302834147142633
-0.039360362783149583 0.64448832225552088 0.69866713239085776
-0.73611660106321963 -0.38899827349496441 -0.43182644007007553
-0.79506102278995883 -0.43550101172560574 0.11516149925817842
-0.32612378516598994 0.54138858758871322 0.5945874537345297
0.41348735770955614 0.042617867359240336 0.49230136809034075
0.72152960659257914 -0.43495660636528477 0.64627640333180114
0.6743873467791488 -0.47654987737752563 0.697812960283553
-0.56710494724340066 -0.63731856049721891 -0.2821407281217958
0.20089407895360267 -0.30898389854505837 -0.28852985383301188
-0.87848370482428706 -0.78489954203079471 -0.42455335081522527
-0.3808929940530561 -0.8407288464204079 -0.23731256596759565
0.4802258811196829 -0.60831539439150717 0.41174149823825967
0.38790882900071466 0.89367636417817931 -0.34886534770408062
0.37890360684396285 0.18314835200405 0.072819299098442869
-0.32847131686960651 0.70402602473589582 0.66871447210523893
0.16550319262501034 -0.2073332968358983 0.78137689624421292
0.45467796396641447 1.2312690154182029 -0.51726869073300641
-0.38560856327273285 0.26035397019508189 0.61436658559673596
0.64895223219560094 -0.56525307225628119 0.6825265536084224
0.4741943284113006 1.0787142922540003 -0.45804889294645257
0.3977705949809085 -0.24805921491178395 0.2500073770529081
-0.61100941312369983 -0.16916599596862625 0.65146975320734324
0.348149433627988 0.41359615407009898 0.21118721827761355
0.77669413399109999 -0.38880290502963533 0.68741038228819473
-0.23353913140022442 0.86055244018522092 0.1652979665663068
0.12993715576218889 -0.2836177473254935 -0.45923915645724911
0.50288311394471208 0.79060379402830172 -0.38792173150170228
-0.30901107115504445 -0.1775268173675979 0.81345206786041668
-0.021169272361010627 0.22679779182153226 0.75900160825457608
0.52475250468865653 -0.54088084989215446 0.69293195196117807
0.29246157828403696 0.1948553189720279 0.50771657764680622
0.41813572996981918 -0.51962027854139414 0.39029831105347412
-0.14642768446426757 0.41236333607430531 -0.72988499941811646
-0.68728189444773946 0.1886172104591175 0.6497998441420787
0.33457235846321609 0.41662124895896113 0.28597410389573064
0.56294377048335065 0.87155594665807357 -0.32137225354870935
-0.47182587249540475 -0.69288926644416726 -0.29553330056765503
0.39229864840913109 0.12025492777382318 0.065758025133577647
-0.22713068207542619 0.096429002289582399 0.77298494580745736
-0.61404096663206786 -0.24515106653342755 0.70318068653392629
-0.7493691079564968 -0.26369176648021586 0.54910393329985752
0.15194108928384509 0.86846459790709751 -0.14061497578447835
0.34516839520411224 -0.0087766557452528815 0.70590170997855139
-0.47518399138195377 -0.01771952384128106 0.76384642284386484
-0.65158258400483149 -0.65855449733180116 -0.30953506314925328
-0.63806976405896876 -0.57853948047313075 -0.095791689202330943
-0.91459614906899134 -0.1076387712968323 -0.33201496760367455
0.49417091731396567 -0.62920212144053167 0.62197440023279338
-0.50813802801852148 -0.18499554100734628 0.77033990535318253
-0.31773222562992842 0.030128982102466395 0.7028512400467033
-0.85903560947784641 0.38190628572711827 -0.037627419096383008
0.26364009017649792 -0.36986390114100587 0.69294125547303764
0.74323824978975139 -0.32078444849689447 0.67668102134237351
-0.7494698377323985 -0.34391791002332361 0.3099199801326904
-0.51658769514340719 -0.2994783485255148 0.68312020150545294
-0.58904491686296012 -0.29350477179200496 0.69376861650930621
0.64577832011606162 -0.46738404416574753 0.66248166713819323
-0.20295781197532037 0.23193229880381239 0.77588612690495395
0.38311287713693432 -0.024967352841411383 -0.1517629089104453
0.016835204799697578 0.86227602278796489 0.50059137884094529
0.032516988631954291 0.8580436542322154 0.63520063359222245
0.32631565006570185 0.68317299641627649 -0.22406399656361664
0.93254614770149047 -0.23292474120722773 0.54444370500346295
0.27278720707186466 0.96478405138856971 -0.3484966681119861
0.76667323143169597 -0.36032796938379619 0.67721921627564008
0.90905514390313868 -0.26874975273680946 0.44222718087240143
0.39639323512879798 0.5363014988728203 -0.11941101063584192
0.36743499799749202 0.22462274187866349 -0.19047898185015022
-0.56077809889004016 -0.23873249664028329 0.68858937226607697
0.50783836782101943 0.97700239809749245 -0.42910879433084759
-0.60714632737593632 -0.9434412216683441 -0.41133831483421979
0.37798520477391406 0.70800063735484287 -0.33794073350832221
0.23290294198478634 0.031525654608241638 0.73839774175732842
0.24853345765378876 1.1325627764611728 -0.37709324925970833
-0.31715961341597421 0.032256586716201241 0.7731737656340627
0.85634586540539104 -0.42586270540775395 0.59943901218465356
0.22653372297354935 0.012603398367083685 0.77862855308584145
0.087512209405254282 0.85962412986311243 0.60151522081550901
0.20865245802099253 0.49003833141258291 0.65425829708267269
0.38830253186011632 0.64293467020105943 -0.20034773624721502
0.74490080369189116 -0.41919844403007644 0.65165512901608391
-0.76409677154516231 -0.49400247662642549 -0.13833783098019659
-0.079161930151585125 0.55098382836425586 0.74148466660369827
0.16417534083229768 0.96808646838829482 -0.3590832917050637
0.22385432893272039 -0.3787498964259246 0.32900554979268293
0.26466994585455694 0.90019958389481758 -0.31406553400856829
-0.42408695337737257 0.52674011811451749 0.6448307729319378
-0.76084658688601792 -0.19968039836745533 0.65583952180676253
0.20832219296793753 1.2050186152156925 -0.42232385822507013
0.72023884833595986 -0.49785731616570672 0.69058513200627836
0.42826066721751133 0.59099172078300732 -0.13637485122557003
0.68782498744220533 -0.11644148152884704 0.40386819485063974
0.57871340762066481 -0.31567006904389316 0.73166684682998895
0.57643801196308786 -0.3569981564058704 0.33958380926608189
-0.087116302817374702 0.24632133143134816 0.76733931803794064
-0.36710375657844097 0.84188872853232599 0.16362225657375973
0.28095635176874367 0.49274439226073596 -0.41120335788230022
0.36762760775185299 1.1688280267075353 -0.4477496112159649
-0.6020300814631554 -0.53815351636830044 0.54360870610627465
-0.47780365219733412 -0.56720780027450068 0.44903258050889505
0.29869689094150687 0.72588886786236806 -0.27506882041607383
-0.73329574126520214 -0.42004337679626857 0.29210921093170761
0.0014289571776444632 -0.32657479706779213 0.50502560171331279
0.30022482494775815 0.59882696000686941 0.31187356572375258
-0.66590860544177133 -0.29406572102761963 0.70323083777874285
-0.3605264737769005 -0.54603652186390583 0.46574209730305682
-0.04437797661759646 0.51574676866381175 0.78388414550651753
-0.39930207602187906 0.90225251388050509 -0.21111636606216067
-0.6661360060455479 0.064235991495868561 0.78918663680880474
-0.25381159671348996 0.37024456562321006 0.67455242077833866
-0.6044971341695522 -0.54371459321831495 0.34461623221351267
0.1811326649480165 0.897728386476075 -0.21621468852612402
-0.74716701337746017 -0.34778892847669596 0.66630530327185333
-0.37580589652480612 0.00025632428718935785 0.77040583956438002
0.25345868384294334 -0.031513887541464669 0.80521795206309488
-0.14487506066722844 0.73702545822170684 0.40102524283912011
-0.32832515932412676 0.0078506935522373311 0.77551242997687098
0.28882022645312944 0.96272599942307124 -0.42654823619629312
0.22699721182306831 -0.3938283097209645 0.37416967732524675
-0.17214649075880217 -0.2540725213817705 0.6583845492768674
-0.59218322270617207 -0.098549372819691783 0.74300650312984828
-0.35230729751364009 -0.092202151076953953 0.81918463441239986
0.29703406261324616 0.58854460734024094 0.37155384021414761
0.29952829023855543 0.12637210158210621 0.4818267108472476
0.44390471914751828 0.70234736672922793 -0.21604135546267322
0.5834469166212557 -0.20502850983217513 0.35558172624782003
-0.2229157375291031 0.31894497888230156 0.77470760347264367
-0.4202330260288285 -0.62399243336043675 -0.38223545576496321
-0.88053212082493104 0.24615110517927796 0.12736976433010661
-0.54357969280354723 -0.73483485304893392 -0.3312704550036738
-0.57346988571891089 -0.92273574487241028 -0.40165177151035536
0.53595589563623491 -0.33044587738023878 0.33260069508210854
0.15243105729125617 -0.063601688582693328 0.77246843451245439
-0.68654641493511193 -0.29829219895511905 0.70792140617782717
-0.83226299360950762 -0.92637917974996675 -0.44611669047715452
-0.58103523606266805 -0.044780394795564504 0.75108862589503911
-0.66642224558673391 0.13988373690808231 -0.61667638789057477
0.76232727828087832 -0.52813294632362862 0.45626736354681707
0.12734261355267051 0.8696483759250917 0.53259247972232604
0.291639409493758 -0.060512041163731212 0.76544943498865159
0.077256256872907159 -0.23712120086697475 0.69937002791452407
0.69645064203639961 -0.31045448270929654 0.7170828444107844
0.34057477488019927 0.68982655483408806 -0.23306858617873871
0.10313657981907909 0.27925746837997067 0.72977559312844331
-0.40352124752823926 -0.20973035045733113 0.80496733499779793
0.3645715441348365 -0.0024844109058044239 -0.24928798891940396
-0.89994672677261889 -0.15199013149242191 0.074956395312812063
-0.21477969164781996 0.010616648704248277 0.75933566670428476
0.23554988837097568 0.75035352174368697 0.50616491095350646
0.1292946981243368 0.35290077863325386 0.72832877171571209
0.1447906669554051 0.34317742909005311 0.71704502450691443
0.73384976828158699 -0.50331109449968814 0.68030002110999721
-0.18043197606129624 0.48765867918360684 0.73492574553341505
-0.13126878904121142 0.77765615342404182 0.58561354384066711
-0.17357526839131765 0.35176653225228982 0.76182331361570732
-0.76130288348348074 -0.57565547289977559 -0.23311620311832648
-0.19571630550443686 -0.4406130040375551 -0.44938313206103331
-0.46804216331367599 -0.76916425681925915 -0.31125820492090028
-0.76212851942715787 -0.72265902515436586 -0.38255853720160715
-0.033418150826371118 -0.35476166908816076 0.52462714162176738
0.43294678671563958 0.56501738395736467 -0.13312719007077867
-0.38234870964564394 0.18267805415240623 0.79821308627748699
0.84276606580633739 -0.43788633481062078 0.4777444604656722
-0.18223595988551011 0.57679401834961119 0.65848421770505361
-0.23801166776906157 -0.28002377237070597 0.72940921186280239
0.31857364386925369 1.2820360722637094 -0.48866645405511022
0.13308737851339458 0.41061821010508304 0.71163367629182162
-0.17895722397889813 -0.12458439092536189 0.6986403968570114
-0.45647064893186595 0.20937191194871652 0.59692505832090781
0.0088224347458591978 -0.38154534147491859 0.38360979594912514
-0.87371746370114778 -0.24849136542295369 -0.36098390286372961
0.19060294771299269 -0.23836641025295968 0.73445228050945488
0.79281806620475948 -0.31377007384648614 0.69341930043180255
0.33522792001116741 -0.22051106402657261 -0.077052503814396545
-0.40602816929697028 0.42570207111360681 0.79106796297939841
0.079707806690869631 0.90773107497931793 -0.092082728046117168
-0.54399407258025789 -0.43806114347317759 0.6443876770549064
-0.7720451141383613 -0.96113951479794224 -0.42196085862151733
-0.14535448060301093 0.37512059871980696 0.77618700485793113
0.58621771109708121 0.92849776432824882 -0.37372680228963162
0.27037556529796092 0.057328264395898998 0.65575936834767745
-0.58938268374928526 -0.65079550056850088 -0.30536652936105924
0.3894492058179253 1.0404370525512814 -0.40328631581940044
0.41383455674372271 1.1603488873268368 -0.43117167337260831
0.029933276625957461 0.68035350611441459 0.66672159937296449
-0.92108167161579146 -0.90327396138710725 -0.41787521642515557
-0.22255132924227183 0.25060915625697611 0.78017368526214348
0.086014783341664014 -0.1084048362014709 0.7508572023596205
-0.002408144150809477 0.93388265809805038 -0.26689504062716374
-0.053978785560602205 0.23782253868734671 0.76425812446055197
-0.08023260042028113 0.80648211056741381 0.65687336390151518
0.28344212524921986 0.71089252281537263 -0.36190668342965004
-0.56214764428503372 -0.35141588532137646 0.67856207245309719
0.2268501468991424 0.01218417575258357 0.76969702865333556
0.16617669693135184 0.81079178237234828 0.2139962015291843
0.042302148179043542 0.40991019051369904 0.79653041933899793
-0.3059136494514334 -0.28625306715953691 0.74178709044361035
-0.24307859418198063 -0.20629598173032448 0.75470226664157103
0.26867014978827441 0.57652085301877953 -0.41366599004408577
0.17904293584420827 -0.3288002771463745 0.66666782732527974
-0.32271117408893701 -0.59117569693628624 0.17238627028708287
0.35550689579791594 0.97581753320485554 -0.37084732359332584
-0.40107486989887065 -0.34676680455908482 0.70070310557904847
-0.43449140163893674 -0.70478486217360015 -0.26769120001321589
-0.97285674664738409 -0.70533718439343218 -0.43757488081118723
-0.21998573546731848 0.58876268574169899 0.75226627600312312
0.30017522924118722 0.4809540698163346 0.5778979332631069
0.25479378817251686 0.89910179054508355 -0.30330197006647808
-0.50300819668231611 0.0236268199057168 -0.70043309656941055
0.20354228566512234 0.017712074627395324 0.75077252772421676
0.32275061151393203 0.99271670099981613 -0.37123832804547163
0.094711606292221973 0.48618395631121203 0.73079400322919597
-0.82742517517353065 -0.79998160817718933 -0.43911616701225142
-0.76153365925699745 -0.38850856393323063 0.63212846325874494
0.5458590950521689 -0.1800166246730921 0.34903557362572624
0.52586106692455203 1.0289315965016375 -0.39239931245056781
0.11115147493209321 0.65830808078848868 0.64889485832237259
-0.11403758368891559 0.23004864285172566 0.76383577546232662
0.12875986913421045 -0.00731586017948338 0.74902487382385896
-0.62128770701530556 -0.77552488134383601 -0.35732870328215505
-0.84930784170918017 0.062370015348003349 -0.45456797875642607
-0.10611070494809383 0.50717202283412988 0.77928393404476193
0.26983058152302419 1.053974507977065 -0.39520005355914378
0.71213395551155045 -0.6231279665359839 0.5822474591238489
0.25229506550064329 1.0289867920540612 -0.36676922799815159
-0.28083504090039924 -0.050849040818373936 0.75693366631786319
-0.8157151474264559 -0.71537043750739393 -0.38208018134356081
-0.052953388979073424 -0.48047327091171432 -0.039041118177216561
0.45923736599891996 1.1167123328680546 -0.4624545063342751
-0.21843172470320837 0.051437758972506131 0.76440452504329404
0.4327464674093271 -0.0086944770755650325 0.37221289426212678
0.62093190363457751 -0.70181001039526336 0.48560404642749599
-0.038436502930625949 0.24920174646604742 0.76329109373528237
0.27847644591436094 1.0536046348815606 -0.40120042943361867
0.23596158412795987 1.1440859158194838 -0.36807962703520225
0.68952466963525083 -0.33464969889737084 0.70006517014659497
0.49564492232320134 1.0578965619952214 -0.42353674476938785
0.77437531457128372 -0.41515407808023319 0.68759172770035537
-0.64814640322659045 -1.0325792136015082 -0.45075998100634074
-0.70377491602745934 -0.52937461364513538 -0.31742173087984504
0.69446374983062498 -0.34399305671333025 0.67499395505927229
0.38061586087022548 0.8285401812556259 -0.32156866403074957
-0.36143462488589861 -0.014274164774709774 0.75944328223058477
-0.89700202264646123 0.015544473428995786 -0.38998755811967989
-0.17453587229903533 0.50861086662812482 0.75282318072785426
0.26171030188136513 0.72797194623780204 -0.11397154563913503
-0.43743293078029666 -0.83513277399464769 -0.24076721330947848
-0.64635507393321845 -0.28915770358544535 0.69668721281088697
0.32172584212262123 0.35411695982909741 0.37349864759229767
0.09885626031797301 0.14832337207931623 -0.67493176344426331
-0.41092803909655018 -0.25888139634862029 0.78359203761568352
-0.21575907722588283 -0.048442313173406859 0.70350224533507877
0.28594399093406153 0.016020208408521697 0.71696906596788779
-0.2557142562607666 -0.50780427215809354 0.51585889561322151
-0.62479623122928984 -0.90977140176140203 -0.42024070414038128
0.093859851998079336 -0.16773256126466052 0.78897050799876478
-0.49483376156806003 -0.012760552693391602 0.76766595638475543
-0.36891777036458606 -0.35286826491886814 0.70654332951467413
0.43391458483587186 1.1392910186031227 -0.46547910725662867
-0.26335624347771613 -0.36422449055887007 0.68569129542133656
0.67528936450041854 -0.47991655887561357 0.70453896475262301
0.76282075210797018 -0.10328789641766534 0.46105942070550299
-0.32681622495261564 0.50887202194808445 0.79102420685794961
0.16065992914751703 -0.36000270593146233 0.60133376865130916
-0.44092372918097311 -0.74499674771367452 -0.31036595333494787
-0.27737604167885621 0.7109551310316391 0.62896417834074381
-0.20786411821232065 -0.20139623189027844 0.72932725886637417
-0.62501402315827548 0.17260187313668851 0.63522724110088902
0.29102037898386968 -0.34336976987000156 0.22423891178850397
-0.79389340432467037 -0.94945962109120075 -0.46781865923005661
0.66426206077031935 -0.33640831194478515 0.72835897884647682
-0.45165401667911098 0.072331296038615989 0.65096761160840266
-0.36962216092787159 0.63280709406722835 0.78388893946439175
-0.15001871023652313 0.57289442264784896 0.73874729409678075
-0.76338442873512946 -0.42839869154113686 0.59465720875065387
0.31961415117974568 1.1236477385050758 -0.44777575691155747
-0.52035260231461322 -0.65717528267440883 -0.31767800689732795
-0.51135609086913547 -0.01546690761233549 0.76619972466281361
-0.47283843992551411 -0.67622299684827603 -0.28671797786735098
0.56405630927335082 -0.27056158465438607 0.34030946083175362
0.26651603455753659 -0.016028012700646244 0.79493542233839154
-0.28601026569674559 -0.0044561486497123326 0.7719071612477979
-0.46967370479735848 -0.23959154390435344 0.77142704571458331
-0.31786534508695397 -0.045410311561727923 0.77053858632886385
-0.20861294664453567 -0.37572269615490583 -0.56268325020683285
0.62738860773543692 -0.68041276410600204 0.59822842619424144
0.017135629069834124 0.90898060885388787 0.10633167132808552
-0.38674968166277068 0.33988898301875992 0.71440298889037557
-0.24749278628552673 -0.31462135167404348 0.71301387293094187
-0.47315734368147133 -0.61436703997746811 0.10624916208064406
-0.29941034965511903 -0.30324221590780631 0.72753141680693378
0.7393369315101026 -0.1714222665353784 0.67875209824258942
0.097209649814814725 0.51963393904546962 -0.58599123928758345
0.21790951296879513 0.83170725180397298 -0.21392976985633361
-0.30970448099279579 -0.63102379273495579 -0.081322880521854657
0.12262909922711884 0.82817851215923888 0.2513329034712779
-0.60929557228326914 0.16361721992315204 0.80795305653909999
0.13437933965048288 -0.20476630934297724 0.77591662814216456
-0.094912044102706261 0.76579367140806553 0.42130909468858313
-0.41312031981588504 -0.28046875518777448 0.75638157993791388
0.80041209281317194 -0.47770123529203801 0.63859485959957585
0.49907976261985354 0.82355364257300856 -0.3285267649345176
-0.10665791835149108 -0.44011526021950687 -0.38781094066554544
-0.22219023669483562 0.94251109952696055 -0.30651243917876236
0.16695404657359347 -0.19019490870880063 0.80119329864603017
0.11999127184807534 0.84252341390866547 0.58068131045806748
-0.28223877889139715 -0.23511654871840015 0.76580738513098812
0.19992934569545895 -0.19744976626556188 0.77581375707124511
0.036407158059322597 -0.4407659538737061 -0.14398178949796581
0.33954257520777631 1.0127084907722299 -0.38003710309293481
-0.68247719853225419 -0.7884766995169592 -0.37432333326060174
0.40143937040607724 0.027546084143244443 0.62886358385148
-0.44624643478836745 -0.24261827852812345 0.78261352497129355
-0.208391143454417 -0.38939270444636875 0.65676000936377754
0.26100388299102306 -0.021973271592466759 0.80076876344537151
-0.10638258587435701 0.37283950772798669 0.8094678481395432
-0.63989492164058603 0.15475785518333751 0.80513574471590132
0.7647028405762768 -0.30437492320029769 0.70490348986220397
0.4340952869611634 1.2515863736923141 -0.46420203670524174
-0.16302044059859711 0.89954072899088988 -0.41629890902833822
-0.23516824870837283 0.027623681428003977 0.76410848905685835
-0.39002212360962218 0.31495755530983338 0.59654905969592775
0.5881094052224185 -0.68363028421355132 0.60302218632649751
0.32034104649950379 0.52821896681677671 0.49361359049570375
-0.46605357441758244 0.58989201106006206 0.37427818584450456
-0.20193057546661564 -0.21653448742686621 0.74029649795430075
0.63433104682325947 -0.19648097481181281 0.36676981237519435
0.3369583076777154 1.2332799196241098 -0.5178103109214387
0.76029487324584366 -0.40051634076112386 0.66073211194279313
0.38795786054317105 0.46110053470162704 -0.20866115371175731
-0.87953860929030014 -0.61007795169957646 -0.36263422724132255
-0.45338388611001079 0.52451086831787208 0.76645084043154554
0.45994756203674569 0.57351037444530384 -0.14469179395184106
0.35460826390621492 0.64450372920514809 -0.18868909050851634
0.14913969820304018 1.0063031199017498 -0.25411121995989738
-0.49111036718744927 0.046457732026441434 0.66834010862961968
-0.062690696045784478 0.81605348488702312 0.30357439662587282
0.70777182715840681 -0.15997146740667212 0.3861304856537302
-0.028465915834338773 0.5384600524427352 0.76758352288689125
-0.9506296928043767 -0.032456210283585918 -0.1926664696166398
0.23231056445587939 1.2163095134894828 -0.39154463128369166
-0.50246882673906867 -0.35234435672226638 0.63345939143274688
-0.033036882421388469 0.018940917392860968 0.74277715102619091
-0.19038761989417807 0.49789247494062039 0.75576237320276274
-0.28631374815783417 -0.39501718017052134 0.59909427039605134
-0.21888193148088675 0.65804563474526923 0.52795606442503651
-0.45966978786063351 -0.63990268350846868 -0.25642311963060926
0.38126334527809647 1.1278197732479764 -0.45515423945535716
-0.33950175569540875 -0.34171946631698447 0.71388911539879274
-0.95469313583421211 -0.94881035098793021 -0.49531623325999874
0.15886520555755368 -0.043445737321547995 0.79415963241407628
0.61563771763161412 -0.26425838351346265 0.35313361414098665
0.68358494809388404 -0.28119895523097682 0.72345594226711984
0.091166889297937814 -0.17140951290014783 0.7541171548260861
0.16360120660912258 0.92216411846827206 -0.21723365092061186
0.38350712912646756 0.043099237767474818 0.5955548017851422
0.53527484478141218 -0.69898482505125337 0.50665285861161191
-0.61557516372329246 0.21508994138001292 0.6809912202551196
-0.20046071783172437 0.77180218790492994 0.30615260611890349
0.21511685889160503 0.36966711032391331 0.67378479185776463
0.12549953788552415 0.48806609039977111 0.68795061843287098
0.33597592333631354 0.63723954601534771 -0.037071277504118427
-0.42890655352620399 -0.25251194699847801 0.78274674250778542
0.25642971873907783 1.0877191569185065 -0.38089690196473036
0.20223527413864062 0.8218465175764722 -0.1687379815545782
-0.2164478553893936 0.28419749409967388 0.68081746237491103
-0.22522499240995231 0.71727369614318093 0.72620577704816736
-0.84232864929192885 -0.80400596009663694 -0.45013124182712971
-0.62581790861981546 -0.075148925625075691 0.6154988488534503
0.2988231589221364 0.16390095733261845 0.47602190150687118
-0.40931573525570997 0.66844941880998654 0.71694558608354519
0.16399853021279398 -0.0042596407118828949 0.78238133759078465
-0.054692991927264956 0.47296993207586624 0.80061777398376499
0.21273221956514377 0.3915613481926794 0.59761961378800876
0.084546119370905615 0.88114582540612751 0.50209297864913083
0.35407686162334784 0.20089998322258396 -0.28307947568921499
-0.52186457325671043 0.013889545693443139 0.68513507100716708
0.41359320720781412 -0.58725794793429031 0.59879757108359488
-0.030885467264472055 0.81015994406885383 0.39587120031164957
-0.20333497238255305 0.59603026622313848 0.6095542263960505
-0.49330212139627605 -0.57217099157470841 0.31372792510144265
-0.65573572142223568 -0.51574601980304813 0.56163321454892312
-0.018558711344805801 0.25779414726086003 0.74880900037264286
0.30063267217470724 1.0526425680825255 -0.40228422593542845
0.27208100858912232 -0.21912041157681195 0.74048359035207589
-0.1637486386703273 -0.26401593523856093 -0.64211096742795348
0.4382129519495912 0.5268006701224941 -0.16024517860551946
0.30745069668009961 0.95030232077489263 -0.35230064931049121
-0.28634567596735039 -0.63952132758446467 -0.14099291121507918
0.14859810571929444 -0.087385843294656596 0.79160469655958554
0.33850015046060733 1.2176466138250905 -0.42177929301099581
-0.14194117836253284 0.53049641973522199 0.7445201873252012
0.40762262608715361 0.7544418672051485 -0.30036442722854595
0.7034392378546066 -0.63171513761253273 0.50287743214898661
0.057062032749477964 0.35458080544896653 0.77928296541175968
-0.08923810483690886 0.4749228644120036 -0.69359150451815488
-0.38751026765904584 0.057674388956227673 0.77714841172922711
0.46299729858817784 0.036757751077621137 0.56033541108688034
-0.72501683764501479 0.15984890767259863 0.77112002615841568
0.45311295449480582 -0.019884625021301616 0.37591041889781529
-0.24278358191616434 0.60611899675653191 0.7636270087346464
0.27148126631253433 -0.074458437427468382 0.79093207927592335
-0.63495390390516349 -1.0099485890552629 -0.39131672452454858
-0.51534981616379838 -0.21507593248374235 0.7452987004949847
-0.12581809257931198 -0.4080739481790836 0.58668147670752457
0.58853653495259906 -0.42046524485239267 0.72988191537987479
0.16005457347073104 0.40419506520037451 0.70845817354656315
0.30889849405388503 0.17378578808348699 0.45638616430182477
-0.21049166117665763 -0.48108469758956929 0.54694131333139584
-0.083443756528090773 0.26770411888598211 0.75163346164230482
0.67150604230165101 -0.44323849857440756 0.64962758836493872
0.51248250672414386 0.85710554859256582 -0.34773631345814593
0.53688085202310987 0.69123084207305396 -0.29390738171082376
-0.24373426986004176 0.57240461232959561 0.75886619185860393
0.24093243965590361 0.098260523027310143 0.66503571106009396
0.17110229571128954 0.36891827882507044 0.70015561499098222
-0.26635876985646334 -0.36918709826672469 -0.57140450362161488
-0.48080434327440358 -0.6831304453513134 -0.30513703643164902
0.029863261604159419 0.30899008820330742 0.76881800940477873
0.16774256525021869 0.33279119705288096 0.70172649421989064
-0.25436712669860384 0.46408857466659725 0.6620011483665813
0.050288024560614986 -0.22212366572003539 0.71181687354135548
0.05620460014423756 -0.43635326709599198 -0.049921419283744939
0.91387518317807803 -0.22011515784541302 0.57595930008949203
0.34347485154295399 0.2688474265504226 0.26152272100100937
-0.16466716722821317 0.13585384326184702 0.76424655929306162
0.71177787063022535 -0.59866006847667741 0.62331166567466934
0.20425972364382616 0.81067264617174217 -0.12837728869055809
-0.32549361959452483 -0.30888261274715134 0.71517981009679321
0.56198142320048916 -0.48183739163659922 0.71768203575641554
0.653507459996721 -0.39320758779882148 0.7015962271274736
-0.37485715061739455 0.14239802345305463 0.8038534468927967
0.27814993103026353 0.79336722726297104 -0.27904945699771488
-0.32180600694029948 -0.61490546975119642 0.079595997215534453
-0.73929921182183378 -0.7294544974099697 -0.37413994506982817
-0.085240822143909156 0.25401726173990191 0.76809662632251197
-0.49706242488232988 -0.20430845198782954 0.77452562383450285
-0.43918661070951259 0.098291350677015998 0.79045254347524274
-0.12369362584870203 0.65014839553833959 0.72152617783652317
-0.59131099207591831 -0.63426578708290648 -0.26767514984962659
0.43412582110465436 -0.028874040638221743 0.33290250015461709
-0.24162221874047773 0.5091499019055874 0.65362336351502659
0.28155880476423079 -0.039886962316654007 0.78296249583891875
-0.0149482671056127 0.39152729783575424 0.81117949097007536
0.085194075174104711 0.45952987478286289 0.75690372333828204
-0.57729025618936802 -0.26174453621694838 0.7060870319504593
0.69748861214813473 -0.46932988288763866 0.66802895576664056
0.30941506847587164 0.069439105041043447 0.52345981717846435
0.31855791858935234 0.23036655175113196 0.40975798011711007
0.18568360718145627 0.97029158239180369 -0.24991479308597775
0.4991595994094844 -0.26954838456034125 0.73558301529762904
-0.098157365676524222 0.61307705851722716 0.72008676393723636
-0.65325768387641148 -0.94479605340171169 -0.44039186516070217
0.64728337663362012 -0.68376749497856082 0.49087778279404848
-0.061854659037553716 0.51185406131048872 0.78692579571353427
-0.34646589379953596 0.3775064358043263 0.81228315160121678
0.01210678736471138 0.72976150699853015 0.66992114348587428
0.012069510651389947 0.84876319197349481 0.46586660603072527
0.35683618702318043 0.14679555291836266 -0.29666505704271984
-0.7589534971398848 -0.6320084115587381 -0.4168910198585607
-0.20534687547652908 -0.1465231628853978 0.75904152784102319
-0.47251072875474875 -0.40088615473530353 0.58131154248939421
0.91194709373268523 -0.33534580219117061 0.50846792028858534
0.26137701703043348 0.92065246842486559 -0.32088525751612451
-0.012207566313193752 0.50637263955685086 0.78323727458847348
0.2374527242188087 1.0061848490981724 -0.33607511597382533
0.014957783165623795 -0.044804126854408821 0.75001792903528486
-0.74395873337167018 0.085044058591007499 0.75866791484080487
-0.70227589445652328 -1.0427738125631603 -0.43731519874946301
0.14759117679632539 0.32040309966254554 0.68595739914883502
-0.021412269955323637 0.95207520411774382 -0.10021246416761365
0.40787963757457746 -0.010948284995871305 0.68582561789076468
-0.15744049949937633 -0.53338400882052817 -0.19345612730989004
-0.2077564760575612 0.45284822347574227 0.76455999300052202
0.112370065948042 -0.12066536824892893 0.80312016203680248
-0.49481223438436928 -0.098743520637365023 0.78496969081137191
0.35752019546639247 0.38503716871088756 -0.23420587948589322
-0.38283210535892565 0.23319117260822253 0.63058640548321065
0.14209017526616208 1.0388220229893212 -0.32574395404926371
0.091047731583028479 -0.26435036472845042 -0.52656886989970353
-0.75720534699269137 -0.39124786199088035 0.51701567850618346
-0.28745431696437507 -0.65857617824432246 -0.15101495382635655
0.60519112812820453 -0.58850169236200855 0.67490569439743453
0.1370580247138804 0.91626097136274254 -0.24195547093802539
0.13438596429412897 0.97317005774994669 -0.26462203754397073
-0.017974217790047931 0.94962684438058709 -0.045837122168842726
-0.8239924599573385 -0.75769543189786503 -0.42818224586949505
-0.61214445202956469 -0.079397326518698463 0.6406349943659464
-0.77596296982773438 -0.75009177257910409 -0.39730265706245937
-0.93663573842009029 -0.90978628589994415 -0.42226183603309231
-0.37065117816185378 0.35313281142321884 0.65435735672950912
0.18678369868599631 0.70223900898882174 -0.43479726061228696
0.14349660612721848 0.84254662728904162 0.1154877804131349
0.15307201410058013 -0.018314548219375837 0.77530349189308723
-0.28420831892173837 0.58365048678033382 0.48976144717314085
-0.94018552696696034 -0.11412261224053388 -0.062059777291132434
-0.44450322542542509 -0.063953010067651306 0.80732305770800572
-0.79386674455795259 -0.44493360484216637 -0.23183374942675528
0.34988708769526511 -0.23476565336743782 0.74069221916173955
0.20122677134469313 0.02685675373992602 0.7523056154487362
