# XYZ point cloud file
0.090131713417955339 -0.15553179741797862 0.7945140770740764
-0.38625013964784927 0.67903919261340562 0.70888399435739302
-0.66268579955151097 -0.63201113951427779 -0.2588822129701196
0.24283481047746847 0.9016237723999474 -0.29496069124852653
-0.15846403558474087 0.2821589507607758 0.77267431665547193
-0.34519391158755486 -0.26871531690923156 0.77962131204828111
-0.63928148605144486 -0.18310836443193601 0.59736055139781996
-0.37948403105315265 -0.50714310049535172 0.59359153370957785
0.25383525072464863 0.98782540728709023 -0.35588508540640618
-0.35321381455646361 0.89724528896181255 -0.29875606845268265
-0.40242469233539646 0.60157194378194845 0.79394185306462717
-0.40313614428510558 -0.25466105903628389 0.78961781006184495
0.024230879735889221 0.8867183475070064 0.147564805581748
-0.27800717542635045 -0.14714716419033458 0.78996691513674122
-0.56398416612378011 0.78505017846222103 -0.032095681838598011
0.31286304629857575 -0.37570790704937096 0.70886746614655394
0.29730598218022486 -0.26689438124003217 -0.081317483691666581
-0.5158366211221237 -0.041676509067739786 0.76289130189272214
0.24544439613676161 0.76451840504169688 0.10834547888787682
-0.048947390186788731 0.36373495754059348 0.816022607660571
0.21316521044639636 0.77388975297269624 0.24270689092570663
0.23077860198974953 -0.28323968200859451 0.72324575664480761
-0.53417259560835184 -0.69320645620929966 -0.3284918047021268
0.86396263297964104 -0.43993870697636916 0.53193761699238351
-0.43840704803647523 0.41442639126696079 0.50654918870354493
0.37726240611715944 0.034410518053290318 0.62921473351831736
-0.12124469791130998 -0.49977953311750767 -0.20940606849280741
0.7952085894789942 -0.11449422599336589 0.60679881644979794
-0.26213888023064236 0.40873299293925669 0.77213684282413908
-0.15247813393630993 0.54117138227121409 0.7217571053228653
0.42790859563151962 0.81861765124965125 -0.32044757976774463
0.52981476230884716 0.85108005522442198 -0.30059671096881502
-0.4181417294343639 -0.73641509495350377 -0.30179458148034044
-0.16887025288706603 -0.54353302258092384 0.029578513526645978
0.21816809246033664 -0.19055590608222417 0.77470434542255973
-0.48647099743001165 0.16790453110787595 0.64935871565074166
0.05920546264080162 0.66351797439847893 0.66662922918155232
-0.92343903401729399 -0.20043015722415802 0.0063115382672869202
0.0055481448267684641 0.78345620976680053 0.67858110880034062
-0.24552570760733694 -0.21113700958412274 0.7490532725807455
-0.23129263558373747 0.81683250563664345 -0.48205323080105345
-0.6090221817384549 -0.66313132980813982 -0.31930948614184729
0.0031376597081784752 0.19401133825855155 0.75215094611209921
0.11960686754733807 0.55594775327246992 0.67894695127240112
0.69426980046043063 -0.60485887574214026 0.63833485177573834
-0.78335247207627745 -0.89746026011052571 -0.44020751356845622
0.27631292668138485 0.76565214950743155 -0.25677683071934077
0.90074883633275782 -0.17221616539209705 0.48371401458920182
-0.68179049050460883 -0.71149968170115585 -0.35125481746457687
-0.063899088985913455 0.91657012867876375 -0.36536720613649365
0.12848640684216495 1.0413340719812254 -0.30263487310269532
0.26362384790262894 0.71283885876723296 0.5073153074885326
-0.68242867168181132 0.10365513142367 0.80126062094349138
0.61660222485766347 -0.66473818428645615 0.62217933320234309
-0.91033155579677882 0.028947106296872249 0.15107038833898301
-0.7502802564469242 -0.26805918667400341 0.67046599461780332
-0.36828768055250904 -0.56658558636203082 0.31061250376048122
0.24636802702054617 -0.18376145649983044 0.75759042206376037
0.074239305840429815 0.60452593235064533 0.64104760827053653
0.16738567971414042 0.48140281190258705 0.65548460944781795
-0.55531064398585173 -0.92403245879999574 -0.36452718961854202
0.31753120379048561 0.36375415526993393 0.46555446068102313
0.092385299339929894 -0.17350879269209329 0.76366818404694214
0.08843891456939712 0.46421270367548573 0.74959263079412253
-0.19441468064423262 0.41565198843619378 0.75973402057911343
-0.37197400223365218 0.006891738650809387 0.77626537753757674
0.20592146595043914 0.055340949082715696 0.73986830447666563
-0.62484296062631905 0.24725639653472342 -0.64193632114361066
-0.25839540206178313 -0.11592347314721962 0.76863762877568931
-0.55651441283381109 -0.14241061729853577 0.72263860813615466
-0.37261162432095496 0.2418459778591 0.67944627660747159
0.034822053511421203 0.64971909008734841 0.67485558050267969
0.38366082261323342 -0.1839911392520337 0.74100690752393561
-0.24710770826019512 0.6066647629347095 -0.65099818480741156
0.7533269730431158 -0.33442349575867958 0.67317383648191687
0.87844300193080116 -0.19260688172776419 0.42684138588433918
-0.59888853353644222 -0.27122205822238143 0.61162182308924429
-0.051406696198958102 0.84319195448786388 0.61500696382409004
0.41020074035474074 -0.2225730897569278 0.74072947134878575
0.29385470335834896 0.026219309261939827 0.69909010034927022
0.06953749146191246 0.60146367204982987 0.6655412967047134
0.10251352057140828 -0.15245255438449412 0.80398507509580952
-0.4071086104715631 0.75028005698334965 0.25300840484970877
-0.023822161600127068 0.61825802385229167 0.68368343166581269
-0.33188666524360144 -0.38629077162939218 0.63962207347610445
0.70838979768111976 -0.30864851665113413 0.69878669613059508
-0.70765040103369059 0.17103413505714293 0.78099502985622138
-0.8974613540967793 -0.81426777220457325 -0.42488068130289314
0.13344492459778934 0.919261772169925 -0.31384632056472128
-0.76000320876013383 -0.36748569182203994 0.55794659988693951
0.4194407991172735 0.69069670470065248 -0.27266895319162288
-0.10042784376896652 0.35199715909467777 0.80843607124370109
-0.41553514455044738 -0.38904422255211202 0.63097324804295596
0.92106766772481663 -0.1940239459561246 0.48270014337829537
-0.56862041363791338 0.34731722190667469 -0.66339094181866542
0.23411065494372529 -0.35117414880209452 0.031319016991069759
-0.55477939337370374 -0.12495189369146331 0.7578753705414627
0.15322914112237118 0.47044485237250555 0.70029110199136824
0.37235127310151128 -0.38402444596987628 0.33148687636653662
0.29643281807259214 -0.046172294500204103 0.75026720745681885
0.30241646443654524 0.80250896969057095 -0.30741450869277998
-0.42412743907344286 -0.47215807238477758 0.62704419248323973
0.28981991728995027 0.37295221834746606 -0.4138181919825481
0.27838928582231404 -0.15033343914464226 0.75742105950854111
-0.4114533362129027 -0.20136210749155126 0.80752968042712325
-0.2858163774953657 0.2360305535160041 0.80204497857680579
-0.60614260405894882 -0.042700887249205621 0.62055422198620747
0.46146388835171681 0.73329555947826819 -0.22686746231281596
0.44508589952727107 -0.16484363154595805 0.73689079949837577
-0.29333985388831429 -0.18284676931890509 -0.68293837464881868
-0.79728052343220135 0.019502149806879032 -0.51214810914170172
0.31312545010864312 0.096744083280528415 0.47895652647034126
-0.67483411800262694 -0.65717181881267628 -0.30438467604337305
-0.17891338264625345 0.56365656987191493 0.68042992179647044
-0.18738766327858469 0.38379353642178415 0.75776371494603723
-0.031651505611053565 -0.34806440898591973 0.56823566035085094
-0.84044780316110668 -0.82489334344640852 -0.51006006675284787
0.693676168377376 -0.29973816468046 0.72360347428343275
-0.52786229809582252 -0.36364270070112426 0.67999094543015559
-0.75092919596670393 -0.31847532525155131 0.30668325698677279
-0.25008599658561881 -0.27527254267008416 0.7381224359265417
-0.21586916196851291 0.33535945943354939 0.71744441354065103
0.67964926425323569 -0.47551018047120008 0.65948606240179863
0.098735505762816089 -0.19397773760906212 0.75088206011203695
-0.5646486524556722 -0.015139610147160809 0.75778940181209009
-0.40997270622735904 0.238122407360148 -0.75202594600585115
0.41677424533863316 0.55101939278685563 -0.1340128836989507
0.1668419778499608 -0.0024140383321924475 0.75331226237398141
0.71141692214960273 -0.63660510256060521 0.5283322767079337
0.31544877822916551 0.70955583289379476 -0.26857185608657019
0.60545637417441789 -0.33538262098806904 0.73139197834380276
0.16191333135968833 0.43873069164290612 0.70242726743900974
0.25494497261338855 1.2314100771938854 -0.49077980403871457
-0.9193857235265428 -0.99480167430043664 -0.48453933271153815
-0.026038067451792379 0.24800350192504439 0.76432694142879498
-0.748518240752166 -0.020840691382309373 0.37142433396252272
-0.41355678108203175 0.025148736946711381 0.77663759644425312
0.033598133207686232 0.60517723820229108 0.66673658713771999
0.32704752397898762 0.47895217711953997 0.5032771105050422
0.59135431370841474 -0.39364443183278031 0.73152249446098416
0.44341603940196528 -0.27156801433812028 0.30060828598881884
-0.34523263301839657 0.13878223150748425 0.80236194119048676
-0.80884965618243765 -0.95369772141790143 -0.42385111419378774
-0.3933823493156634 0.20859834749028572 0.70866496092629205
-0.49901805367932717 -0.29332495126960367 -0.60308194786404457
0.67417006132148671 -0.348700300888801 0.72380102077884167
0.21496456714285195 -0.08346379795046488 0.81286776500947866
0.64555571404999235 -0.090692865867211481 0.40670531711124802
-0.85130376773834504 0.3236155694648204 0.14293136060468825
-0.77307312761026381 0.076628512820759553 0.70999020637569998
0.27407645279412129 1.035057452095419 -0.38984346877394849
0.45475703771322884 -0.18523505604675439 0.28935852339441404
0.51001900237467268 -0.42803087149182861 0.3506969036050176
-0.36682700168512161 0.02881604346325517 0.77569762244678842
-0.71380706350158274 -0.53871060728134346 0.036629550474032158
0.2424796862760914 -0.38461357856425682 0.3334472688802208
0.81916950267980049 -0.50271738249713049 0.58643748878324509
0.32813970242398049 0.42249227634434128 0.51142760244958652
0.17160132626642088 1.1496500568243953 -0.3440271927321028
-0.60026956500489081 -0.179214880642796 0.72591403763195572
0.091311249740572364 -0.30087843779801915 0.57523298321676819
-0.58835127095668849 -0.18114655059464013 0.73047619702329314
0.28217124863683907 0.11442089750413054 0.53039995099255677
0.12557555901225292 -0.24336423644401606 0.72103413056728982
-0.25249935888041186 -0.57932507937430877 -0.30505631936085642
-0.20060463685037266 -0.086600283307026515 0.75825607246941829
-0.59081352061956949 -0.78777428618626644 -0.35657438588385837
0.54006315673834315 1.1104187230170588 -0.49615128668014563
0.15803994348949324 -0.0097131229166169675 0.76718217000695432
0.36660243847860041 1.2046911766883746 -0.42680312058828207
-0.44325832010701127 -0.78810596222138685 -0.28629675242027375
0.41235846835859125 0.82875175586034366 -0.32440929389702333
-0.064195069950113925 0.33047068541218039 0.80780501677642036
-0.033903429119154005 0.55296108172194991 0.74740805564503887
0.5631689382562417 0.75964810561835527 -0.27777247215109391
0.42895129307870583 0.64655237963268419 -0.16724912026662153
0.43577230172863324 -0.62091888498628567 0.55527440898019975
0.85448581505725407 -0.36659326268559456 0.6438313332393335
0.29127092329528903 0.74844503678087904 -0.28082076002744039
0.47018821884256035 -0.40144262960367882 0.34381206009371112
-0.2246730524923426 0.50544251654101835 0.75305489020482597
0.31736186258800014 0.80528881836794319 -0.31146074161701165
0.2699029114223146 1.0124443722920695 -0.37578521952795896
0.0026776225212525873 0.65824844707566399 0.59251091553079149
-0.3916493806141581 -0.16780759629792996 0.81974846161686443
-0.53595728449283442 -0.043588506698803542 0.76085633039888023
-0.5308259659493908 -0.57420173919769724 0.4714027596752679
0.12649761266424697 -0.18374580828908549 0.80712665889782542
0.5466739896271342 1.0513321867753156 -0.484685375077202
0.16173737792940823 -0.14486591452219955 0.81550455634508978
-0.23412202385790337 -0.11526240484002948 0.76565123088192166
-0.87572434116373721 -0.86351318117893072 -0.52104375834952421
0.87965849927659789 -0.36506121052166574 0.46332703139811393
0.39019336428031082 0.72250625328966223 -0.27921713251936531
0.65026062977717913 -0.36320522518924303 0.72932563914861426
-0.47581254552544561 -0.18597376122904308 0.79465957015370492
0.071801499389466006 0.7334191035237847 0.64580380009688199
-0.61144419447737608 -0.65439150347061137 -0.30962951516750969
0.075091628916787556 0.48385010642908277 0.7560145641753131
0.71367266447172995 -0.39478084592152118 0.64655072125914614
-0.13272038235100769 0.54427509499232229 0.74150051011745433
-0.2450006415792525 0.31991377976412672 0.67629163514513735
0.62481114275857941 -0.24829061809225816 0.72656518933020564
-0.73793882310568026 -0.57386061629168417 -0.2263769663970745
0.75646403751087909 -0.31126062260531473 0.70783561781472315
0.35218309938901804 1.041568471387837 -0.39271410713269184
-0.24452749026534093 -0.18262912995707481 0.75000625933937215
0.071966367677026355 0.39854328073113088 0.78511010104979917
0.14439047871432731 -0.05892263506755846 0.76269166349346307
0.23777167062445237 -0.15045934095344649 0.79280021250218979
0.36728273035303705 1.1152792629652311 -0.43935443994552159
0.93816953798561542 -0.26980119910636446 0.49279678609747535
0.10710061981048469 -0.30475854703871441 0.60492180721531597
-0.42142512561573731 0.57695553950254563 0.62530201615123815
0.48499802096205968 0.80518300523267783 -0.31301429473513132
0.13618177055966729 0.82498730306864587 0.34607495667275145
-0.32891131482009284 0.67688473694040852 0.75178942129990745
0.71903014842584589 -0.52142326836712405 0.68084789485308761
0.72093890563723839 -0.37951032765413917 0.64661947369408423
-0.61915688192031082 -0.023560861119134913 0.76487718884133926
0.30088404857366235 0.97617402725838076 -0.36304015800899592
-0.17880511103915353 -0.51905589179881773 -0.27391583894703686
-0.66973838701573651 -0.37886994718643408 -0.48838245473819342
-0.49018164084491644 -0.027885246456214929 0.76584897073825431
0.37348872765540797 0.054492674396001917 0.40421780250837003
-0.24271419433673169 0.67008695436371468 0.5577693000404409
-0.11051396405573222 -0.46489129745507896 -0.30222631208273043
-0.50189282034082616 -0.36496831782074324 0.68326587105154957
-0.23332954705597508 -0.46067693939574639 -0.43358435541414764
0.62580902204326172 -0.45638520791344916 0.67601403746390076
-0.13950033311518428 -0.29882432404938619 0.70281419852585003
0.15888387132028292 0.84232307291967956 0.534445727431617
-0.77489287664182793 -0.92993269304662363 -0.45330855410078641
0.46872290132658634 1.052174131115736 -0.44295645325876976
-0.18920392261827734 0.2451800146113321 0.77174072159850482
0.28338654751216641 0.99359096139812308 -0.36785116072460156
-0.48341892126505748 -0.85405660329091404 -0.42027146191752252
-0.8175504617817444 0.15451084689535577 0.2802203137300765
-0.54014813643903903 -0.60344754321937977 -0.19516201221892437
-0.16663362525372172 0.94198412066160486 0.015313918161272255
-0.24077163244976418 -0.37508246768498843 0.60139259604757811
-0.52404867154363277 -0.23129430134442508 0.72749369979144518
-0.54042902495657064 -0.10632748557385518 0.75536060343222644
0.73353196699712342 -0.31062363787418601 0.69283888192783216
-0.32528225131942001 -0.19069283113686453 0.81485043641466959
0.31864795513309652 -0.27211161321592847 0.023000284101037494
-0.2154354332959485 0.94723103900235373 -0.24308470883979538
-0.75691471336890803 -0.32428031684316494 0.56852858344929658
0.74550944492967552 -0.43567900366089951 0.66046452478144246
0.21952515891277002 1.1065533416222024 -0.35664925368686262
0.3740039889961464 0.56451622675216129 -0.0078786691124825836
-0.40642443558158181 -0.280684704871625 0.76435892856581589
0.18696159408226443 0.89314975005742525 -0.36426616067623208
0.38015388800565297 -0.10510944714557091 0.73485763282445404
-0.5424094247013862 -0.63350195303821266 -0.28706328425973204
0.084419403699991236 -0.15718052275433436 0.77018623801781061
0.2982858017321135 0.23555691768216214 0.47965815942615819
-0.45625480837770116 -0.18156774397293063 0.8019222472186307
-0.47404428003645993 -0.53482587577604157 -0.44528888673375455
-0.24691422595568202 0.41009154817934146 0.77032401196308342
-0.70677353863976489 -0.55175438746346295 -0.084577639609742405
0.34477019672509002 0.15572393062898549 0.34765905748713877
-0.56513334359216572 -0.82134489863027227 -0.36348103391181574
0.36972586844289701 -0.1265354622773609 0.73861067535593961
-0.3351847143857154 0.3301292801595217 0.81326658290996434
-0.56811718148294688 -0.64218105030978201 -0.29903716550103177
0.44064598020781354 1.1876715941427491 -0.42175158919769729
-0.21060964342259947 0.54448245406526219 0.74642574381640969
-0.42147437265688259 0.50260425934220976 0.80666187697413605
-0.74976451960158297 -0.60568752334870091 -0.23816231674271293
-0.31864033287623972 -0.093348454040899753 0.80093980273670695
-0.74388587749787138 -0.71489200460181124 -0.37132137364781137
0.41916040539474864 -0.57770486485865646 0.43739879876254761
0.23782203121938217 1.0087063352148462 -0.35132101224548329
-0.2628250310536302 -0.25094135517929139 0.74993923212337421
0.19268983764676406 0.002785305476436406 0.7981225301589383
-0.27426779291014758 0.58367944153052065 0.54381926078594489
0.083348038929914381 -0.31943166183496707 0.49369858188157423
-0.2273764468570425 0.34377227263633969 0.77463894048439386
0.29930657426976115 1.0168671820409116 -0.45562899932671286
0.87410298357135119 -0.32052413602797092 0.43116101665162176
-0.25016911418715893 0.002253529578952751 0.76409184818735909
-0.22848640330784953 -0.096620252815545982 0.7692825384423152
0.0295267571772313 0.74076592574586542 0.66099457720421384
0.36135300909285206 1.2559879331786945 -0.43008417067164473
-0.83827331192734711 0.14701228101997899 -0.45854593350812323
0.2833247605328264 0.12828918295554459 0.50736612655066438
0.26549339972816011 0.88327099039796408 -0.31244856503152718
-0.30642184735485412 -0.16811569625660283 0.81600771378522907
0.69865468004880604 -0.4423341822779161 0.64473293587673197
0.34356201501569394 -0.06111278258516073 -0.27230472080328028
-0.71794155103877699 -0.1479609360863865 0.74111716761313673
0.1277942018431153 -0.03714355044027684 0.74780244727254797
0.35843670159214014 -0.55708094592124624 0.56210977778373561
0.32646091981335257 0.64938029914499396 0.097063107271853966
-0.11823064092128011 0.32996667800135882 0.77846588915764769
0.41224833372575276 0.80560035570842992 -0.31546619651035002
0.62261486808277411 -0.40778561116869128 0.72851640665131612
-0.85062844317679431 -0.98529642185065214 -0.41424268386767693
0.61036200344415192 -0.69020819740562489 0.59580346577523891
-0.58152896685119071 0.0013954190984328818 0.76285698761552112
-0.50044776171735617 -0.63127736992475469 -0.29951931651790176
-0.65019359937667076 -0.5403516632387273 0.50515027201797835
0.20978118816619329 -0.38982754289981081 0.63454018030115478
0.88192314521513993 -0.3380185965723177 0.62381196001127037
0.48952761753969654 0.61915946140838507 -0.16069559875693606
0.27624226783143158 -0.057695711784063519 0.78888918421863963
0.0065587263676487595 0.48875470139340926 0.78872749237902084
-0.79189755491644931 -0.34803708356883867 -0.41209327948243413
-0.12996534248830649 0.31569368487307159 0.76665356350590841
-0.76602847872897617 0.011820839611825562 0.6428165142719422
0.048340875095345126 -0.30882777872043476 0.49463907249241856
-0.061295873211299146 -0.29239629833289271 0.68024234462859567
-0.19285027815224431 0.20209463183610943 -0.77549654833454795
0.36361947419251983 -0.49214302407179922 0.66159817203840987
0.19093112164449 -0.15266799383221397 0.80925553632554426
-0.452125330041941 -0.21096586272027729 0.79486744596625059
-0.64583988061728981 -0.68433223919570452 -0.33282173903453227
-0.014884696283974819 -0.45627572997228683 -0.14096995181728111
0.051298094879403955 0.47217578364488233 0.78136476996571602
-0.55988537678171024 -0.15149829089208033 0.75275245330043106
0.22601224009786947 0.010217802258463138 0.75502178129048758
0.153577975373417 0.44008427922045001 0.70771359496346165
-0.43207651173193362 -0.64269080630098685 -0.23192606519379311
0.69172305604962858 -0.40025168108963616 0.65330304357675573
-0.70678454169272253 -0.160552898427202 0.47079604141465836
0.14126728716443893 0.57112091771358742 0.67220892733616111
0.28513481300378007 1.2641465716815503 -0.50227091386891054
-0.50315089724169848 -0.60670491275207716 -0.16390402189384545
-0.33962763070680513 -0.63986352699271265 -0.14498013478688598
0.37845003703415259 -0.17292646725521621 0.029626053641749195
-0.478849095477619 -0.37201842665334972 0.68346903429080896
-0.54367830848744081 -0.63748237223641624 -0.2995047679009275
0.24239166798313061 0.47897788424861787 0.63815481002357899
0.5799764423198317 0.94536163390958272 -0.363568937573163
0.77027817560386325 -0.40527708852484423 0.67943570047996538
0.36327056855915529 0.060060387469679455 0.46492386707414823
-0.8439731951269005 -0.69232275941503296 -0.33956899664191731
-0.33702547835750041 0.85556889251479262 0.12391475737850755
-0.14860845201578332 -0.078867978979054953 -0.7240993334242205
-0.7928517736601659 -0.5771227088461135 -0.25757342520490489
-0.67380791840531673 -0.015127769640987054 0.77969612108540431
-0.13443340486151989 0.54780624262900801 0.74576150205840719
-0.13252866570469557 0.59099114467758795 0.73224095786336107
-0.57430167456115466 -0.85545672366213665 -0.38386383515643629
-0.35449337227781719 0.084302196939365359 0.78607252434509434
0.57576894266022904 -0.65538808525392378 0.631238051669051
0.49434094097815517 1.0709105756317427 -0.43527381711692925
0.76374225608191537 -0.39048467820977306 0.6611731293754417
0.27117031173464845 0.76054163298472766 -0.24187230761715028
-0.013414801001119248 0.84202198780049287 0.28875438786906216
-0.57104866243345764 -0.25610124714208737 0.66268209011414569
-0.92664045532006689 -0.68017878708463186 -0.35133791551930216
0.24482297756200211 1.2485127133915306 -0.41040798460440442
0.3708154045701102 1.1730907588542081 -0.4666608663024352
0.54387191032978599 -0.68518657676144068 0.44020525270582667
0.46715926634404958 -0.41776590739111263 0.72392411435999549
-0.43092068314843335 0.19825466618280174 0.61018556244045996
-0.1374932810560221 0.89948521788899072 -0.40561114183790892
-0.69777090214895399 -0.58548539066058858 -0.38638835200724131
0.27342849671250313 -0.34449752924710175 0.1804852152776899
0.78978065325156521 -0.54409954883002776 0.51257953266958012
0.011061274821598133 -0.44511660301185785 0.043289165725264311
0.52374851176463544 0.86037185098769697 -0.42359100047978337
0.75097266779733829 -0.34486731140960547 0.65191639140298108
-0.1423122915418098 -0.38112245598469485 -0.52507183255601397
-0.71599901218841389 -0.56977161765251871 -0.21632683638107331
-0.59682749242797772 -0.28394817346879009 0.69471049258113737
0.0051464068962530085 0.71387297201169986 0.66714131182132874
-0.48932694599846727 0.2959364403564031 0.54177514785194347
-0.4893501276617247 -0.18923115328468754 0.78815867209062418
-0.54957533333123365 -0.10183590397122444 0.75969219997807258
0.57383714899900973 -0.16170235834738023 0.71917923628469893
-0.69952106448983398 0.0022670505215955927 0.78200165732776128
0.22222291774606839 1.2078930383870876 -0.38617607705687718
0.2948101579570217 0.68526467338787889 -0.14750844381793016
0.36266222168285722 0.729575163185741 -0.28071086315310723
0.032928174247450315 0.86381168743438863 0.45097221376583363
-0.47688044170887522 -0.092630479902657825 0.79632283629150891
-0.44955883538656671 -0.8127314542075279 -0.27692001632891383
-0.097128697599802472 0.91080999765035031 -0.38687687636100421
-0.42317498435703804 -0.36551355261502749 0.691516204610096
-0.33465167951757024 -0.10899640099284547 0.81983038697220678
0.089102378642229141 0.86023572182172003 0.15213121023117893
0.026640092594892195 0.27433339614325547 0.75780653558581079
0.75737569121520742 -0.3023589681384351 0.38301623880162694
0.39814279117175033 -0.36330060161377897 0.32236693570558472
0.082700837362622792 -0.15478832037419288 0.75384337195086459
-0.30376574007869905 -0.10955600325426929 0.80076736337317911
0.42058169323363082 1.0842539035114527 -0.43628132914625972
-0.043308500909821745 0.33153880406991298 0.81115196173994164
-0.86086343168150314 -0.80650597191334938 -0.45371279714064272
-0.49107722837353585 -0.63724662774182406 -0.30814751004690777
-0.31768159687397013 -0.63742013799429387 -0.13204979256512139
-0.2563097307758424 -0.27168469961493713 0.73928759551491297
-0.35921598121824694 -0.11497618783453056 0.82184788313479373
0.14784228106168307 -0.033972152887974616 0.77796087881290532
-0.28997967283818582 -0.20822798459942327 0.79635676127238142
-0.12567710519076325 0.35868844127328892 0.78834307066228959
-0.47961314738249872 -0.75039750396958027 -0.32500788388031765
0.52188267353609064 0.9916534200586522 -0.40948165361929156
-0.17435104117469069 0.79154263630454125 0.2709350880740935
0.49669677399029677 1.0679717890138427 -0.45614915299563208
-0.15448865038885451 -0.46763468758887505 0.36412943630838868
-0.40170706489703889 -0.054547041123464979 0.79121598254665315
0.28836005621241334 0.7451544453026191 -0.26897386547605429
0.27189342465964561 1.0866852891863417 -0.41536334583932621
-0.25034511316075836 -0.1044388800363425 0.75443786762957998
-0.74133002125913006 -0.5524398962453887 -0.25378421624710512
0.41930807702521733 0.0084720557567727894 0.66068330862938751
0.70034808664493475 -0.55601982578961451 0.67115464288371207
-0.37059222726875118 0.9045508772727473 -0.22879138075596828
0.29234105816368583 0.91044892041859882 -0.3347074000142829
0.21026629497188498 0.87742356463579796 -0.23817133640761412
-0.084937005741982929 0.33622741502806441 0.80300807249047068
0.32503368345364692 0.36649233981016138 0.51848616987867757
-0.72134888576498746 -0.53552059526769469 -0.27538148345703561
-0.48726899852466232 -0.68703430577670588 -0.31755840186547601
-0.17936652793512486 0.52774635996158281 0.75364117129760544
0.51584016860213566 -0.4158738836653999 0.72811545529693689
0.33789546829692885 0.72814374266953763 -0.28970646953700019
-0.38544616700179279 -0.27830086599476545 0.77341577563143815
-0.65338042150329656 0.13334320610614014 0.6180136989885554
0.35626530037719917 0.03868156372334397 0.63026572588369234
-0.045652640434479252 0.64691655495730593 0.69924449007260137
-0.73996805993428971 -0.38580550575607475 -0.43413679712178954
-0.79527809592412169 -0.44545662059400293 0.11109831223622102
-0.33706661140718874 0.53306446983853917 0.59103595678397269
0.41345083793976301 0.045161879368690094 0.49113256168080355
0.72207337188654641 -0.43808319433446341 0.64540238936454486
0.67426516711429407 -0.48143796949580953 0.696596243011113
-0.56776106687915728 -0.63781035160765853 -0.28659795109112807
0.19700024730076748 -0.30141455652644922 -0.29134150035729967
-0.87843417271584023 -0.79026487994900485 -0.42396639349205856
-0.37470523729012406 -0.83913165743439855 -0.24060768055701764
0.48234383055219077 -0.60858509370097646 0.40851873832628627
0.38733001032926584 0.90178324008338961 -0.35244764479804225
0.38005923490779026 0.1859953691859797 0.068988058363286697
-0.34171453159843868 0.69638438849922579 0.66802327147572171
0.16468340513209689 -0.21037716550957786 0.78186587202163693
0.44305225747257282 1.2482264562740717 -0.51718780964290545
-0.3920849650102296 0.25151591451581012 0.61040639669598917
0.64938701837769131 -0.57122465891352014 0.68014431363708994
0.46994397680465383 1.0934335204735213 -0.4601972925293687
0.39679269743845857 -0.24603284458534525 0.24747659908969233
-0.60867929937454868 -0.17962799287465714 0.6490821752308662
0.35028349396223568 0.41768704025390058 0.20763046490116821
0.77763120824109855 -0.39164708862600373 0.68699807041848793
-0.25295703592723262 0.84970149390930061 0.15760940803358636
0.12467542024424816 -0.27278315523510877 -0.4627178735068842
0.50628460872735381 0.80220125812487986 -0.39304050978705796
-0.30515922964483266 -0.18415575941498652 0.81359231469265225
-0.023910918769084688 0.22563309276615584 0.75964761547110271
0.52469782586777747 -0.54644718452906682 0.69079634132709877
0.29192713480716215 0.19751190474454994 0.50576243088543293
0.41904159652177242 -0.51916474532621315 0.3872141386348531
-0.15140440434111468 0.42017196101776122 -0.73376032758502419
-0.69346063882957609 0.17422560621365868 0.65007130559556714
0.33629442218849359 0.42108004335178606 0.28277768603256703
0.56765397517121219 0.88679654263937557 -0.32556743046685988
-0.47139523330940669 -0.69184283778333899 -0.29981350620879965
0.3930676798676771 0.12323115059681911 0.062210135023493152
-0.2287674310131651 0.091200616338880991 0.7728296032028652
-0.60855816790785155 -0.25543833730705856 0.70190230627308381
-0.74662980763212161 -0.27601090088943003 0.54681886715717809
0.14566717189310907 0.86854786250549765 -0.14508372439328454
0.34380824836366308 -0.0078674528509683483 0.70689591767596482
-0.47439931551474501 -0.026834734203525556 0.76370850988084982
-0.65225844312306869 -0.66013947278528562 -0.31300242547120938
-0.63771260821548381 -0.58307118106694311 -0.10116479135698775
-0.92027031423775041 -0.10966975711478355 -0.32876022359522139
0.49577505140295131 -0.63406888878513401 0.61835203566807984
-0.50325563421264219 -0.1940422406109974 0.77002920904615735
-0.31919943753846702 0.023526274950045334 0.70029262714532337
-0.87626956766196118 0.36454086048624035 -0.035581928902765014
0.26330506597109604 -0.37298981080064664 0.69130234770785748
0.74390944176250784 -0.32235424690415559 0.67693451690085027
-0.74900180234565195 -0.35481928744329316 0.30512940816014478
-0.51058073140635241 -0.30780405213231887 0.68008606389793513
-0.58255034352696811 -0.30310273211732941 0.69178349743449274
0.64566059431372302 -0.47142302086734489 0.66125889869262622
-0.20617809363395434 0.2274305246509698 0.77641641200035139
0.38198818773832421 -0.019780713573201325 -0.15494485703352545
0.0079446785061190184 0.86759717209482368 0.49800860245849776
0.025077893678659535 0.86599279121481842 0.63565738494701662
0.32770640585784072 0.68722851264328355 -0.22883082395262022
0.93820202837445521 -0.2294761923368922 0.54476665961368376
0.26693214317742431 0.9689119085406297 -0.35136147338054613
0.76757685108210971 -0.36251755955248743 0.67708746852122914
0.9142570900805076 -0.26522029445693995 0.44276738061619803
0.40005009252050172 0.54140283616422913 -0.12397864931250524
0.36847368142860404 0.22925462235686567 -0.19532131094067928
-0.55603764793769805 -0.24807251169651501 0.68629649794282344
0.50770570015284289 0.99144261442120474 -0.4326538754712459
-0.60199241923110236 -0.94633672847596806 -0.41137787856537145
0.37981050217868884 0.7142003797447245 -0.34294704430074852
0.23122724582336396 0.031816343908758427 0.73943336889272615
0.23583273833206775 1.1380397759812197 -0.37828229782659406
-0.31765167156168328 0.02558010633666008 0.77280467181226342
0.85920913398887144 -0.42741804264400818 0.59851880798879975
0.22483498562028181 0.012416230375670523 0.7805032235823397
0.081442178846641511 0.8695097068222406 0.60171915819215727
0.20743042847097204 0.49669251156304384 0.65504635126096389
0.39149021079759194 0.64866096539274309 -0.20501728025796417
0.74566143427220588 -0.42209217434330526 0.65093636802974864
-0.765729223732313 -0.49968844871550466 -0.141927968246506
-0.084872256735507356 0.55142349756901687 0.74271317689117922
0.15418318522950081 0.9674087191456735 -0.36203087381575649
0.22343817660250309 -0.37787147852765912 0.32425645275756665
0.26050114598252883 0.9034910580410731 -0.31755400832439307
-0.43556509290538226 0.51608782908429163 0.64304163029963135
-0.75742307411390364 -0.21285378855331416 0.65608514360195613
0.1899581291511887 1.2090733327747607 -0.42268324738617125
0.72066457007332474 -0.50290716333798224 0.68904405553620407
0.43264679667137429 0.59745400003849625 -0.14074215765638343
0.69015313573577686 -0.11278262241511605 0.40429201968765938
0.57746819935653093 -0.31859079764784504 0.73225175607670678
0.57665440162264758 -0.35532677219214559 0.33881637484079974
-0.09018549311450208 0.24410624272802828 0.76799469210657634
-0.39049086458520921 0.82595690055632787 0.15601512378882276
0.28156210566526596 0.49771652146964662 -0.41752952971241264
0.35699418194032173 1.1803182031709127 -0.44828350891498658
-0.59128348632008088 -0.54638298864043655 0.53854716227090549
-0.46870869806386661 -0.57258226104002574 0.44172608381986223
0.29876129874459956 0.7292834380375659 -0.27979237440777993
-0.73126729383359823 -0.43028686030343266 0.28696772830203443
0.0019920251676825984 -0.32825589369384467 0.49909914122223853
0.30149343506483639 0.6057266829814143 0.30906654534362232
-0.65881469823658811 -0.30509548753703619 0.70256868480321089
-0.35252256801886617 -0.54978407431864085 0.45797814106735757
-0.048948615842416832 0.51710338351576191 0.7865445358104175
-0.42813580409954421 0.88070032281305188 -0.21536074432523478
-0.66629845406816224 0.051174112692908835 0.79273874070167594
-0.26019439941616662 0.36448615096901094 0.67238492065934707
-0.59800843115918845 -0.55119922754966133 0.33789850787862363
0.17485113525966423 0.89845288764956521 -0.22015360846972243
-0.73916056169103328 -0.36011313972439574 0.66605666476912972
-0.37559245700898947 -0.0072941758351490193 0.76998198606622381
0.25173902658732494 -0.032247459550255542 0.80770254775177008
-0.15701279060847906 0.73272124691183649 0.39501304191908559
-0.32833989411945996 0.0010207679482405752 0.77514839403823643
0.28263901040175377 0.96701428021849267 -0.42935145231457916
0.22684458616872405 -0.39331854485463502 0.36949877163902656
-0.17023910860848446 -0.25819038308228848 0.6540869246693326
-0.58964319616098493 -0.10927464745518023 0.74309200063559899
-0.34964318144364626 -0.099450761704007462 0.81999374320921703
0.29811113167946779 0.59600315372516377 0.36924204725762522
0.29882529373638356 0.1283541901849361 0.47949100125056887
0.44809938182718057 0.71046700001081042 -0.22039693229665147
0.58392125284487406 -0.20266498395625732 0.35509835221253994
-0.22724896530725669 0.31429400584672251 0.77555989237602319
-0.42215899299749537 -0.62011480187769052 -0.3865823024522097
-0.89436258492987064 0.22933913987601429 0.12789765686449783
-0.54285965225350452 -0.7348192006109926 -0.33466377106797118
-0.56862304689743581 -0.92456931172357493 -0.4021365063974951
0.53584802777391083 -0.32871174174802853 0.33151555940242616
0.15096125261486915 -0.065241674805395888 0.77337656970203739
-0.67912465138450306 -0.30971947429872415 0.70770572874394944
-0.82958488872201741 -0.93406695159634445 -0.44491705619726929
-0.57962643260089131 -0.055594085383473768 0.75150707191173893
-0.67223180762740231 0.14649096401923956 -0.61421967573483727
0.76480701729978939 -0.52901836021271187 0.45510373684588323
0.12205089779956069 0.88041379517356155 0.53187989731115337
0.28994115626305828 -0.061067912844702477 0.76706107566172932
0.077139406886077566 -0.23986674276826214 0.69733713761678473
0.69627806822751737 -0.31267443134098105 0.7176547177692143
0.34223346965639312 0.69438707237802255 -0.23778767161872238
0.10079458351693216 0.28079346420387097 0.73062441023001412
-0.39816403062006867 -0.21741540613706434 0.80498505451504343
0.36309280564793234 0.0040167453261421571 -0.25294238898920618
-0.90571121492389572 -0.16377115471917492 0.074079167737878038
-0.2154899030498143 0.0055009990060668201 0.7584281522493086
0.23443340186165607 0.76183956642385908 0.50565746181162652
0.12708723455078719 0.35594169343474924 0.72965095608102359
0.14273195253015114 0.34633228223533763 0.71814895434417281
0.73451869759097832 -0.50821397656619638 0.67865977183310733
-0.18687960891183586 0.48460167969308543 0.73526018765926793
-0.14244186716930818 0.77688757052576918 0.58319932044066647
-0.17812789315271615 0.34831910004005628 0.76245282875445497
-0.76254140514692903 -0.57992521930253993 -0.23603201449257405
-0.20041392666311708 -0.43219434390746869 -0.45436514934420913
-0.46591898557095579 -0.76827151641291636 -0.31462255032378827
-0.76261334500601841 -0.7254876747462653 -0.3840407880968133
-0.032056905592910745 -0.3567315021786257 0.51860049538761643
0.43740929790651339 0.57137443558206513 -0.13752289301597109
-0.38481290136391344 0.17464891083593237 0.79959882583448305
0.84601783242223405 -0.43778005072367643 0.477287451632737
-0.19067244156878838 0.57353312534368683 0.65686805340714471
-0.23410677647379075 -0.28522434412683495 0.72659240971553274
0.30015929113624962 1.2931148169928939 -0.48763131504228951
0.13082795723182095 0.41452662560682008 0.71279368086853623
-0.1786398497961752 -0.12909213541688658 0.69563995228016395
-0.4627289467304827 0.19929044412361741 0.5927892199593785
0.0094490269656013481 -0.38213671646232683 0.37673674535503565
-0.87809173166988286 -0.24863582820342423 -0.35992622297675325
0.18975591263142455 -0.24105221491386164 0.73387705932725211
0.79414595608950123 -0.31515017184859051 0.69369631060956216
0.33301995505928872 -0.21585633425084794 -0.079623026221602444
-0.4128978040518092 0.41675546924126827 0.79360682545009453
0.069977307577470782 0.90603962133690885 -0.096988517237580396
-0.53455376045831926 -0.44607257892648633 0.64044386294027333
-0.76765900058810033 -0.96867534994601812 -0.42092466442634979
-0.14979102622067586 0.37252776957416955 0.77749462090408628
0.58989356640480572 0.94582212359622098 -0.37797020297474759
0.26894069627409589 0.058487325931588785 0.65548994857153531
-0.5900923037143162 -0.65131910838553253 -0.3094226130751192
0.38468441806298248 1.0506683748671328 -0.4054384246185645
0.40556200527058373 1.174366676147244 -0.43191749741166952
0.024517407505651345 0.68533869569449379 0.66709158447994454
-0.91879042759057583 -0.91318908889670425 -0.41593702253099352
-0.22599438024174123 0.24577889808845121 0.78091232582022485
0.08498670098103922 -0.11076521808740303 0.75060521436156691
-0.017072853260171605 0.92680308861419292 -0.27116537783108186
-0.05688195567824561 0.23616105339532645 0.76493671300967492
-0.089836768616184282 0.80906465593847088 0.65676701611840116
0.28284444067650938 0.71404938622571557 -0.36691817611153255
-0.55447863259543606 -0.36024542784185165 0.67574407443665763
0.22515265892659997 0.012040791364821501 0.77135033168652711
0.1622098476271816 0.81601090681793309 0.20985418863661209
0.039353162933648989 0.41218315685268436 0.79957224830342
-0.30094591345916832 -0.29221066254771877 0.73929361604348287
-0.24022628990741257 -0.21177569491780446 0.75284469196228088
0.26874840293220359 0.58047268663404594 -0.41962838393212643
0.17895799251420641 -0.33134101819922446 0.66430670322301211
-0.31811794306063668 -0.59243136814473019 0.16399457416129337
0.35185948982845794 0.98359330106682741 -0.37361216053955104
-0.39434225706007986 -0.35337095141041708 0.69720498762612948
-0.43330178755169513 -0.70354899426522977 -0.27213444327872693
-0.97375363667528081 -0.71000463285831472 -0.43550961938225718
-0.22808998335027475 0.58522529689053648 0.75364951432415239
0.30070163186098497 0.48889912666683166 0.5780284722990352
0.25041480787741932 0.90205178184739765 -0.3068250665217569
-0.5071450576100105 0.037601926425152143 -0.70274601103375645
0.20182637813866489 0.017505770189941927 0.75183466561814427
0.31757040375557288 0.99927644944168748 -0.37380108018284908
0.091830666992045451 0.49051734310161521 0.73252256185215359
-0.82728949282590669 -0.80430137430182214 -0.43909314923635456
-0.75313052736643016 -0.40089865662685753 0.63134723512679969
0.54607781619661466 -0.17768652033595433 0.34820953960553069
0.52570507596037075 1.0456403255354694 -0.39520122062270246
0.10758761868992472 0.66542440780126455 0.6494310193067605
-0.11709974020125102 0.22722124534640287 0.76419772323710333
0.12711226940562526 -0.0084843277344095469 0.74942496379502543
-0.6202086496873731 -0.77704063231985288 -0.35976070613878086
-0.85600942873667973 0.063103894593673715 -0.44984660039676783
-0.11140354043111023 0.50665847152943044 0.78147105860194088
0.26054903898771897 1.0587855089228384 -0.39709247397839142
0.71429736143390343 -0.62766703843139782 0.5792086357817432
0.24356807731990582 1.0329031835163498 -0.36900253767661084
-0.28037258016319555 -0.056876210384896098 0.75568904555359495
-0.81630332482946333 -0.71906049151405149 -0.3828948919409001
-0.053645248587042005 -0.4774192346936541 -0.045390249118264947
0.45326399111971405 1.1315286977355417 -0.46400806256867
-0.21960908718170113 0.046299946708424855 0.76380443052236302
0.43282994034558442 -0.006320672888465495 0.37032051156743151
0.62445065350348194 -0.70471085121730948 0.48177610727999109
-0.04135491560783322 0.24791374522077803 0.76406743570208135
0.26944392902345804 1.0587567390656538 -0.40307979192662025
0.22241878000279591 1.1493084583721824 -0.36923127860640825
0.68934263531306073 -0.33707856684686544 0.70032792590907533
0.49331134372595464 1.0735383406277368 -0.42595398346858637
0.77526984547089306 -0.41850670127267531 0.6869079422544484
-0.64065067846795554 -1.0377293068971802 -0.44900709816864826
-0.7062608425388035 -0.53032534092570138 -0.32085195873314554
0.694490938250933 -0.34617183779900085 0.67505596456762085
0.38120968109969056 0.83565276831419766 -0.32562449402502125
-0.36119623064895467 -0.021542262813646573 0.75855205518877611
-0.90369442563221813 0.014372649915419089 -0.38518011319697898
-0.18096117969813452 0.50597660315698612 0.75388121198663782
0.26131324657159816 0.73070006566005219 -0.118555400230278
-0.43181446689702074 -0.83478287236759563 -0.24409601408821757
-0.63965050708504467 -0.29981541744498408 0.69557089942454198
0.32270099873993097 0.35826755018069356 0.37075208372268875
0.095805935860653335 0.16365088247726334 -0.68276831109494829
-0.40473933163185194 -0.26641667179879391 0.78275214882170019
-0.21629927847115837 -0.05344496987091496 0.70076435556034511
0.28440625606962122 0.016695636984993101 0.71785797208370994
-0.24897603629677256 -0.51084886995197643 0.5085158601756028
-0.62109305909973589 -0.91239256202527841 -0.42065275283392722
0.09332936363797284 -0.17083346599485871 0.78947504349127939
-0.49401673622812936 -0.02223874161438566 0.76783955317396035
-0.36223733675716208 -0.35910709281633757 0.70304729618505846
0.42630555437506601 1.1533057849917157 -0.46660333414685873
-0.25789928584808131 -0.36917846406803179 0.68150921565857914
0.67513934825092292 -0.48500259123937095 0.70330225566670812
0.76638460706176126 -0.098980082217853926 0.46191935078569379
-0.33441721704327576 0.502087221952495 0.79361317665345865
0.16094164026117497 -0.36193989803386639 0.59774517980607556
-0.43935698863086614 -0.74343748404308485 -0.31401993920421845
-0.290289247178249 0.70473109183796367 0.62700731509535146
-0.20575797133988072 -0.20634986724373228 0.72682022808667313
-0.63081863019587692 0.15954805379140424 0.63389296043839494
0.29001590758280571 -0.34142293844728133 0.22041433690868573
-0.79079673066500522 -0.95635090979976844 -0.46661040499466111
0.66362862037724923 -0.33942137511594606 0.7287825851337093
-0.45462000084436482 0.063262316799864493 0.64766050070150172
-0.3800823353727163 0.62475633796794483 0.7871595613034863
-0.1570424707352025 0.57135040562054407 0.73970647619068686
-0.75468771469274465 -0.4405959985946204 0.593142613353006
0.30885912628222112 1.1315486728662343 -0.44879093258671254
-0.52102135501148261 -0.65634703995468691 -0.32197754852541571
-0.51046336613530396 -0.025216973549973432 0.76646389007890292
-0.47265667401044809 -0.6752509347083766 -0.29122161715340056
0.56416316015218726 -0.26854735802017426 0.3395820223914523
0.26480640121517141 -0.016364330747206779 0.79731248760192486
-0.28605194827167679 -0.010630028672270697 0.77131639532476726
-0.46368002708714684 -0.24788995646588141 0.77063628823638552
-0.31709905994796372 -0.052007735052946202 0.76978610637205946
-0.21432137497935955 -0.36396643556155439 -0.56797924177682013
0.62982472079461793 -0.68586098289079445 0.59419873278743118
0.0056323590650251276 0.90798886143335622 0.10057189266365185
-0.39325586242942734 0.33122555823782918 0.71361461913205204
-0.24297062370396727 -0.31973954471217958 0.70965048905577888
-0.46880200858639931 -0.61771317079502808 0.098627514030409813
-0.29435187442201105 -0.30899457672666664 0.72458749169457803
0.7407640783104128 -0.17013762548201949 0.6801139085899468
0.094211964066857945 0.52391052699395502 -0.59191555194536605
0.21431389488272767 0.83319188555531909 -0.2181604324173616
-0.30756022559599927 -0.62988087980183316 -0.087949924484949094
0.11698664857806218 0.83275860544892844 0.24697186902664114
-0.61130223296507769 0.15111190765971472 0.81185851619861182
0.13377029935372065 -0.20784440857089592 0.77611802388640427
-0.10604068690656376 0.7639064773459765 0.4160265274556707
-0.4069142421825136 -0.2877910364101357 0.75464772028104221
0.80214098872561834 -0.48113726367409848 0.63716783228632679
0.50271733636486005 0.83527378156170151 -0.33290678962966425
-0.1108909078922462 -0.43237331759467423 -0.39244661806296222
-0.24651141601913129 0.9260983313072515 -0.31041211791353618
0.16604488681717733 -0.19330225050257699 0.80227352427372978
0.11497147166003741 0.85307368850971876 0.58069529478637349
-0.27825899986985547 -0.24106852506022314 0.76416759385162791
0.19880898428069393 -0.20020208164112141 0.77641417275946623
0.034267389245417945 -0.43592635152045922 -0.14881447680385484
0.33425509760604744 1.0202883437497583 -0.38240092403826154
-0.68151067461940951 -0.79111445055482221 -0.37611175444261491
0.40079981863819469 0.02969690617717724 0.62916083545326984
-0.44014218178460052 -0.25064987818824491 0.78200412622963
-0.20336827278899783 -0.39358200653986408 0.65193604580816
0.2592857495838885 -0.022479899938975478 0.8032305276766003
-0.11018476982489833 0.37127568749427908 0.8120823387141094
-0.64179032647098011 0.14168151678928176 0.80937362499711796
0.76553898708809776 -0.30592433890787074 0.70537183871296527
0.42235744911527728 1.2690124883487428 -0.46374910991382379
-0.183416474249807 0.88553103152894153 -0.41896653224691249
-0.23598138300938132 0.022216900283966723 0.76339061986195134
-0.39767763715524485 0.30568950778069315 0.59237545915814849
0.59052984019572818 -0.6890808779107096 0.5988649701665878
0.32160954409552378 0.53669342370037043 0.49281795155938823
-0.48275980064236856 0.5752508402351495 0.36781500960150737
-0.19947723929439221 -0.22150587627510276 0.73804650461121213
0.63540764486701029 -0.19381225598918572 0.36672548815442951
0.32082277154475403 1.2435197187381632 -0.51728021124319312
0.76118650216475636 -0.40318789401224997 0.66019380604559075
0.39099093288361431 0.46609006215155624 -0.21382871112586521
-0.88118863255061086 -0.61342159350099479 -0.36272764407960167
-0.46305846361857239 0.51392178852026404 0.76902049508298376
0.46497105900599323 0.58073671952518779 -0.14903030319521982
0.35704114702114431 0.64919271058397321 -0.19341743069495188
0.13828146701514044 1.0065736359095752 -0.25730202084422871
-0.49334959534895972 0.036834565944435127 0.66570957308554668
-0.074312720093881346 0.81403557884282307 0.29748286318941197
0.71008000041031494 -0.15652215510171175 0.38661475038173698
-0.033130033242195545 0.5404470283035927 0.76988278029306656
-0.95809975442098394 -0.039839154991550885 -0.18907669704514873
0.21515593269357858 1.2225938657097863 -0.39190505900395323
-0.49613707054235778 -0.35999008460881221 0.62907688643842619
-0.034542518915017695 0.016254156066898062 0.74208462038342304
-0.19683863535760882 0.49476037930431715 0.75683912908455753
-0.28113133687123693 -0.39945088762836001 0.59311497721253659
-0.23055546257640547 0.65248491883825466 0.52339859945056944
-0.45983215621869089 -0.63904825599060011 -0.26150982782546706
0.3724694943614093 1.1389176396876159 -0.45623642511417728
-0.3332959247517211 -0.34771126223362359 0.71053009569829939
-0.95256712650526154 -0.95914108920958974 -0.49252913508519569
0.15734802280955851 -0.04497854206054086 0.7957679684404475
0.61623607680214221 -0.26208016207936513 0.3528643767064743
0.68331505389123492 -0.2830138835424405 0.72432966932863252
0.090564201479415907 -0.17421085990241636 0.75370079646276622
0.15605761901734461 0.92244429470456879 -0.22108846841606322
0.38290770477967762 0.045315286551485201 0.59528347517230529
0.53863148191830135 -0.70196757249442632 0.50238093598308531
-0.62145965474332976 0.2019835735603408 0.68096511848249008
-0.2155242199095464 0.76419277670427377 0.29897671430392947
