# XYZ point cloud file
0.91441245525254544 -0.23781616879943446 0.4388092818945637
0.3691706617689654 0.79444708037498124 -0.31481468349083563
0.24645618973600492 -0.17001536140450035 -0.39525546243407383
0.75361105679873219 -0.075058049076055511 0.58180986938165269
0.077344530596738181 0.44149596985296036 0.77681408063614299
0.54318889364374101 -0.0047713945842033922 0.62857765840672641
-0.34799446860112582 0.42779340280845801 0.58005817862811782
0.073239245545691389 0.81906504909728639 0.63220537867385573
0.63192198242564146 -0.45952577736444677 0.66359116003080487
0.13303677274475589 -0.22275063489984248 0.7410640614289008
0.27730950660327025 1.0604613394185396 -0.4045548127908507
-0.625945833070638 -0.9811484414025653 -0.37904002589822561
0.30894766887053038 1.1236558357118707 -0.44282749739452676
-0.07720358783303638 -0.37264226813778478 0.59005626802114008
-0.59032503393029323 -0.022671778318207103 0.75889041340928642
-0.58609995893944777 -0.55756151135182197 0.42397308014456669
-0.84180127626457946 -0.4022875989058452 -0.22462353928440315
0.28296870530498452 0.68137261890968048 0.23166946003503242
-0.53644318145277303 -0.78409028042047435 -0.34123323491815327
0.90727684270184739 -0.30980807389443843 0.60086650776160333
-0.41256988687130836 0.067705847504790029 0.78196297887397392
0.11757526875442181 -0.19867415302151681 0.78506124368161778
0.48858758844470884 1.0923409291176807 -0.50126862962264163
0.18445835437737301 0.84441214024925415 -0.18539550588650222
-0.019462620837202849 -0.25210697194273379 0.70022844927298777
-0.55485871723655933 -0.10230600790178457 0.75859676291336342
-0.17569637446696618 0.29534894183199611 0.77360415557535944
-0.18799000825937995 0.70329159869754498 0.4979943629245831
0.3161704587342129 1.0222383097394747 -0.38181059442386989
0.25774622454984097 -0.04269914805788666 0.80529888674908534
-0.19895299033584557 0.53617427554057073 0.74740602589812255
-0.56706474213528857 -0.12366452019787744 0.75195528550261059
-0.43509478138199142 0.022829812565925423 0.77598825112974978
0.3694987226896469 0.77491007951997304 -0.31040258886455518
-0.33204439565981403 -0.29301298396104869 0.74944938379979931
-0.081733634922859011 0.95369132745101837 -0.21523110561532377
-0.51633225295824836 -0.059646060584364946 0.73864041853108731
-0.83128467085589186 -0.69663654162430788 -0.46630730412434929
0.60367596127293766 -0.6810998666169592 0.43453469478289719
-0.46747713006426039 -0.91723072869774569 -0.30573543213623999
-0.17917063098102659 0.72271531158962077 0.73039841022907837
0.19819821463076792 0.80676421694756506 0.12273616650498909
-0.059777695635883532 0.21152356056982136 0.75782275480291617
0.23718491770756245 -0.17877852452553711 0.77401253247236923
-0.58205499906747171 -0.94089347578075966 -0.46873895963020829
-0.38612920428944442 0.45112587065660925 0.81569346017566957
0.15488466556322678 -0.074032630228228591 0.78482328146436231
-0.17692524272214705 0.92118097800657139 -0.35824612320278248
-0.47406340494101684 -0.64925843707922137 -0.29033470458780286
0.32834746227523937 0.71060489671386762 -0.26043421701137959
-0.5268671892141974 0.18527238630175091 0.68007567445015127
-0.94821592076441163 -0.038768731580674398 -0.25701675489578335
-0.087772069623451188 0.33211417144590172 0.79706765070046615
-0.44318112641009577 -0.11992675026789357 0.81539571450483805
-0.86091198331207863 0.37623338434111098 -0.22454233840171867
-0.55558074924972445 -0.57696531853754696 0.25264584603888096
-0.51496870973247688 -0.62623712184395597 -0.27419885005575395
0.72738549735952773 -0.28556478424940579 0.71540973703754851
0.44222184756554661 1.0433094984644882 -0.42793495098861989
-0.006518358160327864 -0.36306304165060777 0.44412462644157458
0.29591017874472314 0.15639548381386703 -0.46048526532279865
0.23153627826332546 0.37768917243908717 0.66265275261606504
-0.75214699045708322 -0.092822541181753593 0.71044461503992551
0.18533432577807041 0.79531494429494387 0.54334647082103515
-0.15017242494965721 0.44744076997587889 0.78003150522024711
0.087159259404938183 -0.1290166863710196 0.78554579389243173
-0.51692716020248142 -0.68540324542908149 -0.32729034327919848
-0.41880600019156944 -0.75090661380232238 -0.28536569325486028
0.57576885879038286 -0.4983652013023594 0.71329966970493963
0.1032394311854361 -0.14519059267943568 0.80497759311881367
-0.039165199237281456 0.4714272279056182 0.80345866184516623
-0.26372614095688007 -0.34349182396551825 0.70017649952539074
-0.18635345001032633 -0.33385558332266108 -0.59363509591510422
0.17300837888176801 0.77731238789074553 0.56980329141133979
-0.014701943699146014 0.92694347205089223 0.049761982081829359
0.36327482881478979 1.2879104966314809 -0.45020167615815687
-0.28695013921194246 -0.17004247372335968 0.80845157906728105
0.58513565571857384 -0.45948853023315639 0.72431419060547775
-0.13830043330223951 0.42656559505405411 0.80462627598347325
0.3318371929465016 0.17023904737774664 0.3860866078643852
0.65438049799368159 -0.4765146175608983 0.66778404635265787
0.30519062424052024 0.25412835080095508 0.51210238972596756
-0.51642232292972245 -0.12554007771660736 0.75978519957126522
-0.41463629389351553 -0.58419870711932109 -0.40818952435553868
-0.082583660654002244 -0.47361049805384514 -0.22122533310936099
-0.1864790230419846 0.64046228015793893 0.74515336781955455
-0.22417691883538815 -0.32470705919974208 0.65972219711161628
0.36683585198543867 0.69969593506258043 -0.24349222949205185
0.43889104925638733 0.74768379346154568 -0.28640531896381916
-0.17030454315431598 0.61354496701017425 0.62092304232006512
-0.2783364161289672 -0.057362372405332707 0.76500158270608409
-0.25224406581653724 0.35838253793016861 0.77610116982040367
0.017333588368110497 0.84984890154704829 0.27025020603982952
-0.41528948931482113 -0.089366131382758951 0.81857289945360989
-0.37197438109970093 -0.10706712230684623 0.82202490089141733
0.62583796272258141 -0.60229496957944439 0.66599802825304444
-0.35159461963107752 -0.0016859283149770476 0.77573420350285716
0.26617408136135445 0.92231713576333973 -0.40386558066023426
0.82252853860076769 -0.32433934161432454 0.67814243856228096
0.15914171821644452 1.0079994126522429 -0.38190094864596702
0.29485613836759406 1.0836523289672968 -0.41810691368885955
-0.2791706074914444 -0.28930204590872055 0.72693897113326145
0.14697814216897598 -0.30282543914677085 0.66398523373726448
0.31414625346268465 -0.035815375225348944 -0.36425327226829474
0.42347587810031762 0.72496503372956411 -0.29356379842006675
0.87125965721640952 -0.14467646725490191 0.56130756696378548
-0.52111186017532951 0.12559823096559164 0.81134654321729016
-0.29312079640570943 -0.17013304252648709 0.81266851732947742
0.12164738540199593 -0.10362527346299277 0.79642141039508374
-0.89776865584185117 -0.6543184647354483 -0.32532332011854237
0.2972234379288281 0.74463441804439512 -0.35917057637154848
-0.59144808544355776 -0.59707861327170164 -0.057872967262051489
0.27109376300735732 0.71818664656254683 0.47894644750098792
0.15523896170227403 -0.060641564258647307 0.79150286798475022
-0.010220739901283693 0.56346870940320137 0.73082125683170673
-0.58546757954754192 -0.28284173578650496 0.69882192481635386
0.64086061620441015 -0.63568531656178218 0.64102281635075009
-0.57014279750333685 0.0146916899670817 0.76667018031502465
-0.42352938672723539 -0.87796951841086557 -0.26927136552837538
0.20429751353169934 -0.42774698005141687 0.52548782949897799
-0.37701427198400417 -0.46484283166178386 0.63053408627660446
0.23047079260210879 1.0645479081577101 -0.36211706318880132
-0.4473738343647593 0.50566824117707121 0.7917205175426929
-0.47633483801570797 -0.73264601171961452 -0.32431315111933401
-0.25582853542334227 -0.078273285065481701 0.76373266682212915
-0.024524404492556329 0.32500825726936888 0.80703840966070928
-0.38471556193609224 -0.12248250841035713 0.82250320252276765
-0.51865561015124761 -0.62970738492489264 -0.28856995017943277
0.043391040925730096 0.30029971075408213 0.74371573199078611
-0.34718742002831959 -0.26136274513400259 0.79050864556270994
0.32446762242874705 0.76475696621839262 -0.30687241643011731
0.26948713715465367 0.65917720718309347 0.54343096816296921
-0.86658489462251431 -0.71769816628679983 -0.36120944564196122
-0.28015406623048023 -0.17062773255266528 0.79598119497752151
-0.10254736376056961 -0.088414654110000157 0.75522116959646013
0.082943127148428886 0.62401326080044939 0.67006917947523092
0.68476384304980087 -0.36655034039699697 0.67483185012140012
0.48719446760392948 0.95756441397655223 -0.41266877887750297
0.51068135972373518 1.0394329561996507 -0.41609090410376837
-0.79870473034285183 0.019780842381640795 0.31477922268235403
-0.68756816918337549 -0.44449176030317705 0.63749639929304891
-0.27633659490860651 -0.07361804125455329 0.75188521187384438
-0.3359212350525187 -0.015847982249848513 0.77300427192754384
-0.14174185968367325 0.40313301223557829 0.79497761740582362
0.25012326212388558 0.73375007208124821 0.23150089713002231
-0.42640386513873807 -0.14879310489302888 0.81628166327167051
-0.058304647527473108 0.26058311080181618 0.75527395830366828
0.2545740936369274 1.0121002309189677 -0.37057418735316361
0.2690329729870804 -0.25935112236515767 -0.19279701747961653
0.12602007237475554 0.46633906858963847 0.69613444510942557
-0.54950068413634945 -0.081235778314981744 0.7589143001714973
0.78309840033965727 -0.23133713481044804 0.38602027292457386
-0.43075062377913653 -0.73457046663385483 -0.31395443469449447
-0.20932119019431816 0.57025077945838376 0.74425204438209391
0.070814119884746063 0.64499875143353336 0.66923780144897549
-0.61965321629242354 0.21398340084383882 0.73983471310485172
-0.16968599969881382 0.26860804171673536 0.71887019376798378
-0.36606787835336263 -0.33608912465103646 0.69738700383626195
0.38704470587757456 -0.24172508982360252 0.21847216584291829
-0.51583196823501787 -0.32256207368983869 0.67830405278363415
-0.50631181897695576 -0.25982707103664993 0.72372903659171683
-0.40250940492557241 0.0066695356699728592 0.73607789374299415
-0.41522070057707161 0.86989001390809406 -0.29106882421522684
0.73669161138450434 -0.34641522288857107 0.64548801073240547
0.082211712767678691 0.39322890379838071 0.76385997815889795
0.45577750082611246 0.79648009512545848 -0.30844311212578113
0.61534344858725376 -0.45508465454880564 0.71907113227157993
0.12141366276868304 1.0059933565208539 -0.28392564173638135
0.22709198499542893 0.8349017103016152 -0.23427215542129431
-0.2288602993572102 -0.25050043244131537 0.74106186192422996
0.23611059068394979 -0.0057497891108067023 0.80538960382108371
0.43231497448243594 0.89913179665184195 -0.36578032004476668
0.4436797796155183 0.59507286878311305 -0.28277920146735269
0.41999440592572412 0.50291656576868604 -0.16459508973745507
-0.57202198712050212 -0.92147132670350018 -0.40962165798287486
0.019994152856494196 0.67396780478179252 0.67247154105314522
-0.1304138907873611 0.24824797811068855 0.76887881649033929
0.41586025377914382 -0.14280837956275949 0.18113842541820091
0.28295322286933455 1.0171438397642643 -0.37904792379832486
-0.41318645698974876 -0.011707183388800502 0.76507374640418391
0.49540863107544197 0.61036984135824923 -0.18034190558160113
-0.12810504777547393 0.75229891155228046 0.71425629125605283
0.22324337116654291 0.0063593061070843504 0.79728887865297082
-0.59023763283488329 -0.3125998090707558 0.6858256153313107
-0.96151757166223462 0.0051280361852867884 -0.022790834648425573
0.38793322160737631 0.09697526192809125 0.20897019234215719
-0.17940793503177588 0.62443851854438215 0.59460849775049596
-0.26479625060138545 0.4307650114872672 0.76916482511828477
0.32559062092047597 0.65817312921832638 -0.17995952400764459
0.68704264084405509 -0.47971559988239143 0.68134620108739341
0.023080756605065034 0.19290942654331644 0.66707948664501515
-0.50544982087483525 -0.034384672384067727 0.76535615483220099
-0.75666797580107392 -0.5936554438429642 -0.2343486327333455
-0.87914465772465533 -0.82901472165359102 -0.44761680903202894
-0.41316021753059395 0.0024376015544351759 0.77382690679251098
-0.75084389119837702 -0.5202955509686582 -0.049980165030575563
0.94190540594293992 -0.24058265924027911 0.48743529559612142
0.69224267449933663 -0.62628629226121824 0.61820838604758599
0.56329225464357968 0.83790563440018673 -0.40094810440952244
-0.80676993782157069 0.46926891760790745 -0.22950091683591722
-0.00026035617354125407 -0.4530989485779866 -0.051243082458581668
0.74774349186614231 -0.33728385439657682 0.656836018062398
0.62450528835423569 -0.42930840046371976 0.70324134831447083
0.68937727575583452 -0.51839683374932255 0.69507836109568899
-0.87809390767581164 -0.62370381891293647 -0.31388641545607143
0.81137107326074798 -0.39903734215513786 0.67242909769844417
-0.91092601296952935 -0.80960981539023891 -0.41442869052169407
-0.31804912841829136 0.33179344329693272 0.81127450397366019
-0.42629144332029867 -0.75195803336154299 -0.29615533854757636
-0.70939791895684934 -0.45230436300792576 0.374689812051475
-0.23851084208182805 0.36389246502765715 0.7742800506165608
-0.35375430943027553 0.33413405924886952 -0.75969017486291257
0.40386903365843096 -0.14525572823370148 0.7383029289432308
0.5397481164328255 -0.43506614426458068 0.72637068742180588
-0.070883364661034065 0.59246132549537478 0.70180426211314995
-0.27194962111448717 0.31635351739088513 0.79028785914495714
0.57479373598471284 -0.23624563692995793 0.34680434015273676
-0.73811841068422801 -0.66821003647413058 -0.31575569035236484
-0.1384583816038969 0.55083444743047849 0.74929221617216868
0.50362463621511822 0.76877053848879839 -0.2318753787712744
-0.77300508945923951 -0.69451256655481775 -0.35949943354108527
-0.34979149622405359 0.10755048402996614 0.79487676829734255
-0.097284773096339094 0.35593993629017717 0.81313167270947062
0.095406260684530508 0.33745787870679855 0.7378493235205319
0.32830443268952081 0.55472200836247154 -0.36840489088720574
0.35468331709713041 0.061323287859218922 0.5037840047813944
-0.16381763479420108 0.42221600503891921 0.77309188799706519
-0.35720196478568766 -0.63900205095377949 -0.36089033158343753
-0.71982581833190551 -0.97345391535797177 -0.45800706245185907
0.1527540090665731 0.56782148353885553 -0.53032865516096095
0.56257559498944332 -0.71551043994480734 0.50060050188936778
0.39046507165466693 -0.54727424724129214 0.62922813582205706
0.27899308596314043 -0.12441209255332364 0.77386995319301732
-0.28367886398288533 0.45701299570613152 0.77135051854909165
0.15118618176847676 -0.21483580910504152 0.76522610426474458
0.13978880810331518 -0.31905382390476689 0.63161908312834214
-0.85701776011134001 -0.68330214354733165 -0.32808857286799409
0.71644622277456094 -0.54440705529716249 0.66860379490622002
-0.078324873667511952 0.63627761083239065 0.70723265575725947
-0.24747456669670953 -0.62441418621140254 -0.23526171855436218
0.43544549282314193 -0.49499721078270564 0.37261215395097658
-0.64259709311052404 -0.55660863026079355 0.16909542093276642
-0.79582065415356062 -0.95480978734073663 -0.4428455924716026
-0.23099497185295448 -0.064561920481477131 0.76446967422390699
-0.65085561033646933 -0.031789271339013325 0.54349545705528257
0.05630713880387006 -0.29783918922848596 0.52672236182905507
0.44404568845686221 0.73617262881211332 -0.27543403550642509
0.15643847463913474 0.50606900152247114 0.68722375034331051
-0.63123656371573666 -0.53376797357508465 -0.40318500021295733
-0.70551881788252047 -0.41977865863177399 0.65303189123426719
-0.21899649408911337 0.53823344583170041 0.6651508242891282
0.41593837518560051 -0.12388506987147352 0.73443599541572979
-0.32326045867406172 0.009595938910386792 0.77353774912954165
-0.19014628631501118 0.69455828462224822 0.46089252544168247
-0.3649330621757656 -0.34171217265506293 0.70056569980199157
0.17796017373429329 0.56542564052245758 0.65187887666162325
0.64525632825383639 -0.60452250205630476 0.66165417968733919
0.62617477170424607 -0.22831825775718784 0.36008744752448152
-0.88369562916305178 0.17439562766318062 -0.38205629569896438
0.70201476628836446 -0.067276576554387013 0.61851052442108845
0.34766931678103674 -0.40295263622015032 0.34274208909568848
-0.71887503579565148 -0.96252625698271999 -0.45579477441071781
0.46322374856329063 0.72664911148836175 -0.2116009126048457
0.13010624556781458 0.25380865978967027 0.72618845271331978
0.80317456791715358 -0.38522949314362354 0.68267028375439587
-0.49352955257828413 0.29627711168102522 -0.71558669066486047
-0.82550883740839076 -0.9666404160327744 -0.41151670601341195
0.1381746021568766 -0.088245680908922708 0.76503865543592653
0.12600902211336873 -0.30541329441242659 0.63434403557790375
-0.47360976952479739 -0.36626808234865038 0.68358758373878103
-0.60357435746999499 -0.94695528569080789 -0.42135906750353946
-0.23912157063587003 -0.10228913295102604 0.76454865667448146
-0.5845499455513572 -0.45322161996377552 0.63501016602263149
-0.39390274094508193 0.41148671307853668 0.80952251099411043
0.0011108454679114033 0.39064076380325119 0.81246167775601918
-0.060066258666482852 -0.083215400643731563 0.75755337650883092
-0.4508064718971454 -0.054576861029703494 0.77633823753730624
-0.1901872442372845 -0.063574624365704047 0.7535696031238075
-0.65854425220307 -0.39812684570025691 0.66775846514165593
0.18164647817167179 0.0086173966160307813 0.75178365647740009
-0.0004204911839131853 -0.089921767592430868 -0.69287390898963785
0.36074204889388284 0.24400991509433378 0.17432667951688785
0.4078308052232309 -0.13137865850362562 0.12144071603443152
-0.45750550839102111 0.64003268089971499 -0.56438801901321156
0.37769630190682335 -0.23728640453071126 0.17603434249700456
0.52069744172407439 0.95863072377419023 -0.41847352177891217
-0.49334518730133148 -0.70854888146364736 -0.32466571398074962
-0.6202002108528859 0.10799212240995004 0.80646276475082601
0.3006333695013339 -0.1131305548850392 0.75035620392849012
-0.22716529789948581 0.20546725371622188 0.78306688831472471
-0.48617840742163843 -0.33946643154743228 0.67745544180231221
-0.15850869338747842 0.50506917248106653 0.74503025130964673
-0.17865300779461357 -0.031279898170895493 0.75094428900082022
0.49901322989233243 0.84300115903583972 -0.34461259056484117
-0.5269087390767222 -0.56987636849892276 0.40943703564461487
-0.4987560512267617 -0.19604832021036422 0.77671696995212614
-0.76251867832260878 -0.50901968737477965 -0.094477850071179148
0.2096050687048816 -0.32908188234344848 0.69045069268365111
-0.55400300565179528 -0.0026218605784169569 0.76115381812005367
-0.60068758474645989 -0.69413353670733535 -0.33363151234508237
-0.53709718637441028 -0.067901833655314547 0.75959735163170095
-0.7692831997648728 -0.8350623940043036 -0.40803147636638926
0.21661086869579549 -0.14063831159286888 0.80477374164006932
0.69171236128186564 -0.038204585267457958 0.55178841083315788
-0.10118958249911536 0.87354360505958084 0.18848788889076928
0.098719440978847217 -0.25765714808119533 0.68405892868612739
0.89339304255860341 -0.2953333525663675 0.62200362667717357
-0.023135546875337809 0.68721229283595875 0.67733221544479605
0.50701891413689992 -0.18745151234815438 0.32725153395127471
0.28802579763147662 -0.20595345335417736 0.74197804105385146
-0.84637145077959985 -0.91928151662853264 -0.46559086793628701
0.022306545100128972 0.85169729630074364 0.41245989681494066
-0.046437907288654046 0.67482398107318886 0.56919260435295271
-0.2296689751801928 -0.082379040870825371 0.76704923839236372
0.32176028876040874 0.69904909223544287 -0.24441538682312824
0.22276299840665814 0.26245674424089316 0.68325909077989522
0.10299775446270942 -0.18703081829783308 0.78336957494633097
-0.08893151880380934 0.36551783815721173 0.81579217250659042
0.86425281096792261 -0.40166059370666574 0.47129625428137523
0.52516118063492456 0.95788896071134744 -0.41262696289494372
-0.82256651687030313 0.28811495974181511 0.22452115249525662
-0.55164949385721584 -0.28785416870959502 0.69069257277847385
0.85809384847419778 -0.26712748579812473 0.6493076350956315
-0.31570291335030376 0.67896197970045158 0.36350969480685436
-0.46735566808392193 -0.5710101882690255 0.4053016645451244
0.085786745131336772 -0.34426687816945734 0.44086801700919409
0.29644538746182114 0.89192156074796713 -0.32956586056640269
-0.30654427039328702 0.48816946577015763 0.77980114503946041
0.27696162433847427 0.84474941866840503 -0.30669129899336944
-0.81362908643684939 -0.31767922902405843 0.19652350868576463
-0.4124073566221913 -0.45237535652078886 0.63951493334940679
-0.46892105835931019 -0.66279591038928753 -0.28256754565228626
0.37548183988368855 1.0904473692081265 -0.42261572791501223
-0.33374742122890133 -0.47203122856727475 0.62091925715130714
0.82267747605455455 -0.45115057086243127 0.63488335838760968
0.6323781769190262 -0.38569008227019985 0.72984714011440133
0.046903072802916057 0.56053488704071341 0.70982021355653302
0.31536944060760419 0.89613509549835335 -0.33575154096809889
-0.8503419838271693 -0.592610703958659 -0.33982473695174598
0.075019770723340429 -0.17864728534604968 0.75633327591028632
0.76886471642357179 -0.37828705296071163 0.67390500436663103
0.46180688164054473 0.57430344375144848 -0.24211414615600901
0.36825530668184037 1.1951362559979675 -0.4320117002941064
-0.19662922440516972 -0.24832250002272183 0.69900663648153483
-0.69529201737677937 0.040931149407199996 0.59356335914029756
0.76346519864977225 -0.32985417871602518 0.70151363431528146
0.010356963868947133 0.44214399253801595 0.80214469795534882
-0.2226698771008504 -0.10324735506174854 0.73716742271515301
0.7828507915312457 -0.13049559894560936 0.635375092417652
-0.8219021216811484 -0.63685378885038624 -0.27919234822813621
-0.22289753174293025 -0.29348629463857812 0.71732367401135733
0.24797034712925203 0.86207271842310007 -0.27607282595488769
-0.93367636063895887 -0.97324210253086285 -0.50409040252226855
-0.35596278716123742 0.79307994621776423 0.21659885979065407
0.75014899304859384 -0.33622944513695874 0.66313961383836784
0.17021516889941424 0.0020232263325548061 0.76761390618619174
-0.73676732290524605 0.17986486866741203 0.69939213606233608
-0.20585099952420194 -0.29141833597307532 -0.62832451356230479
0.55164828899333784 -0.70382547421364006 0.46762053532998671
-0.40723053729053049 -0.88616188338323099 -0.29820671562469769
-0.043975390610430765 0.25857324873830834 0.75546644753082859
0.26433810366792798 0.14420907426372143 0.6138311113831314
-0.34934741632220678 -0.55205211523973752 0.48514454415688135
0.45970277551680461 0.92448448465326294 -0.38841146794828596
0.41847922812904947 1.1601329390892978 -0.45858324230424152
-0.54395932096921129 -0.65019823655430287 -0.31908856694721877
0.20481036414981979 0.61621422912798707 -0.46713946296696562
0.18942071535319016 0.58292557684601753 0.64058591290834954
0.45112272024619315 -0.038328851298905953 0.33930978060804229
-0.72349688938287215 -0.22570776800978543 0.48661989926523574
-0.075974523763358448 0.22871132509028236 0.76361911390506165
-0.39786419393367467 -0.086471154701028397 0.81950641981914174
-0.11423348398455779 0.46075030270581152 0.80611328398621751
0.22595356091886742 0.94486929326643754 -0.2976622756893228
-0.86801516474401197 -0.83662119948909908 -0.46333936199873271
-0.80345418659862666 -1.0206878013053124 -0.41673480555478548
0.38506337737252139 0.15599346163570171 -0.11903087792168243
0.17724043920239296 0.39781240153084951 -0.57540062378215495
0.15542922508467072 -0.01431284382860909 0.75942022631193851
-0.57296684099303086 -0.037665013215807619 0.75437639068219298
0.66095597751224133 -0.41224840473236579 0.3605131526763401
-0.67810194195393159 -1.0034815126881167 -0.39212933322586885
-0.33902549198510279 -0.021186132994433393 0.76876465157109308
0.29227461165982049 0.086055816768277005 0.50880570126306068
0.3728779762604244 0.72485868358046268 -0.27115650962974769
0.49088657484563569 0.80189130260227515 -0.29083421891892947
-0.42449086802151115 -0.57646613703292093 0.30213986420060124
0.81510518498231832 -0.41848904397955877 0.66110249315901726
0.88745684219165355 -0.2863763191498947 0.42612330193632886
0.34555399158526612 0.6398311234837486 -0.17291040290202098
0.71659345933710838 -0.19189573699302009 0.69707722501279434
-0.44920106021027806 -0.87062056808751453 -0.27032445374165093
0.59653184933938164 -0.66369920998384524 0.6249052152505481
0.029706648540525293 0.26329990875467502 0.76086265678909726
0.76405524300660232 -0.43061696971120877 0.68419643941628117
-0.0054706399963304619 0.63343216854509876 0.67910728115467123
-0.27333982942108115 -0.053467797424575636 0.76948537917381543
-0.088425433485545213 -0.0128323336151972 0.74447948260290886
0.18673497198299316 -0.21312346216743183 0.76112204177205101
-0.098431232984749428 0.5233927885469587 0.76997531531800689
0.41982493495984841 -0.44445663375478706 0.35910848871789902
0.19927003100907115 -0.40344930969059245 0.59848369525751366
0.31069081799648046 0.06797023980993977 0.54422949158180245
0.21745760348034082 0.85699702244962239 -0.23639587761158332
-0.57763536090456391 -0.0074381212386942508 0.62696013773132719
0.58515909062873028 0.82129467702171333 -0.34336718609139538
-0.25642980914843072 0.10707963172464119 0.78148969864392015
-0.12620709450278156 0.20883476629062336 0.76207124447694952
0.14894296400293427 -0.02433909103230647 0.7681932199942807
-0.4503263138594189 -0.37755298234922385 0.68394819677462237
0.48913142379852204 -0.55989851440256544 0.67388654112316004
-0.74942428398707328 -0.15413675690518325 0.69796758631039779
-0.851306103168044 -0.40364252072665607 -0.16469628566516015
0.09046395693011533 0.26176709597821102 0.70000929847508075
-0.48398737463845976 -0.62244436632481559 0.045324462816505928
0.17337170054063478 -0.12003361084519248 -0.54831315997201635
0.53956605980710393 -0.20920984068325854 0.73172320693704762
0.47564022691216223 1.1086951275079819 -0.46010152008306271
0.47609584525894633 0.77025104205981165 -0.26311492382264845
-0.29165927444163664 -0.047610849022225565 0.76599843565349701
-0.41084742516703443 0.087103118710517791 0.79080375342868692
-0.40619891598367985 -0.88911448767361456 -0.32691179676603355
-0.96508473096356084 -0.72044528880249636 -0.46328232013863335
0.25637847908936173 0.54258755505375689 0.61127936538110461
0.64455657398313093 -0.42018943942889564 0.67671531037343868
-0.21568366648886617 0.45300948694080745 0.72347118063937188
0.18209053851041901 -0.40536791812067996 0.52568297146254039
-0.61242722670005634 -0.79474523469641589 -0.36467899926362435
-0.54096327058553229 0.011323552165345419 0.76465142782182127
0.080722683884864921 0.66721496956247073 0.65798243123060018
0.66685316073634127 -0.40956275548473275 0.663511875020113
0.27143992645664028 -0.17318955497092947 0.75038520068738279
0.44178939428355513 1.2083725550815423 -0.4258224784159701
0.028640271227960312 -0.31070580067397557 0.51084378437053957
0.71669953662865638 -0.47340300896742882 0.68406788282920772
-0.58070880368176603 0.17303537796973423 0.65203706844242859
-0.4426378795461865 0.87759149652550406 -0.14061512891629135
-0.041447273799759543 0.2344026461897748 0.76412096800939722
0.63120431416173872 -0.030148895308834689 0.47664840840028511
-0.59663653479026557 -0.046013285246322866 0.75475550523837853
-0.44184431020318549 -0.1615269039388707 0.81056179380454196
0.26100852576637479 0.35024068537399877 -0.48567547974727709
-0.057758486987331992 0.25510493498215148 0.76077012272042666
-0.23540517967326657 -0.3138603988929809 0.68373535096707982
-0.75532787875390284 -0.42139215660964169 0.23751416966172556
0.39722715646675688 0.75353350198899349 -0.30454447417948671
-0.62350782400423199 -1.0038662287531848 -0.3812605535575333
-0.21578454310275319 0.32185680754894896 0.77459345506022714
-0.83935785557279985 -0.42694956530183603 0.0067689317213286415
0.10857027700402355 -0.18152385716800268 0.79946211706213077
0.31802706506917744 -0.068859103760862794 0.73981671871612775
-0.32608727121998626 -0.2307371113436183 0.8037340942937945
0.68736243118503282 -0.5187152239412951 0.40169081304370735
0.1810730289163871 0.37266080717812322 0.69232387657560679
0.28633154232628399 -0.042887209853966546 0.76948240107727983
-0.1389183924201447 0.11522445601422149 0.75648701211079938
-0.27298866908051522 0.49969103055021158 0.7635603448708963
0.37725607177561749 0.72996563774228029 -0.28158028528139312
-0.16929353903103284 0.70442594242776124 0.74016342465450435
0.24656664693891628 0.0060363347545839829 0.74845809672500963
0.74808155709115454 -0.31859213760681904 0.69938242409344653
-0.43087694335487292 0.61532415715203648 0.64039135274265035
-0.51906566658403541 -0.39779945839853426 0.66415536902078287
0.27224816327553469 0.29446249418398729 -0.48810492638732228
0.31697817838946918 0.98190154259292939 -0.36740220398037415
-0.22720592195629585 -0.2738323449054878 0.71306654892018173
-0.37373976162324318 -0.35961832912546754 0.68267368570757725
0.093751289001520632 -0.29015114286301014 0.61007715235484028
0.17031487465947848 0.43938468600625313 0.69476014794275898
0.28683400336879217 0.69789486186039795 0.16290684337702999
0.37540972127576921 0.59515673041721939 -0.12804874161216517
-0.54432925205236593 -0.05269561705733139 -0.67393683119018277
0.67614240090347977 -0.62062402570410935 0.63771060330767959
-0.010663058689932114 0.25065916629932516 0.76473454455395284
-0.73294568834448448 -1.004226570434108 -0.40148417495710831
-0.29071072452726199 -0.15036961565393181 0.81073794713756442
0.71637623377165838 -0.35146001989188935 0.65326045976885183
-0.076260440761341641 0.53010653839855948 0.77823857935180385
-0.40581864161508463 -0.3030921090426224 0.73992838591900423
0.31001339905172642 0.13185427931173166 0.46376265615445078
-0.35278117333393944 -0.55060168701187351 0.51195188483313814
-0.11768184655770675 0.27892869795260822 0.75253922349617497
-0.58093180544644696 0.65198059620179194 0.22417588454455384
-0.50964212577160417 -0.62147115106326201 -0.25824693780248253
-0.091271806102675157 0.32574321501172321 0.78872502680254897
-0.19466258905232614 0.38459829559560532 0.74936952604961959
0.099691612172840394 -0.10676351149886987 0.76028243640368842
0.18893502616461255 0.99495185539430153 -0.27941938571632008
-0.738748083921001 -0.32578396669001641 0.4955314843701295
-0.14363001818047039 0.59907248255434276 0.72769139176513065
0.48247822718388633 1.0332795472494265 -0.48635171486818507
-0.8766780680211248 -0.66473051405703742 -0.44626588932740141
-0.3387929544381052 -0.3322019647107064 0.70768514929581272
0.52592738715517484 1.1294552005530534 -0.42102775397864889
-0.58385472981505515 -0.26672832477995279 0.63641164885203594
0.94567230414205028 -0.24500481974156596 0.51701331959663221
0.34474264435102242 0.62576688296135075 -0.10576991243286038
0.3731113827354875 0.10976158045595419 0.27678953770214321
0.41406287363520278 1.1260820665219882 -0.45530177525868076
-0.30333256448287216 -0.13330689450759881 0.8161106360569832
-0.32324880419512603 -0.26327787718309104 0.77585643575976349
-0.72985700874828652 -0.60674848912537982 -0.39983100236479174
0.024170124185951991 0.70131403872921716 0.66184004451623935
-0.51568582669052354 -0.43276228016232032 0.64772580638597077
-0.062116283876507694 0.21855687902791843 0.71588908652025651
-0.41690424218884026 -0.42076119912400678 0.57511712545671756
0.091090290115600325 0.34079130611020503 0.7344626991610923
-0.82558185035270526 -0.11913878945211387 0.24720634681142073
0.024974174551513073 0.92268785137612142 -0.026085719079855352
0.24572380904740498 -0.37139767238375576 0.28699161125488359
0.20234242677510395 0.81523963470676009 0.48764384472004707
-0.077600661526663117 0.80353874835914496 -0.49467632606932277
0.28361621513422719 0.95371685374962389 -0.34967003445036227
0.52371332061641951 -0.48014746925496343 0.36327641807384836
-0.28407578593159322 -0.19056794037694846 0.79982624630684995
-0.58246609447130915 -0.95474340035176208 -0.36567805652007834
0.17855847834448113 -0.19171397561759562 0.79882853117576857
0.029478830949305035 0.53107929443002533 0.75244399968950049
0.31124993612755247 0.73138069617005996 -0.29420962926267613
0.17315143457911475 0.0043231424802829821 0.78458648035775624
-0.08287852905914761 0.64705701992830633 0.70266037714250018
-0.45044965450853525 0.26440843898731714 0.57559268891262505
-0.98831995272012918 -0.76334468006835721 -0.47946431467556394
0.52353104707811049 0.91301162360923804 -0.36842921707971144
0.0063868866049325845 -0.32394608089030896 0.54481528880787522
-0.037689325438432064 0.12041808194440318 0.74778809550798186
-0.9159392852734598 -0.98002045851890607 -0.43466976452654471
-0.40416765548941669 -0.27926783795906918 0.77073743974953857
0.065061407571535668 0.90124945045353932 -0.19058941267255847
-0.084799704241415697 0.6400522532780677 0.63008274295012967
0.39484325097027195 1.1713712440098192 -0.46746997007790725
0.16020867069655864 1.0018303186041653 -0.25868433070103514
0.14172042070593349 0.83070244704675034 0.38831823533962506
-0.86708223612381374 -0.30230228128942116 -0.34080638116898854
-0.88601792151882997 -0.82288637501878092 -0.43591806928492716
0.67899598565402641 -0.41667716652281328 0.65371237003395066
-0.65667599175980129 0.071732635608169559 0.79865556024417472
0.05162261861916484 0.28656705916410985 0.75516203995512754
-0.26494438208106885 0.91228855109736884 0.01082483933958045
0.34660269953593215 0.026826313342549923 0.6620071442698432
-0.19428467544393868 0.38059689801092311 0.76292979097737756
0.23716354459455147 0.76335248240081732 0.42557887600585786
-0.54015337374736916 -0.65442443031385622 -0.39073738286607629
0.095985770284237049 -0.27487957277743291 0.64836412005552901
0.27585044868160935 0.0084470774703895302 0.73053738329490869
0.46085389292067092 0.017975396199748417 0.6298569890217145
0.74986588414367361 -0.43849124871414347 0.67022092790746157
-0.62358849665233329 -0.58996988691960084 -0.1811391416322401
-0.025001290975088963 0.33145416387408488 0.81119659398896005
-0.15444549566099575 0.21552564888146897 0.67784372652301883
0.67613293470218139 -0.3528884014165401 0.71866513695580281
0.090116904618575688 -0.15646855247974667 0.79473336485312984
-0.38953299303319966 0.67624641280001185 0.70819236981417433
-0.66271052505805983 -0.63272529655209553 -0.25969895952829702
0.24167655920540554 0.90318141766170967 -0.29565607080873946
-0.15939288139213126 0.28113849504879163 0.77287201901928881
-0.34339937450080527 -0.27105105264461216 0.77900848331994865
-0.63868059229823615 -0.18615356567075914 0.59621540631756176
-0.37622503309878041 -0.50846200327159163 0.59125708888382178
0.25186757627042411 0.98954905977377017 -0.35612645099955387
-0.35802418804146718 0.89374228780070908 -0.29936050651574675
-0.40502198397697597 0.59799790294019672 0.79442850485177985
-0.40131687526330673 -0.2574535350737106 0.78917066633221822
0.021000848437530806 0.88792553882104386 0.1453572072582574
-0.27706779112423341 -0.14915262046397881 0.78970601945461283
-0.56906482697507244 0.78202486934324256 -0.034321507784781602
0.31270978940608529 -0.37660576729099837 0.70827215758252748
0.29566443067355763 -0.2671893176893283 -0.082052620546996025
-0.51553187740982587 -0.045010329001248905 0.76269008184921461
0.24466892349848379 0.76684665240066785 0.10682593725298162
-0.050036624979298949 0.36308450242279733 0.81707557785584939
0.21173260435049635 0.77646977762225866 0.24115187530456339
0.2306610950959751 -0.28397976193512431 0.72283709448262456
-0.53476297246456639 -0.69312263577781774 -0.32959189503291775
0.86453536947787768 -0.44027829205042135 0.53205277764761938
-0.44070290917373356 0.41319109630260797 0.50424176850755842
0.37685564380389991 0.034899698377444999 0.62913522042650882
-0.12282080349858759 -0.49920400875427084 -0.21110161923227544
0.7958179539967567 -0.11361056962175908 0.60708610036223831
-0.263623519081019 0.4070172137153456 0.77228870560583118
-0.1544439007143783 0.54057333165074262 0.72152986679698472
0.42818993738037925 0.82202832139692461 -0.32199769454834559
0.53039661105070834 0.85601979769964842 -0.30252553708626095
-0.41824290824552435 -0.73600042493835716 -0.30293406026513203
-0.16818972710333213 -0.54311677257957047 0.027322860314766828
0.21784967179518944 -0.19134447544235123 0.77488128608070284
-0.48752522300375922 0.16575658511883518 0.64818292213473683
0.057053955162464476 0.66481228612146737 0.66650593448529349
-0.92351721485677096 -0.20292295877748856 0.0071002764825163212
0.0027037279535679914 0.78436974116105063 0.67850515591586458
-0.24440308314289183 -0.21269781553393052 0.74827298622924587
-0.23406460662272188 0.81400093669904194 -0.48124034378606062
-0.60955670357500935 -0.6633656752015904 -0.32028339412709705
0.0024192791384169965 0.1937775597063105 0.75232402455527492
0.11799789273688432 0.55737903758752694 0.6790316446668001
0.69397739407344972 -0.60627917922891417 0.63741404975980487
-0.78253923299705974 -0.89886150014426303 -0.44005165184809947
0.27626122310070222 0.76727666215616352 -0.2580085313506757
0.90228543984153831 -0.17101472400933915 0.48403596675670357
-0.68208818028710816 -0.71207323194336425 -0.35188360763688209
-0.067021531023231162 0.91494053062575809 -0.36543852227365825
0.12497897818518666 1.0417701040231773 -0.3027391690294472
0.26203343097226295 0.71598391892097979 0.50673308953682294
-0.68326254793032959 0.098195751587439872 0.80216556170918096
0.61650544634722593 -0.66611619304921854 0.62082691484901353
-0.9114311712612615 0.026188476284607631 0.15150893329034787
-0.74902267125330724 -0.27299689926913473 0.6702062867631291
-0.36558340281295898 -0.56693059982075145 0.3078575293237904
0.24597757386671404 -0.18443826867011559 0.75769738454645008
0.072373984217588117 0.60590534790952333 0.64067687947050445
0.16612134096587639 0.48295128786465469 0.65542111061103014
-0.55349801896417539 -0.92430406610520777 -0.3646900641964308
0.31735733240541819 0.36550946302136644 0.46472075929295187
0.092406346379526383 -0.17429526409662621 0.76356298613024975
0.087060798958711771 0.46494499300987258 0.75023946930366137
-0.19586853841200202 0.41452117816612599 0.7598193758359848
-0.37180934578145397 0.0045091345958674367 0.77608866939954879
0.20530570925993885 0.055374907592457667 0.74018239189432578
-0.62629672501738121 0.24791837112864812 -0.64060998631161858
-0.25771294538606249 -0.11764071693324585 0.76821190017775365
-0.55573687544524475 -0.14573428438456837 0.72204453390726542
-0.37375556298628254 0.24021530229193644 0.6784254058725061
0.032683678504911384 0.65078189763104888 0.67472050874298617
0.38302560125064034 -0.18455833226194684 0.74123400246642035
-0.2486542184288929 0.60555482168081198 -0.65007692936362993
0.75308857175605226 -0.33498498433019819 0.67321474205178511
0.87988490097098548 -0.19168734746507443 0.42728242777146264
-0.59755738846170203 -0.27411326687035853 0.61030387513604012
-0.054868586253547846 0.84386233989197024 0.61409076706265253
0.40954994633780473 -0.22326084867341756 0.74090507500391212
0.29327374008641982 0.026432362936442466 0.69923200143520248
0.067669140768190417 0.60272588227785029 0.66538262819933891
0.10245364015079872 -0.15342552817383304 0.80432564606687151
-0.41152422177550285 0.74890959551949443 0.24957458560518475
-0.025934533919521385 0.6188240124476927 0.68342422151226856
-0.32968637431434544 -0.38759281872278972 0.63769924720395821
0.70795308481734409 -0.30926893093236796 0.69889446655204779
-0.70904954310211643 0.16548205514716585 0.78185342831364579
-0.89690181466838048 -0.81625381120787743 -0.42444946838500464
0.13147845395797297 0.91965597204147187 -0.31428525575148036
-0.75823004892242984 -0.37176992867355629 0.55718437895846407
0.42018558891412638 0.69342315699032042 -0.27444867867708922
-0.10150063620548444 0.35108326083982888 0.80927268955078802
-0.41320067930488058 -0.39077099536425042 0.62909288129445429
0.92269214409801137 -0.19280005291213165 0.48302996338540183
-0.56999101865107527 0.34743320423906177 -0.661750065546439
0.23323578728258454 -0.35134069942720636 0.030240563210753635
-0.55400054589233783 -0.1285932474263376 0.75761135209216235
0.15192235004281329 0.47175648135480941 0.70059037802063173
0.37230114125677716 -0.38432112394225282 0.33051895466612891
0.29580561248235426 -0.046370786251737961 0.75068436615496026
0.30226071850161063 0.80444463768353103 -0.30856749911211168
-0.42101283253491317 -0.47394484008558191 0.62499837836738337
0.28869525447743527 0.37434132810945719 -0.41625670594917707
0.27787860202727899 -0.15090465467394143 0.75765846373535695
-0.40993849320111408 -0.20436612741792448 0.80738854837808915
-0.28656226764544179 0.23396523345784459 0.80243864337012738
-0.6063380540303811 -0.045531180875194366 0.61946912245394614
0.46238327926002754 0.73664007584118174 -0.22860101587533421
0.4443958683318705 -0.1652952892734767 0.7372259525090783
-0.29982002262529761 -0.17951853567574716 -0.6863378529650479
-0.79845586966541227 0.020035321729542588 -0.51085351006853408
0.31299506945573441 0.097415448764956558 0.47811395850538574
-0.67507599983694178 -0.65779847707635408 -0.30511764844764855
-0.18110185720139249 0.56311576602589497 0.6796806207071846
-0.1887190790358364 0.38273026570435675 0.75781285212022453
-0.030697851565449241 -0.34826369602164498 0.5662727007318118
-0.84103064551960571 -0.82577051749646113 -0.51020197055851035
0.6931183059749273 -0.30041803580191306 0.72376898438908555
-0.52548643530443861 -0.36652203576964926 0.67867988506425903
-0.75011460980568145 -0.32107116977906003 0.30558174095558854
-0.24859051259829279 -0.27680196392488909 0.73711336366115177
-0.21712118633081801 0.33440862620101264 0.71694517829136828
0.67920036354959024 -0.47669310191053338 0.65905687749197917
0.098793504697944456 -0.19472389369668619 0.75063310664192429
-0.56459190134569326 -0.018846745103896723 0.75768651230506023
-0.41296507487843037 0.24041195788535497 -0.75278372733218113
0.41784635874297038 0.5530200222137065 -0.13568407493760581
0.16633797451278554 -0.0026716790852372441 0.75357830261497938
0.71149244782643351 -0.63767711703316676 0.52757804804867803
0.31576701599605173 0.71136766226990034 -0.27002773637533117
0.60473011993352088 -0.33637221184621779 0.73143876835114696
0.1606992000900771 0.43998224135893871 0.7027362306874636
0.24921573361275584 1.2330317521554495 -0.48928811099558978
-0.91743548084074078 -0.99755472164470227 -0.48366547201252796
-0.026875243226669454 0.24767162163875689 0.76463525711691105
-0.74933395176781303 -0.023276141232352998 0.37028165839434379
-0.41349758799017522 0.022476892883229738 0.77651225426899728
0.031643576111163085 0.60620207748302413 0.66647598089001292
0.3265788230297062 0.48134379141400707 0.50267575111075402
0.59061987515058689 -0.39485752835525378 0.73137088734273803
0.44327136943418566 -0.27191268934807944 0.30005272594994281
-0.34560387965917982 0.13632926311570337 0.80264384489546003
-0.8070271035842147 -0.95570366102609139 -0.42333287119737051
-0.3943541566404356 0.2066222189348057 0.70793196976681472
-0.50374908291098208 -0.29080802377916193 -0.60546369226472763
0.67353200848979 -0.3496378865423786 0.72382806315539483
0.21444605014587381 -0.084174040305482478 0.81362801674746521
0.64610927732317336 -0.090325549957352536 0.40675503662436974
-0.85383450462657606 0.32097319417189496 0.14271538069305834
-0.77429325486186151 0.071271362436922558 0.71046053943964793
0.27165313407037317 1.0370584479098408 -0.38983916476400893
0.45469600168752322 -0.1854705146552309 0.28884659706348614
0.5099510906059237 -0.42853630242921881 0.35025073867877232
-0.3667722963300033 0.026475053390765169 0.77553857557976258
-0.71238787465954978 -0.54059289508978026 0.035668991917928494
0.24262263578814114 -0.38468922869421718 0.33192116376143055
0.81930836320552203 -0.50354095350091077 0.58619953822782378
0.32776480146283404 0.42461423051582692 0.51084062885544768
0.16677513486547468 1.1505375685089057 -0.3435633017314057
-0.59927135982317559 -0.18299037920887251 0.72543786333770655
0.091704069232118712 -0.30107035461304932 0.57367617622350764
-0.58730810655397114 -0.18485494770180111 0.72999405428592823
0.28189132475395695 0.11513339380559184 0.52965056374359776
0.12569285688476839 -0.24402410331695457 0.720492565504113
-0.25433331022085426 -0.57851792932625035 -0.30665067727261608
-0.20017830735519127 -0.087965535882776003 0.75781037456192735
-0.59069447384309015 -0.78802844793322624 -0.35725226439440227
0.53774552654625474 1.11708625037733 -0.49727240415729845
0.15755288970131431 -0.010069551813551847 0.76754691556926247
0.36221476709728861 1.2084836765389273 -0.42618761095594238
-0.44253475869067316 -0.78786947880226421 -0.28725773587676429
0.41251814964386568 0.83201360936068092 -0.32586199303475993
-0.065202649187432016 0.32975870301638999 0.80867573558513683
-0.035696180066359773 0.55305555921274063 0.74780084296391891
0.56429377469816089 0.76446229499416773 -0.28005155761903922
0.42999410442780928 0.6491164349611136 -0.16891905202279212
0.43617828565197314 -0.62162873228850657 0.55370482053776016
0.85474725933982043 -0.36686789699000499 0.64382121560096017
0.29134354945549923 0.75014461281208966 -0.2821213970804024
0.47010142403960486 -0.40188986439093188 0.34323807318529553
-0.22654428778832525 0.50408869240772702 0.75306174054125208
0.31725375942180989 0.80738527150184325 -0.3126451766898839
0.26773855552896819 1.0143783481811539 -0.37591049479532224
0.00040365825650745535 0.65937727647046174 0.59151107965744032
-0.39033106736180123 -0.17078288369015127 0.81979680122786647
-0.53567240335564748 -0.047073834580148244 0.76067776218731709
-0.52714164021224086 -0.57607691658395233 0.46908477252661385
0.12644170208411154 -0.18477192325012215 0.80746112038028173
0.54511578330184385 1.0578605858233896 -0.48623681336886904
0.16147325156651249 -0.14582003022948609 0.81607074723758188
-0.23348901724619076 -0.11684412514390097 0.76520954025788868
-0.87592599879895339 -0.86475619494246025 -0.52098473343212071
0.88060387374475013 -0.36495954770237304 0.46375214548111998
0.39075288876791525 0.72507183914159334 -0.28084273308978602
0.64956308028342136 -0.36425446161981245 0.72930887734333716
-0.4744268190786407 -0.18933508278316147 0.79449131867991341
0.069340765561369366 0.73499398165171392 0.64558939142457916
-0.6119351444841481 -0.65466384233658381 -0.31061075938124105
0.073647744816636163 0.48451324968479348 0.75672591543301948
0.71335517768998713 -0.39561814798253447 0.64641434841305667
-0.13462775492973122 0.54368697294179924 0.74156300315970469
-0.24628708725509441 0.31905627100455192 0.67531897939118934
0.62417157206320439 -0.24887022476539844 0.72684122205529178
-0.7378422793413506 -0.57498808510765897 -0.22689053930826475
0.7561282483109153 -0.31178680144788906 0.70795000098788563
0.35013199171241816 1.0447143362193589 -0.39297381846296808
-0.24356509840322715 -0.1841778584252296 0.749287942588726
0.070763556573687936 0.39884564971816872 0.78606095161010003
0.14401604745402707 -0.059402636290893263 0.76290294048803275
0.23731472949184607 -0.15122624849671507 0.79325784140942091
0.3642777178995722 1.1187948444562466 -0.43920842472747701
0.93968493517997942 -0.26888608961743365 0.49314448392170895
0.10746988898218746 -0.30504073831445577 0.60352453313183219
-0.42446690216576322 0.57483501025909334 0.62373320462848625
0.48558019397935581 0.8092566194104247 -0.31486631005017429
0.13369108977678579 0.82744098006225464 0.34444412151398041
-0.33183663453547396 0.67426696556140087 0.75170664084296845
0.71856434013917081 -0.52278856322893397 0.68027832813188205
0.72065176599900482 -0.3802770066627259 0.64653003509396179
-0.61913148564231513 -0.027863157720465992 0.76500746589357504
0.29931224823511116 0.97846757901679737 -0.36345494134721612
-0.18081380898548716 -0.51833129504482756 -0.27559866450702408
-0.67249824620392218 -0.37768324872254233 -0.48960902038501253
-0.48992210515099721 -0.03103623944269529 0.76564443945018468
0.37357416441719238 0.055005726417868495 0.4033937021755456
-0.2458087759843135 0.66956656434228279 0.55573580516995946
-0.11322848694972976 -0.46414855703999702 -0.30389247944829023
-0.49949978946370521 -0.36765841423817136 0.68190336908565996
-0.23729585432221967 -0.45938101433625089 -0.43556464705000053
0.62526724846832948 -0.45758701615247244 0.67558821829466709
-0.13826348521707921 -0.29976457471367546 0.70155272753158116
