# XYZ point cloud file
31.40040397644043 11.533370018005371 52.136402130126953
18.459482192993164 14.730381965637207 46.578067779541016
25.774974822998047 13.558581352233887 50.574596405029297
32.747936248779297 1.2367448806762695 54.817722320556641
32.876972198486328 0.89650076627731323 54.817722320556641
34.119827270507812 10.863092422485352 52.136402130126953
35.467288970947266 6.978477954864502 53.375404357910156
34.478260040283203 3.9673910140991211 54.273544311523438
8.8918018341064453 0 43.395668029785156
9.5754156112670898 2.4799935817718506 44.201618194580078
13.985962867736816 9.6808233261108398 46.578067779541016
12.935829162597656 7.679959774017334 46.578067779541016
24.171474456787109 12.950453758239746 50.574596405029297
32.578826904296875 1.5589545965194702 54.817722320556641
16.768074035644531 13.231925964355469 46.578067779541016
15.269618034362793 11.540517807006836 46.578067779541016
28.59959602355957 11.533370018005371 52.136402130126953
34.586261749267578 7.5866055488586426 53.375404357910156
33.638359069824219 8.0841035842895508 53.375404357910156
33.398670196533203 4.923823356628418 54.273544311523438
32.780387878417969 5.2975873947143555 54.273544311523438
17.59113883972168 10.993291854858398 48.7127685546875
32.372112274169922 1.8584311008453369 54.817722320556641
32.130805969238281 2.130807638168335 54.817722320556641
20.582584381103516 13.643481254577637 48.7127685546875
19.006708145141602 12.40886116027832 48.7127685546875
31.597982406616211 8.7199106216430664 53.375404357910156
30.535263061523438 8.8489484786987305 53.375404357910156
30 11.61807918548584 52.136402130126953
32.121562957763672 5.5941009521484375 54.273544311523438
32.637401580810547 8.4637174606323242 53.375404357910156
16.35651969909668 9.417414665222168 48.7127685546875
15.32085132598877 7.7042117118835449 48.7127685546875
33.967391967773438 4.4782586097717285 54.273544311523438
11.321372032165527 1.129848837852478 46.578067779541016
31.431798934936523 5.8090395927429199 54.273544311523438
12.134529113769531 5.567105770111084 46.578067779541016
19.957939147949219 10.042060852050781 50.574596405029297
18.820720672607422 8.7584066390991211 50.574596405029297
31.858430862426758 2.3721120357513428 54.817722320556641
14.499238967895508 5.8786635398864746 48.7127685546875
13.903661727905273 3.9673910140991211 48.7127685546875
22.652965545654297 12.15347957611084 50.574596405029297
21.241594314575195 11.179279327392578 50.574596405029297
24.600809097290039 10.287298202514648 52.136402130126953
31.236745834350586 2.7479345798492432 54.817722320556641
31.558954238891602 2.5788259506225586 54.817722320556641
27.219612121582031 11.280479431152344 52.136402130126953
25.880172729492188 10.863092422485352 52.136402130126953
30 5.9828915596008301 54.273544311523438
13.542806625366211 1.9982651472091675 48.7127685546875
12.886322021484375 0 48.224216461181641
11.593748092651367 3.3730707168579102 46.578067779541016
30.896501541137695 2.8769721984863281 54.817722320556641
29.278842926025391 5.9392695426940918 54.273544311523438
29.464736938476562 8.8489484786987305 53.375404357910156
16.441417694091797 4.2250247001647949 50.574596405029297
26.361640930175781 8.0841035842895508 53.375404357910156
25.413736343383789 7.5866055488586426 53.375404357910156
28.402017593383789 8.7199106216430664 53.375404357910156
28.568201065063477 5.8090395927429199 54.273544311523438
21.303743362426758 7.7042117118835449 52.136402130126953
20.438508987426758 6.5998210906982422 52.136402130126953
23.400178909301758 9.5614919662475586 52.136402130126953
24.532711029052734 6.978477954864502 53.375404357910156
30.721157073974609 5.9392695426940918 54.273544311523438
30.18194580078125 3.0079190731048584 54.817722320556641
30.543184280395508 2.9640569686889648 54.817722320556641
17.846521377563477 7.3470344543457031 50.574596405029297
17.049545288085938 5.8285260200500488 50.574596405029297
27.878437042236328 5.5941009521484375 54.273544311523438
27.362598419189453 8.4637174606323242 53.375404357910156
15.824291229248047 0.85747241973876953 50.574596405029297
15.305368423461914 0 50.225425720214844
23.731412887573242 6.2685880661010742 53.375404357910156
22.295787811279297 8.6962575912475586 52.136402130126953
29.81805419921875 3.0079190731048584 54.817722320556641
27.219612121582031 5.2975873947143555 54.273544311523438
26.601329803466797 4.923823356628418 54.273544311523438
29.456815719604492 2.9640569686889648 54.817722320556641
17.956157684326172 0 51.907665252685547
20.796886444091797 0 53.244411468505859
16.031005859375 2.5599133968353271 50.574596405029297
29.103498458862305 2.8769721984863281 54.817722320556641
19.712701797485352 5.3991909027099609 52.136402130126953
19.136907577514648 4.1198277473449707 52.136402130126953
22.413394927978516 4.5862627029418945 53.375404357910156
23.021522521972656 5.4672880172729492 53.375404357910156
28.763254165649414 2.7479345798492432 54.817722320556641
28.441045761108398 2.5788259506225586 54.817722320556641
18.719520568847656 2.780388355255127 52.136402130126953
18.466629028320312 1.400404691696167 52.136402130126953
28.141569137573242 2.3721120357513428 54.817722320556641
23.782752990722656 0 54.214580535888672
27.869192123413086 2.130807638168335 54.817722320556641
26.032609939575195 4.4782586097717285 54.273544311523438
24.702411651611328 2.780388355255127 54.273544311523438
24.405899047851562 2.1215627193450928 54.273544311523438
21.915897369384766 3.638359546661377 53.375404357910156
27.627887725830078 1.8584311008453369 54.817722320556641
25.52174186706543 3.9673910140991211 54.273544311523438
25.076177597045898 3.3986697196960449 54.273544311523438
24.190959930419922 1.4317996501922607 54.273544311523438
21.536283493041992 2.6374008655548096 53.375404357910156
27.421175003051758 1.5589545965194702 54.817722320556641
26.866668701171875 0 54.802867889404297
21.151052474975586 0.53526276350021362 53.375404357910156
21.280088424682617 1.5979828834533691 53.375404357910156
27.123027801513672 0.89650076627731323 54.817722320556641
27.252065658569336 1.2367448806762695 54.817722320556641
24.06072998046875 0.72115790843963623 54.273544311523438
27.035943984985352 0.54318362474441528 54.817722320556641
26.992080688476562 0.18194559216499329 54.817722320556641
84.807853698730469 4.3318752524198535e-16 51.950904846191406
84.594932556152344 -10 52.817325592041016
84.238792419433594 8.4972794139466751e-16 53.826835632324219
84.898216247558594 -10 51.423149108886719
84.096321105957031 -10 54.154151916503906
82.071067810058594 1.5700924582825668e-15 57.071067810058594
81.548606872558594 -10 57.5574951171875
80.406410217285156 -10 58.41253662109375
80.555702209472656 1.8462334576587044e-15 58.314697265625
76.950904846191406 2.1777807879388772e-15 59.807853698730469
73.576850891113281 -10 59.898216247558594
75 -10 60
75 2.2204460492503131e-15 60
72.18267822265625 -10 59.594928741455078
70.845848083496094 -10 59.096321105957031
69.444297790527344 1.8462334576587044e-15 58.314697265625
69.593589782714844 -10 58.41253662109375
67.928932189941406 1.5700924582825668e-15 57.071067810058594
67.4425048828125 -10 56.548606872558594
68.451393127441406 -10 57.5574951171875
66.685302734375 1.2336137021834795e-15 55.555702209472656
65.101783752441406 -10 51.423149108886719
65 -1.7002260012327423e-30 50
65 -10 50
65.101783752441406 -10 48.576850891113281
65.903678894042969 -10 45.845848083496094
65.761207580566406 -8.4972794139466751e-16 46.173164367675781
67.4425048828125 -10 43.451393127441406
67.928932189941406 -1.5700924582825668e-15 42.928932189941406
66.58746337890625 -10 44.593593597412109
66.685302734375 -1.2336137021834795e-15 44.444297790527344
70.845848083496094 -10 40.903678894042969
69.444297790527344 -1.8462334576587044e-15 41.685302734375
71.173164367675781 -2.0514246480322169e-15 40.761203765869141
72.18267822265625 -10 40.405071258544922
73.576850891113281 -10 40.101783752441406
75 -10 40
75 -2.2204460492503131e-15 40
76.950904846191406 -2.1777807879388772e-15 40.192146301269531
79.154151916503906 -10 40.903678894042969
80.555702209472656 -1.8462334576587044e-15 41.685302734375
78.826835632324219 -2.0514246480322169e-15 40.761203765869141
81.548606872558594 -10 42.4425048828125
82.071067810058594 -1.5700924582825668e-15 42.928932189941406
83.314697265625 -1.2336137021834795e-15 44.444297790527344
83.41253662109375 -10 44.593593597412109
82.5574951171875 -10 43.451393127441406
84.594932556152344 -10 47.182674407958984
84.807853698730469 -4.3318752524198535e-16 48.049095153808594
84.898216247558594 -10 48.576850891113281
99.974929809570312 49 0.77747905254364014
99.773109436035156 0.22688990831375122 0.36572813987731934
99.781829833984375 49 0.37651020288467407
99.6533203125 0.34667849540710449 0.24291941523551941
99.514305114746094 0.48569518327713013 0.14239254593849182
99.433883666992188 49 0.099031135439872742
99.222518920898438 49 0.025072088465094566
99.985282897949219 49.170921325683594 74.985282897949219
100 49 75
100 49 1
99.974929809570312 49.222522735595703 1
99.941574096679688 49.336814880371094 74.941574096679688
99.900970458984375 49.433883666992188 1
99.870147705078125 49.492794036865234 74.870147705078125
99.781829833984375 49.623489379882812 1
99.623489379882812 49.781829833984375 1
99.514305114746094 49.857608795166016 74.514305114746094
99.433883666992188 49.900970458984375 1
99.154960632324219 49.987918853759766 74.154960632324219
1 0.56611627340316772 0.099031135439872742
0.95165908336639404 0.69478750228881836 0.048943482339382172
0.85970920324325562 0.72466385364532471 0.048943482339382172
0.78149199485778809 0.78149199485778809 0.048943482339382172
0.69478750228881836 0.95165908336639404 0.048943482339382172
0.72466385364532471 0.85970920324325562 0.048943482339382172
0.81836438179016113 0.44098299741744995 0.19098301231861115
0.65450847148895264 0.52447175979614258 0.19098301231861115
0.42793861031532288 0.42793861031532288 0.41221475601196289
0.56611627340316772 0.099031135439872742 1
0.70610737800598145 0.095491506159305573 0.69098299741744995
0.77747905254364014 0.025072088465094566 1
0.87344187498092651 0.20094335079193115 0.41221475601196289
0.63271397352218628 0.27916058897972107 0.41221475601196289
0.52447175979614258 0.65450847148895264 0.19098301231861115
0.44098299741744995 0.23057912290096283 0.69098299741744995
0.44098299741744995 0.81836438179016113 0.19098301231861115
0.21816851198673248 0.37651020288467407 1
0.37651020288467407 0.21816851198673248 1
0.099031135439872742 1 0.56611627340316772
0.025072088465094566 0.77747905254364014 1
0.099031135439872742 0.56611627340316772 1
0.095491506159305573 0.70610737800598145 0.69098299741744995
0.23057912290096283 0.44098299741744995 0.69098299741744995
0.20094335079193115 0.87344187498092651 0.41221475601196289
0.27916058897972107 0.63271397352218628 0.41221475601196289
99 1 -2.2204460492503131e-16
88.298065185546875 32.640220642089844 0
87.011962890625 34.931819915771484 0
83.514114379882812 38.835647583007812 0
85.405899047851562 37.011737823486328 0
81.376922607421875 40.364677429199219 0
76.552803039550781 42.414707183837891 0
73.968681335449219 42.892017364501953 0
71.342605590820312 42.987991333007812 0
68.730537414550781 42.700580596923828 0
66.188156127929688 42.035915374755859 0
1 49 0
63.769638061523438 41.008159637451172 0
0.77747905254364014 49 74.974929809570312
0.66318410634994507 0.058429479598999023 74.941574096679688
0.24291941523551941 0.34667849540710449 74.6533203125
0.50720429420471191 0.1298549473285675 74.870147705078125
0.21816851198673248 49 74.623489379882812
0.025072088465094566 49 74.222518920898438
1 49.433883666992188 74.900970458984375
99.773109436035156 49.634273529052734 74.773109436035156
99.6533203125 49.757080078125 74.6533203125
1 49.781829833984375 74.623489379882812
1 49.974929809570312 74.222518920898438
99.306175231933594 49.951972961425781 74.306175231933594
69.593589782714844 -10 41.58746337890625
76.423149108886719 -10 40.101783752441406
77.81732177734375 -10 40.405071258544922
66.58746337890625 -10 55.406406402587891
65.903678894042969 -10 54.154151916503906
65.405067443847656 -10 52.817325592041016
84.096321105957031 -10 45.845848083496094
85 -10 50
68.451393127441406 -10 42.4425048828125
80.406410217285156 -10 41.58746337890625
76.423149108886719 -10 59.898216247558594
65.405067443847656 -10 47.182674407958984
77.81732177734375 -10 59.594928741455078
83.41253662109375 -10 55.406406402587891
79.154151916503906 -10 59.096321105957031
82.5574951171875 -10 56.548606872558594
99 49.974929809570312 0.77747905254364014
99.623489379882812 49 0.21816851198673248
99.305213928222656 49.04833984375 0.048943482339382172
99 49 0
99.275337219238281 49.140289306640625 0.048943482339382172
99 49.222522735595703 0.025072088465094566
99.04833984375 49.305213928222656 0.048943482339382172
99.218505859375 49.218509674072266 0.048943482339382172
99.47552490234375 49.345493316650391 0.19098301231861115
99.559013366699219 49.181636810302734 0.19098301231861115
99 49.623489379882812 0.21816851198673248
99.140289306640625 49.275337219238281 0.048943482339382172
99.572059631347656 49.572059631347656 0.41221475601196289
99.720840454101562 49.367286682128906 0.41221475601196289
99.900970458984375 49 0.56611627340316772
99.799057006835938 49.126556396484375 0.41221475601196289
99.904510498046875 49.293891906738281 0.69098299741744995
99.345489501953125 49.475528717041016 0.19098301231861115
99.769424438476562 49.559017181396484 0.69098299741744995
99 49.781829833984375 0.37651020288467407
99 49.900970458984375 0.56611627340316772
99.181632995605469 49.559017181396484 0.19098301231861115
99.367286682128906 49.720840454101562 0.41221475601196289
99.222518920898438 49.974929809570312 1
99.126556396484375 49.799057006835938 0.41221475601196289
99.293891906738281 49.904506683349609 0.69098299741744995
99.559013366699219 49.769420623779297 0.69098299741744995
99 50 1
99 50 74
-2.2204460492503131e-16 1 1
0.025072088465094566 1 0.77747905254364014
-2.2204460492503131e-16 49 1
0.025072088465094566 49 0.77747905254364014
0.21816851198673248 1 0.37651020288467407
0.37651020288467407 1 0.21816851198673248
0.21816851198673248 49 0.37651020288467407
0.77747905254364014 1 0.025072088465094566
0.56611627340316772 1 0.099031135439872742
0.56611627340316772 49 0.099031135439872742
1 49.222522735595703 0.025072088465094566
1 49.433883666992188 0.099031135439872742
99 49.433883666992188 0.099031135439872742
1 49.781829833984375 0.37651020288467407
79.812965393066406 26.719762802124023 0
79.260604858398438 28.359113693237305 0
80.058486938476562 26.185964584350586 1.1965782642364502
79.954856872558594 26.750997543334961 1.1965782642364502
80.572723388671875 25 2.3236157894134521
80.209243774414062 27.469793319702148 2.3236157894134521
80.372291564941406 26.84288215637207 2.3236157894134521
81.041015625 26.990077972412109 3.3156132698059082
81.158790588378906 26.347894668579102 3.3156132698059082
80.481361389160156 26.248197555541992 2.3236157894134521
82.159675598144531 25 4.1149191856384277
79.780387878417969 28.599592208862305 2.3236157894134521
79.392463684082031 28.42011833190918 1.1965782642364502
79.799934387207031 27.346651077270508 1.1965782642364502
78.79315185546875 29.494308471679688 1.1965782642364502
81.922149658203125 27.184030532836914 4.1149191856384277
82.051406860351562 26.47926139831543 4.1149191856384277
83.226974487304688 25 4.6750812530517578
83.107330322265625 26.634660720825195 4.6750812530517578
78.484413146972656 29.929319381713867 1.1965782642364502
82.750961303710938 28.234481811523438 4.6750812530517578
82.964492797851562 27.413467407226562 4.6750812530517578
81.728912353515625 27.926994323730469 4.1149191856384277
85.602684020996094 25 4.9635443687438965
84.397315979003906 25 4.9635443687438965
81.220672607421875 29.265937805175781 4.1149191856384277
80.401832580566406 28.887100219726562 3.3156132698059082
80.864936828613281 27.667062759399414 3.3156132698059082
78.368743896484375 29.841394424438477 0
77.179092407226562 31.097295761108398 0
84.265205383300781 26.805063247680664 4.9635443687438965
85.457725524902344 26.980566024780273 4.9635443687438965
78.066383361816406 30.435504913330078 1.1965782642364502
79.149627685546875 29.73015022277832 2.3236157894134521
84.107475280761719 27.665056228637695 4.9635443687438965
85.284660339355469 27.924175262451172 4.9635443687438965
78.384719848632812 30.720737457275391 2.3236157894134521
86.615592956542969 27.150970458984375 4.6750812530517578
88.7425537109375 25 3.3156132698059082
78.894691467285156 31.177667617797852 3.3156132698059082
79.369789123535156 30.602367401123047 3.3156132698059082
78.824684143066406 30.18798828125 2.3236157894134521
80.088050842285156 31.148374557495117 4.1149191856384277
80.47314453125 30.605781555175781 4.1149191856384277
79.720687866210938 30.107959747314453 3.3156132698059082
88.564132690429688 27.437734603881836 3.3156132698059082
87.671516418457031 27.306369781494141 4.1149191856384277
84.345458984375 30.711618423461914 4.9635443687438965
85.02593994140625 28.918920516967773 4.9635443687438965
83.871681213378906 28.5716552734375 4.9635443687438965
83.251502990722656 30.205497741699219 4.9635443687438965
77.273147583007812 31.208032608032227 1.1965782642364502
76.243209838867188 31.952764511108398 1.1965782642364502
86.427642822265625 28.175764083862305 4.6750812530517578
82.339332580566406 31.840438842773438 4.9635443687438965
82.189323425292969 29.714084625244141 4.6750812530517578
81.363273620605469 31.194683074951172 4.6750812530517578
89.241561889648438 27.537431716918945 2.3236157894134521
89.427276611328125 25 2.3236157894134521
85.407630920410156 31.203031539916992 4.6750812530517578
86.146659851074219 29.256095886230469 4.6750812530517578
80.937713623046875 31.794275283813477 4.6750812530517578
80.361541748046875 32.491973876953125 4.6750812530517578
87.469985961914062 28.405200958251953 4.1149191856384277
87.168701171875 29.563583374023438 4.1149191856384277
81.869415283203125 32.502536773681641 4.9635443687438965
78.577232360839844 32.743320465087891 4.1149191856384277
79.566642761230469 31.779743194580078 4.1149191856384277
77.993141174316406 32.055675506591797 3.3156132698059082
89.01983642578125 28.746349334716797 2.3236157894134521
88.351119995117188 28.599153518676758 3.3156132698059082
75.747268676757812 32.068096160888672 0
74.140228271484375 32.708400726318359 0
89.664436340332031 27.599666595458984 1.1965782642364502
89.808181762695312 27.620820999145508 0
76.465873718261719 32.317615509033203 2.3236157894134521
76.015533447265625 32.574100494384766 2.3236157894134521
88.032676696777344 29.823514938354492 3.3156132698059082
86.376289367675781 31.651178359985352 4.1149191856384277
77.549858093261719 31.533802032470703 2.3236157894134521
89.236808776855469 30.185783386230469 0
75.815322875976562 32.196460723876953 1.1965782642364502
76.336265563964844 33.179065704345703 3.3156132698059082
74.179092407226562 32.848396301269531 1.1965782642364502
76.822578430175781 32.902091979980469 3.3156132698059082
82.829002380371094 33.23199462890625 4.9635443687438965
84.320671081542969 33.151279449462891 4.6750812530517578
83.3446044921875 32.505523681640625 4.9635443687438965
89.097679138183594 30.143924713134766 1.1965782642364502
89.437278747558594 28.838233947753906 1.1965782642364502
88.688377380371094 30.020784378051758 2.3236157894134521
83.760704040527344 33.940254211425781 4.6750812530517578
75.352828979492188 32.889869689941406 2.3236157894134521
75.185661315917969 32.496486663818359 1.1965782642364502
74.293441772460938 33.260242462158203 2.3236157894134521
77.848587036132812 34.583267211914062 4.6750812530517578
79.2681884765625 33.556774139404297 4.6750812530517578
82.130897521972656 34.077327728271484 4.9635443687438965
81.233177185058594 33.272964477539062 4.9635443687438965
77.292587280273438 33.672229766845703 4.1149191856384277
76.758880615234375 33.9761962890625 4.1149191856384277
75.973495483398438 34.350418090820312 4.1149191856384277
88.204498291015625 32.496997833251953 1.1965782642364502
72.890861511230469 33.096427917480469 1.1965782642364502
83.797431945800781 35.570545196533203 4.1149191856384277
84.610374450683594 34.586154937744141 4.1149191856384277
80.025856018066406 34.448764801025391 4.9635443687438965
78.458259582519531 35.582263946533203 4.9635443687438965
80.806190490722656 35.367450714111328 4.9635443687438965
85.328628540039062 35.132160186767578 3.3156132698059082
85.210792541503906 33.740180969238281 4.1149191856384277
72.44097900390625 33.133346557617188 1.1965782642364502
72.433113098144531 32.988265991210938 0
87.19512939453125 32.030014038085938 3.3156132698059082
85.9632568359375 34.238002777099609 3.3156132698059082
77.8070068359375 35.953178405761719 4.9635443687438965
72.937606811523438 33.521293640136719 2.3236157894134521
74.476631164550781 33.920013427734375 3.3156132698059082
74.718002319335938 34.789356231689453 4.1149191856384277
75.620628356933594 33.520053863525391 3.3156132698059082
72.464118957519531 33.560146331787109 2.3236157894134521
87.816574096679688 32.317523956298828 2.3236157894134521
86.534317016601562 34.615810394287109 2.3236157894134521
86.890785217285156 34.851654052734375 1.1965782642364502
83.002540588378906 34.858318328857422 4.6750812530517578
84.469390869140625 36.172622680664062 3.3156132698059082
77.258811950683594 34.919166564941406 4.6750812530517578
76.390922546386719 35.33270263671875 4.6750812530517578
79.086189270019531 36.611156463623047 4.9635443687438965
71.686904907226562 33.567001342773438 2.3236157894134521
82.254806518554688 37.072895050048828 4.1149191856384277
76.848648071289062 36.409824371337891 4.9635443687438965
73.012496948242188 34.201911926269531 3.3156132698059082
86.214012145996094 35.805210113525391 1.1965782642364502
85.873733520507812 35.546539306640625 2.3236157894134521
84.979354858398438 36.629550933837891 2.3236157894134521
81.563850402832031 36.259437561035156 4.6750812530517578
79.69586181640625 37.610153198242188 4.6750812530517578
78.919807434082031 38.052146911621094 4.6750812530517578
72.501190185546875 34.243869781494141 3.3156132698059082
83.282180786132812 38.282413482666016 2.3236157894134521
78.371612548828125 37.018135070800781 4.9635443687438965
71.7025146484375 33.139858245849609 1.1965782642364502
70.613090515136719 33.459785461425781 2.3236157894134521
73.2279052734375 36.159626007080078 4.6750812530517578
75.003532409667969 35.817752838134766 4.6750812530517578
73.111175537109375 35.098728179931641 4.1149191856384277
75.639106750488281 38.106864929199219 4.9635443687438965
77.320075988769531 37.519176483154297 4.9635443687438965
75.316635131835938 36.9454345703125 4.9635443687438965
82.838897705078125 37.760540008544922 3.3156132698059082
85.297691345214844 36.914783477783203 1.1965782642364502
69.370048522949219 32.709026336669922 1.1965782642364502
70.682235717773438 33.037990570068359 1.1965782642364502
70.705741882324219 32.894611358642578 0
78.195228576660156 39.578582763671875 4.1149191856384277
79.41973876953125 38.9951171875 4.1149191856384277
77.777801513671875 38.596298217773438 4.6750812530517578
80.251861572265625 38.521190643310547 4.1149191856384277
73.355911254882812 37.322944641113281 4.9635443687438965
69.038894653320312 32.431812286376953 0
81.078575134277344 39.875804901123047 2.3236157894134521
80.721870422363281 39.291328430175781 3.3156132698059082
72.550033569335938 35.144775390625 4.1149191856384277
72.607818603515625 36.21051025390625 4.6750812530517578
70.502311706542969 34.135494232177734 3.3156132698059082
71.661895751953125 34.251270294189453 3.3156132698059082
79.842353820800781 39.792247772216797 3.3156132698059082
78.548088073730469 40.408946990966797 3.3156132698059082
81.301239013671875 40.240657806396484 1.1965782642364502
83.558891296386719 38.608180999755859 1.1965782642364502
69.010955810546875 33.761615753173828 3.3156132698059082
70.183677673339844 36.079078674316406 4.6750812530517578
71.5899658203125 36.219486236572266 4.6750812530517578
71.628944396972656 35.152896881103516 4.1149191856384277
80.1630859375 40.397212982177734 2.3236157894134521
75.952201843261719 39.234546661376953 4.6750812530517578
73.487739562988281 38.521080017089844 4.9635443687438965
69.232040405273438 33.113563537597656 2.3236157894134521
68.985115051269531 32.566783905029297 1.1965782642364502
68.275627136230469 32.243949890136719 1.1965782642364502
76.23773193359375 40.262943267822266 4.1149191856384277
67.428970336914062 31.741767883300781 1.1965782642364502
67.510505676269531 31.621511459350586 0
72.736434936523438 38.582733154296875 4.9635443687438965
72.671180725097656 37.379135131835938 4.9635443687438965
72.799797058105469 39.751358032226562 4.6750812530517578
68.719642639160156 34.615520477294922 4.1149191856384277
70.356346130371094 35.025836944580078 4.1149191856384277
78.983062744140625 41.432514190673828 1.1965782642364502
79.039886474609375 41.566230773925781 0
80.363296508789062 40.774848937988281 1.1965782642364502
69.994338989257812 37.234001159667969 4.9635443687438965
71.503204345703125 38.593608856201172 4.9635443687438965
71.547225952148438 37.389045715332031 4.9635443687438965
73.732475280761719 40.745296478271484 4.1149191856384277
68.573463439941406 33.599952697753906 3.3156132698059082
68.239517211914062 34.438102722167969 4.1149191856384277
68.826911926269531 32.963855743408203 2.3236157894134521
71.460456848144531 39.763168334960938 4.6750812530517578
73.615745544433594 39.684402465820312 4.6750812530517578
68.375030517578125 35.625656127929688 4.6750812530517578
69.799331665039062 38.423488616943359 4.9635443687438965
73.831153869628906 41.642116546630859 3.3156132698059082
76.479110717773438 41.132286071777344 3.3156132698059082
67.767105102539062 33.233036041259766 3.3156132698059082
76.776641845703125 42.203903198242188 1.1965782642364502
78.815895080566406 41.039131164550781 2.3236157894134521
67.189102172851562 32.095546722412109 2.3236157894134521
66.804840087890625 32.662284851074219 3.3156132698059082
68.080192565917969 32.624080657958984 2.3236157894134521
72.906425476074219 41.717998504638672 3.3156132698059082
66.192039489746094 30.501596450805664 0
69.609992980957031 39.578411102294922 4.6750812530517578
73.906044006347656 42.322734832763672 2.3236157894134521
76.66229248046875 41.792057037353516 2.3236157894134521
66.866554260253906 34.984622955322266 4.6750812530517578
67.844467163085938 35.429599761962891 4.6750812530517578
67.354568481445312 34.035427093505859 4.1149191856384277
66.049896240234375 31.171531677246094 2.3236157894134521
72.857574462890625 40.817092895507812 4.1149191856384277
71.421478271484375 40.829757690429688 4.1149191856384277
71.388526916503906 41.73138427734375 3.3156132698059082
72.943496704101562 42.401721954345703 2.3236157894134521
67.607963562011719 37.874118804931641 4.9635443687438965
65.7762451171875 30.895454406738281 2.3236157894134521
66.346565246582031 30.863822937011719 1.1965782642364502
66.086555480957031 30.601512908935547 1.1965782642364502
65.1451416015625 29.124431610107422 0
73.952789306640625 42.747596740722656 1.1965782642364502
66.965126037597656 37.636577606201172 4.9635443687438965
67.997146606445312 36.733314514160156 4.9635443687438965
67.411277770996094 36.516819000244141 4.9635443687438965
66.3314208984375 36.025455474853516 4.9635443687438965
72.966636657714844 42.828521728515625 1.1965782642364502
65.780281066894531 37.097438812255859 4.9635443687438965
69.437324523925781 40.63165283203125 4.1149191856384277
66.885467529296875 39.991912841796875 4.1149191856384277
67.230079650878906 38.981777191162109 4.6750812530517578
65.57464599609375 31.664466857910156 3.3156132698059082
69.180580139160156 42.197700500488281 2.3236157894134521
71.363517761230469 42.415653228759766 2.3236157894134521
65.2147216796875 30.239421844482422 2.3236157894134521
65.553031921386719 29.978187561035156 1.1965782642364502
64.654403686523438 29.419698715209961 2.3236157894134521
66.531936645507812 38.723796844482422 4.6750812530517578
64.207649230957031 33.082340240478516 4.6750812530517578
64.948432922363281 32.313987731933594 4.1149191856384277
65.699569702148438 34.292442321777344 4.6750812530517578
66.29852294921875 33.409053802490234 4.1149191856384277
65.245147705078125 38.138275146484375 4.6750812530517578
69.111427307128906 42.619499206542969 1.1965782642364502
71.347908020019531 42.842796325683594 1.1965782642364502
65.279136657714844 31.366340637207031 3.3156132698059082
64.392166137695312 27.909749984741211 1.1965782642364502
65.020652770996094 29.199337005615234 1.1965782642364502
63.849266052246094 32.720783233642578 4.6750812530517578
63.709568023681641 37.227470397949219 4.6750812530517578
69.291358947753906 41.521995544433594 3.3156132698059082
66.594154357910156 40.845817565917969 3.3156132698059082
65.802940368652344 40.553443908691406 3.3156132698059082
64.624122619628906 31.98680305480957 4.1149191856384277
63.958652496337891 31.209327697753906 4.1149191856384277
63.294609069824219 30.237859725952148 4.1149191856384277
64.672760009765625 30.657907485961914 3.3156132698059082
64.344596862792969 39.889858245849609 3.3156132698059082
66.136894226074219 39.715293884277344 4.1149191856384277
63.395343780517578 33.924869537353516 4.9635443687438965
62.999603271484375 33.525627136230469 4.9635443687438965
62.558727264404297 34.792617797851562 4.9635443687438965
64.366348266601562 36.258792877197266 4.9635443687438965
65.04278564453125 35.261123657226562 4.9635443687438965
64.757133483886719 39.087467193603516 4.1149191856384277
63.110614776611328 38.110862731933594 4.1149191856384277
64.418777465820312 27.554412841796875 0
66.373069763183594 41.493869781494141 2.3236157894134521
62.12451171875 34.354557037353516 4.9635443687438965
62.187568664550781 32.576915740966797 4.9635443687438965
63.992942810058594 28.062440872192383 2.3236157894134521
63.113887786865234 31.86163330078125 4.6750812530517578
62.380084991455078 30.788110733032227 4.6750812530517578
65.54949951171875 41.189537048339844 2.3236157894134521
65.391288757324219 41.58660888671875 1.1965782642364502
66.235061645507812 41.898406982421875 1.1965782642364502
64.031509399414062 40.498813629150391 2.3236157894134521
61.746425628662109 35.635150909423828 4.6750812530517578
64.049575805664062 26.771032333374023 1.1965782642364502
63.902458190917969 25.880661010742188 1.1965782642364502
64.046897888183594 25.864952087402344 0
61.274852752685547 35.159400939941406 4.6750812530517578
64.06768798828125 29.772712707519531 3.3156132698059082
63.353397369384766 28.307044982910156 3.3156132698059082
63.836071014404297 40.878944396972656 1.1965782642364502
63.632373809814453 26.863967895507812 2.3236157894134521
60.379425048828125 37.053024291992188 3.3156132698059082
62.604293823242188 38.857627868652344 3.3156132698059082
62.964031219482422 27.012847900390625 3.3156132698059082
64.046897888183594 24.135047912597656 0
62.796821594238281 26.000905990600586 3.3156132698059082
59.844982147216797 36.513843536376953 3.3156132698059082
61.005641937255859 36.40350341796875 4.1149191856384277
59.462440490722656 34.681190490722656 4.1149191856384277
60.499996185302734 35.893383026123047 4.1149191856384277
61.233524322509766 33.313602447509766 4.9635443687438965
61.513824462890625 29.010622024536133 4.6750812530517578
61.041618347167969 27.441083908081055 4.6750812530517578
62.510700225830078 28.629350662231445 4.1149191856384277
62.083385467529297 27.209020614624023 4.1149191856384277
58.748329162597656 35.232608795166016 3.3156132698059082
60.344444274902344 32.012916564941406 4.9635443687438965
61.377269744873047 31.391485214233398 4.9635443687438965
60.307201385498047 34.028884887695312 4.6750812530517578
63.876438140869141 24.405431747436523 1.1965782642364502
64.418777465820312 22.445587158203125 0
61.526538848876953 39.639213562011719 0
61.980167388916016 39.778144836425781 1.1965782642364502
59.506664276123047 37.958263397216797 0
62.220035552978516 39.424369812011719 2.3236157894134521
59.9041748046875 37.54595947265625 2.3236157894134521
63.477535247802734 25.926874160766602 2.3236157894134521
63.450149536132812 24.374231338500977 2.3236157894134521
60.838836669921875 26.213850021362305 4.6750812530517578
57.753063201904297 36.001125335693359 0
59.347873687744141 36.984729766845703 2.3236157894134521
59.607505798339844 37.853668212890625 1.1965782642364502
59.037563323974609 37.278675079345703 1.1965782642364502
58.206367492675781 35.651096343994141 2.3236157894134521
58.201755523681641 30.277379989624023 4.6750812530517578
59.341629028320312 32.616291046142578 4.6750812530517578
64.281089782714844 22.399196624755859 1.1965782642364502
64.049575805664062 23.228967666625977 1.1965782642364502
60.420707702636719 29.428705215454102 4.9635443687438965
59.899276733398438 27.695550918579102 4.9635443687438965
59.675357818603516 26.340385437011719 4.9635443687438965
57.868061065673828 35.912330627441406 1.1965782642364502
57.204883575439453 30.658653259277344 4.1149191856384277
58.427104949951172 33.166538238525391 4.1149191856384277
62.767250061035156 24.324249267578125 3.3156132698059082
63.876033782958984 22.262718200683594 2.3236157894134521
63.632373809814453 23.136032104492188 2.3236157894134521
59.294876098632812 29.859298706054688 4.9635443687438965
61.899879455566406 26.098453521728516 4.1149191856384277
56.701065063476562 34.205062866210938 1.1965782642364502
57.067310333251953 33.984703063964844 2.3236157894134521
62.083385467529297 22.790979385375977 4.1149191856384277
61.867427825927734 24.258390426635742 4.1149191856384277
64.896903991699219 21.0135498046875 1.1965782642364502
63.227149963378906 22.044082641601562 3.3156132698059082
62.964031219482422 22.987152099609375 3.3156132698059082
57.313575744628906 26.597244262695312 4.6750812530517578
57.580406188964844 28.212100982666016 4.6750812530517578
58.722747802734375 27.957633972167969 4.9635443687438965
55.722640991210938 31.225563049316406 2.3236157894134521
57.654022216796875 33.631687164306641 3.3156132698059082
56.362186431884766 30.98095703125 3.3156132698059082
64.524162292480469 20.804357528686523 2.3236157894134521
56.538642883300781 28.444164276123047 4.1149191856384277
65.1451416015625 20.875568389892578 0
55.323413848876953 31.378253936767578 1.1965782642364502
55.187709808349609 31.430156707763672 0
56.303112030029297 33.809520721435547 0
60.802974700927734 24.180482864379883 4.6750812530517578
61.041618347167969 22.558916091918945 4.6750812530517578
59.899276733398438 22.304449081420898 4.9635443687438965
59.635757446289062 24.095054626464844 4.9635443687438965
62.372150421142578 21.756000518798828 4.1149191856384277
55.657997131347656 28.640336990356445 3.3156132698059082
58.477054595947266 26.470708847045898 4.9635443687438965
58.433605194091797 24.007068634033203 4.9635443687438965
56.252532958984375 26.712640762329102 4.1149191856384277
58.722747802734375 22.042366027832031 4.9635443687438965
63.1402587890625 20.027673721313477 4.1149191856384277
61.360721588134766 21.41520881652832 4.6750812530517578
66.192039489746094 19.498403549194336 0
54.430633544921875 28.91374397277832 0
57.266384124755859 23.921638488769531 4.6750812530517578
54.674880981445312 26.884220123291016 2.3236157894134521
54.989650726318359 28.789216995239258 2.3236157894134521
65.2147216796875 19.760578155517578 2.3236157894134521
65.7762451171875 19.104545593261719 2.3236157894134521
65.553031921386719 20.021812438964844 1.1965782642364502
66.086555480957031 19.398487091064453 1.1965782642364502
59.109375 20.656642913818359 4.9635443687438965
57.580406188964844 21.787899017333984 4.6750812530517578
66.346565246582031 19.136177062988281 1.1965782642364502
55.3555908203125 26.810188293457031 3.3156132698059082
55.302108764648438 23.777872085571289 3.3156132698059082
54.249954223632812 26.93043327331543 1.1965782642364502
54.57244873046875 28.882152557373047 1.1965782642364502
64.672760009765625 19.342092514038086 3.3156132698059082
63.927047729492188 20.469240188598633 3.3156132698059082
65.279136657714844 18.633659362792969 3.3156132698059082
67.260589599609375 18.375518798828125 1.1965782642364502
56.201934814453125 23.843730926513672 4.1149191856384277
61.188926696777344 18.932531356811523 4.9635443687438965
60.251644134521484 21.04151725769043 4.9635443687438965
56.538642883300781 21.555835723876953 4.1149191856384277
65.57464599609375 18.335533142089844 3.3156132698059082
68.275627136230469 17.756050109863281 1.1965782642364502
67.510505676269531 18.378488540649414 0
54.192920684814453 23.696689605712891 1.1965782642364502
54.048019409179688 23.686084747314453 0
54.048019409179688 26.313915252685547 0
62.209522247314453 19.505317687988281 4.6750812530517578
63.113887786865234 18.13836669921875 4.6750812530517578
63.849266052246094 17.279214859008789 4.6750812530517578
63.958652496337891 18.790672302246094 4.1149191856384277
64.624122619628906 18.01319694519043 4.1149191856384277
66.049896240234375 18.828468322753906 2.3236157894134521
67.011886596679688 18.027894973754883 2.3236157894134521
54.989650726318359 21.210783004760742 2.3236157894134521
59.117191314697266 17.769817352294922 4.6750812530517578
58.000297546386719 20.282951354980469 4.6750812530517578
55.657997131347656 21.359663009643555 3.3156132698059082
64.207649230957031 16.917661666870117 4.6750812530517578
68.080192565917969 17.375919342041016 2.3236157894134521
69.038894653320312 17.568185806274414 0
66.613471984863281 17.471014022827148 3.3156132698059082
54.619209289550781 23.727890014648438 2.3236157894134521
58.186454772949219 17.247463226318359 4.1149191856384277
60.307201385498047 15.971116065979004 4.6750812530517578
60.137786865234375 18.34260368347168 4.9635443687438965
62.12451171875 15.645442008972168 4.9635443687438965
62.187568664550781 17.423086166381836 4.9635443687438965
62.999603271484375 16.474372863769531 4.9635443687438965
64.948432922363281 17.686014175415039 4.1149191856384277
68.985115051269531 17.43321418762207 1.1965782642364502
57.399665832519531 16.80589485168457 3.3156132698059082
56.988868713378906 19.942159652709961 4.1149191856384277
55.187709808349609 18.569843292236328 0
54.430633544921875 21.08625602722168 0
55.079929351806641 19.29896354675293 1.1965782642364502
54.57244873046875 21.117847442626953 1.1965782642364502
62.558727264404297 15.207381248474121 4.9635443687438965
66.0885009765625 16.737239837646484 4.1149191856384277
67.354568481445312 15.964571952819824 4.1149191856384277
68.826911926269531 17.036142349243164 2.3236157894134521
67.767105102539062 16.766962051391602 3.3156132698059082
68.573463439941406 16.400047302246094 3.3156132698059082
69.370048522949219 17.290973663330078 1.1965782642364502
70.705741882324219 17.105388641357422 0
61.233524322509766 16.686397552490234 4.9635443687438965
64.786514282226562 14.917389869689941 4.9635443687438965
63.395343780517578 16.075128555297852 4.9635443687438965
69.010955810546875 16.238384246826172 3.3156132698059082
56.133865356445312 19.654077529907227 3.3156132698059082
58.748329162597656 14.767391204833984 3.3156132698059082
55.484981536865234 19.435441970825195 2.3236157894134521
61.274852752685547 14.840599060058594 4.6750812530517578
61.746425628662109 14.364848136901855 4.6750812530517578
65.467483520507812 15.869215965270996 4.6750812530517578
66.866554260253906 15.015377044677734 4.6750812530517578
68.239517211914062 15.561897277832031 4.1149191856384277
69.232040405273438 16.886436462402344 2.3236157894134521
56.80255126953125 16.47077751159668 2.3236157894134521
60.499996185302734 14.10661792755127 4.1149191856384277
59.462440490722656 15.31881046295166 4.1149191856384277
68.719642639160156 15.384478569030762 4.1149191856384277
70.520515441894531 16.990200042724609 1.1965782642364502
71.7025146484375 16.860143661499023 1.1965782642364502
60.379425048828125 12.946977615356445 3.3156132698059082
65.780281066894531 12.902560234069824 4.9635443687438965
66.3314208984375 13.974543571472168 4.9635443687438965
67.844467163085938 14.570401191711426 4.6750812530517578
70.318504333496094 15.89654541015625 3.3156132698059082
72.44097900390625 16.866655349731445 1.1965782642364502
72.433113098144531 17.01173210144043 0
74.140228271484375 17.291599273681641 0
56.303112030029297 16.190479278564453 0
56.429813385009766 16.261587142944336 1.1965782642364502
57.753063201904297 13.998872756958008 0
58.206367492675781 14.348904609680176 2.3236157894134521
59.347873687744141 13.01526927947998 2.3236157894134521
59.844982147216797 13.486154556274414 3.3156132698059082
61.005641937255859 13.596495628356934 4.1149191856384277
72.464118957519531 16.439853668212891 2.3236157894134521
71.686904907226562 16.432998657226562 2.3236157894134521
71.661895751953125 15.748729705810547 3.3156132698059082
70.442878723144531 16.569881439208984 2.3236157894134521
63.404182434082031 12.985250473022461 4.6750812530517578
64.085159301757812 13.937077522277832 4.9635443687438965
65.245147705078125 11.861726760864258 4.6750812530517578
69.960769653320312 13.95977783203125 4.6750812530517578
68.375030517578125 14.374343872070312 4.6750812530517578
59.506664276123047 12.04173755645752 0
57.868061065673828 14.087671279907227 1.1965782642364502
66.965126037597656 12.363423347473145 4.9635443687438965
67.411277770996094 13.483181953430176 4.9635443687438965
59.607505798339844 12.146332740783691 1.1965782642364502
59.037563323974609 12.721325874328613 1.1965782642364502
62.783164978027344 12.117227554321289 4.1149191856384277
72.550033569335938 14.855223655700684 4.1149191856384277
69.748191833496094 12.808904647827148 4.9635443687438965
70.154624938964844 15.009323120117188 4.1149191856384277
71.628944396972656 14.847102165222168 4.1149191856384277
74.060218811035156 17.119564056396484 1.1965782642364502
72.890861511230469 16.903572082519531 1.1965782642364502
64.757133483886719 10.912532806396484 4.1149191856384277
66.136894226074219 10.284708023071289 4.1149191856384277
66.531936645507812 11.276204109191895 4.6750812530517578
69.529251098632812 11.623587608337402 4.9635443687438965
67.997146606445312 13.26668643951416 4.9635443687438965
73.111175537109375 14.901271820068359 4.1149191856384277
72.501190185546875 15.756130218505859 3.3156132698059082
73.012496948242188 15.798089027404785 3.3156132698059082
75.185661315917969 17.503513336181641 1.1965782642364502
61.611080169677734 10.478948593139648 1.1965782642364502
59.9041748046875 12.45404052734375 2.3236157894134521
61.859783172607422 10.826571464538574 2.3236157894134521
66.885467529296875 10.008087158203125 4.1149191856384277
71.5899658203125 13.780514717102051 4.6750812530517578
72.937606811523438 16.478708267211914 2.3236157894134521
74.168327331542969 16.706033706665039 2.3236157894134521
64.031509399414062 9.501185417175293 2.3236157894134521
62.258193969726562 11.383452415466309 3.3156132698059082
67.607963562011719 12.125879287719727 4.9635443687438965
75.815322875976562 17.803537368774414 1.1965782642364502
66.594154357910156 9.1541814804077148 3.3156132698059082
74.341514587402344 16.043571472167969 3.3156132698059082
75.747268676757812 17.931903839111328 0
77.179092407226562 18.902704238891602 0
61.526538848876953 10.360784530639648 0
63.769638061523438 8.9918413162231445 0
64.344596862792969 10.110141754150391 3.3156132698059082
65.802940368652344 9.4465570449829102 3.3156132698059082
67.230079650878906 11.018221855163574 4.6750812530517578
73.2279052734375 13.840374946594238 4.6750812530517578
73.355911254882812 12.677055358886719 4.9635443687438965
72.671180725097656 12.620864868164062 4.9635443687438965
72.607818603515625 13.78948974609375 4.6750812530517578
75.352828979492188 17.110130310058594 2.3236157894134521
76.015533447265625 17.425899505615234 2.3236157894134521
75.620628356933594 16.479944229125977 3.3156132698059082
72.736434936523438 11.417265892028809 4.9635443687438965
71.503204345703125 11.406392097473145 4.9635443687438965
71.547225952148438 12.610954284667969 4.9635443687438965
69.316673278808594 10.472714424133301 4.6750812530517578
71.460456848144531 10.236831665039062 4.6750812530517578
74.839675903320312 14.138084411621094 4.6750812530517578
63.836071014404297 9.1210546493530273 1.1965782642364502
65.391288757324219 8.41339111328125 1.1965782642364502
66.188156127929688 7.9640841484069824 0
73.487739562988281 11.47891902923584 4.9635443687438965
77.210319519042969 18.739145278930664 1.1965782642364502
76.243209838867188 18.047235488891602 1.1965782642364502
65.54949951171875 8.8104619979858398 2.3236157894134521
66.235061645507812 8.101593017578125 1.1965782642364502
72.799797058105469 10.248641014099121 4.6750812530517578
76.465873718261719 17.68238639831543 2.3236157894134521
68.834564208984375 7.8626108169555664 2.3236157894134521
66.373069763183594 8.506129264831543 2.3236157894134521
76.336265563964844 16.820934295654297 3.3156132698059082
75.973495483398438 15.649580955505371 4.1149191856384277
76.758880615234375 16.0238037109375 4.1149191856384277
74.569725036621094 15.170679092407227 4.1149191856384277
72.857574462890625 9.1829071044921875 4.1149191856384277
71.421478271484375 9.1702442169189453 4.1149191856384277
68.958938598632812 8.5359468460083008 3.3156132698059082
69.122810363769531 9.4231691360473633 4.1149191856384277
71.388526916503906 8.26861572265625 3.3156132698059082
73.615745544433594 10.31559944152832 4.6750812530517578
75.135696411132812 13.00579833984375 4.9635443687438965
77.292587280273438 16.327770233154297 4.1149191856384277
76.390922546386719 14.667295455932617 4.6750812530517578
77.483734130859375 18.410602569580078 2.3236157894134521
76.822578430175781 17.097908020019531 3.3156132698059082
78.066383361816406 19.564495086669922 1.1965782642364502
73.732475280761719 9.2547025680541992 4.1149191856384277
77.258811950683594 15.080831527709961 4.6750812530517578
77.848587036132812 15.416730880737305 4.6750812530517578
78.484413146972656 20.070680618286133 1.1965782642364502
78.368743896484375 20.158605575561523 0
71.363517761230469 7.5843462944030762 2.3236157894134521
68.756927490234375 7.4422917366027832 1.1965782642364502
68.730537414550781 7.2994179725646973 0
75.736587524414062 10.707339286804199 4.6750812530517578
78.458259582519531 14.417736053466797 4.9635443687438965
77.8070068359375 14.046821594238281 4.9635443687438965
78.894691467285156 18.822332382202148 3.3156132698059082
77.921737670898438 17.88429069519043 3.3156132698059082
72.906425476074219 8.2820005416870117 3.3156132698059082
73.831153869628906 8.3578853607177734 3.3156132698059082
77.320075988769531 12.480822563171387 4.9635443687438965
76.848648071289062 13.590176582336426 4.9635443687438965
75.440574645996094 11.839625358581543 4.9635443687438965
73.968681335449219 7.1079826354980469 0
71.342605590820312 7.0120086669921875 0
71.347908020019531 7.1572027206420898 1.1965782642364502
78.384719848632812 19.279262542724609 2.3236157894134521
79.086189270019531 13.388843536376953 4.9635443687438965
79.566642761230469 18.220256805419922 4.1149191856384277
78.498870849609375 17.190793991088867 4.1149191856384277
79.375137329101562 21.54267692565918 1.1965782642364502
78.79315185546875 20.505691528320312 1.1965782642364502
72.943496704101562 7.5982785224914551 2.3236157894134521
73.952789306640625 7.2524018287658691 1.1965782642364502
72.966636657714844 7.1714763641357422 1.1965782642364502
78.371612548828125 12.981864929199219 4.9635443687438965
78.195228576660156 10.421418190002441 4.1149191856384277
76.006546020507812 9.6747446060180664 4.1149191856384277
79.930229187011719 15.470837593078613 4.9635443687438965
79.149627685546875 20.26984977722168 2.3236157894134521
78.824684143066406 19.81201171875 2.3236157894134521
76.407943725585938 8.1393909454345703 2.3236157894134521
73.906044006347656 7.6772665977478027 2.3236157894134521
79.69586181640625 12.389848709106445 4.6750812530517578
78.919807434082031 11.947854995727539 4.6750812530517578
