# XYZ point cloud file
0.7205587366285755 -0.25971213230656254 0.73298128369763171
-0.69549530683111982 0.16460482489213568 0.69809502658792422
0.4249909823785849 -0.18613870883396011 0.28091559979495884
0.32537477495305112 1.1130791388602761 -0.41688905411386667
-0.22052246235390882 0.44924150582761868 0.75271435361305539
-0.53111259695833724 0.79833680962221365 0.073770179420584725
0.32279418214226041 0.71251146452864056 0.0055457783687122841
-0.020033285071530571 0.80534355687651882 0.5937215020932447
-0.4874005315028036 0.10007891219274079 0.81059089290761133
-0.47454861416133909 -0.13025005619046048 0.79741079659042224
-0.089801579082806171 0.69988234972096919 0.70816609616098258
0.14581524296727721 0.50824101655659248 0.67890086540752215
-0.82160631776640969 -0.18824571821641101 -0.40329694698493723
-0.60758131134518578 -0.27671318472933315 0.70746301122551447
-0.4619208269719195 -0.39856663772852663 0.60700365466751105
0.63380572141440084 -0.31937241875414912 0.76051568638737521
-0.34668017891524983 -0.30645583920395403 0.74017920813238991
-0.55910493723617094 -0.67980733488857581 -0.32106565130213749
0.20405482361588412 -0.2398091277737624 0.72664614332216804
-0.39423745930772824 0.14143487206543881 0.77883231378456852
0.1038550991051963 -0.068462910458560344 0.77292235397371201
0.20078390542802182 1.2050848381003592 -0.50883484907986598
0.26474214105681781 0.67757679729575671 0.27220227705309741
0.64059257327763319 -0.31538351829179057 0.71436559897773755
0.29015016840003582 0.92991203370645437 -0.31472333233271388
-0.41268583232986344 -0.53255084196322855 0.60660090119016896
0.29580248882223614 0.082015242662631493 0.52998834247578053
0.084485077178332091 -0.093235521663793008 0.73181902208103278
0.092127520575036925 -0.2796772696088663 0.51898220497051462
0.30341790795678847 0.76414028283113566 -0.21120643186650123
-0.30053613102476007 0.055831721727171768 0.78726119248584236
-0.67131286915767419 -0.53946998602571128 0.46412646439495742
-0.30412995230130235 -0.00439067087320133 0.76079627553874651
-0.69396422041418759 -0.42546733302017437 -0.40263940944909304
0.13489818238488027 -0.046485246142191627 0.79031180364774301
-0.50426842057264665 -0.085553200533022178 0.76349227157088695
-0.1089823107197283 0.57425156105319175 0.72195983430532529
0.37181568202300852 -0.18706534536276109 0.12474724245384738
-0.47460331381628151 -0.10268250669590095 0.75840550536694451
0.44500668068556948 0.84500930103671035 -0.29660534778066294
-0.62792675272963372 -0.78289275247658807 -0.33819276320041425
-0.4765040058343466 -0.72098530568573871 -0.37022780556353796
-0.73316784505058763 0.54669667054451132 0.120182861812407
-0.83535341445879041 -0.6248385403000416 -0.34723364846253801
0.7373179492755888 -0.12396902307276925 0.65437294159252746
-0.39576469821766835 0.20456418691134992 0.70575173515925105
-0.53431543923035463 -0.11264078585256776 0.71035419203979711
0.69106100846477148 -0.58241897659127773 0.650589444438054
0.10215339773180432 0.24134633009010464 0.67071469181644261
0.28774324406871443 0.094072247708929524 0.48622039648325766
-0.6806020550440266 -0.30167292839690418 0.48260240934764109
-0.93362305499641529 -0.72253999542678216 -0.35423796813684971
-0.2543505488632114 0.30147745101844592 0.74911042438334174
-0.39054980299545861 -0.090329311539735002 0.78239876314571433
0.22132845851022509 1.0337137820416968 -0.36634377817251829
0.83462336966134032 -0.4779238522712177 0.54978226004923547
-0.051771286010094286 -0.41104779726832597 -0.30771800122104542
-0.53497946374739769 -0.57311008570130184 0.18628385400717828
0.18911371819395839 -0.049375283126739333 0.81400159504379577
0.014940000427777989 0.21974569099058527 0.71347373397100977
0.82926125142116192 -0.4292926478306498 0.47319368210970403
-0.38302439660995802 0.54277833916471074 0.49962638365881862
-0.055693597045518572 0.42942358911753509 0.79585434915826347
-0.1125509072139188 0.50204790224571916 0.80060358606915205
0.48092793425352198 0.58641515858229987 -0.13149915344618157
-0.89627280667498255 -0.076043304414040946 -0.019638285689324242
-0.11420139619075442 0.76429452699074396 0.69012235280557732
-0.15085796361855941 0.25029741844135778 0.74369053198329205
0.70317871070243498 -0.41201109293818128 0.6553405589976653
-0.05266233817539856 0.82614916574589969 -0.43265848096001092
-0.49130619255072361 -0.68072533795316303 -0.31348842740989546
0.017301612948291023 0.33464507610408134 0.78844431905323908
0.41130492575937438 -0.55094687524990071 0.44669198802353005
-0.28945411512474095 -0.64660430545466063 -0.12547627454593435
0.32642566905314396 -0.22183853447911162 0.75036346401649379
-0.52335173239224275 0.032159223419352401 0.78755228423990342
-0.33894990667247171 0.046109753187026925 0.74505739749150202
0.16629574490588084 0.9142668016959794 -0.39384213527541845
0.63005068855597557 -0.63474973068709595 0.45092916228005597
0.36124152780912056 1.0639000677181727 -0.36373707021458346
-0.58295940768702792 -0.51594366725926122 0.47098310849345193
0.06387985229723725 0.82467178798980356 0.63565180375497032
-0.17172159374443652 0.97337710769342678 -0.33569489450883827
0.51380655087008265 0.029578238982375993 0.50693616356605586
-0.16207979091497293 0.1298871238867978 0.78063175854338507
-0.51614759968020962 -0.81355013392848718 -0.37923282504577305
0.14454929454627319 -0.14927995745118139 0.78154076832837127
0.39310754575596718 0.52366362656104748 -0.16362092929891836
0.50201647303597241 1.0574544660578526 -0.44253780148059918
-0.80241295198913853 -0.74314633661604113 -0.37906521029781359
-0.064948950215629964 -0.18101021291589525 0.73174883068433161
-0.80970595010428426 0.43167762657249575 0.22179286382387264
0.22893891550280188 0.81334589139787283 -0.2117076084198759
-0.74670203392126488 -0.96378355999679677 -0.49306772847393621
0.29427025214858915 0.49922350028056428 0.61391077345027245
-0.29369761424725738 0.52613144586051419 0.5924297693760785
0.21063164913178412 -0.047003804187092157 0.84227461778892909
0.026378190953309399 0.53528418160541591 0.74844518695503481
-0.00987217940564733 0.66728427597975326 0.65915128775821952
0.50957129023739256 0.6815187998111778 -0.14419742590084939
-0.35189425348560377 0.12349512460137646 0.73383696345584148
0.47031964342374977 1.0905969849820485 -0.42510427433090925
-0.44224794641206699 -0.65629508421315741 -0.26788487308726738
-0.20862606969726372 -0.23521937549003979 0.70787975156995131
0.24623439615493936 -0.35379663928199534 0.72166608331406756
0.18318983550337009 0.0048741782244725584 0.81449006484777264
-0.70401700486871199 -1.0081291799619425 -0.39406039134646509
-0.02116567511497891 0.76049338488674323 0.67596033711762615
-0.22274088098654232 0.7802375290151371 -0.52662029741791705
0.31321306818835382 0.26021419497382503 0.30468755253432622
-0.52552177491236662 -0.05045838915993528 0.75487151715605538
-0.1764994087616607 0.37279546783579143 0.76532456038550034
-0.10799081295501978 0.51137578793873217 0.78371496280412511
-0.98120540152633673 -0.82026870001696395 -0.44935649743572625
0.17563337160082781 -0.19893471477831781 0.74705185788037287
-0.53295580607447235 -0.76948418763164206 -0.34667899865375862
-0.050921473747948198 0.28459615706996289 0.74606616381273749
0.32751354750634931 -0.081693913805038321 0.74505873995909777
-0.044569625980038552 -0.40403729233532282 0.41428192582489931
0.62151260092663563 -0.043485584572859892 0.63359262198165966
0.24376083451153363 0.18837240867932437 0.59909533841133911
-0.36194168648572855 0.027393534550867571 0.73964463166518613
-0.74289055882519683 -0.89743014144110234 -0.39731114373439391
0.12658050221711648 0.87972502210620274 0.48648759203972691
-0.49982270156892028 -0.10776145065697307 0.75427163183764812
0.15010352517135672 0.31988056493539574 0.72924320514151919
-0.033352335101021424 0.89724584055749368 0.12381372269135449
-0.57238081452586442 -0.21483854040747019 0.68273691218296939
-0.34495838400633261 0.61293020254722741 0.8067948725134384
-0.12899417305997929 0.51928884728948788 0.6719362826953903
0.27324580510367369 0.92887715381209546 -0.34136778683705615
-0.85798627225356938 -0.05647268339753353 0.16293671519816222
0.70507883209562294 -0.48569450778279766 0.61378347297064151
0.51575328883358651 -0.29230311842260903 0.33578383557102853
-0.11652604196360627 0.55225553815768791 0.73032726714310137
-0.12730259309487479 0.51753236457756913 0.75725867088948018
0.06009567343442157 0.87572234996256171 0.35264498334091376
0.15605953964580266 -0.082965606332850328 0.76783653452810796
-0.38019872447907943 -0.2410751997939915 0.76525533156217129
0.75869885907666657 -0.177742150278835 0.68819607673262517
0.15068224828148047 -0.23237124196623782 0.75840856038212667
0.77892932457104536 -0.30106060629487708 0.66580162279718014
-0.86388445227706789 -0.8668758096431457 -0.43038718909804219
0.54717038805716811 -0.53766938986521318 0.67237359972465693
-0.70639791484550685 -0.65309253843094339 -0.23009075564169912
0.30670752414669877 -0.39528994552384944 0.65868553929969931
-0.17352352014075478 0.74433311610942532 0.37922742014784561
-0.51598542284591176 -0.29149134882606198 0.66532177106160262
-0.97945433785034908 -0.82309305766657026 -0.46230042719747466
-0.69131198767722779 0.11353227767320107 0.49842094085463096
0.32751433196743562 0.041712500469369473 0.53456654412417182
0.3092138373383051 0.082287617525338419 0.646370339137885
0.31855169747565526 -0.25871766328949164 0.1935734788859822
0.29164175155602834 0.33753811945527801 -0.24929745325855546
0.31733536994310185 0.64354098484707123 -0.20261513237344775
0.36921499154981063 -0.18611894071924162 0.74098550673956698
0.025755807734757497 0.1704204546685375 0.7766231015097107
-0.544249940112838 -0.13896944351250795 0.70279053460782848
-0.56939699433220348 -1.0133761102360452 -0.46181035923807467
0.43724691674817606 0.036906609491854425 0.42296337600663891
-0.50903338832571166 -0.74584735694621962 -0.32244393653336312
-0.29698606630366697 0.2774543243168992 -0.778591294759168
0.12691612354150195 -0.17755651737562772 0.72862641849475729
-0.40658042978942177 -0.72080103926627892 -0.29352798646791545
-0.39370412066498162 -0.61987948970293871 -0.10025592150853679
0.13203764174933141 0.25632510377776185 -0.60529793982319879
-0.41161492485299433 -0.66504372934002554 -0.24842495707226497
0.27543706039996252 0.52136650847823773 0.23670751640472387
-0.10936492617031845 0.11002472521029638 0.7806942468846918
0.52451828431148328 -0.13615493210209983 0.35734809209480423
-0.33383948107824324 0.37136975472409084 0.81614733288226304
0.70215655276933475 -0.38366733998950586 0.70177999372617172
-0.080360294393305054 0.38007708200776058 0.81033066075226312
0.15696888296394818 0.60061579149456001 0.63811289280820382
-0.34291822689836593 0.45737380150702123 0.62299887372272433
-0.25740291180578012 0.43390901541667581 0.77752374011642544
0.74351647056189307 -0.057910208450518752 0.48037668872446471
-0.45066136174003191 0.40687046058548404 -0.73933482422253083
-0.13146515290014804 0.63386085438915707 0.66487843348347564
0.43178269660175772 0.5765150697518493 -0.2010116604381702
-0.82032913079554248 -0.26675761593060976 -0.38826822950595608
-0.31798172900734301 -0.32414936069292288 0.71587357386911687
-0.74109551552746211 0.22215512941586368 0.74230147799358281
0.15899756272405341 -0.3773807024929976 0.39262506586768797
-0.53184280988108057 -0.36563310507357016 0.61385204439177432
0.46540583824960891 -0.37914895355115874 0.73731119237059328
0.50872468213349364 0.81443030579098696 -0.26213756368670427
-0.45219986293935577 -0.00072209297720071675 0.76472381673808432
0.91831051738152425 -0.17143039040310626 0.5305209635731849
0.55345272634705722 -0.0065981042885745467 0.62688604952676386
0.043925929849574885 -0.3280509973962431 0.59088192615963209
-0.20123718437907456 -0.30491368039829503 0.70269498958221543
-0.78338833061236635 -0.67826716123685493 -0.35605566534147348
-0.35392726101941818 -0.5094856795800542 -0.45146524553832812
0.037750503819157899 -0.39438613779689469 0.41849703651787085
-0.33425251231616571 -0.66992362778638537 -0.19224650123351772
-0.4639130052671625 -0.62814990167390405 -0.25835232348184523
-0.63040986068484983 -1.0456336789201277 -0.49616207303264748
-0.65197550828564133 -0.27664596021518584 0.69114195705083059
0.1726363927609853 0.86674340305030206 -0.14565374311171353
-0.51925899785703677 -0.31710188050446853 0.68470726476020882
-0.29758869601695181 0.25431319252046336 0.79169994911847397
0.6320519073091333 -0.45431565331476342 0.66113117468675453
0.38817285546417324 0.98068763848834895 -0.3640551649341025
0.76607203879100894 -0.37261172604234183 0.70769386207157359
-0.2247362713586476 0.47484760563369655 0.74031015591456484
0.69557999129674997 -0.4396075652265381 0.72230413096850565
0.10296256546345717 -0.16784286286373806 0.82451370603510465
0.6604466966263125 -0.41850011564803147 0.60507729959102496
-0.059022099954553653 0.36411828623290887 0.82644063092146691
-0.54250179167741663 -0.57924231331760545 -0.41159179379166577
-0.7562655517107828 -0.54950805048346218 -0.36558412493584092
-0.43964146573541285 0.15393928190496453 -0.76723085735830154
-0.19536380272060327 0.46539090854966503 0.72303250298164556
0.051478223872418738 0.63828831537484376 0.58204415659599817
-0.25916002720743236 0.3783201369090925 0.78102571406741372
-0.28944813312821793 0.78673615610696501 -0.45643683798412882
0.27137985559840772 1.0850899566554881 -0.40038247811416494
-0.55361061308362025 -0.2097885713307015 0.70280622364338008
-0.70763847250753642 -0.56147291190356619 -0.36776797295742414
0.74240718787832449 -0.40446985643179012 0.47018516795937293
-0.64027472988949796 -0.54019481764638222 -0.20220483938441092
0.38917638337183647 1.1604449897375853 -0.44892673070058009
-0.37805602767023316 -0.69820948787940473 -0.15349663817282622
-0.38265610220309654 -0.36239059380672956 0.68941646755927444
0.55822934470540631 -0.13353407253786287 0.66693284478955528
0.73268909980323116 -0.3943608882711942 0.67974803929653937
-0.85256569391680692 -0.98527751838931721 -0.43400578776305743
-0.68580710865722239 -0.61288411470384574 -0.22807883544563268
0.36660175739820744 -0.22713660328660445 0.71576764498834589
0.39315683785623889 0.6746184890613165 -0.19656677057774541
0.043082143689701979 0.90475155513607497 -0.27501728800062009
0.29713314415677061 -0.17046583769762869 -0.26646906045745844
0.25858701561812225 0.89961099952146828 -0.32105224004834332
0.35421613483005032 -0.2663274582645947 0.77583166964453909
-0.11000527953368078 0.52850426825629526 0.68558864471873804
-0.44002094700762484 0.050402020800994762 0.75419342884067841
-0.83484560908190986 -0.53915941253659838 -0.27713284730641163
0.14657904800462873 -0.293500084579156 0.61258369651141908
0.31007526422381204 0.23203310762942309 -0.2983830890623842
0.15982810074788745 -0.025408067454602445 0.76824140268752306
0.28964091828144234 0.86280834843221754 -0.33950862278007032
-0.51901036722528104 -0.58197774241136813 0.39660340161790142
-0.073260216376727527 -0.25613177749370841 0.68103734938656579
0.32235139362468601 0.081810920295419365 0.68326684599094545
-0.4983613739722621 -0.67918042899453468 -0.32398486790867009
-0.70696473149659411 -0.34026627798852616 0.67154279511197768
0.14735384279646269 -0.27610002347567608 0.69269417187943993
-0.62028508842280061 -0.19148356954535295 0.70731620063778511
-0.45862017519666409 -0.690054299110475 -0.2681205354947771
0.32850979517932188 0.27869981444929515 0.4155382216610608
0.28084893459152482 0.78231286390876953 -0.32764361891218718
0.2984830553298643 0.45805723203055315 0.47657720729283026
0.81107554385875247 -0.41127561023468928 0.6718213233101511
-0.36706307206493349 0.010567920085700067 0.74596616977710983
0.085852383793298515 -0.11166785690224579 0.73214289306551894
-0.45471948135045537 0.10418293762718989 0.80234386487900533
0.3548180404075616 0.69810547816477886 -0.3200499177318008
-0.23351201218275719 -0.31944046139682314 0.69033075354291284
0.031706567610719105 -0.31278910211557509 0.48387653906756345
-0.074041399774969818 0.11435163115406155 0.70250251170410483
-0.20886647637117761 0.68285725106233386 0.51729194294580605
0.027094979193570623 0.5195266435726662 0.768518242035924
-0.19901043155849507 0.77847874729880218 0.61210531398864187
-0.51165862544315033 -0.88888652102570909 -0.28785194552674742
-0.31971651331457807 0.52167191522750223 0.75021227938288515
-0.13390665328722662 0.75040188144942377 0.31897768973169693
0.083459656303720209 0.40732746838705403 -0.68483566982065813
-0.22226568006049874 -0.15870182395913446 0.72603335636554522
0.24161657428165029 -0.11834438144538595 0.79377932586668365
-0.830729305459597 -0.98763792321980226 -0.40453768948255231
-0.84844104449680557 -0.048630099705112784 -0.4573477633772276
0.42717410831084379 -0.18611332179845519 0.27130845430843564
-0.27098569669758987 -0.018006593055368114 0.7466917194065692
0.32349481163045724 0.3203818955876514 0.24395124053056794
0.22367642775196472 -0.025871272230922671 0.76459074321832254
-0.25672345569073585 -0.28903487152248886 -0.64947551016072769
0.17395342650914714 0.41936414684571588 0.69230027698209984
-0.33758093947013634 -0.25200702191882662 0.76457332206228212
0.64545923278762984 -0.65031383677509247 0.55237031274956294
0.49963918557789455 1.1715131520071003 -0.42505624366899786
0.030221945968072816 -0.2907533190978917 0.60126301670910376
-0.7835711076295766 -0.93129166061940261 -0.45005218722320617
0.031078328223241414 0.28526456830971902 0.71929516451117603
0.037104303872293798 0.3508858490439728 0.79492933026084689
-0.18998112604352713 0.40059584410345828 0.76642255899817346
-0.530605756548578 -0.92631369777358508 -0.35273808367343751
-0.094872550158836333 -0.47828905975232594 0.32588948133964379
-0.44622264089734642 0.038432049426926795 0.75404460161459941
0.22709963928303267 -0.0092793375206152717 0.76548878459280445
0.68991264862884449 -0.17625306488986503 0.40320999328898743
-0.77826361364950181 -0.90685616544868175 -0.41228234953479159
-0.73625355715846297 -0.33776696256792604 0.64647227743778135
0.72957375979598993 -0.15677593542303825 0.61641192334856365
0.056878229000012936 0.65046478642031325 0.65989451692218548
-0.72792893530927927 -0.43388549524125608 0.60491363223381622
-0.87842586597827044 -0.76219196605184969 -0.40939186965484087
0.44388576440362471 -0.18250341569755335 0.73899617688177166
-0.026193926828824488 -0.35459055893407232 0.50320517469607839
0.30365948665096099 -0.086615863971081453 0.6912450373015373
-0.41012461395804323 -0.27242984293864581 0.79169717662965056
-0.53741760430766305 0.2002677942051605 0.73802016514062974
-0.57677877463611082 -0.27566451714469409 0.67866208032313935
0.9296725125439913 -0.22973163602026148 0.44801344003444088
-0.071444240566567174 0.74007349820081814 0.72810847636517462
-0.95463603977783329 -0.76130868100517013 -0.43272275916590441
-0.018402202426166525 -0.029655762004034969 -0.74499224913958617
0.7456708371698042 -0.32620313527074352 0.6831705937704835
-0.41630521283419597 -0.16558626556038369 0.8013961664163114
-0.91727725338451016 -0.71222253454498485 -0.48968722383216079
-0.75233129879334371 -0.63554929492091716 -0.32137906177366604
0.36708237628830886 -0.015006804705111065 0.70194723287078808
0.38933372651045772 0.45428969280008147 0.042439934245347199
0.18106569249848548 -0.37447940822223202 0.14669451865404248
-0.72898613896289888 -0.60328410681379729 -0.26581542664726054
0.6901274155846977 -0.41489212349601878 0.68187808492220903
-0.38834945053055137 0.0080581131759593916 0.6550985350180607
0.3171192694437579 0.73706549495025442 -0.25946846666414802
-0.84393271796878366 0.22968208113415223 -0.34494269660478549
-0.30527122942947926 -0.43043443158305017 0.59464172704232698
-0.60789710309744294 -0.68295349977634245 -0.27777163318419884
-0.72692256948301193 -0.44470980019717565 0.57045557727003615
0.79269488132340626 -0.3612683850748386 0.67235500917273638
-0.4598223605160463 -0.70772190278112035 -0.25194886788034498
-0.42386625273742951 -0.12597633614951675 0.81450587740434344
0.368060041689656 -0.46116003459994559 0.6788620757280448
-0.90651640059531147 -0.20909883267735907 -0.18765893668181999
-0.68363530255405358 -0.74258458819595319 -0.3752401810406174
0.24178795258949037 0.96760830586980529 -0.20790586344551465
-0.10944122594377959 0.20971120503068974 0.75429968815175386
-0.33326920578280905 -0.20317190010149666 0.7581806766639918
-0.45033504848432671 0.48973127053248078 0.74697946683693139
-0.47742674813108721 -0.77257603778583217 -0.32613986859324351
0.52886459443010736 -0.66551670293292986 0.62594161833576312
0.4101300317045542 0.67903411803301417 -0.19201439128778475
-0.49319004402082811 -0.090948661478384096 0.73024185933131314
0.50487640278389279 -0.46269066958162952 0.7484530451976843
-0.45071169060956251 -0.68810228519885541 -0.35324379218914759
-0.23473017783257077 -0.15798267770944463 0.72297165960103182
-0.78672295114837709 -0.79596038827757987 -0.4079946616653447
-0.073163658886674199 -0.14126136385125498 0.74686816534547695
0.15935157701873592 -0.044884297439011789 0.80375382540415163
0.56470976574030018 0.99024217206760845 -0.48668206992498603
-0.43662863836713228 -0.70044597434869615 -0.29106452830381224
0.10592010052938861 0.60844570833865674 0.71045519706353666
0.34433958462030034 0.62990283892963284 -0.10828590717386666
-0.10959178608470665 0.97206703977078135 -0.19436593818505399
-0.35709113906297318 -0.67964986551377393 -0.2272422302218029
0.28143075465336409 0.53138879435784503 0.60173400503179186
-0.28038528319295253 0.036433220140292377 0.69485725665449927
0.051171788108977267 0.19067798008293124 0.79152695189362543
-0.29176335581669122 -0.52090809037988528 0.54467203018858079
-0.38408646647527078 0.55702591054171968 0.59174717550557343
0.51028658601729404 1.1235169537635947 -0.39848468078245702
-0.62825624867142338 -0.43115934504789166 0.64133007658671293
-0.52978991004041021 -0.9979290323373764 -0.36416170131797809
-0.76610449935267866 -0.98742705067632919 -0.44615926623091573
-0.42862054912419012 0.11310643029997713 0.83001987879009675
0.15467675301674078 -0.073329082184377725 0.77371309485128315
0.064757529740397501 0.44152029972035045 0.76180287024997995
-0.78818628832862814 -0.29885301613547277 0.37451064958310809
-0.44800359326775308 -0.69315956692497771 -0.29895435507301649
-0.51619192264612934 0.036832341916973377 0.79254270159723372
-0.028865651958597027 -0.3132814099688197 0.62949893324928574
0.2193478064477965 0.73415510817600094 0.37998668718755768
-0.45865105015261065 -0.71972553451554333 -0.3053401824138513
0.30121512208798862 0.071938286518378192 -0.50365774421664966
-0.3976656902121718 0.21850040960981687 0.76309401997813175
-0.038593672638864263 -0.53277082289346822 -0.11105209537873684
0.20476460381438955 -0.15840938659043857 0.78525570693727342
0.52690443838629974 -0.64330462487532358 0.45144887060693994
0.64023077745360979 -0.61879055395209193 0.49715913699999703
0.20295528495077519 1.1975715638000937 -0.33532433983160881
0.4133304851734998 0.6859255712539305 -0.23258030132666319
-0.52944356973601714 -0.69093090230104615 -0.27669431204067241
0.59661059104983138 -0.098494473635744484 0.37741452679188869
0.5746649061499447 -0.68482170298724476 0.46122090917526393
-0.34595891300747894 -0.10071407579154013 0.82028057119614228
0.48778575949421565 -0.27060929892785524 0.33695850231590541
-0.49447687557782061 0.046017157779088436 0.78682444079349612
0.6986155171348436 -0.61688882655840338 0.42688674109312297
0.19634332531456167 -0.022286850042029016 0.75989613570834091
-0.5799609529967924 0.12175591294835719 0.82621575458939223
0.34939718225002636 0.92465108387085593 -0.37394137698924279
-0.071575449800747037 0.2393590246654238 0.68632994074385767
0.12208389499220473 -0.074584469104269857 0.75903589060653331
-0.60616262246861652 -0.65226779626236642 -0.33327813435833198
-0.25523583694735663 -0.68212888695670415 -0.17338026053011202
0.58012789234891571 0.73891175264594011 -0.24737849578538507
0.21317006952828521 -0.38505958043544553 0.49080861171378665
-0.46887381029395669 -0.75507757478576032 -0.2868058487925671
-0.0044993330975025003 0.60494514612429917 0.78957345547063351
0.36805455118464891 0.6953514897598243 -0.20869893260787942
0.038059385678032243 0.32020029737156364 0.72522457801809903
-0.55159053362093857 -0.87780810825283062 -0.34725494859962502
-0.36968329223548224 0.59827947524285108 0.74116151912419248
-0.77064682527767303 -0.42283072732846883 0.52306354343878869
0.87896051619062021 -0.16022054271663855 0.56703700022605519
-0.13185429730999232 0.65785948647481796 0.72293360687807606
-0.41148281514347218 -0.32238734681862624 0.69226662932842498
-0.68652448005439481 -1.0153179897715177 -0.38644518588656496
0.39154652009713331 0.68889926938277313 -0.23326782873862117
0.7710489425735183 -0.20012255751043462 0.63883144508201761
-0.57541223498578553 -0.8994155644712869 -0.28849268497946667
-0.97190118914700641 -0.92097809024628674 -0.46924308274834781
0.066226025943485922 -0.084613199383465343 0.81852547776166062
0.46875860679035952 0.98352826273060145 -0.37142521774986004
-0.7355901429423497 -0.46883000680595721 -0.26079798288948464
-0.3473744929881768 -0.051370750923712905 0.74537326620281519
-0.47927595783825794 0.02279586840470138 0.7786254813640765
0.31182844833496404 0.66592376933078334 0.48469720057878929
-0.15834123558515145 0.3297077456900972 0.74487450806669475
-0.33717979787130403 -0.3530505723359294 0.71937851666860375
-0.5703952740700764 -0.6462726622561803 -0.28517258524579248
-0.91626067818348034 -0.73688982561554184 -0.41156611654096764
0.029936260144680205 0.21345857037457705 0.77553270553112874
0.25721833411502359 0.00060640710702308809 0.75231740086146015
-0.89042831090054975 -0.74780576178172531 -0.3625831868126812
-0.080445042666511313 0.63915870406476749 0.70306103926126262
0.79090526028988606 -0.37340825583732418 0.7166323463493498
0.77358376990812161 -0.37276978579468789 0.69508208973985397
-0.26814162232688687 -0.43327254471957666 0.62669019525409109
-0.071239286249536349 0.82000301701945943 0.66290508673939552
0.43731129780994138 1.0642098918181411 -0.47296187976295279
0.17680206977933466 1.085501077815973 -0.31185362740677003
-0.70000845757615693 0.17050048420071917 0.70035002146379188
0.33523330470449508 0.72282982867750079 -0.22675329911374908
-0.47777231494422168 -0.017826170249195528 0.81876307528616543
-0.73444986475184493 -0.5157187772306937 -0.20102388083187384
-0.74021166311112374 -0.94788111738169079 -0.44317046885857003
0.62789012230460628 -0.47573491503767151 0.71235761629079963
-0.28951018616902502 -0.0065982370233292897 0.75831902932304907
0.31802553139888801 -0.013489827212024963 0.7097152524725141
-0.23811611305287173 -0.60830307989511212 -0.077912439820042145
-0.56767061412420361 0.53156088172018912 0.31067443491180669
-0.46767451531325932 -0.72190657971153094 -0.30247988450299568
-0.057108783246899719 0.97861111696108782 0.018128331030941691
0.51171595291743444 0.64274875132205267 -0.22695034379616819
-0.95764170339046295 -0.85369659927579455 -0.39008164407200585
0.33045459727757276 1.0990534753843448 -0.40860879544038375
-0.50186109822129765 -0.24289393739816134 0.79225573988041198
-0.3365637825313037 0.91287796267557653 0.02607393745156017
-0.56197187413069472 -0.28314353289788841 0.69133867994005627
0.19168143327429377 0.74141188205446085 0.54500405591177925
0.23614042477892028 -0.069205637733901426 0.80062353615910009
-0.48142028349664656 -0.097904015294442814 0.7373390094822172
0.50931979270295002 1.1112929283347901 -0.52154006699970801
-0.14198983917052388 0.47106550148432902 0.75437364345650959
0.41694239710578884 1.0098695910995712 -0.34807962729168573
-0.29189874131727223 -0.02381776881576414 0.73434971060405552
0.55747265369348042 -0.69359461290769531 0.53796172628919603
-0.35696575528671914 0.22837638248519099 0.68102221567529764
0.026722339858643807 0.16383635597893331 0.75623066620865131
-0.073547883090174793 0.61242388343276311 0.62816889317233393
0.69463366415783057 -0.64970050041834426 0.45720811210468648
-0.50268644384324901 -0.8762239612538405 -0.44909018211830887
-0.0055579147114279692 0.6530532633267363 0.69417137557381192
0.64419967344237961 -0.14204899632035328 0.68995742563708573
0.15608861285885212 -0.18547398483014987 0.81399238818484054
-0.65584019187226872 0.21067932660317368 0.77022822453757378
0.21447100113879713 -0.36885245996733751 0.49459744183856369
-0.6947142110261737 -0.53369453019652013 0.45536595242631961
-0.74903062192375458 -0.065859521649509034 -0.4440132006214137
0.20448026703468258 -0.018627107048907021 0.81070230057911097
-0.52134096858770107 -0.072035401505068819 0.76418501980353604
-0.45037323549867025 0.81722182296296531 -0.3854831619777066
-0.39175984317714097 0.28162860517877597 0.71518532773442445
-0.12394826331401987 0.92997676190888079 0.13820481295148879
0.1135672067006972 0.31631030118015602 0.72481165887142485
-0.26991836856525708 0.41847487485432033 0.78102378583383736
-0.97028613651922946 -0.76854176868493518 -0.40854796060761389
-0.10015507676541446 0.21677325650942159 0.75204397651914867
0.043309314988920988 -0.19463120720139848 0.74792298584033468
0.071098061892307385 -0.055920599389352788 0.8227811911452747
0.32376012041643776 0.53528589517614478 -0.017715627191444927
-0.78334760653936897 -0.61939606021517335 -0.29977942007125558
-0.46510415299454166 -0.077445821264003456 0.80958682222360157
-0.49642309602119994 0.44448134373212866 0.4507332947431717
0.39633894925223245 -0.3929613319932006 0.72601058375760452
0.54999144917985632 1.1406113217643998 -0.43280969708199002
-0.17798840584362452 -0.48362258554524296 0.15332010766544535
-0.49686805845234616 0.2422893654994791 0.70553051236017517
-0.93336162709407589 0.0036868135544150249 -0.14884185126983906
-0.13628907697269455 0.48974111762601602 0.71626731517526476
-0.16645983447433821 0.00091089604127603252 -0.7490810427954242
0.3398362194620006 0.29638709668674856 -0.14897599923900628
-0.36367166440318499 0.14167319976243498 0.79292045768328823
-0.1479845078040114 0.39291946657145616 0.72893429005768073
-0.5549583919894765 -0.30264190824892978 0.6958884920684314
-0.79340168862491112 -0.38677061796886392 0.58206923692413692
-0.38737322112240946 -0.53610443128015106 -0.48262792360093432
0.20907852340577193 0.85277323221969947 -0.30375161931434591
0.81937676341716426 -0.40842767895476229 0.44560682851647027
-0.59521366711853574 -0.21810045201196893 0.72935541134098436
0.0033549910021442031 0.83153233835236584 0.58019788776989234
-0.63036934548270906 -0.68420306611310977 -0.33064947437634462
-0.73271155896186002 -0.45214229336069955 0.52965600078857644
0.33515676505762215 0.63644332558706651 -0.3491463299829547
-0.48872050081322627 0.1589852410666559 0.57343243649012354
0.48164865120699218 0.041574773777844243 0.52464289959432575
-0.97530708103926145 -0.86171150609368929 -0.44026154772887116
-0.12613904742953252 0.83555007816195648 0.47536925700008403
-0.25052693231865319 0.9229685063664812 -0.39656268581756171
-0.66779164371577338 -0.046499774835879748 0.53179466070390013
-0.2961930985590655 0.14076482370374066 0.80227564670011375
-0.92162570964748447 -0.77625388508167958 -0.36441117505852594
-0.29355172486619097 0.40048252762643344 0.80725699157709574
-0.83337325243750726 -0.165502803864781 0.22468247307050682
-0.88286298999938317 -0.86899834551604727 -0.4589273533012137
0.77696993904084621 -0.1350827749605692 0.7008993799088401
0.21613588360172997 0.55353783717958649 0.58055870122763142
-0.72853672125114244 -0.49988107575044793 -0.2874449132729926
-0.10317709692197496 0.59829081577516341 0.72387302827425071
-0.14047638813198304 0.49927064608842642 0.79847501981805813
-0.37471840890873764 -0.64648745966285937 -0.12009291469395933
-0.74778847709506913 -0.65937513179189544 -0.33599643028890025
0.62548199947804051 -0.076142753173181532 0.64283057799740906
-0.75905069992269247 -0.16503116146321339 0.59743917781513112
0.73945157008090945 -0.4014109068576488 0.67822578517399812
0.53351693874456885 0.98955719081625215 -0.3538416075343882
0.54380898356458474 -0.16024805639069584 0.72480038762757815
0.50758645042168027 0.74848001868453817 -0.32346981553450549
0.01971755098342598 -0.033153860956563364 -0.66287092385835744
-0.38593523525818796 -0.67955759020926187 -0.24916278544680193
0.005377972000708553 -0.26488361704636709 0.67087601019429766
-0.3601447315289974 0.35679525212948526 0.74021823201595804
-0.59633479554414315 -0.90170840506295313 -0.29680749081609203
0.14573157688761285 0.86805549494272061 -0.28438624321246109
-0.59330649787202461 0.081322198923261979 0.58103127236932384
-0.72292913183443197 -0.67158619475256565 -0.26863824421931604
-0.41442206828399364 0.02601981229599204 0.73825918697731119
0.64286539566011314 -0.46508243642965397 0.71410486979969567
-0.43196711804205279 -0.6045543620427285 0.14343289267408998
-0.66762769945186129 -0.77603614489363082 -0.38982125301404835
-0.2012637340285508 0.39655664077332631 0.78824316500962066
-0.79082906464280356 -0.98643542432753861 -0.4166807252337299
0.049952053148189179 -0.33595807203381334 0.48137468438466069
-0.33433817233892782 -0.42643112326334531 -0.48858261047273022
0.41036940277633249 -0.56573117757875302 0.67612182869748239
0.44017888644297898 -0.58745766230428487 0.62968433016402159
0.016680499569751817 0.22916468585680505 0.75310406331337987
-0.51125793994644297 -0.62799825257658348 -0.26903347872064076
0.16020918924872873 -0.31377522571445127 -0.36954582923949353
0.02175133122108619 0.19291813813157965 0.77632949130171269
0.15377973171020187 0.15114712098426253 0.73698781077536779
0.358469924067645 0.6141827168522056 -0.14157186281062595
-0.3028265488560784 0.11311727557581008 0.75524866080054931
-0.71851955689486147 -0.13230185776832926 0.43442321878328283
-0.17615102690144369 0.26805236814219491 0.76043231193694361
-0.52846835005327364 -0.066172651331253718 0.77119164127442374
0.45465187486207981 1.0923793314650183 -0.45383928938770945
-0.88128239515959628 -0.22177088402520972 -0.35854197379691843
-0.053163310183109047 -0.4653497650757501 -0.20806419726795511
-0.63249378705162584 -0.60081725800308128 -0.10999089539746176
-0.52850619159476508 -0.061281320975014708 0.76302300610150997
-0.16171291695334133 -0.29719136514253641 0.68038358461262582
-0.23305447524155198 -0.17372407276158874 0.7512920114537831
0.05740649349980842 0.33358136092912538 0.79391127573297737
-0.31223527757458669 -0.066836358776274807 0.75280018978342689
-0.6341533371782262 -0.10544585992556854 0.69016573350600208
0.57466635031043367 0.81481585326683081 -0.23895443866820454
0.078922636400530877 -0.13449869337029519 0.82016849917536483
-0.66458662089914 -0.47581762153237506 0.27499828081840949
-0.59954256461059074 -0.11731666599571611 0.76756745604181731
-0.49850533103964167 -0.40088386325680858 0.63328990126294915
-1.0199035248095569 -0.68394637619243426 -0.46903359179067383
-0.36960278041962624 0.92518422665683531 -0.039863052328994453
0.21520398350831016 1.1090450241600056 -0.33872391357134624
-0.56685978770773104 0.68100209709323067 0.080766178563884239
-0.10575657457284748 0.59835936050555638 0.70701327480773646
0.76244204133550397 -0.40922542261113826 0.64427539101661813
-0.013839224346025247 0.21182479296594359 0.73128831464174038
0.17586086089134767 0.34835417295698612 0.72971533985337267
0.056201885208970737 -0.28288646357255942 0.59404183119597675
-0.80147815404409073 -0.94673804909701609 -0.41060095659606688
0.17700974334585595 -0.13311606194416647 0.80838736406491485
0.35926286229055293 0.86474607404056592 -0.3469130920814294
0.16801926118460031 -0.058176473380449067 0.7347461044261685
-0.15878716610133736 -0.51297606895063552 0.3846734177343496
-0.47952905733200879 0.16255291229887092 0.62334445641244063
-0.47436134103235617 -0.20703050521573374 0.79349846021551329
-0.022650475658338109 0.81381161457135676 0.42773849722427082
0.06695298001912775 0.33397869636135269 0.7591422114391202
-0.018859998592422045 0.95897496783614056 -0.33437876296591895
0.85938615963401688 -0.16884925222145064 0.57143225178717572
-0.82820427227061799 -0.42142226047819165 -0.12103153520602028
-0.15079342103316407 0.16895471096779247 0.7901992087168761
-0.076558694969836694 0.22413988961577402 0.68809074418238314
-0.69356230988744372 -0.21915964946311028 0.47602076689670003
0.49355192393287695 -0.36666321899389231 0.33577212364601783
-0.67615074121388119 -0.22046844321919501 0.74753177492406842
-0.081645024005428724 0.26144763160102791 0.75304226229624138
-0.053091634849529612 0.57283799670434732 0.70531632640265318
0.19472579871862905 0.037589861425965765 0.79995956338493546
-0.41929950375633496 -0.72819060134291291 -0.2862081564843324
-0.22795705021492552 0.42044189159970635 0.70535508568581218
0.32438136885669877 0.49895632896109987 0.36905115348894757
0.48202934231600381 -0.51280656355815246 0.68948433077608051
-0.44079116156059683 -0.67769337230294191 -0.17833980668015226
0.29174491189887419 0.70310683757831605 -0.24248811287130345
-0.71087664352577917 -0.36180350147496831 0.42289352045944018
0.75728063448405791 -0.36418912422844762 0.64062576193760945
0.19846860390147825 0.54761150010291892 0.60727664932151848
0.094023541549812961 0.3056364046943898 0.70739023653072231
0.47508071894576176 -0.6687215754152156 0.49633467192807412
0.11201196840464078 -0.072435775779556622 0.78269454464450483
0.23827102530804112 -0.12534945361710648 0.79593158727696611
-0.81891528521247281 -0.70165602060520982 -0.36185513235804478
0.92508106689609093 -0.33408025457790202 0.56760290018405213
0.17109918487104991 -0.013653188642827274 0.80031322173143415
0.15538690975608915 -0.070317458950389877 0.82879820151095718
0.016449034537131979 0.65111703433091783 0.62102100193071319
-0.066764891520534775 0.99317679996171115 0.014966318440696735
0.73054825925172295 -0.35678426159576127 0.64148473152244456
0.45700965272870775 0.73341901161178846 -0.26948523882585218
0.28492745237537065 -0.063753707136783078 0.77482659251255903
0.34924030923029292 0.74775027268787397 -0.25612231728273382
0.21051064440878164 -0.060750264316782321 0.76339852142022391
0.27680512388564082 1.1637021838222346 -0.32724343113576215
0.11050442893235868 -0.1758597090323768 0.79886914745123416
0.3184449793575439 0.16364984618105183 0.51866931070237809
-0.76102665830985572 0.12251467970057739 0.71423825866854518
-0.73970724617179684 0.50825066064472146 0.17289757878815148
0.14890318988944529 -0.11081432861849372 -0.60045781883325455
-0.73040650962239084 -0.48983335276381545 -0.40249242435511912
-0.51482735276354319 -0.089679146034844948 0.74850365785164286
0.25220651932209748 -0.12528268039137735 0.80803635902187931
-0.55105706972909729 -0.16331914831915029 0.75751747826872329
-0.42558730309456649 0.2330716617376325 0.67627883488551799
-0.56841494878123555 -0.47478936080611867 0.61867765683131992
-0.43892452547927618 -0.2246389427908273 0.76092849152770992
-0.13263880518156768 0.25578960016244956 0.76173826887273854
0.68728588510637678 -0.33624730695632721 0.7454339175255269
0.29216023718533179 0.62866936449703203 -0.12406217326198976
0.24550064250820114 -0.18423907427559527 0.70526115269274303
0.44310884181221155 1.229480911289671 -0.42439396989635492
-0.95345576561041412 -0.28155099827443841 -0.19549462682078245
0.088761393079646922 -0.39509225423973504 0.31423617385684377
0.85065876002337149 -0.36409307308687566 0.53467926792240572
0.30435784885317574 1.0208039795874697 -0.34783117159207966
-0.28622981553970916 0.25635108366144443 0.79569793782885956
0.38847681872714546 0.040967238338357248 -0.23046101101980998
0.88669343252163557 -0.27667010232699596 0.59438455719383798
-0.33497634408209365 -0.6413625872951787 -0.074789494001243462
0.16670138052567651 -0.16838729637503924 0.79149584682671303
0.31960018586813987 0.074744471479180064 0.52778406941045297
0.44925498343474501 -0.47300085317205465 0.67851771362934965
0.16793966421277062 -0.10266239495032004 0.84368416144311453
0.1797692835454896 1.1331359795951013 -0.40320790475955048
-0.54333374811577784 -0.286075483745444 0.64386845121081304
-0.71001831452737818 -0.3313934531648961 0.42935568094916388
-0.49405812846882213 0.016751409012496055 0.75809492461008787
0.51034012220481628 -0.40380900684439958 0.35364908569352993
-0.58816574350217365 -0.51306574915257919 0.62978780493249253
-0.22723468508590727 -0.033129434601269381 0.76327520449665709
0.3609369830421052 0.68357973461320753 -0.19400134221773957
0.5382991476313066 0.9629286283958276 -0.47557990637604164
0.22261098615679131 -0.4301449979695402 0.51461449430023531
-0.25095430431140286 -0.19686618372483267 0.7597562578194843
-0.92289439184613542 -0.89256062301233641 -0.4054226741280762
-0.4040441625844764 0.26211334052853807 0.72966749965639721
-0.51047863561547047 -0.70437559335504751 -0.35960457218725406
-0.38023522119925701 -0.39688010367969007 0.60419247079027549
0.28598711348847417 0.45303541579609963 0.50906393429303165
0.058238184022901152 0.35964548937947072 0.76202458924057925
0.6118427554862933 -0.44557559835890181 0.67379608017079029
0.70489560417007979 -0.61043810096711759 0.54119893449893786
-0.90222141279254053 -0.98712596253653118 -0.50204966385792948
0.69408777483164386 -0.57385341202967233 0.49125877109504268
0.30692124223321571 0.94186979944290616 -0.34866058341075723
0.77991686946604588 -0.30677818276702773 0.71800943613205348
0.12777737622214502 0.6715662264522777 0.62566543060220337
0.12361340073496407 -0.11619788567819711 0.82722622225573783
-0.52622208251871072 0.0014598616431538147 0.82869237959455599
0.63349990114962651 -0.032784946788494196 0.60470094911583017
-0.43588761888179306 0.70729906592334757 -0.49005278414938358
-0.80837350948575803 -0.9207171055133152 -0.46912663063978366
0.086911587617226616 -0.042490940380616848 -0.62565225964446625
-0.19313954539505929 0.37181368909605972 0.77541311247015798
0.17109307370731131 0.64213875287962097 0.60556700338427527
0.23452508732207988 0.97644063425445893 -0.22457071166527709
-0.60295247328245338 -0.18618237932680515 0.69494405591077335
0.22417279645962651 0.71560763756877677 0.63091923741054545
-0.44895230861382629 -0.66758793304444808 -0.25952869717019578
-0.20788531929536447 -0.35027491602111027 0.64014460041486476
0.32936188886143469 0.70209373448212986 -0.16868329994677356
0.16606975922988809 -0.095002549466700614 0.75372351134855542
0.39352924762681241 0.60913139605040101 -0.082762241420051508
0.38630421437046181 1.2210220306750843 -0.35327111871430461
0.19719578135966387 -0.0085167001995145597 0.82661170818546914
-0.050548008001062072 0.10504961941360591 0.71266561352125013
-0.24229304530910767 -0.56776041351686857 -0.30976210786622138
-0.0005756600581321436 0.82611307727920291 0.53310900395554484
-0.46816131887791457 -0.69963123982006792 -0.30042518960075215
0.048446897982049819 0.92772660643147198 -0.070732158102694065
-0.49714910334658668 -0.041369980792442362 0.8011764741801235
0.34576395523056647 -0.022106942148935715 -0.3833170251642255
-0.81682200004385308 -0.95122181400112282 -0.49949757467354372
-0.43086855121034517 -0.64857426686359076 -0.080342118563175191
-0.49023516004536916 -0.28234817557363989 0.65339806823112578
0.010889360200525999 0.18384991401912565 0.6962149936462545
0.58886786934534996 -0.4385536556196552 0.32340424060202588
0.028369903792491158 0.9313697604428075 -0.15750042764156236
0.37071631984814957 1.1762291379208536 -0.45058360485226412
0.14564215248698886 -0.38303084950984712 0.56806203695731394
0.099914806299949532 -0.10660628977471553 0.81399456151606575
-0.69408662011670685 -0.46891793463024278 0.31394976813241549
-0.54796939653826726 -0.4166730895389712 0.64759632944364043
0.10322286944305503 0.45159402146794037 0.78871832313443235
0.43358180980378336 0.76579216382819659 -0.25277195247732931
-0.85380544789862256 -0.36398121029162134 -0.37656938651305527
0.33368076393498569 0.035322427184121707 0.55683945933527523
0.17029298120811376 0.41672433366794159 0.69375442469724646
-0.41424042655573245 -0.71149724676623194 -0.28740375179396427
-0.35496295867515926 0.00059510592593525757 0.80482904747763584
-0.38745298936266082 0.0064978609174897173 0.74934718031177283
-0.70674997523144967 0.20812215411390511 0.66019170295993757
0.14258704421300905 -0.39103894213353207 0.62601000544425656
0.77477472314295781 -0.45047336672357652 0.69562909307467446
-0.6042538614442492 -0.042519321693051282 0.49933530137064519
0.66523919247419272 -0.59297272081732189 0.42533395694415832
0.7916460816808879 -0.27325464554101764 0.71236780058991744
0.65095704401796084 -0.66543224658231459 0.52782308811521883
-0.23411782847645313 -0.26309433393812576 0.66928326230701263
-0.22738967804189514 -0.52895293683342537 0.51804037196709807
-0.54249124515329328 -0.36206860069444069 0.70389445778630222
0.13843742688581528 -0.015557066093972338 0.72912382360774597
-0.93536049020915257 -0.9455246714646055 -0.45569280948802016
-0.49373651078170511 -0.49745178932417922 0.58976650834957667
-0.039979668945242963 0.55600761563422907 0.7760663504954346
0.084399671814864519 -0.1178451296153451 0.75991443402532166
-0.38594159132712846 0.87505774770265532 -0.37601060790797947
0.208770014305248 1.0412679118669566 -0.37333983835391704
0.36469522843125191 -0.3803969793552664 0.35651451600135609
-0.45523661582458175 -0.63482004983629636 -0.21804686012862895
-0.51007946023899464 -0.14393519085893658 0.74702793984678628
-0.8971794840143108 -0.84641361399263459 -0.40122134820975308
-0.56878052309750871 -0.4369646157214504 -0.55590315169473481
0.27904005131846432 0.38409857968455086 0.433996771241969
-0.24457847495095564 0.83239341477956152 0.18621499015335852
0.34084010594205338 0.77143024644693448 -0.30388167012799117
0.025647940099716493 0.34959809906382588 0.78362235249110235
0.8301360338126571 -0.2506957688167919 0.60758741930174542
0.80773125864511286 -0.32633487332709699 0.63429402111134747
0.43640193852084863 -0.4641688900182519 0.68646354988336444
-0.1470250563452673 0.35460605343043916 -0.71955552273316958
-0.95806535899575707 0.15940646091277522 -0.10129746751755686
-0.8201227611055586 -0.43827032795864262 0.075220708813209747
-0.51490493863963493 0.068530884083701338 0.62154265937259279
-0.80298799082874162 -0.85017748825471173 -0.40753873647933903
-0.82157215849765741 -0.66086892745797421 -0.47752531812207222
0.11243057620520602 -0.10872442799757742 0.79908672709131245
-0.15932756899779221 0.53069969725293653 0.78335890102534123
-0.014422808605921489 0.35577747679783123 0.8175319284967193
0.67366191562936706 -0.35817406764016546 0.67531052319427687
-0.23871205643303739 0.96688306816261349 -0.22604547074253967
-0.43632886929039572 0.19420201787627001 0.77022889861556276
-0.54635307124501153 -0.18416907693687001 0.8005187840976502
0.12731235533143703 0.58331746325078271 0.61726656205141683
-0.17799567631517732 -0.29732756370557745 0.70548562669740367
-0.29890737238080689 -0.68236821514821777 -0.11939868259610442
-0.22897876564022113 0.22202191360150536 0.77755139046972577
-0.19520763347247083 0.31804214724376934 0.74121314659303827
-0.32583093250704565 -0.028138030837533634 0.74156755782343264
0.48194454426956312 -0.076826612531435856 0.41349210126910974
0.7648837772079915 -0.35155109917419125 0.71001986173202303
0.18501074268846907 0.32585515738167281 0.71228793451106398
-0.2219997668024547 -0.16648611553964265 0.74618681042915291
0.10854242704835571 -0.17137996005961043 0.84255651530424558
-0.3917198457927924 -0.66474952814338195 -0.1414540099499968
-0.84643258224598661 -0.94363122252709708 -0.39262557063501058
-0.4210826429936283 -0.30829074284961955 0.73825754576436431
-0.74724681483265876 -0.70179602121694629 -0.2558507563532002
0.80517492636780119 -0.31354519816113857 0.73630688397650568
0.35002264093325763 0.45798501865686703 0.11052925385717494
-0.13970529234634199 0.055052365959401328 0.72886126417113584
-0.40653752646073116 -0.35004624223337011 -0.60588429869758809
-0.1824926157105935 0.89503552737338055 0.10994076091580629
-0.51298402190212755 -0.11333463612353789 0.79488372185498601
0.18403890341660656 -0.33997693474014312 0.43985460017893185
-0.021792084172641779 0.54681917347857301 0.70422025027538027
