# XYZ point cloud file
0.25990595309250608 -0.037798578003100936 0.71858984674355497
-0.71613154083778596 -0.45115574736684216 0.57241621364328488
-0.55383449309431665 -0.25909037673369806 0.69293916907698438
-0.55633347215821427 -0.53483863099603735 0.54947885398304308
-0.7682034563493092 -0.010070191664716788 0.60281986205349902
-0.40159883929401552 -0.14841397501754461 0.79523234424414824
-0.5928499270942158 -0.25944932428958989 0.67655459421234099
-0.55704476482004228 -0.66676205658645138 -0.30849493632300629
0.25235476776209165 0.068600016041597378 -0.54342184016832817
-0.72799407662265203 -0.98249382742593294 -0.45632635105223329
-0.40253375792173163 -0.84699989901891914 -0.22510774360226904
-0.27982083087115761 0.15116989447953078 0.79586119926182697
-0.8813132702171167 -0.83870706851478349 -0.43049766853962979
0.63339804288368207 -0.45879598009637323 0.74115856787737755
-0.34628291440432779 0.89757658389844153 -0.3087813644426074
-0.90299745322381408 0.13908019861148624 -0.054538375494509239
0.16466817105615128 0.059446747697523783 0.73382232546376791
-0.17774942130131954 -0.042153010663740886 0.766026601313607
-0.46542197204943392 -0.19868417007172212 0.79868222432350322
0.41429042453406772 0.87964981994872549 -0.38964019880451417
0.28906847812830705 0.036024069063324227 0.67130850763016348
0.52064248018842729 -0.4862547863483897 0.69745523351346961
0.22893570691333043 0.26760375022887128 -0.45826992579428349
-0.48065742500709963 -0.69696049609514255 -0.24681564847415949
-0.3673729794387901 0.20681921652783419 0.76993651239492955
0.63673678984644777 -0.61990713922771778 0.63562920739173023
0.35383574064263179 1.2465343427776201 -0.36367349354593159
0.30038691078029078 0.73575445289273933 -0.0049511727058497712
-0.05812550344368006 0.62658191601003299 0.68855944177977157
0.59930546601439527 -0.31082384982405475 0.77017521387824317
-0.21128688376808746 0.331572128381457 -0.77283176428240807
-0.61463204215505751 -0.59788140376497356 -0.25892594698659721
0.66328047792177625 -0.34580101341656722 0.73355725322255694
0.56007162617847683 -0.49106500642719464 0.68828999635213428
0.10022959698110512 -0.11836695997090452 0.82979908696404081
0.50686447852004068 0.74037455732641089 -0.19306618610787396
-0.56080118020441549 -0.13149138715016129 0.73973314219407449
-0.44535042648988199 -0.76993585478886395 -0.16482491522189946
0.54672168862886572 -0.1509126912451384 0.71291895061198041
-0.51913736045998249 -0.040691975457265883 0.73062081442591342
-0.57899787047962281 0.69482549381420622 -0.22832473222294425
-0.58447551701143485 -0.5901937891273823 0.49200928356205864
-0.30291484838606397 -0.15962529841013318 0.79158098230025331
0.66076014080547552 -0.4719482102637107 0.70103166093806557
0.49621192540738868 0.74358097845852811 -0.19226589277994321
-0.11599658530039569 0.41569716291855663 0.79409076990689975
0.069014462625357709 0.33998327995928612 0.76509283153243679
0.13380482754868162 0.87217834255532711 -0.023039471155463787
-0.71780599123038336 -0.76337300737627611 -0.34919846219414197
-0.18316312370552446 0.34380717557780027 0.76629849640662862
0.067344485847204538 0.85783483674104932 0.36668249896975524
0.72986374289134126 -0.3988734904165554 0.68030810343249115
0.010997396533253934 0.39527899555108892 0.76435642959434524
0.6401768883442216 -0.45177587363960736 0.39039684721021395
-0.23588644225997513 0.34690184345730835 0.70147812424566425
-0.80876485455169522 -0.043173959365469194 -0.41203226394477355
0.023985741118728754 0.63689901214519473 0.5968036760140798
-0.37776116370198842 -0.074233004981162587 0.82079721740349854
0.37958540226806914 1.0654335697720789 -0.38554848960719035
-0.38414877795924429 0.41607169295615343 0.79170457491507662
-0.7504083968174422 -0.76812735839858792 -0.40428373544470197
-0.53742917484642394 -0.546045686915269 -0.43755943114990714
-0.22043425164445551 0.3998949079177212 0.71276607459628138
0.35689805923665929 -0.26732451965229043 0.04428968270887168
-0.30120690719455823 0.40241788149060387 0.78635788293247977
-0.075606327745484592 0.54576684743441284 0.77193668123606329
0.66527104582272756 -0.3050909806099753 0.72994318699642591
-0.49616782493954137 0.067185563144159133 0.7638925703088848
0.74755174600342134 -0.47677820704155671 0.62462625660671556
-0.20553208936811096 0.46648140296551777 0.71582931224810409
-0.81379171858204735 -0.16136639033497158 -0.29383263338640475
-0.487239862778857 -0.69445483979029632 -0.25612622117801465
-0.15142119568425638 -0.51783835413542256 -0.24362831302461352
0.24909706944824883 0.33167904822036931 0.6569071941949165
-0.63177139813853245 -0.86669731477604017 -0.36944414051862751
0.062237909397238056 0.43364542797192129 0.79281175583457575
-0.19816284553266339 0.63613747430081169 0.80050010518194448
0.35104401664995066 0.56753195229335685 -0.24231338849257256
-0.088571397272795949 0.52719742614441323 0.7362217508765827
0.35744976759861213 1.0985923649656826 -0.40327047796077942
0.27050271738233711 0.91251298151272753 -0.29121906367823058
0.69902472443099306 -0.53822107266728825 0.61423057214872401
0.1102362432593802 -0.13887384034565287 0.78375900422460987
0.28352169002348671 0.81980678591225864 -0.28336239022423726
0.1963503630351493 -0.071252923657938005 0.81013708141150964
-0.46381560587020232 -0.70615505649080745 -0.23199042786362156
-0.18699697708663443 0.46701273113926689 0.72718083697877667
-0.64325060363131836 -0.5858525993643191 -0.35044190179555379
0.89895734943784422 -0.17224442455141453 0.61658460830303774
0.032366330222139084 0.64837973782951241 0.66558018194535862
0.094517518919854382 0.42009236919780868 0.72490774203595265
0.23314498533322947 1.0456327106201169 -0.37978374040223173
0.11933418998901502 0.13244128759586626 0.7606803821578616
-0.24398040222726891 -0.11002510976357982 0.72920413065206269
-0.37144985561001587 -0.32675869464436946 0.74234486791855403
-0.12183264385411441 -0.32948844223439711 0.66268836216987914
0.23776149882647069 0.0110107214813846 0.73058726874880264
0.60640014038028056 -0.40424379234776797 0.70986044371523604
-0.048256960480404842 -0.40690060019573338 0.36227315613304789
-0.71440115292294948 -0.46492424240248287 -0.19438725170479643
0.36723050675983426 0.71608387953358044 -0.27512496613955051
0.36833224407142851 0.061923119294901241 0.28873425903861616
0.2765509277684508 0.83187572036438517 -0.32171581450334585
0.26134665163583826 -0.4412488879647265 0.48060128367851718
-0.33802842446631498 0.22807493193037942 0.78300582109700834
0.2698556344867038 0.75797962611501113 -0.22319037210446169
0.31369189660632912 -0.23725213301987935 0.74016237431266596
0.072344676135127628 0.4443997232203607 0.78996959038017955
-0.87785566298341156 -0.81610242062602456 -0.46463256895347982
0.14299423824345592 -0.2369809460306298 0.72633938801081044
-0.88308703319720827 -0.87449026892110293 -0.51040360494834935
-0.26843306683434776 -0.64469435919326656 -0.23359815415912344
-0.89482861829440807 0.15446860235145099 -0.23992099700533487
-0.15957840083349062 0.1115534475550497 0.76376661750703256
0.33599844435031745 0.71018501455653738 -0.28108146768249931
0.39041597728757615 1.1296322086417563 -0.53506418862712124
0.33097751947298093 0.037408908815602437 0.52585609872929773
0.41732033483837583 0.69241840203636329 -0.24331545361186357
-0.28084484783097174 0.50528949622874553 0.76143094544937284
-0.42427593661911267 -0.57520366797152356 -0.0040654461937617015
-0.61001951685954747 -0.23756108200533088 0.7055070890693802
0.18081735079495775 -0.20506800117124957 0.7808286574227008
-0.44822431488056047 -0.0074528914741467389 0.78958329887394996
-0.51360406869009001 -0.064012349822591297 0.72973823436188567
0.41423126563486079 -0.23662879428722849 0.20929554440669484
-0.17681755854507486 0.39555364793720393 0.74441013993849658
-0.46186097591935926 -0.073454523350585887 0.76017629428597999
0.21348812802336248 0.86647093625762484 -0.33236640378610893
0.17240673527479977 0.69862497728455786 0.59741949732242183
0.66846172913585367 -0.40280681713730004 0.66046858552786958
0.25364641055096726 -0.059579743956601483 0.75387949224831097
0.27198179097496133 -0.13675515904212876 0.76669938864530174
-0.24152280016541106 0.56006933566316519 0.6552319989999873
0.28090090564662429 1.1573625837587906 -0.43180371213458102
0.19858329028965649 0.70202500022605996 0.31122618738564256
-0.045837487929242471 0.2953698854936011 0.82531287971956502
-0.074579618444882811 0.40496075130982501 0.79736307017881813
0.41867350459522257 0.91399098869204209 -0.34666101282326878
-0.78155512088534707 -0.87285099323482473 -0.4372604670551592
-0.48862835247208913 -0.79756533734099122 -0.32421908297883029
0.35942929742448815 0.51403080740927898 -0.048640946483308412
-0.50049700448380197 -0.75266657029871897 -0.30211333771159588
-0.05801081864684221 -0.30388362131155322 0.54844676148962002
0.50500625638748087 0.73000382248147222 -0.40461090104875375
-0.47613492869550811 -0.71544335565089767 -0.26238671978159722
-0.18385861112140311 0.49353042917765499 0.74806716926025985
-0.51402895471901644 -0.076691851960003277 0.7117091693196933
0.23464498340769335 -0.06816605471544257 0.7718089425272634
0.72491396834538424 -0.31827762985035601 0.64819379501544283
-0.0094300788123735657 0.19550221608849139 0.69329529499465714
0.080760525015046269 -0.17039121668569024 0.79593607859393778
0.68145570945488654 -0.30813851564813088 0.66986237682691829
0.90910149589420364 -0.35002404837894119 0.51001148079049763
-0.48994728872596927 -0.30262435191171999 0.65311585000301342
0.13450678924891601 -0.17893789324989839 0.72219812186660093
0.1265396056217245 0.61927151810925096 0.68736199326358616
0.54866097262328228 1.0109463566873549 -0.38207419816304622
-0.66495941532620861 -0.7552337214974747 -0.33884591576955359
-0.26633535621927873 -0.20817239622772732 0.73464973817308099
-0.036382957071054989 0.94280430430329165 0.097442898351067342
0.081539736727460621 0.21713515827546725 0.71281776422359222
0.28137054324161603 -0.030218262723312961 0.76417342656490028
-0.76077999786357609 0.10665130615206575 0.64529689424785452
-0.54373006472649354 -0.89983751531742762 -0.46120983944963001
-0.33383929347845243 -0.33323528948996195 0.6603439769675461
0.028300270475407174 0.63035748349983134 0.65841643456208132
-0.12405699864775865 0.98025529971458436 -0.018524188627319305
-0.73886317547569558 -0.21582865703815113 0.68498419668241084
0.70596197739148625 -0.38399037349464304 0.64026376836508447
0.60468404473566739 -0.2379040189631656 0.73069422088098435
-0.23461347448209935 0.49235794025610247 0.76634007722160291
0.42864524257098235 0.62895062904737919 -0.20609339172810159
-0.52493889771465252 -0.77774156997222743 -0.25155120370334849
0.09083217644173569 0.86745824246422831 -0.391771888289
0.26328329858034838 -0.35160829293289808 0.30887187003061634
0.35739065834768091 0.56073239301678068 0.12300414829651274
-0.04452174181452051 0.24056694666393064 0.70418261337478327
-0.73505062767678453 -0.67930440676550408 -0.3018857939551598
0.8595884376730405 -0.42867263161946489 0.5615887562569295
-0.34767317076310178 -0.27059403193699261 0.74165403918481054
0.79378855522911085 -0.39606254683964526 0.69071485337559935
0.29849330347790026 -0.35882865882007398 0.67133219152837142
-0.85186533372004636 -0.8268247614827926 -0.432304569296452
0.44107272435288625 -0.47526488668977418 0.39599621138650676
-0.43856824388214388 0.45752722972965909 0.66544828469939432
-0.76117172223975782 -0.67925296850158912 -0.36117513679677771
0.14055743855459379 -0.20897383322826446 0.77472816749357243
0.73583625359442895 -0.19990267906140957 0.70704867528911741
0.65039941883107222 -0.43015572023601223 0.66136364278412607
0.14570327112833326 0.54501906278054602 0.65848901761607159
0.23361528211477811 1.1239455072311868 -0.40521456160317193
-0.56034543997024855 -0.67003099826218993 -0.14074840837641567
0.74270170671861102 -0.57625688885555348 0.62995716284226866
0.20718983187233686 1.1036404044252857 -0.29457522678957559
0.01871892851824164 0.75225626332184259 0.6952108873349232
-0.37082395201284601 0.1023559646102461 0.79685150736947818
0.4843645701489363 0.64520276471016125 -0.15280074648117825
-0.44265709030707256 -0.37573657926067394 0.71433398279789628
0.38380395449641025 -0.063786355305294862 0.73690762977416568
-0.24721175829640885 -0.093811710727002229 -0.66995080258615758
-0.38787225439148099 -0.0085248019359731586 0.79226862891287197
0.2104324328332714 0.94103267781905853 -0.33252851621148238
0.33026001757960444 0.9340999428980421 -0.33912517027306421
0.35364303331229507 0.47780762870728477 0.0064062860339024752
0.37977505065380779 0.031074449726535391 0.5217828779577367
-0.046382833805915347 -0.49287857265977664 -0.29116965126342897
-0.52280676583519536 -0.24997690546328499 0.77365720664095328
0.63622147938457907 -0.36276510861846045 0.38104706193071891
0.67739125491044749 -0.49642309419622244 0.70018374227905156
0.25025566548714195 -0.41089182070616115 0.39910254258668054
-0.31728673353576742 0.63966735416663667 0.74426050320812287
-0.43162643238468412 -0.85309071876584319 -0.23135019410355362
-0.30049711860400485 -0.027288564902624657 0.78159399252654715
0.40096620298954644 1.1413013379919006 -0.40043242107925359
0.87019486423255099 -0.40303373084688943 0.47231665484409113
0.11093903838333397 0.83199724302766409 0.50488780426103652
0.14897695121856458 -0.049086789090813987 0.79292203973448849
0.811808051753796 -0.25225364778687354 0.45170946942642942
0.34118819110475407 -0.32463228038457093 0.35092960721274302
-0.19713862371970947 0.75217423876054479 0.37625717053058949
0.39037047945988146 0.83139945396211612 -0.3123652490512665
0.2190253360643224 0.89744253258991247 -0.27296016103208309
-0.50744290184348451 -0.60837873217438787 -0.39228360373121696
-0.16848254514236594 0.42046738435172504 0.78698469293015094
-0.060964704278717363 -0.365645669597642 0.50121789398590444
0.15593839639996965 -0.14674786866617051 0.79758896622226061
-0.34159431512224003 0.093265809928365861 0.76126154123951117
-0.53130849840004579 -0.10721490014669932 0.74474900481810735
-0.73258204152886375 -0.68329823196672823 -0.30929740042757814
0.17623026373969086 -0.38786881318592492 0.59142678661337911
-0.72193598232777489 -0.22402338818465584 0.55625779370608797
0.30096054936065109 0.61151424558484635 0.22147305518791782
-0.34354466792873595 0.35048994813723056 0.60019533344947362
0.15465115692104803 0.43150840371569643 0.6926747616744855
0.3494282412222196 -0.54874463086003367 0.42136732827646028
0.15599532509777525 0.34228385743885159 0.66107580853503123
0.09409535481436393 -0.33490371181585044 0.46149356506333028
-0.55221420776467411 -0.88460729142726624 -0.36721553251760497
0.7725300126449488 -0.51513755302798181 0.6442503964250399
0.14008879688345033 0.67665826064416645 -0.45746104856750414
0.24315940347028775 -0.11126149564120258 0.78667897950533217
0.14998880695011962 -0.33630722363287013 0.42491931196603083
-0.36214249140707189 0.37696120385460841 0.70771695080857455
-0.95848988974366467 -0.72166095174305767 -0.37352896821152193
0.18553493754434669 0.82394849251654279 0.08934653044533114
0.34396769836744401 0.79008714308935435 -0.31127821311758552
-0.20748826557647426 0.25578342427560585 0.7619792877124425
0.4245241136239315 -0.55881214346331554 0.61837996944545814
0.45189973282405838 0.82684572998848971 -0.4167612340135296
0.46200004648571102 1.0961027205549918 -0.48418148074694223
0.11826661381896741 0.3863371554706827 0.71897192768654605
0.49515015938953066 -0.66191367757442965 0.59472162626703273
-0.35176396720172409 0.86827054799894032 -0.54947370725384559
-0.26043560496602325 -0.20007372481934826 0.78315081559561861
-0.87617445427419227 -0.85818148909437664 -0.41267451091843377
-0.28131664924183397 -0.48725231786790602 0.46664925560342319
0.5191720649250815 0.77538036315435477 -0.24454083181949571
0.081713181314468031 0.77552419916751081 0.40084377451158737
-0.066370393047007425 0.37417513958165749 0.78886310837708962
0.34548988990196605 -0.42344300273139268 0.36247737720498918
0.069350887798950822 0.5990342537965665 0.70203752098775851
-0.89115092020347397 -0.0087267549317884274 0.074920631983351527
-0.077355412293991677 0.6773798047437829 0.65233055959626718
-0.28647694065123197 -0.50399596165643246 0.33097461941106587
-0.59015248293882916 0.0015713098086997945 0.73102661599003937
0.41251065504419149 0.68090834649646137 -0.1742807456408233
-0.41528272931814048 0.11399749433636508 0.84321948414926418
-0.25549281249610267 0.96489253239090367 -0.39510797166198408
-0.42653279123579146 -0.55708099996632043 0.48781370967441262
-0.51458117247095991 -0.40132092586074997 0.68475016520453202
-0.50269679555058566 -0.5922783999828507 -0.25091376027341994
0.3485537753498491 0.86530772078407203 -0.31640849875474508
-0.65044354120025183 -0.64042732453148421 -0.24954842613349193
0.22368333666853246 0.6331615724364088 0.58555065218199687
-0.033294982531272055 0.63772446715319653 0.64377190111390803
0.60946980742912693 -0.36165581739393549 0.729183935640485
-0.040399763841342917 -0.15075728958812462 0.72453071228792965
-0.58486699062850178 -0.91127320943521894 -0.38152174181577259
-0.065730775634261107 0.11469363427233237 0.72971822780795215
0.29534247790000201 0.75642024009697817 -0.24210893931695665
0.17387387802165666 -0.43486984392746297 0.45385863917409708
-0.43083543296205562 0.5658244648005315 0.80986286708932376
0.73076414701955361 -0.53017702767934693 0.42831093462846503
0.22217158175795504 -0.094466468943769755 0.81091815584968252
-0.56921775622331072 -0.050362574859852849 0.73145764500468857
0.61308704400282377 -0.29446616834605788 0.73255347162253059
0.57266751525156145 -0.57277592756095697 0.65526314043399836
-0.38034669057392634 0.54260869442904269 0.7898752395623525
-0.04808555717615981 0.22414901278681931 0.74684478982832836
-0.089690416016230401 0.23687362627583752 0.7701745903494075
0.71510825441666004 -0.34732143205734189 0.67582607559546837
0.086735945642722356 -0.19152770630434102 0.76721832626058983
-0.43474328904996895 0.20917929938418389 0.72783470964769492
-0.39957278233962512 -0.77249058465685039 -0.26760276599169863
0.20132603513612679 -0.31325623722945206 -0.14317275300776089
-0.44464084164471895 -0.84808817004007864 -0.33470393587410641
0.52392230851261079 0.72845910074073661 -0.25261907937650818
0.28786010990511013 1.2745103725400702 -0.49881221158795341
-0.020517245927079486 0.25503530643273642 0.77814439248227707
-0.67097653316240002 -0.71205449610931737 -0.31558843168302175
-0.31576416651761541 -0.20790304216427913 0.77824976076594332
-0.41218560380781177 -0.76090317821505238 -0.21692689856223701
-0.83011740161848646 0.35883053195226555 -0.33371154784586565
0.071610910514092296 -0.26152607047926058 0.56802725993634517
-0.36668995625365852 -0.2189458645867095 0.73400065155920124
-0.16808981262217504 0.97027627102797975 -0.0058952517595454168
-0.15877398745149485 0.50590709736390593 0.77472949255257895
-0.26033592069731881 -0.50470957299442354 0.44586279832761022
-0.61950420052780419 0.50073702636005724 -0.52685342178994077
0.3190611365553977 0.037845958581850248 0.60138749541153835
0.28548724738464948 -0.18384215427921813 -0.33580220322112453
-0.79438052691473438 -0.73629723033231276 -0.46732933723063752
-0.76741000696574524 -0.33014520106535628 -0.42884322565042865
-0.11024661444140271 0.38388482627096554 0.80999135843439873
0.49815638679243168 -0.082978261143562548 0.65719630487444824
-0.55691715246631901 -0.32250273673712471 0.70211542230643964
-0.57777062110944932 -0.49362535776416383 0.59252914042801841
0.17659716473466069 0.087537484733549498 -0.57292325000758559
-0.60321386581971215 0.24856780895160124 0.64179600524000513
-0.10480319073910316 -0.112400863591823 0.74587491221687152
-0.042439933691508003 0.15820509261733573 0.68728909120603809
-0.8307972658404692 -0.77568268190525025 -0.4818111773997007
0.3241447627304499 0.62157049497055095 -0.13946604618279324
0.31354286888570204 -0.37899461909582488 0.35296845347958161
-0.49748940601326019 0.13173748701618759 0.8061937594459625
-0.27515868605606375 -0.24676230544677225 0.71586326972718695
-0.21662457493691711 0.79029706343296535 0.30805702283389635
-0.52882996989798059 -0.71189200253911533 -0.30035293277319575
0.30264025127185157 0.36805694418663482 0.5542854920983693
0.56052134597364311 -0.028218416376286193 0.41517956605976281
0.27811995449923632 0.69200198598292673 -0.33304552558127831
-0.33300506016763709 -0.67718658692657918 -0.35824619056989704
-0.79654027292746754 -0.41027567255662944 -0.28427339941014473
-0.42021123796904458 -0.25104554839159565 0.80363056234291008
0.30379407505626599 -0.13570640172708703 0.77543040704857091
-0.035156451411845424 0.33571983197947031 0.76376324638045467
-0.56905077274400995 -0.78936047832748013 -0.32646303735360149
0.30754543483493357 0.2888146654997632 0.44912604090635178
-0.047738023278879993 -0.22343976976953606 -0.65402517796785986
-0.12277554521636347 0.49036204627850388 0.75886602343724974
-0.15218073745716865 0.33636034748264265 0.77891455715338509
-0.52219313032126635 -0.76016121926453373 -0.33145263989761098
0.54133219503071039 0.79700766321214278 -0.24435316312435873
-0.23589393888221455 -0.43059007695957607 0.61472171279995891
0.16474163877345838 -0.10944059770728654 0.74749035139363684
0.30101151975941498 -0.39968815414605885 0.35029801536209426
0.41414757653525403 0.86111374700520038 -0.31285285363701121
0.29689790025544127 0.74490087049300779 -0.22168605642990968
0.17749676002671855 0.51682645168446939 0.63647487033287575
-0.36564708901179888 0.064962209696168394 0.71296156797950339
-0.24471136783705028 -0.60467248836368093 -0.33628493088866662
0.31446214792323612 0.35401327967440377 -0.25946627424944069
-0.49318182273194733 -0.6302919468835011 -0.27459753056004921
0.037148592945429826 0.65485721268473718 -0.48925758479902548
-0.79502681532041208 -0.93008941339254747 -0.37656476347184054
-0.60364394823978795 -0.78928106243739737 -0.45975322859028545
0.21356461457984377 -0.16311200662911496 0.80373911207744442
0.14406351021714947 0.51011441252744127 0.61000680916267491
0.5336457109979138 1.0428832606642873 -0.47310559872941127
0.14123062005687093 0.86364100483046791 -0.34286894091856546
0.27808921652227081 0.66812405571010647 -0.16461634339626308
-0.79318672369793219 -0.84734233709757945 -0.43770453207955029
0.18796827250485038 0.35551015848561907 0.63840898716240524
0.19296847920306082 0.85909967886484573 -0.20357709457205786
-0.79706405825816784 -0.74136861490181527 -0.55147539864946005
-0.74800922801089875 -0.17713706665762796 0.57797208042854287
0.25427789950560076 -0.46181889873832382 0.44520889967770749
-0.69332476339808569 -0.15990971607799676 0.70448002013833744
-0.57072794847714192 -0.1376859381833313 0.73222261195841298
-0.6249044474731944 -0.66243549563120308 -0.22168439021234931
-0.2087180678117333 -0.45166099867937071 0.52324556620511942
0.46211712851200382 1.0934491671119009 -0.41205203773833432
0.55910596104716515 -0.12656496157157271 0.38402624455669176
0.4728707638224483 -0.13531198100011466 0.2863740967299595
-0.522774418471462 -0.014790638465911776 0.80629124690203824
0.41520105446222288 1.1277442481428972 -0.40986660202892011
0.19222814163045587 1.0843861355843831 -0.33625388993266192
0.29714281359972361 0.74516623943665383 -0.27719397345413732
0.098923209110513 0.40071006724248281 0.71797675351946566
0.46660304694130694 1.1345527672939211 -0.5386827450641718
0.38625697291631766 0.71468237308699223 -0.29990251326165485
-0.77096019888845646 -0.24935665985240441 0.41001352449225692
-0.17525072705485201 0.70344022098727255 0.59425861470918484
0.34861057408607898 0.12952584611844209 0.37580530383064925
-0.0043513174337874716 0.29950780708112923 0.79203458605188182
0.36075520343396317 0.60093410699298744 0.048700016051233419
-0.28710097567865045 -0.44372427274456072 0.56418541297766289
-0.20165096420791073 0.61595628359877796 0.75927561842200042
-0.30684188247060451 -0.11023313945191671 0.80107733353172428
0.22913345421317999 0.73836521398072552 -0.07065789923932897
0.34210712584629377 0.83069125719508374 -0.30500625800919323
-0.35484077365208488 -0.04418841358291381 0.8137756387166668
-0.25944374974187845 -0.033278946765871176 0.79357574136728992
-0.098621991230810835 0.96366455222154013 -0.09407316588205461
0.40931964860886527 -0.074075313220762773 0.24613242150294745
0.16536030577297112 0.046774212635912527 0.72447652847192323
-0.36204618587313497 0.46422079711731357 -0.71106036139912199
-0.63205585715566581 -0.20153336715411729 0.72302685557692037
-0.55044416131814433 -0.70239812103495858 -0.27523638984195742
-0.23042069113975749 -0.074419078590187482 0.78807884617076951
0.22705912885832902 0.67780894334991704 0.54787881931645011
-0.043620929841670986 0.22654920806949352 0.74667742335050136
-0.1724372887840282 0.38730016445223292 0.7707288668681791
0.51719692547021623 -0.52658203047894503 0.39101644169079464
-0.68370033038682188 -0.78927962264491569 -0.35671454220089238
-0.38535796111948439 0.31351690500137241 0.75735517965279797
-0.39848105647190124 0.7674659522128886 0.24862835009020223
-0.40956523957261037 -0.043008350922042915 0.80600993049060854
0.17025340390318 -0.19834516401176394 0.78354980209424063
-0.30825104460704011 -0.70825996925231038 -0.1131307946454907
0.1228765115436552 -0.15153876019079515 0.79273978458331307
-0.085623204104676276 0.63744298539895983 0.63987305862266908
-0.084907156974761477 0.16946115528255934 0.73774516782540012
0.7449049610095777 -0.48211942691236054 0.60544657661670875
-0.24748859406730706 -0.12478128058049887 0.74006616455494445
0.66035301339280039 -0.48792227374201858 0.71223863641605156
-0.18286675281278697 -0.04280191796620425 0.66437931616946422
-0.12681017160203112 0.24310970151551548 0.76218827567378789
-0.90186593166414575 -0.28439452535627829 -0.021682706990503675
0.24059675821580129 -0.028608914911546712 0.8032524184522174
0.89995891820025076 -0.18927607138697766 0.48761789549850043
-0.7994362589616637 -0.0046362026543889101 0.65170121023381355
-0.15837556447795897 0.75708337857806818 0.68230902979284735
0.39868408345299144 0.97292408297424604 -0.40388808098031603
0.21915270855998426 1.0292710308661048 -0.2967583176653541
-0.84031585117076624 -0.63902831803656657 -0.28622548807697257
0.088494263366515113 0.61817193291553085 -0.53238071653963992
-0.72931052451437584 -0.88495440761160271 -0.45275923258887296
0.29000029858627663 -0.084177526186435259 0.79491914164924538
0.022341803491805479 -0.12274854402328916 0.79951605361306477
-0.65969365695283866 -0.69336758720619507 -0.31080437423051777
0.3318949996702516 -0.061812840649463574 0.74380125602773361
-0.20516412237153148 0.32602829687878643 0.7982977374177711
0.22054160107778653 -0.039651909889627746 0.7699707536194893
0.59715765000815324 -0.48877913222692282 0.66158565776143519
-0.29352268548005434 -0.09882928063528329 0.79792569422543203
0.039874135779111697 0.30593391188501062 0.72214569874389944
0.88448002804073944 -0.30419970935047314 0.45773876144425785
0.3805790601892971 0.70214704972560149 -0.25333926162043952
0.27832507220946479 -0.21750279002373318 -0.33985771749394189
0.71080391050787028 -0.098647608307496526 0.55320148203066211
0.035053525489621151 0.42087645622888026 0.76991775366550996
0.52707116695501899 -0.011891055434974263 0.61980035742760897
-0.33350207552753197 0.4708999988152156 0.56666117896781287
0.12924740079750485 0.75451221388379075 0.68035863719867429
0.62535743405331701 -0.48607130901862838 0.64463768947480737
0.13940257882184781 -0.20812135611233096 0.74242050101154611
0.30500942593115177 1.0504415598919312 -0.40830023761606249
-0.69600427064499382 -0.92100307078907573 -0.2977903177535417
0.35159765950144894 1.1163514790388884 -0.45152326374507368
-0.065856660033213998 -0.38585847160167219 0.60220817683136119
-0.59807038007294722 0.019460579682871959 0.73479890306838236
-0.63212621055273299 -0.4980836801432087 0.48233662276084388
-0.7614288685233479 -0.44391955262486693 -0.23723873729280598
0.28358291644072509 0.65324551543199938 0.23654032026503202
-0.54383449395067807 -0.79566862012471606 -0.34774735798560563
0.89127722406743626 -0.34872144979846809 0.57435815643347965
-0.43546985332273014 0.066742541384459564 0.78247581479122097
0.085280219636530319 -0.16248536041746053 0.80493323677003659
0.47209654091121678 1.0278791686059119 -0.4799617969703549
0.18251837149646288 0.84900981626983807 -0.16131186647797335
-0.022363318961383882 -0.23555607293799508 0.73613593060121829
-0.54361207880177354 -0.084209221796180955 0.74645118263138777
-0.12167977346453007 0.26501805969072745 0.79218023819382211
-0.15376199281316971 0.7576333610459649 0.46679672609511869
0.35323891915011618 1.0148817692063128 -0.41213591945219541
0.24245809659152417 -0.013881874710943265 0.76752771314306578
-0.18741233176467098 0.5859363314452688 0.75545832847466343
-0.60812105569523833 -0.041415268612364997 0.73364495662003293
-0.44255152887736848 0.046172818868499554 0.7968541278697483
0.30469742666108957 0.72245419629792273 -0.3211087807176316
-0.35687877379078969 -0.25000302167187538 0.75958712061872014
-0.042445888574363266 1.009067468837392 -0.2218896222339648
-0.54683439314595006 -0.033275247619727999 0.75225433864418711
-0.81796639253414583 -0.68240524517990675 -0.47046815127608177
0.58643502021528615 -0.64490107130947205 0.43687422314087065
-0.49135670448272872 -0.90756483123805065 -0.3319641683012815
-0.147995582497078 0.72113061211391116 0.7263152416774048
0.21570758225823194 0.8355391733447215 0.14495257875445233
-0.0040768894309088921 0.18356504710410348 0.78459807187263308
0.21457680853169592 -0.16381428431336253 0.75888347781671861
-0.60068603623191219 -0.93940282071905479 -0.48350160004818044
-0.36885389020368109 0.51452646826283566 0.80715482726011167
0.15744056595829825 -0.078527396236506064 0.79425083640440697
-0.092954660836658043 0.99306601515728232 -0.36034094279435713
-0.50008762300466891 -0.67122902562435094 -0.29463974857306852
0.32183227062398156 0.71285865959235561 -0.25610430826329633
-0.52442047537121095 0.17075007119494323 0.70607857474544211
-0.90490230649176606 -0.034611209616649319 -0.26092038285524666
-0.076297821016579448 0.33408861583304095 0.7892715281121685
-0.46158349644168339 -0.14612938703296763 0.78018851533569489
-0.82469547319962366 0.44917726419686232 -0.24358811158656302
-0.60985469243511936 -0.52009647151428329 0.30020039035061252
-0.56272448851742407 -0.62497081428188483 -0.26707009124910641
0.69546765853758785 -0.29146058783913187 0.70052179956304528
0.4378713574419173 1.0195500540133748 -0.39985658493916887
-0.047547117613857992 -0.31515079016611836 0.46888535625017269
0.26312925661507869 0.10299726230809636 -0.43773588309198885
0.23498972612287083 0.35995844147037381 0.63310641507654886
-0.74596493696549171 -0.10280949534844375 0.65371716962141768
0.22702746651874062 0.7645492489736796 0.53094481029243212
-0.14085193974324461 0.46173842733389137 0.80759787191780674
0.058684096169299593 -0.1300431985343744 0.789476064838464
-0.56405199039324572 -0.6730635378963914 -0.28775115505601079
-0.40524130483895782 -0.76801660369411184 -0.31533878096164969
0.56753119626563642 -0.50752373527928896 0.70145474398681884
0.11354644372029377 -0.12089114065750195 0.77253533870984548
-0.024683475432265567 0.47166820990423286 0.75710241267314871
-0.30550379375899972 -0.33953523246437101 0.70911306198215485
-0.17362347828738933 -0.40759500642561086 -0.53747579021485059
0.17251280509213629 0.73826480855899579 0.56462437822920464
0.011335116493494723 0.9435268966708259 0.033376257646082763
0.4428354003948467 1.2090425365746968 -0.40478454697286637
-0.2926891829858409 -0.12634683060417462 0.8279101117080554
0.56337558917189678 -0.48068536652509586 0.7373534031207587
-0.129845207431039 0.41997840911089579 0.7861594620011978
0.34276270067069525 0.11983930664750719 0.39942499514622298
0.62778128229800245 -0.4850132763122188 0.66005764540777356
0.3167509005901028 0.23884981367114211 0.52874980245870873
-0.49009578883446636 -0.10746718969214175 0.7424222808152745
-0.41074962951366256 -0.63101811607072467 -0.39676712306191142
-0.08396685540961446 -0.50954695857552945 -0.16966922878274815
-0.13637637130151958 0.62016308518120766 0.73156977296222081
-0.22019101511812611 -0.30508486151505476 0.70213523432920866
0.33773787718467752 0.64781054277441008 -0.22450268804465701
0.46682594931168619 0.73737929943004232 -0.23278386239870841
-0.13720186230515985 0.65445591758040411 0.61513567430353078
-0.29008716532899648 -0.036151971150466089 0.75804839227215837
-0.27176844149616741 0.34561732563723169 0.78408780468561901
0.01941507789384822 0.86587333355451435 0.27148262673337165
-0.42636459074496535 0.021820624568195335 0.82387584446506779
-0.33379266434280996 -0.050754225650366358 0.79649108198028351
0.5889567655065937 -0.54548057603218236 0.72274780562993435
-0.38577245039443842 0.064687420105522087 0.81071702264031664
0.29916130032341215 0.89424143921676258 -0.33371179553399344
0.78002325589934873 -0.36435009072147828 0.65504332428713141
0.19428942199753152 1.0214686624784131 -0.3172856615965518
0.31744040870767964 1.0332524804251477 -0.3969512832294555
-0.25998529719881702 -0.26594328973401016 0.71469837994046514
0.12326302761613661 -0.26375586935752171 0.65034743169474574
0.32841066106798156 -0.087353480496282998 -0.35417820275566037
0.37279108813502759 0.72066007220266304 -0.3092295928309845
0.86750963943282855 -0.22635388177409954 0.55746570128182249
-0.50212052089495796 0.1917787906661399 0.81455818568416838
-0.2833446508346924 -0.14766245978951265 0.8094994235495534
0.12785306825720788 -0.042845788340551749 0.7686638535681336
-0.88966081330090585 -0.66753720778095271 -0.31908867081557801
0.30369304462083768 0.76279974342850565 -0.34482858899215785
-0.62855182242739716 -0.56366635258601683 -0.038357872850649954
0.28797064568724995 0.69427166988389732 0.48908622274199942
0.11671934247670102 -0.079937226244831017 0.79811578748036283
-0.01850080058689052 0.59385825841852835 0.69241794124741141
-0.60810379765787648 -0.21680765741876673 0.72537177115657592
0.68918285143123903 -0.63375112389095367 0.67885952407189087
-0.56071615174417655 0.052010664759248648 0.73842736087040173
-0.47336866120534804 -0.86681926463586212 -0.22549510666048
0.17691657169050323 -0.41362288663101587 0.58456808258126003
-0.3554225100835815 -0.43860244076261878 0.66340085454493369
0.27046182840205191 1.0608128071802883 -0.31223651259704077
-0.44094582073365363 0.50087252285968642 0.80565835040975742
-0.51492921225490207 -0.75287398829899743 -0.23897931776006409
-0.196173591287371 -0.053991122162488914 0.75954273288880358
-0.0067795188059296407 0.32460765140539305 0.80581488986373451
-0.3655166318130183 -0.1058865631409196 0.8167417094041447
-0.51650014366345776 -0.65783886250554069 -0.28543175193740744
0.047160956890010652 0.27874442068772165 0.77030513402833378
-0.31266450234822596 -0.25516118271282373 0.81351932320357712
0.28479209408357153 0.77220881376439277 -0.33734278464391743
0.23171251295273798 0.63793486151665313 0.53989637260057144
-0.8765158237082824 -0.71097574845814915 -0.35690823209019307
-0.27043312382207851 -0.081842989278611 0.80493277749613412
-0.11469997931306786 -0.083666949557842152 0.70153660913093674
0.068495023185757731 0.6021577612405089 0.66090862459898503
0.68124695761049026 -0.42941445107497245 0.66472490516720839
0.47301428673147683 0.89426234439304242 -0.38265429423577402
0.57494965053634672 0.97566976415656992 -0.38049235671316595
-0.77982600335385488 0.028243986437825441 0.36893309398626783
-0.75433660152999504 -0.38582198750618701 0.6469811987164622
-0.28909295531162371 -0.046060887521875316 0.75381465886715304
-0.35025096394193067 0.031274441742971781 0.77309085600785821
-0.099039370141868588 0.46087682502937355 0.74701846340131794
0.21841170622130157 0.71833758343430265 0.26582576602571528
-0.43238636178827061 -0.095616464199379969 0.77419113420693186
-0.10458200172536181 0.28723551152116311 0.75020953536587598
0.27831210295707542 1.0148445086205085 -0.35974248561849187
0.26445988996709957 -0.29471410162371736 -0.16673794303443223
0.17628428846709099 0.45400710910656095 0.73552581325862221
-0.59890813998593995 -0.0021469534349076724 0.80152954675236465
0.74967763287354927 -0.2678526296887771 0.40400173163753195
-0.41574423057223964 -0.76257776468606675 -0.31183124899215287
-0.17997134304605567 0.56403596789342636 0.74545113394336404
0.054041746854228023 0.51560165119229318 0.68767016011302573
-0.61584240236947885 0.2406598529710795 0.73507415331145154
-0.17794338568697654 0.24742231012390548 0.7031110954259816
-0.38136630765981838 -0.32050858135708804 0.6865862969664267
0.37593225339171799 -0.25451971063514645 0.28529207045337834
-0.54496363179492047 -0.3151172502620172 0.67624484296771392
-0.53028948102006002 -0.25393841412357965 0.67016737258413883
-0.41456022413873317 0.012265599875957989 0.7261958336296388
-0.32133729941069511 0.9190813618930358 -0.27425983459420245
0.7110825310268547 -0.3373295899014197 0.66582681933260446
0.05175145491527644 0.3741485598333254 0.71090485118826052
0.4502325643337084 0.75379557933057573 -0.28868594073450282
0.63151761266659623 -0.37665397492510522 0.69693573494407524
0.17478558398594668 1.0344784355079026 -0.25426426855300122
0.19689795410895794 0.82884883618091454 -0.29198130259507593
-0.22856802495585171 -0.2357402831869404 0.75665311115394296
0.22861827114602384 0.047733219000925864 0.794468775496874
0.44593743546163278 0.84818397670900048 -0.31373354931091946
0.42255645182990431 0.55057666381107495 -0.27985955515066507
0.398004020500486 0.48357240537564117 -0.17232233327088231
-0.60705433299531553 -0.93519187182120334 -0.41867653561311258
0.042909605547027496 0.68235810366878979 0.69282664979282949
-0.14928540911052224 0.2524396042235395 0.77894713972222895
0.4211418144398591 -0.15052964455523377 0.24963737720720047
0.28678547572989999 0.99324782689274826 -0.33593354795665142
-0.4408293398625549 0.069579280604508575 0.78969879193959791
0.46212361967382432 0.57006883741367709 -0.14625578810374584
-0.11936474429889365 0.75183359209785383 0.68746051548194842
0.19855318756710538 0.02232372080054823 0.78528569214604538
-0.59020318805866445 -0.30298102726235765 0.71138314041894546
-0.9323398559186753 0.015987899832788699 -0.035970775877688155
0.43265644877798071 0.063485352325488797 0.20259870552988524
-0.16769953212791577 0.64030185685142449 0.58923139385556489
-0.24553829911229386 0.43139173805950914 0.74250472230671427
0.33914580470693156 0.67009140159125558 -0.15144991054130053
0.71450959683246484 -0.47643524845131324 0.68897570286476828
-0.014110706736783385 0.11071741504993593 0.70016687127844968
-0.52951682466353134 0.027330591908276247 0.79132897041639261
-0.77445416986082183 -0.5608434917929408 -0.20590393773988502
-0.84277579652057621 -0.84790348766014034 -0.49483607907188798
-0.41054161382366594 0.01026047231424343 0.75696668855143479
-0.7895513273705026 -0.49989607436877304 -0.074388284696430773
0.8907772975368724 -0.22660107794403483 0.48270033619768249
0.65894987764776136 -0.6212043491472059 0.62030614541116691
0.52467531801047151 0.77922746435296286 -0.39422185965899281
-0.71584492106453901 0.53371406863273485 -0.1957125631998835
0.031366007254812978 -0.49635049544627297 0.018742893610562916
0.73021797325034665 -0.32989002253753608 0.66866209807897725
0.59487500555259221 -0.44200369115614535 0.71780460598416873
0.71757210795754922 -0.50927421476544854 0.73203018073988702
-0.86138966797033412 -0.64524853331566145 -0.30519793466998557
0.79849715477679606 -0.33814685865836491 0.68322257857550817
-0.85740501592803042 -0.7682959384025061 -0.47411157850959817
-0.29135178913584081 0.3663563068019382 0.78683510024888292
-0.45828467526385452 -0.79311341538529145 -0.24965095363068102
-0.72940590726297394 -0.43552961657805245 0.41070703997521107
-0.21145384391128985 0.40426680400379844 0.73280091190049035
-0.3359136977696533 0.31901373072394801 -0.73602055798356858
0.38040551749830609 -0.087463083415399545 0.75671184908732592
0.52244381740631951 -0.45873355665983961 0.71782218090723582
-0.073918499917073888 0.53972424358279625 0.69409213377570289
-0.23016216228394271 0.27298252113643695 0.79868948686378083
0.55437210000449966 -0.23550601535775861 0.4044053756234387
-0.71785938110100034 -0.68404129695820437 -0.28316905383709745
-0.12598476941029801 0.52224535963744056 0.73916609034052527
0.44064767697077212 0.71127939710416044 -0.19931025124153479
-0.77609949920251786 -0.68199258614943226 -0.41821286869668661
-0.38453962673227693 0.15373429725685295 0.8114887959715098
-0.11074687451500154 0.42608131055660792 0.75987553247045803
0.1051388314537931 0.31412065638715436 0.72253142718204977
0.32251594868906253 0.50331828703709558 -0.39340032704486028
0.34093380126853923 0.027982280238416202 0.49815127402516524
-0.12123236597360609 0.43860964662505353 0.7504123462366401
-0.4018813930912728 -0.6787921075156147 -0.31495469210039495
-0.71675136068213963 -0.9426989903914853 -0.45905689134286476
0.11813636278457107 0.58563351569053967 -0.51385141038470827
0.54020367250674095 -0.65854007916327273 0.50446511486375378
0.36749281473218343 -0.51594332953057442 0.67370234843272669
0.23231786660220521 -0.10349365966725177 0.77602286102266049
-0.27599101785107294 0.45746305339183291 0.75695611901878657
0.17074226223086253 -0.24899550887603628 0.78590328726105163
0.12467666899375907 -0.29874885317955613 0.68053480677055411
-0.8701431043329535 -0.65417421274810295 -0.35960785795634287
0.71980851481096142 -0.49760117219368638 0.65828699974976956
-0.063646640856124037 0.6117866182248628 0.65702326510152353
-0.29871403310375566 -0.62415093925910092 -0.21272120346544554
0.38140326714430994 -0.4887276845273707 0.38378184797337767
-0.65522916365640782 -0.5070069578498444 0.18783832488014873
-0.81647805711202359 -0.90526304715407679 -0.43424380304957388
-0.23389683814515205 -0.10285820751480479 0.7784053239840798
-0.66755813788479745 0.010646902248151235 0.59884595290830056
0.06635117930049006 -0.31000447060202507 0.53624360246173453
0.43705371304400309 0.72349722374437686 -0.24073329959670708
0.20888742824526396 0.45713208264659766 0.71057731985746031
-0.58594327549993164 -0.56584041656055284 -0.42662687034682101
-0.76463261958629403 -0.39612697061440727 0.64981281053035467
-0.17513720681275835 0.56305432109791997 0.69639057685511041
0.40618945665024242 -0.15427141355084739 0.72394363025198771
-0.33589053729770946 0.053402176579171901 0.80742174062092076
-0.10411969763725004 0.66336387565255617 0.50043998279957869
-0.40786414193046738 -0.29561904798828298 0.70651405921843491
0.13749238723249313 0.5825763703661373 0.59760009634711153
0.62051740759166218 -0.63383411088324504 0.66964314204935782
0.63766859465921133 -0.22031448768752426 0.43590266428646807
-0.84164063163615754 0.2019829087672953 -0.3929585953131518
0.71240669697415804 -0.0843473703057942 0.65056487449437128
0.32392250562676139 -0.39438564996603276 0.40415218028567246
-0.69383556919436362 -0.971855423627491 -0.5578644733462923
0.42281966304561269 0.69490601902600613 -0.22778734409693158
0.12134131455857755 0.23234505232409841 0.7311863542639081
0.78448576511098711 -0.39765447063754422 0.67642560991684419
-0.48842771062315826 0.28492954789626435 -0.66519959642709381
-0.80730031898335941 -0.93776774083100278 -0.44747062474104737
0.15701245946756615 -0.08082212994859006 0.76206444777986171
0.10137166630437733 -0.27648678210881261 0.6616493260070051
-0.50514157021732764 -0.34769235530342346 0.69304670503964516
-0.64099998297414196 -0.88857453678061571 -0.41502179213117252
-0.22890721678357373 -0.11570114629782413 0.76834694791047298
-0.61461994286607613 -0.38247556248644177 0.60816471997929256
-0.3543179773623244 0.37942658333207291 0.80624167484849885
0.043174204089574175 0.38029177028059724 0.80823150714596537
-0.063846925044174441 -0.045506687544139446 0.7260760059569602
-0.47917859023688703 -0.029004708812597535 0.76972236538328076
-0.15520097321639348 -0.061777452031332558 0.77661314153428407
-0.65330756072124618 -0.35760518261794871 0.65554702474876159
0.21886407002439157 -0.0084508266669329757 0.73517928478575101
0.021735646457034186 -0.19455003211894972 -0.68053337120425361
0.33769834012543498 0.19720521357455123 0.21632059127902536
0.42462435533530574 -0.19504940193020293 0.1761504900614117
-0.39216674620898662 0.73794086658060554 -0.5158138263594676
0.38006986547142141 -0.27393664292277276 0.20841533632304099
0.46765212364162423 0.91216450372495039 -0.42368441344847163
-0.56552041594095481 -0.67876113426983675 -0.29052510728383929
-0.60210815884908886 0.15398627935957254 0.78793061443564305
0.28403960116798643 -0.081665994705028666 0.71170425487005318
-0.17043445589917994 0.19645174794756048 0.80068530463482901
-0.53744082075009558 -0.33144117221896785 0.68171810882544825
-0.14903094284799323 0.55867539757260598 0.73083701349785279
-0.18973364902222478 0.00040088723584030816 0.73157215463236014
0.47138845010637453 0.81964276879539 -0.30113635022072316
-0.54798770217907133 -0.56565327202538285 0.42247711056159964
-0.52561571203327606 -0.18520321633642123 0.80187043787903534
-0.75303859103983939 -0.51801138031980365 -0.051138422041098863
0.24695549007710227 -0.28771885325865032 0.72898056614545403
-0.56945385860279085 0.037567463152438307 0.7382509268578481
-0.57857678493706111 -0.70805699530763011 -0.3301168456930661
-0.55037285672683911 -0.034377124347825472 0.79170548277104302
-0.77594297905480936 -0.82114325495560081 -0.4274904929650134
0.22090078275105363 -0.14349616449122848 0.77989546266215726
0.69039320289605044 -0.047155435979147953 0.55377702085413816
-0.032007442483514836 0.93056517253743465 0.15562456408085268
0.072972689266652679 -0.23488554741488699 0.67766007842429232
0.87242654338978731 -0.33719427764492149 0.63684488226086344
0.00939303644759093 0.6723222643389466 0.70131479426501819
0.52114529222638772 -0.21757800808680994 0.33844005786181164
0.27963736339710099 -0.27718511351332875 0.75131749601454523
-0.8485225278942341 -0.89711721647889231 -0.48766729365531525
0.060862201539020333 0.74587295258030828 0.4667872665869357
-0.0043410541761588206 0.69385628311090475 0.58230566777960568
-0.23746202377761083 -0.054653740889135882 0.75350688511288944
0.30203834729765688 0.72215294366692717 -0.18336684933498759
0.25286741260979184 0.22213760264273308 0.66763157189705957
0.10393384271841821 -0.17344452408603317 0.7674108627690579
-0.044509733922417638 0.3560896999637837 0.81850541665479248
0.84885951950638994 -0.41242423988149124 0.47188309633129144
0.47915702696796902 0.88238697542119926 -0.42989832668219208
-0.76309503324533523 0.3386663100286027 0.18569877139232283
-0.57460980025746267 -0.25612205336793981 0.68526886168791457
0.83386377619722385 -0.28986554664195463 0.63727381019840301
-0.28032261955037185 0.68020517516878432 0.40129145233784946
-0.50190140155829877 -0.55264717557931053 0.42179374902339006
0.079996728669056161 -0.3500137765997291 0.44467919003423972
0.32055816628454359 0.895817667550455 -0.32951182414162616
-0.29518203061565895 0.50989850267280801 0.75037872921840254
0.31511739218922585 0.83819839756961123 -0.27578507827512411
-0.79651294457128063 -0.27635049538883827 0.21389595124008132
-0.46527616191861565 -0.42394976028629028 0.68475371468458057
-0.44393444220199818 -0.66405128124319646 -0.21173441223205636
0.39824702626533526 1.0331882970111685 -0.39506066658106498
-0.36345279065798763 -0.4629848595803745 0.62003953255459976
0.84659237671019927 -0.38188577282728353 0.62342985958664876
0.59966483830708039 -0.37752646158303271 0.7248933816439731
0.04216725875370031 0.54114528334462708 0.72600767343819506
0.34198089043957491 0.9251413297844131 -0.2545742155312638
-0.84724229549894492 -0.60472076327774538 -0.36022626348370856
0.037655121370741895 -0.17368512147210602 0.75491732009088075
0.7817201999163732 -0.35518299580333768 0.67270755191074016
0.45483859066352839 0.47428013255857771 -0.24474808635896572
0.37937806914729055 1.1816756737284075 -0.46874294182751264
-0.16843113660579689 -0.22532718614512781 0.70669974386232859
-0.65466880868333543 0.073320937970496658 0.57891810977729463
