# XYZ point cloud file
0.13583779028803578 -0.368058724725294 0.4154735246765312
0.37061484187743599 0.75564313405606187 -0.27933589261811015
0.26607794973891008 0.65765085500970555 -0.18610410846499031
0.15545103127545112 0.41406007016168589 0.61666376568363535
-0.33490608796469001 0.11342299202018724 0.70635622096293615
-0.36499577766249319 -0.6331113400451982 -0.22185600950319517
0.22594575500082359 0.23829787957342985 -0.19358573168684845
-0.53477154556515449 -0.61684106576684039 -0.20564184661678209
0.085232416068537598 0.64537362588798475 -0.46672524477711225
-0.78547017813622222 -0.85558995895582379 -0.35173213342927012
-0.61819767891597821 -0.77858488356773092 -0.40267351428849019
0.12799335995620398 -0.12796076634202613 0.76792609425812652
0.12578792219103407 0.41772811941885646 0.59439407031785385
0.48778459646406547 0.93289506752585805 -0.4470559685242429
0.18037383950671981 0.83988554080621824 -0.31934866420628361
0.2400182759019529 0.57846920991582973 -0.12639417317707352
-0.73947272547314113 -0.79695983731795828 -0.42373190391305005
0.14344086067676654 0.27430894983482013 0.62055239827430531
0.21001295993359625 0.80508388579263901 -0.17608602619085756
-0.68181600062814152 -0.71744297898260623 -0.55363626565688862
-0.64026305045175502 -0.069582000150812728 0.56226463075663169
0.093754861788999611 -0.39004626442001467 0.49518207924671698
-0.60765903396007837 -0.052066585388160558 0.69147051757309042
-0.52201248344701856 -0.041925428236837092 0.72551691678238139
-0.62686922447628635 -0.6201806622589654 -0.17752899267182776
-0.32569434085946219 -0.34671041867308494 0.56238808626539893
0.44450355361655003 0.99399306916213703 -0.38258415427443709
0.4232994570494798 -0.19256051337869406 0.42247535025277455
0.32524641067096616 -0.19835555229003043 0.34552244146887057
-0.46077660214438571 0.064869865836034712 0.79439796730298529
0.41788582410966524 1.0422223834217368 -0.3803930986855204
0.25596370716174888 1.0579640848096572 -0.31232468441187689
0.26730802470185622 0.66203872150597221 -0.24169560008585927
0.079307384442761419 0.32962674363579891 0.6925359517775167
0.45792786911519801 1.0573031493817822 -0.51565617140609821
0.32907282237694901 0.60749397958464879 -0.26021724430823634
-0.66161941597473783 -0.14430462815292566 0.39631045814004084
-0.081222194840110506 0.67277993857950102 0.58592360740855864
0.24063408591964697 0.047520802506835214 0.40339965661791199
-0.015015119063785276 0.26364701623757725 0.76387478806416498
0.29531972552750796 0.47815235529178146 0.084454896915621983
-0.38619701043460658 -0.33068203140631214 0.59616312852074504
-0.11389513572763887 0.58334152745214185 0.74295410849084809
-0.32286092526710886 -0.035966482589932625 0.79229969978380399
0.21370291203476843 0.65759523201736902 -0.039690441280590072
0.31331912344406576 0.74285253407766039 -0.2721022591418738
-0.34607395161456045 0.023849289065533963 0.8027819815051177
-0.27195518262664709 0.02187118152163281 0.78225504664962608
0.035553662221484705 0.99184793643388858 -0.082131892399687545
0.2659086520556363 -0.14469215965907045 0.30788371239997991
0.09339957128803178 0.028150555225634477 0.70220412014969957
-0.16392604752637951 0.5344028017342648 -0.72543332737512556
-0.57888437811891902 -0.092507221111809201 0.71559502927441654
-0.59023233777508155 -0.67430530413212653 -0.21112124032465729
-0.25681581252670238 -0.015138951522161381 0.77772973657295941
0.21403404482691646 0.54666077507394206 0.53592391589727806
-0.06033191397031723 0.20870823252524806 0.72677798432579166
-0.13288296822116019 0.37074248448162939 0.75147818480635309
0.36351565387897133 -0.46371968700866639 0.44862346215831417
-0.67871640365343322 -0.74828590645602344 -0.31676967673023904
-0.29798913531656634 0.3407090294202848 0.74344887159722939
-0.20223851020500194 0.82794729367723674 0.24310908636976147
-0.38661850778611895 0.029580224508146014 0.79597503182942453
0.079947001360677894 -0.14992797890205178 0.75590463799980201
-0.45902711745978275 -0.66616400070403659 -0.0043903167928411868
0.040359970781260412 -0.11022111512524901 0.76550510515452019
-0.029851624591704651 0.58523496004001307 0.62715188228106211
-0.10283139553904674 0.16670718487499325 0.72172002164466065
0.66315593914689297 -0.43398094814372912 0.59383952490769265
-0.28227125402217024 -0.05876468038868099 0.73702804666815713
0.58688279953194622 -0.40778679127953232 0.67279571773300861
-0.22004161190162497 -0.0038260130134264436 0.66570878627982899
-0.12277165925056233 0.23675911283573337 0.74360650678118412
-0.69617927104544319 -0.1859513619926525 -0.058968416840610272
0.16520705816564196 -0.035101088297914806 0.76310396120244217
0.80526594435252474 -0.29045512470613177 0.49677488449703161
-0.63062647900477153 0.099562850752996201 0.62434023728167531
-0.059108030764173591 0.71012268225133157 0.67085883920888323
0.3782330708590389 0.88809719186271652 -0.37587223879734577
0.26151429391581482 0.9859772963801916 -0.27122480151872475
-0.72167643342928378 -0.57450244390950056 -0.29617012426846756
0.1160898024112178 0.59047514861529082 -0.50617101731647807
-0.71911529326079249 -0.84216178251106366 -0.41794919428719723
0.20777356833848115 -0.083178341471024098 0.75395463331006307
-0.048380171526820281 -0.077309092771526533 0.77698325413421143
-0.64161597232749568 -0.65814387462961532 -0.27319989103220144
0.24367737525289113 -0.077366711569779145 0.71070923398388963
-0.16671005953358009 0.32191362490619291 0.77847025343619825
0.14088553001673465 -0.042757803421830776 0.73811095539363125
0.50337638118149675 -0.40509419210393594 0.64095994968368253
-0.31048191552399285 -0.028172066208036028 0.78884654597617287
0.017801416166295825 0.26106836485002605 0.7001456341411183
0.78768969711117143 -0.36857644052788441 0.47894648521602351
0.32257326838498557 0.59268056669892166 -0.2128575344408038
0.11687189881931581 -0.34432331311802189 -0.20660673839077787
0.60698156492298705 -0.18245631210828162 0.54792980048749074
0.03286160178035713 0.35885760289106949 0.74138452866483551
0.42638367283663292 -0.08152305796407866 0.60282109412151053
-0.23220020531450358 0.48731491413606465 0.55930526284951987
0.15169028341579793 0.62895654217506491 0.6591771489683913
0.53228856054800489 -0.4102761506291408 0.62733931428637491
0.043777367408609935 -0.15844636207842289 0.72550367199784516
0.32696685391477343 0.99769006338488664 -0.38299675458915633
-0.74639629893320325 -0.84468521503197169 -0.24467303657394224
0.37273384470357152 1.0582728053466797 -0.42593758058142622
-0.18489543771105432 -0.2912161551918544 0.62623901779326052
-0.50290467308598497 0.10031004080458317 0.7217925763636277
-0.6512312380359857 -0.36988057555916809 0.49984877011700674
-0.63410429602776219 -0.39134792239671867 -0.24059877384700079
0.24547262131964498 0.53577639395538323 0.25479890163192431
-0.60708057655664183 -0.76925598168493137 -0.27263462119086268
0.81885037399207028 -0.38599357386970734 0.56453656409338726
-0.38271196031519816 0.12580371495490672 0.77107966192731092
0.0054540976747468051 -0.11269275196320727 0.77819873922349458
0.44114057716288291 0.93572054084799694 -0.45487747525557259
0.20003458679712849 0.79315491730187215 -0.13413615164535642
-0.11036549255506378 -0.16430912762634975 0.73022284491947564
-0.49102036018051615 0.0030427291319177208 0.73849298166047928
-0.11373736011548252 0.25492314520917425 0.77013048374886317
-0.056151785555875966 0.73194908206484799 0.4642065819194312
0.35369748057049688 0.94645701793564241 -0.38573528136780455
0.16378974263170198 -0.02699970635086002 0.73415637990728855
-0.10937966349185579 0.55309095044100953 0.73841793948943191
-0.52383773188168148 0.046566116484342057 0.72181601373868642
-0.39177722693358896 0.1091331718500963 0.7850952554490076
0.27047874626659563 0.63871520097496282 -0.28459980900818449
-0.39170236939673847 -0.14863813082292188 0.76027353290122535
0.085889026967331805 1.039478657756292 -0.20774412850081081
-0.48143024960066261 0.048388037032355946 0.74236882632804757
-0.68980913690888268 -0.64499941036135078 -0.47878582352177068
0.45243607774684669 -0.53282011489549497 0.483831647766997
-0.62132293605740974 -0.85925310001437794 -0.23007617975319405
-0.057975533713857774 0.66994412313542995 0.71182513356812649
0.2198706580547638 0.73579127762732544 0.16422640704926589
-0.031721069797199464 0.16700748130240006 0.7589610040729029
0.12262096378299303 -0.13331501338013174 0.73257631814096591
-0.66914470389905956 -0.90962236585487455 -0.40796012934971759
-0.24635515199515012 0.52059330175052398 0.79187653226219334
0.080481436877260615 -0.060924586583952944 0.76272339284767177
0.059733435027536252 1.0570158396972795 -0.35218966210065072
-0.54863670523127706 -0.65628285378668827 -0.22296036292817056
0.2802462215318049 0.61958906949571357 -0.21800647549703947
-0.42042517476372121 0.22965061115308849 0.69366003743490312
-0.60830156749714881 0.073251059849504863 -0.3146244699878753
-0.067527991439286783 0.30624722752992373 0.76475992864999354
-0.44724290355317664 -0.054466567812065936 0.77468556315274095
-0.46883391278735209 0.60916847224833459 -0.29672866107102969
-0.63205599072372864 -0.41612220446176762 0.32864330352905813
-0.57399660878781655 -0.60185466182734948 -0.21330814961419753
0.61643670076733981 -0.29633843204450039 0.66098987627681716
0.41392035806428118 0.92436330930760802 -0.3711330187353612
-0.16687213170492898 -0.26011532702333495 0.50924512303986458
0.15850920066263152 -0.032052744250409493 -0.34527441399531794
0.1841943083313462 0.26813924947827239 0.61424792631233005
-0.62366434545525573 0.0021123852442164193 0.63468909136825902
0.22572489437471344 0.62392023008229902 0.52108681601181872
-0.095533626822042028 0.42920465238792849 0.78438022646193417
-0.017360097302779209 -0.087703547284597505 0.76659827229698296
-0.58662130986519545 -0.64885095328418863 -0.2297732147212983
-0.52076889624708755 -0.75239953572612217 -0.21239403551122282
0.47831127951552788 -0.40579503151514706 0.67109710752705909
0.032349006969912497 -0.088828378194595548 0.74905357911325843
-0.0076356683178853135 0.41579174759908977 0.73272366944033096
-0.37204129828353849 -0.22789359958167177 0.71883024667897133
-0.2426891930454379 -0.49688398174842741 -0.4348611983686782
0.17961045651770224 0.61348892980481029 0.55239166748270785
0.09721669961939905 0.91919451030584964 0.049419730474793339
0.45397493411516487 1.1119655928581569 -0.37106987643211742
-0.31329311758576028 -0.04757728225023472 0.81656102373119865
0.48011138308566825 -0.38450448041509322 0.69648980361226853
-0.095036394748866937 0.3910636279245745 0.76398123533494533
0.23589589546477441 0.041574475621543705 0.42389826603547265
0.53816843893838784 -0.40782376442259238 0.63808207674427075
0.23512270173911298 0.15066546406444248 0.52724059293967462
-0.45938943888248007 -0.022337991351638387 0.73725217984585578
-0.4694412547442966 -0.65013046697340449 -0.31131355050688003
-0.23908315815390851 -0.53071982640657733 -0.048435489437785084
-0.067548582225016585 0.57445228465580378 0.71454923723241037
-0.29593990107750601 -0.2073394437077587 0.71043477390686338
0.28249720169634962 0.54482772945808655 -0.18218241852892891
0.39314269986132055 0.60571759200184472 -0.19227720962856756
-0.063875788053538107 0.6155498382797564 0.60495062850871417
-0.29781113232866885 0.020100492793314384 0.75081354393776278
-0.21214213198865861 0.35080394705274598 0.76710828702796219
0.083979224001734298 0.80946443675378754 0.27999554574160107
-0.38481719118398872 0.087548247555502279 0.8111472652525743
-0.33221403310710751 0.015067759707482864 0.78683556862794068
0.5094504313975784 -0.42749121712737193 0.68476592390406099
-0.34718993148182709 0.11940155259509977 0.79769481459701042
0.293354504913653 0.82528821959836351 -0.30463435554601992
0.7068574453889529 -0.36311816808552888 0.62573689178278258
0.24399272202466693 0.98889637469866631 -0.29319605383855191
0.33190703890437856 0.97419755699774901 -0.37090583978047237
-0.32037679594554069 -0.17307166641354454 0.72025921768652434
0.011040333323424134 -0.20870855342172501 0.65429069599920853
0.17942969304344558 -0.22936624881930356 -0.23360481811086226
0.3199807724860706 0.61799931869991642 -0.27035129277814318
0.78218336294543145 -0.30228766496719839 0.55016156636630276
-0.40142940762794055 0.24596577731076419 0.79910553651135108
-0.31098809564358409 -0.067181849875837418 0.80046097580387354
0.053718657308262086 -0.032539724688278149 0.74303237743093986
-0.74905705156127722 -0.59685253006975225 -0.3406077986955609
0.27633516106374345 0.68432434612397408 -0.31088028683441937
-0.62324092143056886 -0.50174836140085555 -0.0031863416715993687
0.26377785915011132 0.54925367927951552 0.48239699100040939
0.042778170613853361 -0.056451290484025751 0.76866612632294884
0.01376559644413522 0.52563039333290673 0.67370121792663185
-0.56672498802184146 -0.10733917870056819 0.71995454405927672
0.62454095310633628 -0.49964748367588885 0.64862008322705877
-0.47102047222334836 0.12566061175252274 0.7262133504205357
-0.60942474436613769 -0.80475307116212402 -0.12539411721758231
0.038844888477910233 -0.32768704191158982 0.6054079050781962
-0.4355250522233412 -0.3075817919061441 0.68270212935881391
0.302827335617742 1.0041822236762168 -0.28493530942229495
-0.29643172570876919 0.5208940245246354 0.79098225294708524
-0.59174252610842137 -0.71430190472293553 -0.16150323752317941
-0.22758471417718917 -0.0043280356366284245 0.75081457907434079
-0.012544993809363247 0.28511980898836153 0.77598678647722519
-0.36633125272544342 -0.025927898901728419 0.80734212608409806
-0.55521813261246344 -0.64070466075953858 -0.21861363106264464
0.023128689604224539 0.23679251729216588 0.74231684393373487
-0.35465068417244477 -0.14846594806317048 0.80819426571013064
0.26402282345566919 0.69908236633531029 -0.30435558800690798
0.21198914598227248 0.51139324965023913 0.52882116800429424
-0.74923094449446104 -0.6454451153981422 -0.37343921049725948
-0.28884178301187557 -0.015880885197430139 0.79410205678330681
-0.16995143583047878 -0.04189232202376969 0.69875417336646994
0.080866390539030553 0.51367879885249712 0.64190541138342994
0.598281230615479 -0.38300085600792322 0.63789222439151871
0.41952387708778871 0.78231750789252086 -0.35112971273554999
0.50734967791031971 0.83853438443526951 -0.34942566554352317
-0.59332209459411511 0.12626090633495135 0.3431529150719842
-0.70639496679818881 -0.24699698840257733 0.63920477223680017
-0.29912211909173125 0.011387346590602032 0.74727408776069937
-0.32912204849204196 0.08484063196698477 0.76321758042187637
-0.066616862746754824 0.42241180512988796 0.72668292598020634
0.20470475907097296 0.61168562165536633 0.27925991242302678
-0.41516434511092654 -0.015053137688469498 0.76778406767341423
-0.098917871851048611 0.27113367652128861 0.73128460361758163
0.30067305158139845 0.96160401455661937 -0.33365442128011541
0.089103225797422358 -0.37946882825537376 -0.036850859308719952
0.15204018617494242 0.35658033523384436 0.70375867066329612
-0.50934262790906271 0.083413165518074539 0.78721210944308395
0.62625577755478457 -0.32391472270674893 0.44072770188606564
-0.52584719718423922 -0.74632767578448544 -0.21178858284296687
-0.10822500743677821 0.53222013980640748 0.72846243623886098
0.057696420404723225 0.43967837099459306 0.66665279280089385
-0.46325307476749045 0.30706715094864201 0.71724776193031858
-0.16350380347116433 0.24849779203434386 0.69135977517315994
-0.42861416023093085 -0.21231928619691098 0.69711957418071191
0.21840880998116352 -0.27908957444056615 0.35307671663760432
-0.54750459753584058 -0.19945562068147016 0.68123166138393842
-0.52197786146690484 -0.15016704784198476 0.67335349118051224
-0.38028793383952153 0.073191378902405457 0.71973481781840065
-0.094261657329829607 1.0331925287002983 -0.27968844771207552
0.62895720004455247 -0.33167074000068286 0.63605408003110098
0.036535942695619328 0.31701448296336698 0.68869520667737638
0.38249977932741364 0.63146340036733051 -0.24959863224714179
0.54600416209220282 -0.33842536487958008 0.66282397721094855
0.2315997231599618 0.99940931506410369 -0.22980401798965394
0.21008624977807888 0.78088217639526869 -0.26399318878438249
-0.28634811446188013 -0.14637092183609557 0.75536748919699215
0.15953658930294212 0.022923870546478042 0.75552238924527648
0.39230388844810582 0.73361616810408536 -0.27919105412547041
0.33557874855175518 0.42255630798857347 -0.22757120928144925
0.30749862906745951 0.35691804534257265 -0.11710771915633564
-0.68298749572155493 -0.89108009966242063 -0.34342962666315602
0.074369667034788645 0.58859638117760893 0.67263404601061527
-0.13781417673547802 0.24857905861754537 0.75945103130238434
0.26985538828822475 -0.20822577535685749 0.3164439369563472
0.30188115307590802 0.93308439907791341 -0.30881992964280147
-0.38575517727879605 0.12916638422415705 0.77781788640499916
0.36958208018061001 0.43035658315644776 -0.096829001855028934
-0.032951988701626189 0.6946809464158763 0.67458297727301397
0.12789651281144399 0.0079238256878397806 0.75058265307553118
-0.57628244375930016 -0.18238892940813711 0.71137748579029492
-0.63928484645932793 0.13705917919477706 -0.090415067554150297
0.29923594159351097 -0.035865890503024911 0.26086711413602215
-0.087896751797136408 0.61176147399404979 0.58069895869566301
-0.17870977993550352 0.42489074088659073 0.7270123790733225
0.28612877758686484 0.56383350407369548 -0.11151048794488944
0.64433179620975445 -0.41388523240366526 0.65358911349873894
-0.056371677846427493 0.10532311922859661 0.68780662698230355
-0.45599395406182286 0.10181823223235709 0.77889563180378307
-0.6781401966831917 -0.50075427333719302 -0.20353594677442854
-0.75187062866218191 -0.7985577797372172 -0.49724156371784312
-0.37736493459606357 0.072504930510691068 0.74869382987203581
-0.68806731507551122 -0.42408695157307497 -0.077224699254836437
0.79560783995112805 -0.31458606203990858 0.49459012928463181
0.57437940215572214 -0.49673687922915399 0.60984574468035024
0.44288209319441174 0.64833659779623964 -0.35810494319155861
-0.39899843253595113 0.68130085686735331 -0.23378160990909524
-0.14820420037622062 -0.48846634696351598 0.134400298053861
0.65095575766094393 -0.33034149700838955 0.63708980858203657
0.51059306968432339 -0.36930231900773491 0.68041469451411063
0.6594205563163027 -0.42803113220895761 0.68332561545006909
-0.73072777492167351 -0.57906137916932265 -0.32058721026605586
0.73211951565187117 -0.34787765913534185 0.64457601110101148
-0.73557276990805054 -0.71957073703168017 -0.48636233575755927
-0.22212862328389327 0.37267548219237945 0.77007043034927192
-0.57037133684457964 -0.75416144171568167 -0.15531057790392377
-0.68933124916453892 -0.31817312619765348 0.41323799667010258
-0.15953649988074192 0.39430168504084584 0.71725712761941796
-0.17103000292196036 0.34859579635771398 -0.74014565342424044
0.29228483083018686 -0.10218200675824152 0.71812941287839938
0.4289343748677068 -0.36850666653842312 0.68532996679318092
-0.036549869619814213 0.48999296045621055 0.67698199867365283
-0.19452863946491328 0.27947601059679128 0.78010771007836022
0.41527214930507483 -0.26999415932510074 0.44433556819277159
-0.67381693111086749 -0.63655177946300889 -0.25963938441719614
-0.076659425182386443 0.48319168621683639 0.72048206123522796
0.36965438586681643 0.58308582791253594 -0.15814570204046241
-0.67889826940252829 -0.64514217403219432 -0.41358735630595
-0.32844646871741801 0.19692632898191675 0.7968131740413259
-0.080663425785533094 0.39354684834436338 0.73902830060476954
0.07324259710744685 0.25536163364421993 0.69739652738177915
0.25578770666275974 0.39630613579028351 -0.34121129041893666
0.23252961718176868 -0.02778848864344452 0.51067054535497369
-0.086820607767436608 0.40704666997779526 0.7306913606332025
-0.48984918719691967 -0.67758572710406373 -0.22194418974625618
-0.73485300426832523 -0.89309968272050821 -0.41418520744162546
0.12937128859051494 0.54393710471707779 -0.48268773109541452
0.41185129997001013 -0.52163306642550533 0.53486810701263399
0.24764619220435025 -0.39142436991356977 0.66495197302525844
0.14731291573008953 -0.090606653714282892 0.74354428366845615
-0.19492944613134799 0.45373074611596387 0.74133386970238346
0.076348320719643925 -0.18493405249512884 0.75880801275937393
0.012213586776572694 -0.22957322775429523 0.67971228491142188
-0.72786411707062415 -0.59293471267053643 -0.37860852068450046
0.64552272541602618 -0.43126810880812161 0.63212393505430076
-0.017878985689251392 0.55516739551139471 0.64248098242635066
-0.41905319343844988 -0.61942797980579467 -0.10826337733485125
0.21563996587757939 -0.42863804635119118 0.44532705898507241
-0.64647245882183979 -0.41617287196570585 0.21101317332855096
-0.77383605752329199 -0.8425861546003599 -0.42065052053244456
-0.26526526925560567 -0.03866327983604867 0.77009777404792557
-0.54498967589139902 0.096829387130322964 0.58423333406499278
-0.059864496761884434 -0.25430404074665125 0.56504266948303972
0.36836698470634177 0.59958234236694707 -0.2000711054666936
0.17856456380077046 0.35257619318566835 0.68053555429816159
-0.54465320271851769 -0.56748436229467702 -0.38669824679442899
-0.71623550735641706 -0.25451317064731693 0.64138690156194722
-0.10593963195190881 0.53351058289651565 0.68200576486312681
0.31007082563478572 -0.15566410059436153 0.69274401005609543
-0.31307181272741391 0.10385562628735778 0.79428767733046401
-0.039911556145721949 0.62555495246872495 0.49636941502788645
-0.44262781251918903 -0.18839445283503364 0.71358093296851877
0.13020948181095648 0.48340151321595748 0.58283339837391135
0.54054971524717499 -0.4894805349505873 0.64622958009584497
0.50890224036100962 -0.26759992556393675 0.46574734810159452
-0.51033156576481886 0.32991828476564677 -0.44784437140158073
0.62401312003157472 -0.16644505321857617 0.62038111545753294
0.16559421574210209 -0.35666943319046363 0.45769309930236679
-0.71497711909784567 -0.94067472028214683 -0.50720219429717672
0.3536775096074094 0.57260521782744922 -0.18588624602968559
0.077156217626318302 0.18455711499832539 0.70556459474151656
0.71813467105622619 -0.38216612093309066 0.6409565324490496
-0.2719040920706165 0.3468638804053521 -0.68249062478695088
-0.77981960351094559 -0.87378863425089404 -0.42829897950919593
0.075949234024084489 -0.065397292182493238 0.73680512348803984
-0.0098160622921509288 -0.21444056978776294 0.66488476199984536
-0.52722853931084501 -0.22619402087097651 0.70060156276511087
-0.68277481614691171 -0.84930916263705103 -0.35464145764614396
-0.26419344416882595 -0.050410124474587814 0.7614613502276204
-0.61189272223375601 -0.25882253505912223 0.61512320350430094
-0.26306543248850367 0.39446131919780658 0.78977603970111487
0.036120072929826108 0.32197670613736795 0.77498778421503844
-0.11968168444979776 -0.014617398784413371 0.7170039785538127
-0.43400893552620257 0.046202901121202622 0.76085214491646036
-0.19457481944049637 -0.013513270319121418 0.7647560715607209
-0.6325536170604209 -0.2298264112681716 0.65598475393058475
0.13816897809438933 -0.021636899413830957 0.70945280461516602
-0.04668713657247725 -0.33487211034265085 -0.58003254945380922
0.229780897456619 0.10083032031357586 0.26173235788752641
0.26310150926604303 -0.25498893349025886 0.25874706027223998
-0.15138466876544943 0.86577997980972921 -0.53331893219713677
0.21394500082997359 -0.30684862263574564 0.2913069875941216
0.41872385745309493 0.80764497288065185 -0.39439739265420626
-0.58883598601134657 -0.65426300421980677 -0.23233201179432461
-0.47518280091084852 0.22413586216310533 0.7710040499908235
0.19100062228652603 -0.087406758117154038 0.68886702213140794
-0.1623901464205284 0.20408253098632345 0.78077304870750464
-0.54635296914632758 -0.21264154126073009 0.68761393926094516
-0.08736655827934281 0.52155577376932527 0.71366779694265647
-0.21452979006271211 0.037913336914009665 0.72407420856069993
0.40738899171651677 0.69583494647959965 -0.26487706866893218
-0.61189634319618402 -0.43830599879276244 0.45712988198473103
-0.50186721625801112 -0.079991264118628003 0.79513420046919536
-0.67706113292397951 -0.44425870458665617 -0.044737508072224874
0.14056679414644402 -0.22661707212829896 0.7100576027542147
-0.48006336442328507 0.11358397547520038 0.72602866471078709
-0.59940567095190456 -0.68584309360728035 -0.27246131551394448
-0.48416860497001374 0.049780060301972018 0.78018408107785087
-0.72346025501095534 -0.7748809362072453 -0.41096078273511372
0.13338913786266016 -0.11744836976989204 0.74825113543650035
0.58606945847947522 -0.14159752456146713 0.54733093596524629
0.063287259143467667 0.90374537065804228 0.16715826460376854
-0.029533990347014871 -0.17955878913930379 0.67762226138418802
0.80814867628888576 -0.36805677882072185 0.60925281246531593
0.047579911958036014 0.58782690051884856 0.68161385536615793
0.37346943357761708 -0.26125555787740895 0.39221344317286017
0.17792090246887371 -0.22011273133149789 0.72471398051126712
-0.77466254888872188 -0.83980452078359469 -0.48659001721577644
0.093107035650692449 0.66204072871122621 0.46413787836993026
0.038030913389641374 0.62110298847498235 0.57204728347105283
-0.26076736954723934 -0.0010759925667112036 0.74644659242822264
0.26598127907891977 0.62964743631614439 -0.14681894813738561
0.18686179088874155 0.15093669427669187 0.64606730040795268
0.017021933905345787 -0.12682028029846704 0.74687362335223539
-0.037512248560791717 0.31871610018821128 0.78926917706498356
0.75497523783767728 -0.43003949907370198 0.49363140528850458
0.42292830449127727 0.77374892167308085 -0.39995583429656045
-0.49898311442608245 0.45131100869763019 0.15289902592738758
-0.55325860642158631 -0.14712530772852928 0.68526286888182075
0.76128620419023041 -0.32935946049601572 0.61007602470952782
-0.15336911807616849 0.69411609070873537 0.39876815902940566
-0.57612991234510968 -0.43035066179866499 0.46032926091259135
-0.061022674846177183 -0.29944703121205052 0.49119698552394431
0.308615955655966 0.82026982248010061 -0.29971927381570229
-0.19831134164187691 0.50591459862915045 0.73562727236420988
0.29447779835824806 0.75539392141594375 -0.24357438811953935
-0.66555482432118551 -0.17994879939099961 0.19840499703172643
-0.5166559903756418 -0.28899598825590544 0.69845387701892581
-0.52384783979356631 -0.64035432325959296 -0.12951846841430315
0.38806720237337755 0.94927874407477431 -0.36687398668345617
-0.44918967127125425 -0.33285081410500394 0.64507945845466719
0.77869062790721733 -0.39151606265283601 0.60122921762920234
0.51556262809773967 -0.33036148178180236 0.6846249138488899
0.053724322066046493 0.46262455162007932 0.70165995061938791
0.32750343557374784 0.8352944455081639 -0.22351137055204928
-0.70176791965077412 -0.5493178594113286 -0.37682988167603182
-0.045807347007785326 -0.12165279124168782 0.74065784127712808
0.71174493198000188 -0.35594995558975562 0.63802606052368782
0.35197409392080181 0.33403849880375258 -0.1853741187224317
0.4055845975292256 1.1187611303422798 -0.44130045659322675
-0.23817695126077587 -0.14892263536357442 0.71008144660520811
-0.5213809388416053 0.15448847774336105 0.56386631308893365
0.70253537753478801 -0.34082989455238155 0.64292644601159155
0.005863416288194534 0.37967339796696065 0.74753360002341207
-0.27241125798779897 -0.038007046683135925 0.7128924547166029
0.67152130787869768 -0.24555168679016459 0.64149350628751101
-0.70834817746108636 -0.57409558593610277 -0.29834264204878758
-0.29233528534212672 -0.16804115286358501 0.71331073607095696
0.26461514040129241 0.79115519789283573 -0.20071983507383323
-0.8103140944193864 -0.88448871941681961 -0.54813918293782815
-0.11440030076267216 0.95392770287739426 0.22165678080465623
0.66456292354747104 -0.33408390815366151 0.62953780634909851
0.111646131415573 0.011965263811076543 0.76016464431060171
-0.56086470896751761 0.29214722336002241 0.70758453420887146
-0.22850833458615349 -0.44858958526622539 -0.48524688651548886
0.40379702959872188 -0.54656691977944272 0.53742453289652559
-0.56206522110262358 -0.8386754185445302 -0.19940576171316271
-0.026923840166413027 0.30454376454407006 0.69912051389391294
0.20122703708527367 0.058224893842337533 0.5801147157412978
-0.45281411937361105 -0.38275564480816504 0.57136870243566173
0.42251754002305253 0.80780542536045052 -0.2948143541464997
0.45555103859163992 0.96515228120230612 -0.36978626070009429
-0.54587691939026861 -0.64307496270545217 -0.25073785458678799
0.16593835450739458 0.47214800515008504 -0.39528162418954682
0.16924729552797024 0.43027931664228269 0.63840426174318177
0.31539170352322199 -0.13084334011933274 0.42751713967500538
-0.65725683880298924 -0.095852442883300082 0.52168773681040181
-0.099893185470556367 0.19891735081258677 0.70553017332956325
-0.37202521235755004 -0.022673373606166614 0.77555552778941883
-0.094941334416228873 0.4023708141461575 0.77481603181512437
0.27463613810536192 0.85815580353855259 -0.26090927604386793
-0.76724700475564389 -0.7460142039775437 -0.46213350116478558
-0.80295981165107055 -0.86697712276224692 -0.38356095132488821
0.23927067924670264 0.038120181106672035 -0.0081447705263859027
0.11456492659927764 0.25425571497296096 -0.4992767077074135
0.065519547643575482 -0.017913756642750744 0.73242013180210908
-0.49850869561992095 0.038953026711898708 0.75123804113854475
0.47202668813416826 -0.37648585927650657 0.4109579170131773
-0.76154561523997522 -0.89765964197271075 -0.33084710713263554
-0.32744504324099366 0.053279797270136431 0.797104782596191
0.21016619934058234 0.011561731572252931 0.52699074782210675
0.29444656695125748 0.59582107035514698 -0.22776678803853201
0.41717489522872864 0.62068888167773828 -0.26904819502486821
-0.54326571725429385 -0.41857137703933489 0.38207536651631119
0.7306803054483233 -0.39095854183402645 0.61774406509707125
0.77022988099828049 -0.38964392020451388 0.47744866008724468
0.27791578776170422 0.5449465041193684 -0.12018590142927638
0.59728194953948843 -0.24815387279023815 0.62696567285039861
-0.59866883987390929 -0.82200492327989005 -0.14867160030748583
0.47312108530168684 -0.47359289465120913 0.5955246557081687
0.0067666969255300025 0.20702553942984059 0.74432755521174809
0.64142854542051375 -0.3695959017177064 0.60587121937656685
0.025025377571411989 0.52925478858140407 0.65821171528594768
-0.28101975861450101 0.014017695488623971 0.77169037890226366
-0.12366430026133413 0.030613003976758701 0.716164805669256
0.12251310313734975 -0.19068555983191215 0.72032551744120199
-0.045268290254648402 0.49440989157008408 0.73441051457547557
0.21048760711767123 -0.38273543818136435 0.40747538740140132
0.0091638093371521068 -0.31855271098842186 0.58975272773704024
0.224944583498767 -0.042426220605432885 0.55652513233101319
0.18874497183715944 0.7729355350079441 -0.12576690467883445
-0.43730329546496949 0.10495561292501732 0.6291269935635504
0.46142715064086071 0.69892542629803156 -0.34114393534556858
-0.2249689861396249 0.14169223758580651 0.76137553129062341
-0.10402762791926778 0.19919759659240288 0.72779453729382837
0.071009835724927695 -0.024887904232871794 0.70175235417248882
-0.50016372772610795 -0.22140960986520586 0.66516760623356963
0.37356518353447055 -0.42230202906281367 0.64941292441598009
-0.6502264701248508 -0.025220899767394389 0.66206089882724772
-0.64284736006021892 -0.27331712431977451 -0.17445689356580751
0.026742710855618412 0.23175456896713875 0.68802338001224128
-0.55799943498624138 -0.55777181112437457 0.11492034387538685
0.014747545234432669 -0.34310721666543742 -0.42468938173561355
0.47106011588513819 -0.2321091038278098 0.6899233103592729
0.44818402898247656 0.95523133115651593 -0.40803438196754882
0.39527928404002211 0.62784053721411937 -0.21613724508384696
-0.2756784875773638 0.070222505301484439 0.79527166093759127
-0.33671682677735149 0.20017650909913165 0.73915234221889548
-0.58216913232048673 -0.82617072199961994 -0.19502526205980919
-0.71972282303862944 -0.65879182901403777 -0.49750793096955759
0.23638870991819572 0.39654959786686339 0.61615904447451963
0.47249675541288949 -0.32913711472812635 0.63735028451953191
-0.1245374637449731 0.416667897997689 0.72897042306524584
0.042820210018370219 -0.27767595781998233 0.60591455863405941
-0.66353223437014996 -0.75735608767488771 -0.29473982193779413
-0.46503196915092571 0.098771776564916536 0.74908447541923795
0.067745901857651614 0.52736854492862184 0.63831334907724613
0.5401244490111432 -0.38883507929592387 0.6052592292012714
0.13941352667872253 -0.11753492179147695 0.7081550590929252
0.43466156010304302 1.0437938374537987 -0.36565818778418852
-0.097049047091897989 -0.25325821834106366 0.54724796079598381
0.64033044373899184 -0.38886791514412455 0.642740557416562
-0.42828613758078415 0.26345433523336936 0.66429846559469907
-0.13377883096713183 1.0644381205020115 -0.10696638489077021
-0.037541711198364691 0.17676968086348266 0.76009610679032602
0.48399560407369058 -0.16987911019875801 0.4783891811609306
-0.52817595593422395 0.040595883187789727 0.77961009697944839
-0.44047074588394108 -0.084686502484990989 0.7942935713979461
0.16633525191230136 0.22054724963588646 -0.43423117217044993
-0.033887327773756692 0.23780712506929547 0.7715314860978153
-0.29958175959129119 -0.20510209302678994 0.68316331804297037
-0.65634612970811768 -0.34666686808146796 0.23756989795117878
0.31402681540247479 0.6497038564887383 -0.26800092630142647
-0.73858041485457071 -0.91573513911662308 -0.30364499475445283
-0.17271328695779009 0.33047106096525347 0.75552479336783984
-0.71024726587582365 -0.34048928237946763 0.015434463381434171
0.011492452780996865 -0.13963644085352955 0.73252402355145851
0.25952326462048581 -0.059698526857094425 0.67016322897358971
-0.37349893712942417 -0.13875943367247245 0.77167933314720027
0.5083987241521335 -0.4810479248040116 0.44505997449969997
0.12718886430159948 0.28270989713735517 0.67781069008232664
0.209025611944606 -0.035038245615281127 0.74665548878161137
-0.13875960339745186 0.17557348778071047 0.70195922006414135
-0.15677695003375647 0.47147709873126553 0.72974782577195896
0.32603349436574525 0.60691571480919482 -0.25705254714866355
-0.053282675663517964 0.62349132541812713 0.71136545056485478
0.20866281067104109 0.0029439978793437405 0.72481259518518515
0.71281984520326502 -0.33627151509899722 0.66606628242811328
-0.24862398144412201 0.61375745175222551 0.62793599721126148
-0.53585868729842634 -0.25842926047654924 0.6654057809309043
0.17875793444045796 0.1826456976787143 -0.39375262712904363
0.3325475209946287 0.87868741397623262 -0.27072144035654744
-0.32822272788010054 -0.14430009690156442 0.71746349086076444
-0.43480899099311326 -0.22785012685002215 0.68649954775362421
-0.031565699719082629 -0.21824979908464304 0.65132191152574559
0.15503331819817978 0.29165990605537884 0.66447895762171783
0.26773836934087281 0.49521998431126057 0.23543641520402334
0.27960968516360163 0.39995281885146916 -0.048374754524245445
-0.355323411466685 -0.027980180851204128 -0.6319315361917468
0.63919272465486721 -0.47715502538315535 0.66018012508910429
-0.026079127042611838 0.20302956330015354 0.72486369316326882
-0.77250330447034787 -0.89952057018626563 -0.34419353396715124
-0.3119748667889326 -0.047550527362417938 0.76459248238802058
0.59459415596653808 -0.36450923249808298 0.63274874343789489
-0.031843539960400902 0.43105758318511089 0.72415914340236942
-0.44021583590831875 -0.17256376956745045 0.75270553798266604
0.23603658751576118 0.0014824036692639986 0.47373600807221594
-0.48848340187843847 -0.39625069778049049 0.55595069478821757
-0.090546412796007614 0.25535316290400489 0.73642974118602034
-0.28063132019020975 0.83267736296869943 0.21931565103110173
-0.56731685403434096 -0.66029444362367107 -0.19114492347060985
-0.079938848521762806 0.33327335693806992 0.75233206234289751
-0.15628851578859815 0.38050875710070731 0.72908092756711329
0.013949584623402789 -0.05271196339595452 0.75219569661712427
0.24995541036012581 0.97948861162538847 -0.29914975260659227
-0.68003695881264825 -0.16158435898678869 0.46356843083251714
-0.012360421192572524 0.551018104779744 0.74762702466859388
0.43786630466595722 0.8795475768457881 -0.46845155907119806
-0.70011525631186333 -0.58150771329424722 -0.46868814914759382
-0.40543148305925453 -0.25059680972922083 0.73841490304475355
0.48149926390936204 0.99502085782768024 -0.37056689883050686
-0.56149324249630217 -0.10144919820383747 0.65238783716812332
0.8277592796329406 -0.35651233802313742 0.52301312521621701
0.27470843693354863 0.56690773520979043 -0.043568422131456397
0.29386137186074512 0.04863155304744593 0.34379030961502199
0.4214719605714754 1.0091098583406484 -0.45758024272186892
-0.32745830904703277 -0.034815562355352103 0.80346006539991544
-0.38945230597986363 -0.12146643755429398 0.78975429274292219
-0.64208252625553386 -0.61583863704760744 -0.39417019924945329
0.073680036327318565 0.53322841526708009 0.6999864289507004
-0.56354223046477769 -0.28593896340777381 0.6544863475732885
-0.067487827833023872 0.21837654382385896 0.68641536795521763
-0.47972326255015985 -0.25504876710431379 0.60134820704217584
0.066159053471094964 0.25516888783549829 0.69523221953669212
-0.61000889687521109 0.011042946428868383 0.26754893583873257
0.16607828803037217 0.86422385923998046 0.0096266048022911471
0.093665100012586877 -0.35385268463893338 0.35479700821115312
0.23438069154454966 0.61229412579493614 0.49895607619492927
0.075762312388699682 0.82125804082060494 -0.41772202129926156
0.30827792548189348 0.83304340291246737 -0.32574135266593718
0.35246398554856573 -0.45467438951559536 0.42706902043190881
-0.29547495000701141 -0.05914006933397653 0.76792532965708293
-0.70611396761755119 -0.87516936905549647 -0.32475238000466156
0.073462646700117484 -0.11250299368285477 0.76093277047574792
0.043009360506533256 0.45191449207609624 0.70614993177575869
0.25985422633692945 0.64152632054388459 -0.24624606911810387
0.092359312623901069 0.028759666037016629 0.74157741444862679
-0.012919787753903567 0.54731536121573354 0.67746643456315148
-0.33794561932499667 0.33332127215541973 0.57432199822966468
-0.76708890189577028 -0.66912509290155042 -0.5324620455807878
0.44094271191085244 0.76086431695552958 -0.31351865980041721
-0.11938337975543667 -0.27061715598554281 0.60411688592254231
-0.075633636246006608 0.17676969648218854 0.7503626583362133
-0.83790693347835299 -0.86138393666307222 -0.42095401349195627
-0.39625321610213848 -0.13225337848792051 0.76803593874858889
0.16323510507805095 0.85229073918170029 -0.12117276691251894
-0.02594388911104295 0.58693303684366782 0.60356133230740394
0.3991017126729417 1.0496098583538482 -0.43989830010589281
0.23205786160130182 0.95171270468081248 -0.1831645770042496
0.20987445443091945 0.68454833136534665 0.4174121086151657
-0.62323417414265547 -0.2540843564661075 -0.33812356173229174
-0.76440002617419056 -0.76825363338612829 -0.45900086158036357
0.58362287646822275 -0.40315323377393408 0.6246967586606974
-0.51690015425311786 0.1846357651139332 0.75234679804992233
0.076111278174128216 0.17000601349097622 0.7307786375753238
-0.059067727696754169 0.92782718382595109 0.046409278713981594
0.26106541174653919 -0.010875236737721394 0.67282557476320881
-0.17476564490262159 0.38810465546391981 0.7459523484576156
0.21353393563442169 0.61553646283291563 0.44494245519652897
-0.55702774652768483 -0.68605008463359285 -0.33837070823186233
-0.015395954405310497 -0.20212638042169528 0.69025772609247638
0.17303440358036304 -0.040778695169395807 0.68799145406301809
0.38060901137894554 -0.045148215187947649 0.58400212512815874
0.69692736596700966 -0.39722473178197948 0.64621842685414577
-0.62629635156792274 -0.50656568143153313 -0.10037502587695402
-0.015177206748139938 0.35491331380180924 0.77257050832626051
-0.12638320155139926 0.2276325422486245 0.66547598751268633
0.60582737943836462 -0.32609687809433208 0.67505491631613523
0.0081795748132112989 -0.09989731088604703 0.78987201163017939
-0.18743154785760607 0.70819907538317484 0.69182803240849211
-0.63720298867564085 -0.57942583642925594 -0.21761484682263299
0.26988952670130506 0.82748292069913276 -0.23736694886287857
-0.14518790341332266 0.29891842928137313 0.74062178033698389
-0.3789260792581704 -0.12531984916508021 0.78183412480806203
-0.54650944466009166 -0.01249227499028871 0.59876891936058452
-0.53975838493396977 -0.31344099558563299 0.6571531299335347
0.31678416164136802 0.92704740010435005 -0.31156061496434884
-0.051910490175112511 1.0729765734137695 -0.30456388567520054
-0.24638253396477017 0.60641619872147334 0.76268272908893686
-0.40155759787653822 -0.15018945416067364 0.7949899483298305
0.13316010792741584 0.83244344414015492 0.17015204033689135
-0.31222899271976889 -0.043101264905946568 0.76123959524585971
-0.21129868170708566 1.0052660520520811 -0.06915372153889221
0.2025863780657946 -0.29771161724142914 0.70918222389468044
0.081187923048249067 -0.39079648875897055 0.10245012802652809
-0.45882707959314173 0.058801244980246636 0.69787938783223791
0.19981916040486825 0.67621500002397594 0.14959271691952786
-0.038678576234448037 0.3613563910952946 0.81891610267031745
0.23966834115054381 0.64981239702776383 0.27238670137177839
0.14652613801501291 -0.20044010708356863 0.69576528158545392
-0.57979358705603068 -0.66733479174850063 -0.20195992615788838
0.74491924757137562 -0.40639025591736244 0.55132391237078604
-0.3135508568572728 0.46330497081654798 0.50511912967682493
0.30207568129301843 -0.0017607098579826008 0.61241326689631037
-0.28805449028733265 -0.51637363474426223 -0.01757225416364816
0.70877726388249751 -0.25076258976584898 0.58239490332789323
-0.19283417603035102 0.37084564651428709 0.73085991818901475
-0.077023218540068994 0.52528597726053139 0.74878725458684181
0.35154529577371862 0.70076216365632016 -0.24689714358796991
0.44165255210941279 0.66382778035377221 -0.23568315328462419
-0.53187559165764176 -0.74143730816387476 -0.15629651993347027
-0.30129621815639296 -0.49060937798530668 0.16415584753945439
0.09232566307165313 -0.11971429071864126 0.75811623581970133
-0.38621621528912364 0.20857166900187174 0.66779751112413543
0.11228205010222936 0.57336217094049369 0.61781104904413831
-0.65316094024973725 -0.11150388225491659 -0.01768816573941423
0.073693184700187708 0.67071073697209194 0.63714198816389045
-0.26497110698197368 -0.083440015509102849 0.73466047023018866
-0.0093885827978591463 1.0013190150086571 -0.49761008214701929
-0.60066201748836456 -0.67843728559141225 -0.29142489648317083
-0.036239069171487781 0.18248473197700843 0.74807311184134151
0.085805017714238541 0.43496650573437856 0.64703722201378144
0.63580957377404568 -0.50564158480831578 0.6169024556253675
-0.7702247983337579 -0.81770497566211509 -0.43743762976164546
0.22852760766202684 0.67151730877293447 -0.20664032605580512
0.75823454308813454 -0.28508589508468152 0.52470260239847988
-0.66114165787458135 -0.68230761179215715 -0.30577427008525793
0.1038127911990212 0.98980801829203902 -0.31594350102937896
0.24227619795000033 1.0290675982780537 -0.24748721652747274
0.22980621602284179 0.49619523385006525 0.47198489399650495
-0.53957862156421177 0.19107761030951353 0.75840359437602944
0.53478586704256315 -0.49049218260959426 0.64064832988878151
-0.62619036938306016 0.13162503333878472 0.13200417771462225
-0.65781287479624606 -0.11012389992179017 0.66088887404803753
-0.51812166242812352 -0.41843918941586944 0.40487195126243758
0.14853542905610417 -0.16612662336531825 0.73525342961613582
0.082155154386742257 0.57934274614377079 0.5802918381512937
0.15091190642469676 0.35718764023165583 0.6345665428847086
-0.70579020643837254 -0.88023167109837663 -0.26454955714917527
0.23025430274853453 0.23816035408429848 0.50767213412102841
0.0098416010733649584 -0.11508943822178574 0.76332329303423996
0.044839005750116234 0.36939780758827467 0.70737127622563523
-0.13891749498719264 0.41683700898145881 0.73607187924630257
-0.34050445871242385 0.12035881739488774 0.75151446830731294
0.13746732842948706 0.011907342315092162 0.68860779522119142
-0.33172027153564176 0.34642421916351651 -0.64276302063570279
-0.2921735650143209 -0.050650426094186685 0.74624245743559425
-0.47063109888697408 0.0095850126717507145 0.71111332002134975
-0.27226180287867585 0.34708695566133274 0.71839048130638872
0.1002839004804289 0.55759693383122899 0.66638292183733405
0.26520804645831442 -0.16461115046694763 0.70692401607392785
-0.055123513550612402 0.68927886262523197 -0.63210221429515667
0.6768982756162566 -0.33641632619224482 0.64241965464922768
0.72870040497107069 -0.31191309674004186 0.44363771420768472
-0.57166661636056837 -0.14947061715024912 0.60332036009593604
0.07240662299028866 0.66314552469870902 0.62463215123205995
0.28933373250165639 -0.2010550510897966 0.69540039178445345
0.18617091428842902 0.017844947786746612 0.66841676634324831
0.061392817768326613 0.48912430046217237 0.66056722833581705
0.026254020002632106 -0.082711426053240888 0.77356987913216113
-0.17636101762570033 0.84931685116851252 0.28031452686675778
0.030078525990284821 0.51314800173069175 0.63294096687276413
-0.3939189019076047 -0.2509377528552621 0.66612809729617095
0.66993932519481025 -0.34978759847328833 0.63580867075949732
-0.54603524377844792 0.24020604643264054 0.73956119332295955
-0.76279913482365125 -0.73185280960524168 -0.46934720667091123
0.2070635869473576 0.91161914842990432 -0.27086893389309979
-0.72197242861163247 -0.25973903660636033 0.53528343653400468
0.36698534205700373 0.52043938645728627 -0.20201017267174104
-0.048905570073697224 0.32559259427375009 0.78574667840945367
-0.48496566992778889 -0.24600720861851633 0.65712404251509637
0.78554213923195881 -0.29419442562413334 0.49159508027436682
-0.28464901358871497 0.44662359369237592 -0.69295091775778106
0.060578573763954813 -0.40733038125528109 0.17033222171229787
-0.48827759835006213 0.038667271370074197 0.77251035276168944
0.12986493440956048 0.37914485715430013 0.6339777548001464
0.19995680127228876 -0.36602745349137233 0.45324881009139634
0.25754096081546318 -0.074141356325998053 0.69617744181810826
0.29869862702188632 0.70359620616480489 -0.23394846468799396
-0.49337324737128396 -0.31169160295458997 0.6330930361161462
0.15805761070707314 0.23975740119647648 -0.34743550701824155
0.19200939516800763 -0.081195528971984121 0.73791931189250848
-0.42421907007942633 -0.050153821506923713 0.84568078084685794
-0.25941649533306943 0.27267477237667226 0.78427304187738434
-0.52246079588515681 0.093908527555629284 0.60533460341451828
0.37777738118049053 0.55459102603173482 -0.15185478734838603
0.37929913907021451 -0.1752796481351564 0.69606750014534113
-0.23840856015699718 -0.32929113315944347 -0.57214513888611473
-0.47739336032074908 0.053273539240753287 -0.49975452927359987
0.20729263310935298 0.02591132780712968 0.48754766117545928
-0.63251149138912977 -0.62612997843530138 -0.28019877641570434
-0.06735253600794322 0.54050736527681131 0.61908185328570586
-0.14398470667524998 0.41476297878888557 0.70718177331768495
-0.16943711762912772 -0.27946129730027147 0.61921484230398116
-0.71546480296425363 -0.79265311329128085 -0.5478945110640796
0.60467240030577563 -0.25656913020782612 0.66382678103774351
-0.55248617710555092 -0.17820373028893854 0.6873287564367363
-0.65323123558204788 -0.1588282038383948 0.31727482527096079
-0.31747656513672184 -0.16196768942292961 0.74632931961708682
-0.13535467853003313 0.3114726659173952 0.72127329519244865
0.63970596958692005 -0.41999408569263053 0.65920647241715535
0.062484632639204452 -0.10080391172238823 0.76662463873505626
-0.50636364724421346 0.077465477803766003 0.73585047977997642
-0.20854409574022092 0.27756142403740691 -0.7001595641542202
0.31209028744020584 0.41998637940750605 -0.1189300494926161
0.075666848250634189 0.0088602457337954021 0.7447519004663733
0.59519260270850083 -0.52515965362348838 0.54922064555017913
0.26321498897485474 0.64764960565980667 -0.2109691532728008
0.54411618655924177 -0.28160516085648224 0.69210131041577339
0.12085577778421519 0.32593666710694391 0.68621448557252129
0.35269331373805723 1.1865976328468468 -0.46593299911555197
-0.8179894079530905 -0.9084435018666237 -0.57263811450731894
-0.034994477365220433 0.24513194337869404 0.77330632666586208
-0.58218978665115262 0.052448397198877394 0.35267755179752436
-0.3517229379870962 0.099590402557978575 0.73576878262257384
0.065216054303966375 0.48954596374637127 0.61797218875561599
