# XYZ point cloud file
-0.1664711707179081 -0.04547518737956862 0.42991545926298447
0.022460893407523108 -0.15846526499444286 0.60794535469325672
0.11713696133594843 0.16132123250536046 0.44557823153517168
0.058157412389512379 0.0096066398438890456 0.36928202478699856
-0.24574447801672 -0.083292234525918274 0.41541080049061202
0.021999454139414711 0.17696319284815912 0.47599030989917418
0.019167749165045826 -0.23957937122730816 0.57178823865211903
0.33493399981933364 0.074858218605552793 0.093924533922809153
0.22671693226908968 0.0031253297066787186 0.10062339623985417
0.075190962614651191 0.37469616960912344 0.39095496602590862
0.045436048142200799 0.035536469524758141 0.46010412222661207
0.12084344113939589 0.15706373514465538 0.4518683794770092
-0.3209355471203521 -0.33600935789832198 -0.11340776180454577
-0.42440156121628148 -0.30490870825178135 -0.021955546165722303
0.071655842724164837 0.16516586459179292 0.46830093856797045
0.10551236315704512 0.16213769316612975 0.45083680493780309
0.053786062016004915 0.31522681659383683 0.35396215427840544
-0.062369192928217625 0.023679708294055104 0.47603835184799059
-0.24803065529262455 -0.29526412270718189 0.20270582993521122
0.12991153427420959 -0.28630925180091599 0.50522581007847123
0.085643679174482221 -0.00067572037924591016 0.31179947639407635
-0.018652929332757806 0.18327351152099319 0.44741724718179976
-0.0088462629322080474 -0.30000493050838317 0.57164501918084487
0.22197809706376637 0.20351743689665383 0.15775736565496604
-0.18682531038337838 0.085245181165598052 0.45101053293353849
-0.026517326609862623 -0.18867113300377814 0.58340173304695409
0.0097412656625892255 -0.20067911453104295 0.55606447593298591
-0.074380642507554731 0.26799428101292305 0.44224115346726439
0.24549265771154716 0.15267315241668594 0.10731169431368903
-0.32263356858278436 -0.17883999059837122 0.22346375932386353
-0.49591507367234583 -0.27720066577210928 -0.19382754049946921
0.019231019200562111 0.20299367100179494 0.44317177776555661
-0.19850797643834545 0.15137479403797116 0.4321974604617802
-0.11342481550071468 0.23521102888408235 0.40488907789874101
0.12375789991054892 0.36196141133220844 0.398682030185255
-0.40684906706582702 -0.25434957020223697 -0.029367499552540102
0.0019758987823458203 -0.12228113004016747 0.36963627394699022
0.053164011131173423 0.32470794730264402 0.35004390013038583
0.040232530968022574 0.0040528139578341268 0.53456655424110755
0.07503850434504572 0.21379728217192229 0.47657826993163821
0.11402804878207812 0.2211719311193576 0.43757991099562266
-0.24756148124770083 0.12139020123798673 0.36882231524708298
0.038459743188216926 -0.22962611729413587 0.59637052572758809
0.061159631877102313 -0.0039746103974909672 0.43262969699576531
0.07726723348922071 0.0016982253907055767 0.36435792134557032
0.31216885113894544 0.28228384078157703 0.10494431493236742
0.022401549272619566 -0.10437017499935597 0.5657820640994512
0.12740323119627217 0.34196018102215459 0.40558135787896432
-0.62294102708582111 -0.42091631601704621 -0.12753402246004369
-0.093055568202232611 -0.33149399993424561 0.55419791523475292
0.12153739568377331 0.30093320463107892 0.43657117939107676
-0.00080538613597673503 0.3221383643494331 0.40869177761918457
0.19228855728559049 0.33347202738245357 0.41886553749762229
0.22605206975679726 0.35114605521239262 0.33924063404580596
-0.030619605422041507 -0.20799710707576757 0.090009080692030438
-0.47691264326335048 -0.27496942250291656 -0.18602518184296082
-0.10214641689765672 0.086809494440248755 0.45274635126936391
-0.26492867937321579 0.04514010807087368 0.36600578781880283
0.086994432675220598 -0.30548002140528963 0.50247731567409859
0.30505567096093095 0.21463422477896812 0.068892578977784807
0.10815237582356114 0.26441465927934416 0.42163121910396345
0.32900420469393948 0.28470681519903374 0.055571598585855787
-0.022598506034708581 0.065197279635821545 0.47994197945046158
-0.17662131245012511 0.32519454450070628 0.32867790456132745
-0.68251223484890033 -0.45484535518764585 -0.15917896959282013
0.074718080167737649 0.13284128657256092 0.45001866864036305
0.2646065213820859 0.39862360225782695 0.12069646485491484
0.046522975867830774 -0.022693317919936534 0.49042057493340452
-0.30968573542489392 -0.3036469595290841 0.12075049490437945
0.069303053454950136 0.30714155847961477 0.42344323088895741
-0.027819385331911098 0.025043700032029888 0.52149899103705843
-0.1591354731804559 0.2194001936713712 0.41550304617826572
0.068495045259680198 -0.05548381372540704 0.12281700469316054
-0.040859800503773899 0.24287167843541099 0.34493408478799203
0.3606969003052074 0.33347611314084902 0.069549651064395451
-0.22965570094887702 -0.34311810181662922 -0.015729961440538689
-0.31873790003943214 0.12075623713857046 0.27348904298548643
-0.38530546527357884 -0.3083557545471774 0.11251143983969705
-0.020696482031620087 -0.23328539475893539 0.61558770828580012
0.27735757004170586 0.30378541215355637 0.079423561130665621
0.31770831735680016 0.31637478536417185 0.082404745739030061
0.25204710285068788 0.40492058368207107 0.12379030855189102
-0.50111241304359222 -0.2517399105649763 -0.2010926255936154
-0.18053026228844149 0.17967151857161681 0.29956076539970261
-0.4916302485008901 -0.25922515220388503 -0.16751868353408383
-0.6526194017038236 -0.31581136400425797 -0.27878746796456
-0.024862519885510651 0.27508757339619583 0.33494870649987618
0.17483052625532383 0.14602365163113348 0.013526429559578716
0.23698273806271486 0.27073619755903938 0.23245464834285276
-0.013770937469772808 0.041854616617223839 0.51081119103424621
0.079636754538726512 0.36851282292850673 0.28545235282270803
-0.2313476243133496 0.17406060199311138 -0.11450047418055087
-0.12452523187804168 0.2070326794029925 0.41206058656678729
-0.34504685087900844 -0.079045466657856334 -0.14383786875237453
-0.029733118873182397 -0.066342714912055262 0.52390074553134314
0.022789732429819611 0.024778570343033452 0.50940552691881591
-0.01069425329479827 0.032334082390990317 0.53767767946953915
-0.12790559682033667 0.065511196096663546 0.44530567405412996
-0.010325253043737499 0.07926141836848917 0.47803787381579377
0.048302985250460589 0.31958642040191565 0.32191354544153666
-0.09079437850445965 0.14310318741355454 0.40482643679331731
-0.011300682537170481 0.32011355236183919 0.33321049971610794
0.078142250182135692 0.28338715719421459 0.44557931157751574
-0.04206605972847572 0.0039644954502461444 0.54100813355582478
-0.13012185627996392 0.16665655358985615 0.4314109591631079
-0.055191678629233853 -0.015331028932850443 0.53184200540284632
-0.21785077711708511 0.074209102088523687 0.43684375313105128
-0.17328430387588623 -0.20716321733402659 0.29134756061868489
0.23358613604022341 0.15141979083764429 0.42878330990977098
-0.19703220716461739 0.058104939055699155 0.43656710516488406
0.11963581497110905 -0.0013730249126403388 0.11017993625968736
0.041405607287748086 -0.28019611112081994 0.55191385524766889
-0.0047365315626230892 0.29355980789167668 0.42010716140013027
0.18623148704371634 0.25163207808886612 -0.043999848817485206
-0.019210657365561823 -0.15265401727226979 0.039019004180879627
0.096979593033684391 -0.24414286955726877 0.57817073494513938
0.056823069429402323 0.23455695340141774 0.44682215711561102
-0.010276423345174514 0.022376295898613206 0.54812802972377961
-0.14110760615520995 -0.22451070713603621 -0.13608197760381979
-0.54362633916650327 -0.28786901359628148 -0.22496435744302234
0.039180984610344985 -0.10921067424865177 0.16640007895001527
0.044290187429103595 0.31767696385991728 0.31113582758598496
0.14287468976890394 0.41663483485789132 0.38194476859679038
0.033033626020643102 0.26900062035710665 0.37303738955466392
0.048463586383790246 0.34281518591673721 0.40032595385501724
-0.25798453250805531 0.052249607768587655 0.40727185110730091
0.39633457121949117 0.10995964598359662 0.08059969746810236
-0.48999609650561993 -0.3265679645839365 -0.065790438036426369
0.4971848672791187 0.29465974709082821 0.051884427625551011
0.12272082745101411 0.25718609514835283 0.4535919383409312
0.11459751962588063 0.18848210810493482 0.49044025105655903
-0.080351525873250812 0.14125282188927052 0.43276464752239507
-0.61574333733722764 -0.29373475801902904 -0.25042254723550067
0.01409866868640075 -0.30617997085572546 0.56293370203660398
0.22951939414608771 -0.0060563380545283207 0.12565958301895405
-0.6118786175601727 -0.43069370881729485 -0.06491571593323045
0.042440281046351329 -0.043652792825545426 0.43783127840896019
-0.29395378553450419 -0.31074353856986131 -0.076817142226155766
0.073983505369587532 0.33469542473071046 0.40493128757222141
0.034746293483021773 -0.24290347264940293 0.59016902036020757
-0.20211296794943867 0.050273802554097614 0.42762534049717804
-0.20478836118789967 0.10338427569423927 0.39561730570180753
0.10220403656301061 0.1710035262202112 0.45987900615071448
-0.029590358930595757 0.023064955040827565 0.52642328995690002
-0.4347275220654313 -0.24905756450590519 -0.082549648157344876
0.33425904974097737 0.27765312484244703 0.081949304471287274
0.078328087271405458 -0.250696791886587 0.57062203799620037
-0.48278470196829015 -0.38293994532121328 0.060365002041837437
0.16728471916760251 0.35805793022980037 0.37993646939065656
0.113086830852713 -0.14745660041219377 0.49354347763602846
-0.12788422993083964 0.043710247651724224 0.47744871873922701
-0.045737958630786585 -0.041379064356167658 0.54388171361392335
-0.045881621331914438 -0.22674382098293452 0.60653657371452596
-0.0091679855861890314 -0.0055275401977670953 0.54814166391818098
-0.087984754506711879 -0.17149062220291841 0.56353458006736434
0.023355169719586462 -0.13675760875916337 0.58761705335205572
-0.081555534373727437 0.23641825293964727 0.41165611389212142
-0.15039368452958951 0.16461675271751727 0.46229125868282983
-0.30794725285089664 -0.34266243282237319 -0.035577852629614604
-0.049186286677730187 -0.1235484950228348 0.56188951678357579
0.026747501843787456 -0.23164553346608888 0.57305738789019034
0.22132472144102436 -0.0085045598672441255 0.10823012744138695
-0.49865430169514008 -0.30412946324887402 -0.12074703131103204
-0.39965065576575293 -0.28928896833622697 -0.024801179517296698
-0.26765981648648551 0.17793487903835653 0.28007231932858667
-0.0707221788433198 0.19755130969008497 0.38622960963843572
0.004209732614767342 0.17770636330469039 0.45623139044501576
-0.076940933097684988 -0.24117395726558849 0.21688383829810318
0.22263543141738373 0.40646875368618646 0.1803278493389775
-0.11000939387255763 -0.24310849687920563 0.40271455731525091
-0.11860188478639591 -0.33392270000209262 0.55023553513753953
-0.66564284679455832 -0.40390361965193533 -0.17881907178455586
-0.011994522580776358 0.016125665933730153 0.54570151706296777
-0.35213725204269564 -0.067191852188599507 0.30509100196372496
0.084452609267285192 -0.25105422192127713 0.58926929335909628
-0.40567131449336985 -0.28056695619633792 0.044593266774646048
-0.055246274383417879 0.21855422516843126 0.43204306213901722
0.16311859068447732 0.24590635525836585 0.41601403976972762
0.19497045645255012 0.18113630497071842 -0.021072645981893276
0.18857122309164484 0.033737858463525061 0.11516390566012508
-0.25074440958394828 -0.31443369869762422 -0.080707835729959154
-0.095191823569057296 0.13669118800007427 0.45180726373408103
-0.32401074311184097 0.13824205042986062 0.3304503909433828
-0.54353417167712459 -0.23522928720719072 -0.27772684393948482
0.21064890413471096 0.055308359571956706 0.13563860624399574
-0.35287980137691027 -0.26920259029381244 0.13815823720566658
0.016217121926264795 0.0094838679901262241 0.53612431741987132
-0.26258639681939111 0.15049446633494176 0.351394344661492
-0.46212465759088894 -0.26264826528665519 -0.11161375165195266
0.024576627420639405 -0.23366232992639238 0.57801322998252291
-0.44478014539322264 -0.34308174299418026 -0.025697924572443423
0.3458566280315144 0.31204068996553375 0.077358774849779738
0.29302946572801009 0.25697852499892326 0.078320212130481695
-0.049592877225185232 -0.11722658430792007 0.54677945503781622
0.26353271360015518 0.24820023282844705 0.080117828499128907
0.097367495341905849 0.28374967389704198 0.43974244906972565
-0.025325540582888884 0.031495424487573198 0.54436031231670179
-0.049025733787758041 -0.21803963051006484 0.16251217513984395
-0.31686396512164894 -0.22208867898817591 -0.18812114535042601
-0.46665301379691682 -0.26767988660540287 -0.13547593706862893
-0.14642373746255272 -0.18061136835959912 0.3996491781540652
-0.51960837714658581 -0.19305270032938576 -0.25001257808657151
0.018141378346941371 -0.20013734932216962 0.57735042195521435
-0.077649139323956021 0.35806551675328518 0.13614716614040412
0.25186892963771884 0.1650881832440525 0.074473620332853596
-0.0008412584891602376 -0.082407145545146443 0.54367190634343865
0.15244144523819891 0.15862542395941578 0.42910667397925889
-0.44769223935561281 -0.33417730005217527 -0.051715666522928375
-0.043733158681926232 0.01676017741529872 0.53535538280711359
-0.35968668634423917 -0.21655567721579855 0.084318778786904969
-0.25400919152097989 0.10811560256973467 0.36586231389307416
-0.023887272312294094 -0.010752613530129029 0.5348645074249081
-0.62652045692997071 -0.37716272786797089 -0.24577209366172253
-0.04457828456365609 0.0092411495482960689 0.54770067603411809
-0.59650796164378062 -0.3940313594019782 -0.15760860779696323
-0.14365794725715775 -0.080439594079745713 0.41553136784470579
-0.035264501542681861 0.024062239473033365 0.51739744591337133
0.11516050886215529 0.18485482048821525 0.45413509752996783
-0.22796877500017176 0.013328396929624403 0.39399735071637915
0.17709580464001501 0.1175354461079858 0.40873639627218744
0.24693223268170633 0.27136510116338053 0.22365950162408849
-0.13881569395009513 0.12076065197271837 0.47397791221130137
-0.41602333808532488 -0.30794446594761721 0.10940693923217656
0.0071690155836644093 0.21192064557750523 0.43989355491370785
-0.14003565041763547 0.045352500422926226 0.43457334154890431
0.22926491031664595 0.22762336723049406 0.12558404667222572
-0.11445931435571405 -0.053298628944366752 0.44682817678772363
0.34068504653085463 0.32080226184916688 0.083580763850163456
0.22120383432128476 0.017681007597091382 0.15746993185138949
0.06571626697584132 0.25867063526276163 0.44697305986775032
0.16650031028848464 0.37523881497716022 0.40890891781315397
-0.079590994892566269 0.084912260183583291 0.46612510215025832
-0.14190163846518017 0.14169470264355111 0.45712360018369635
-0.055249359007913224 -0.32575743094507914 0.49340468194732351
-0.026347628937125521 0.049540339234101428 0.53175733162972694
-0.12706771833213962 0.01933444454265483 -0.2652981440488098
0.046594830415482888 -0.051727404307297366 0.3612936252540781
0.13859188094285391 -0.28905808961184731 0.52319589670992694
-0.16789166649214027 0.29083454746323617 0.23882996747300503
-0.36462206946747677 -0.3269846932062197 -0.054530506995633013
-0.029719371570653422 0.0093702615410968249 0.53890094484111561
-0.48272350661521396 -0.37594483342826585 0.063142553517535394
-0.027508368598626404 0.27794716296442634 0.33359088846235846
-0.25623340662619409 0.056818441546609616 0.39241601504214479
-0.034329482921581195 -0.20290155043748195 -0.014956774043985377
-0.00073955031738309751 0.0077931533211094521 0.53402067138940101
-0.47093254612027452 -0.36559847766114578 -0.00097352633943580125
-0.22745723639038767 -0.027265180602506038 0.43776634806047898
0.057705176334111138 0.18857256034428632 0.44445406189963077
-0.49434726857375821 -0.25460751175792112 -0.20581092635461265
-0.37725261447923963 -0.1515159871959372 -0.096275982799789231
0.24412015908111723 0.22988626557644329 0.15601134208639897
0.02103364020297515 0.050327769538663816 0.51744336355046439
-0.38939437048855269 -0.28241304400955924 0.090784959023452461
-0.14690305862639791 0.21823284965983109 0.36981327501110517
0.20221530030343074 0.43717137555119812 0.14838091647988458
0.0848156409513042 -0.18235937100825308 0.59644632286627153
0.047706006108826832 0.034947577116620221 0.53171180546030317
-0.37498838930725048 -0.26906391838330884 0.073576630571722965
0.17673195620171986 -0.29316833570450951 0.55299847906196764
-0.049779540707400927 0.064868663828510212 0.46810708219782787
0.12626429313998808 -0.18596158088502807 0.56057410374584871
0.018061396522409748 0.36904747656145781 -0.21823248395864547
0.097872676373721601 0.20216448875022097 0.47568991396022214
0.035611894713999767 -0.017479898175843025 -0.059089138210987477
-0.031181117514514536 -0.17582976891678398 0.1525259651457202
-0.30423087096537049 0.05562357050719801 -0.10982251951071068
0.26276020550667845 0.34783171382107142 0.014186522997064986
0.021688590391188041 0.12446758390881801 0.42742519719249322
0.0075624688376189908 0.011662957343667405 0.52866823096017157
0.051086966844174901 -0.001933212174694679 0.4038645553045257
0.28880487809339367 0.1489014202925279 0.11428400567739672
-0.42832957500626972 -0.22422230444061592 -0.090814467209274899
-0.056843170572921112 -0.027862485413465195 0.49384921851487562
-0.04413358040010442 0.040196038159835371 0.4992351446913621
-0.027328269829257554 0.058754351377877587 0.51779650945738975
0.19705368714999064 -0.0062477865536625168 0.099190947895410483
0.12047820497527713 -0.31293499760275156 0.54162080560874115
0.026838497240259662 -0.10686736205246126 0.17679796149681304
0.015377431324087421 0.20098511003147554 0.42081729247284527
0.044380486179721741 0.19068718878516916 0.46199807144447491
-0.098521998278603154 0.17176606055345917 0.40798475713005267
-0.110152207100912 -0.22577314057992512 -0.091809521217873918
-0.3491064278099536 0.042815079094235792 0.32692827420119575
-0.0088297352921669937 -0.15303208076891098 0.066111705858349787
-0.24433518506830137 0.017889669624849495 -0.26567021041352501
-0.080813511842781308 0.33441971648416863 0.31614726553903694
0.20512037101628505 0.36781430434581003 0.23719668121564014
-0.099485114546506881 0.11500806569112439 0.4479605786645332
0.034163179256017362 0.047555296420057354 0.47846019672801127
0.15497920390482905 0.23242563955178291 0.41436850946542747
0.054840953315880417 -0.041269697527044506 0.43190077133739696
-0.074144218807440862 0.33854753313372288 0.32815302134324592
0.005682135313399974 -0.12898642262451132 0.36764696679432618
-0.45542543687836162 -0.36733275793859443 0.04331312449982163
0.15682640605264708 0.31754018537306633 0.40694169293131344
-0.45181056638317352 -0.34691356264456374 0.010404982669867821
-0.56959396047929711 -0.44805165692885673 -0.067413241003682872
0.061706742798607904 0.40236875945868444 0.31746190413729258
-0.19644072821884312 0.08286144364202408 0.46857778673014944
0.071200351929561145 0.40834351613325959 0.30750697757779155
-0.26955475008704782 0.067399406206886475 0.35940089563346106
0.02923891304137393 0.18834195403078952 0.44758719247593887
-0.022822242942336847 0.098156216311197378 0.45995623970188121
-0.045921473376817207 0.14673025761310668 0.43887857395850421
0.036893299016881383 0.011938477125333104 0.51540911612124229
0.035128022826860887 0.16740949827822116 0.46076614633132595
-0.19364306081830734 0.17642203927223279 0.42054011948879216
0.034312467563786718 -0.26733822581129879 0.59751203575772183
-0.16835663529129652 0.0392149517070415 0.47169145048474981
0.53936193469951954 0.29975975929359544 0.02711888460023771
-0.14694848099803878 -0.18171197287556257 0.39865392040798497
-0.17382535693270768 0.072906423514549235 0.4342691296587356
-0.50704661610172286 -0.24728415827792635 -0.16134981218201699
-0.63395892882223781 -0.43676916664815535 -0.13238767940192286
0.029994406087726008 0.20635054797343211 0.4236862173318337
-0.42781320101093889 -0.16059043537152959 -0.15393691440751861
-0.21347203012732874 0.042154808788995454 0.4575739582955522
0.14764247199824582 -0.23947583300163217 0.55382463700214812
-0.12514591791674778 0.10961214431398898 0.42663639411893156
-0.34876285543112889 -0.2213034376156213 0.1673451088998949
-0.071395711099519865 -0.24260672939077008 0.41232282267508097
-0.64727706495537385 -0.43634928961220598 -0.16327568523211533
-0.52110568327822704 -0.24451278842805962 -0.22990133112750955
0.10629220326953503 -0.18124641742253506 0.58870807358123212
-0.12552546729139996 0.34434646360864174 0.28784806653594092
-0.050859554223831101 -0.18140552977149274 0.35527721008402241
0.41318957809365092 0.27880930116211733 0.049911686319168896
0.049980048124074472 0.30925197673173072 0.40394945423937961
0.11410542769004078 0.53909062700568855 0.035206423748403916
0.21288513703931641 0.12330804933477747 0.21706509111136141
0.19962367421173341 0.37005293255220512 0.36976765629434283
-0.10452949025620412 0.26882758326515371 0.40612489851042671
-0.16932787496853799 0.17763252479318589 0.43159739647164591
0.14987830016139675 0.36367242712423969 0.4044864937544837
0.15006168842785991 0.20191887682242707 0.4382684207439182
-0.2547983181944557 0.034859563980926059 -0.22709428799139086
-0.2461987985460424 0.14191929636294034 0.37258776021776696
-0.25216513367633336 0.036172723185508765 0.374923165523254
0.06303525875099171 -0.16299532510530762 0.60220814156050773
-0.19520177335602243 0.071703091700747346 0.45560827770093937
-0.43408498742403478 -0.29327547696020445 -0.053885453544665909
-0.050551871517050061 -0.037842064115810828 0.52351546796770954
-0.069928253168625609 0.24867351637378415 0.40342460450384204
-0.021017148992894322 0.043802965170390493 0.50886004331655688
0.43746401610120178 0.40002664802610854 -0.011673380728115315
0.20608417145826011 0.16792875151416395 0.3043714022959681
0.056285378321621407 -0.17410479995230033 0.57920856949038135
0.29715409262187448 0.20264263365755991 0.087027875744346866
-0.29446615628830969 -0.019573906210884548 0.41641478673132398
0.037602908241111982 -0.0090251401629909932 0.41422211076110566
-0.036288822309499986 0.03259131725400425 0.48838788476124334
-0.11071261958202136 -0.071677007029919332 0.41669377415147379
0.21904599401790731 0.12485083555934946 0.12977175095088669
-0.073945103685876035 0.19120631543398531 0.43513044211125368
-0.35716087132966112 0.0024158420938203209 0.26871397045800788
-0.091484932910061448 0.16557156393150374 0.42717927634535707
-0.33932697010940766 -0.14416558761222781 -0.16500741105946298
-0.0056852622052664462 0.046158426178206022 0.51964157535674149
-0.15994628253775639 0.19431272136332245 0.39858207896030973
0.10937028867155203 0.31822563339599619 0.40788131614735296
-0.08591490996042947 -0.20851235622618508 0.289987078974066
-0.15810261571811846 0.17835660334587447 0.40463344876249407
0.29446780119862737 0.089296655136117731 0.11145948199183518
-0.49945158787829808 -0.32772718318498645 -0.077717588768534643
-0.44980310481353547 -0.35008439938455121 -0.042416533559579805
0.0098448113286703082 0.4829310265781826 -0.0011749320255129217
-0.44944251175462924 -0.18617011452817953 -0.18672915852070218
0.13348807894931591 -0.16897827674512511 0.53899111569704727
-0.04995417028348266 0.25961335427784343 0.35958784772372537
-0.17198670296355839 0.18128538082608237 0.3658003764339971
-0.010130727857491577 -0.27812117450652046 0.60020308126415778
0.057746614195331204 0.12044395189875319 0.43395267781125041
0.033563620155596857 -0.011806411958908331 0.39484178641558104
-0.259093920635593 0.10127207351189145 0.23538989479100758
-0.52261341640240966 -0.20459134081228264 -0.23089283149174944
0.0034776894446353346 0.26071668063073195 0.40295025269770757
-0.1363358404150867 0.16448910462903249 0.433913538835482
0.33707484347195121 0.28941252742136453 0.055734921849249393
0.049717005043058655 -0.32590406709348463 0.54188274411001269
-0.27051727232542966 -0.30619015979526637 0.073231026838152774
-0.34391107196333587 -0.1164364834440851 0.17822459278826011
0.009709835058828567 0.036841908229458403 0.54000497330410036
0.035810025990876501 0.14517359349691825 0.43976199858965981
0.041671516427410564 -0.33020986316886286 0.49980514052712999
0.049231472174151497 0.37172746740000806 0.25125510739414958
0.082486500879904209 0.25539854131146439 0.45746794079438613
0.088707186099630575 0.30276415763308939 0.44729373128017097
0.18522579889980184 -0.016772750732134543 0.1811287781988366
-0.20993418702731892 0.18753830847260833 -0.086388478587817494
0.16246936242273408 0.39962615226379977 0.39106995798900995
0.010895885971571539 0.20889567380275428 0.42300391837066209
0.040040010272116539 -0.23313743388824662 0.57125059809657097
0.18613481107612351 0.29817387206231682 -0.027377031307721948
-0.42546156916241368 -0.31039262635464782 -0.025144966197687163
0.07322053959957342 0.19748896559222473 0.47027243239327632
-0.13262975412236627 -0.24090070100057431 0.47537550920332877
-0.36579031168161236 -0.29027066784393396 0.12157545553891774
-0.010302498502956572 -0.056926550135452066 0.54826962270622037
-0.13061704967081422 0.24930234478314486 0.39276715808416551
-0.083870668805873391 0.18995234431353461 0.40623834388365143
0.26128894913990902 0.24623066899051108 0.032389986080107458
-0.091444840499481983 -0.3265871492008412 0.51427507311065512
0.39368536203840293 0.2361572279189933 0.078202184693836663
-0.32505074561873448 -0.0098015315232161219 0.29423712556188986
0.22961582146657902 0.35272138348196458 0.40665110245990166
0.2370736411971891 0.45609754306126754 -0.01821260519100952
0.073723663066145972 -0.089666839528869696 0.43810119316069468
-0.023929752290734435 0.17657498873873445 0.44908108385771328
-0.50466889499499157 -0.38556949460403028 -0.049487587217821719
-0.033175680990145118 0.012995077481537325 0.52990289106772059
0.13321913234603872 -0.014491583011294398 0.15805254200020041
0.44006803181129028 0.15487135701096855 0.052717509343407742
-0.50951719689524644 -0.26624990480316463 -0.17938271480891826
-0.094206466671091227 0.04191595874288271 0.47791086393456117
-0.039768085222011293 0.45884266196653806 0.019200816674710457
0.22654424790673261 0.18158006077802802 0.11913954324597016
-0.64519893980275389 -0.43038392027135663 -0.19015912826285672
0.18157478028400967 0.14150390235488469 0.43772867723051073
0.058540817574799363 0.34314884064113016 0.31174631239905432
0.019320781639345384 0.037973424811070147 0.55778362639737078
0.131667989514997 0.26150905757272186 0.44728144428412164
0.15964166552400069 0.31367115489041314 0.39894396300117657
0.23777308498784949 0.0095432503173325384 0.18039716851609533
-0.064406742373037756 0.21998491741512588 0.38991954600991402
0.4492121398877239 0.19075852941033938 0.06077902326416177
-0.40324755720893563 -0.29904529604893559 0.01059715377048108
-0.14184333557695031 0.053499663862829692 0.45020629858479816
-0.073159885500738611 -0.079256343301371004 0.54634519457247865
0.023424533725306854 0.053722276261670809 0.5333952583820798
-0.65956403149491538 -0.43344745727035161 -0.10679777152860713
0.18576293145545505 0.36101716847439652 0.4047098954847444
0.15135834706351148 0.34845286384461432 -0.11066752998994045
0.067709185617229412 0.00054688115959086736 0.32376060151659508
-0.15339530847316227 0.21165919995382154 0.38409516068329569
0.039004960916951617 0.26660250979706995 0.42202675843953963
0.092343508492070792 0.3021067006445961 0.43934784842428604
-0.59825477577926833 -0.26412191896878751 -0.30077272203317956
-0.043441344332650164 -0.015546619934226416 0.52368209224904849
-0.47948642204016495 -0.35028160440186579 -0.045769768196443378
0.041597939107246643 0.19229976233086554 0.44002112827663425
0.028489261013150424 -0.020884263904667407 0.52762342644233551
-0.1846996233301523 -0.10624559122598438 0.36863078699533008
0.10978728293030372 -0.11502206197837653 0.51011136051267325
0.066515002502554155 0.051313466948973818 0.42892550496134318
-0.093831064316839644 0.18869071424403927 0.40091991464709009
-0.59240380623156708 -0.36804241920077152 -0.14478344621176342
0.26344084560477599 0.334608733610885 0.36114929397473033
-0.1652981674134755 0.18287039089037935 0.39750648934480198
0.097298207288862543 0.1433073091449735 0.46522615027279984
0.22319758503813811 0.37200506561074903 0.19122224989922276
-0.21330877925561575 0.14842708178246045 0.3567467744183439
0.05992351744070909 0.43430636408754952 0.40178232039843098
0.08897433827078971 0.2944285182463382 0.38188163368598982
0.29215092472980952 0.20751384394246183 0.072733174052309987
-0.19694269295792705 0.21087669911415663 0.0066605285975254169
0.011601620987120902 -0.26418056551793134 0.56431388861277409
-0.05127806079271003 -0.22378957836271721 0.39831720487727601
0.10147302173846921 0.31294709493924527 0.41070770332314072
0.089402593229297486 0.30664973494105896 0.42232970977812662
0.23986189246644243 0.34376630369147831 0.29525370501637721
-0.0130917937417315 0.025892600042823895 0.51555382948384343
-0.18145918681097559 0.10719155977273823 0.45096653132753256
0.13432832609784343 -0.18282279016154218 0.56187675868925957
-0.05781462729397812 -0.016397973438515779 0.53148533538534237
0.10238447373776505 -0.22706320520656403 0.56676682379020471
-0.59966356464073978 -0.32418557526791975 -0.22532124777303597
-0.044795323715378595 -0.21542107861332663 0.59056992143314557
-0.43397895803253234 -0.21253337634647301 -0.070157770878473871
-0.07859719569149555 -0.11901012997901859 0.53005050756485494
0.1453656950718536 0.37557018599975689 0.24985252859688048
-0.22640293891850816 0.10122515948494323 0.37372880012641752
-0.60040670769346538 -0.26968584099402498 -0.30692838966542729
-0.12268141688440505 0.28462537735555948 0.19565740893634609
0.033516000566763564 -0.02877223545506128 0.4232809113617047
0.056824340418756614 0.010318078930306347 0.46512206539987389
-0.10695999525866084 -0.19920858321064128 0.31616667510438723
0.032971725944678232 -0.074963395925382578 0.11260915999769909
0.1666015560246899 0.063055540252137068 0.13360752620605842
0.01014138098475445 -0.06015938301936883 0.54379201032027114
0.028316171313320503 0.13764957424142041 0.47534813867331077
-0.18234231187017294 0.1727658532631533 0.36306812322863641
-0.64521857503035118 -0.49488794655655882 -0.080668827656839165
0.041487342459656233 -0.083559943941199227 0.39438179292898534
-0.46138086615298368 -0.33837772078411277 -0.027852416959249976
-0.060677232333825278 0.033127284579103758 -0.24854254400218956
-0.050991988528201554 -0.0023005083302035309 0.50444822167193626
-0.43295675020694724 -0.344815574163435 0.019088673075334461
-0.36395427576506068 -0.24723871032768707 0.098185060392858958
-0.039217564917819497 -0.13277471567201388 -0.067054065298863944
-0.40177902242785085 -0.30516226909549304 0.030991069913358961
0.14405913939386669 0.096804597648975088 0.29119118577330949
-0.018176137004176446 0.1553045339350908 0.46002428327678985
0.0004255688102453286 -0.1750591452612929 0.39173930380296318
0.0022736697188532606 0.32678067417390549 0.41838755081190349
0.058090389655579534 -0.21444145085624419 0.58913628684587882
0.063259633881224492 0.24726475088089186 0.46226127499234965
0.18019390651621831 0.22664672984634704 0.42305078488401704
0.030211501759294289 0.33436335249976101 0.31685215407007267
0.037241015575220852 0.319614489594303 0.40984655464521491
0.11728575843740122 -0.19307803978552424 0.45863266793232382
-0.012973058671435517 0.19732072854516022 -0.27581087741405652
0.12104999170891148 0.3431722043882614 0.37623918028992526
0.16260877713465882 -0.014044474255586949 0.1471485481519138
-0.28577278984716703 -0.0076136397365797262 -0.21670288977653723
-0.19450594715242853 0.053253664517544805 0.45088153102629663
-0.12743466515104745 0.39571365693799343 0.29475652882696129
-0.14335480748562451 -0.14680703031797099 0.38799619918294681
-0.25554679374739697 0.066816586577231774 0.35517219812881606
-0.015184218724441804 -0.13581241012977457 0.5836356331683844
0.29958681930448738 0.050390037062786219 0.13207765001869692
-0.12232283759908974 0.21020130238257195 0.39925365327150297
0.16848921133767758 -0.27911459170271052 0.50347984797825984
0.096753485893811692 -0.086117234688978139 0.49612176511714812
-0.12724914614805671 -0.058400568896125861 0.44976668383544782
-0.16277076365706206 0.029038940251830132 0.46139396405384947
-0.46902013073716559 -0.23333938989159592 -0.16401781802357362
-0.34992010529300061 -0.30889916017926472 -0.061770158979092785
-0.16712501781321434 -0.11945199366553037 0.38284131790226988
-0.38896441228761225 -0.30955209514653281 0.081940454136546409
-0.39159192981037422 -0.27782053010181962 0.0043642196938376981
-0.68211877779894103 -0.5067827973825888 -0.12131935236356094
-0.25646560123650231 0.1508107334769922 0.35150940358483457
0.24269743517669531 0.24083655567206161 0.13654848257387225
-0.23750981127201901 0.097889244780840753 0.38857715524123426
-0.019132475771014831 0.26406078608019684 0.41981866847191962
0.004157340463397604 -0.22048966429449929 0.57539085355507047
0.35243060627694867 0.17754824677732234 0.078378660432686861
0.088019213116958414 -0.23198768053484065 0.59577107324866185
0.056079978976992427 0.31919342091051467 0.39604265782213849
0.045675697184957488 -0.22261253615691123 0.60821282865326276
-0.044556828004536198 0.02709341676079044 0.55015759747183368
0.011227715228555448 -0.23307250855485945 0.54502977206774783
0.064359535972441206 0.2377931454917423 0.47513435565389239
-0.39308999978726633 -0.27487316230012132 -0.10120908935297621
-0.40083104096904776 -0.17875281097533119 -0.16571851033001894
-0.11486680479017738 0.020970026442259971 -0.28143068873354815
0.060085121617441034 0.30253231000832786 0.39386395986301581
0.16256045230487468 0.26918192507461886 0.37886363380219906
0.022222375876361916 0.29826770628801402 0.41392012658054883
0.14746046618580275 0.39008074134949877 -0.097516321205061041
0.38010613143168093 0.29146673048280719 0.049222782015779343
-0.20841164826423564 0.1495878504190869 0.37173507181613852
-0.39999048909083196 -0.20182220270795953 -0.14563752250162199
0.014031050914951569 -0.29114820717908296 0.48916527364104756
-0.36794341056307267 -0.17162468266561157 -0.041132328710747998
0.46545676108470713 0.27131202602257409 0.043784770197710342
-0.40338586558500694 -0.29937328849309919 0.090450469262698799
-0.22234558616234126 0.049769681479646798 0.4307746973053474
0.068748164456385263 -0.11281633354264776 0.52535131271998603
0.061909531890487382 -0.23260887664979332 0.5826426517814608
-0.67786980165331512 -0.39075291673015744 -0.20719916686796663
-0.4106157475789991 -0.19900000538088705 -0.064618666698220473
-0.0061078106082603154 -0.075770947341059269 0.53679944924300571
0.1984782291109663 0.046788020817249566 0.14589368770672434
0.23497057960650103 0.30964383759825276 0.059719937416470845
-0.14622833021830578 -0.29491936952214975 0.12881233955546739
0.27344997314611075 0.20078756874393316 0.079007433008406999
-0.010841175023167671 -0.069853942168871447 0.57162586750875932
0.095855847848493742 0.29393303536424187 0.39166609977347927
-0.10417999426202454 0.22330763202805121 0.39004047179958462
-0.40206325316350111 -0.12559344048246263 -0.15646482771254433
-0.093185235088809798 -0.065760724248174723 0.46916054680227925
-0.0077267882493458999 -0.13995169047013206 0.097041357882722085
0.00408338123070736 0.041481363872822835 0.50958715632152651
0.26118771736326635 0.16478805300307264 0.074528740552991413
-0.33982903864882402 -0.068535986831290682 0.28749759840871131
-0.12164094374235765 0.0097694342909942604 0.46285256212126302
0.065233401380898171 0.013846827175144211 0.48348961286345382
-0.42663459881069377 -0.31081439490832852 -0.032907625720391243
-0.29472726698679319 0.13865936551522245 0.33642457501449874
-0.078622889964956477 -0.042528762422218487 0.50491530893921088
-0.21877145214086699 0.17682857503437627 0.35490394031488581
-0.42137232705423822 -0.31000986073010689 0.0091486268648042768
0.091330513276119893 0.022927434476628768 0.36675118356010245
0.21881767399817992 0.12844646314030611 0.077334643914184695
0.1526398554554349 0.10391532325611594 0.38338766875032071
0.087768644374277033 -0.2672053671306453 0.58754435736857658
-0.09993689466410377 0.18541740260925058 0.40519704203997059
-0.041201692619882185 0.026962455580846825 0.49112945657433527
-0.095117541915609019 0.25826938361728574 0.40782795189066462
0.19445221547433689 0.054492767490176536 0.088738794338481836
-0.17474650773949285 0.028916755479886466 0.45175221515522401
-0.13556536880407499 -0.076860848877427584 0.39690467096186383
-0.012821897498071916 0.13188012709553279 0.42701393370871377
0.11968937052625811 0.37476862231959579 0.29580621733966622
0.12798401344313115 0.25852043259926821 0.4572175962109401
0.1477433539142628 0.42890619645852257 0.33691521981975059
-0.5377189615596859 -0.3922755265785986 0.011009879146235677
0.046993997306707502 0.37424054787153421 0.37987420878361472
0.15386508953604394 0.35665394454069044 0.2371857798569425
0.016231359157754095 -0.044359205558918549 -0.1198329912297912
-0.12054364399494004 0.085165515192025282 0.44495274431420878
0.0017934395377818546 0.00070443058201333578 0.54513330450238506
-0.67264492103862072 -0.38967928096448368 -0.17888297062124076
-0.20560841847246175 0.12039689203878758 -0.26945815152355812
-0.05192387434784726 -0.1844642402813863 0.3518663334274193
-0.088477268366169814 0.14882193444534753 0.42757270566654842
0.082688000106295595 0.0071849533561698722 0.30212029665071588
0.019469213245317231 0.024675372342477749 0.51695108230641684
-0.27558431373897696 -0.28588337032709321 -0.14555558025240428
0.1304146246563031 0.16373714241497617 0.45015173952656218
-0.17518967042603245 0.092801965854760762 0.46090802507798651
-0.067595782485366129 -0.30842623381545542 0.56522457380294955
0.51608606467116613 0.22115352132368879 0.06736657777487326
-0.11759991677900984 -0.042016093344972374 0.44619201878447112
-0.62671582164196626 -0.38896510283602809 -0.18877718490656303
0.05839593898161366 0.16403199842586846 0.44165991657040254
0.083003234145507754 0.19845652958531249 0.47626485344736957
0.043529469097081219 0.28197799883599939 0.41873908706783913
-0.5701809764525434 -0.42602310284276523 -0.022962698367299597
-0.22671916558382527 -0.14268891493352207 0.33401218608416267
-0.10897200665441885 0.22067039902773161 0.38999894889104392
0.025142197823348381 0.028687100277636234 0.51617551285041852
0.046094295522531317 -0.22646538004024144 0.43041609008934556
-0.60652484375956506 -0.36665314898946322 -0.16854908506336574
-0.29955319239580402 0.14216979015881026 0.31271681000156604
0.11201835969526945 -0.1832835376020861 0.52366419391834396
0.17130172615999617 0.28349101268098226 0.41288708067781416
-0.33398899010300453 0.093257246512859562 0.30918388836051042
-0.53728312970198489 -0.25872766141627646 -0.23029796542872394
0.032663429072984515 -0.078862731241750778 0.55145577022783665
-0.15715465126387382 -0.072559152741962979 0.40274646353221993
0.012954798227996972 -0.027387602700597136 0.49924764483423106
-0.20032859272386211 0.11114661775840499 0.46687569231445775
-0.082597400566598589 0.3109023043375746 0.34519607659184631
-0.23585598647883446 0.12663732511972398 0.36355111654109179
0.13600920272481817 -0.32186138237167594 0.47229603013791499
0.16614811978273222 0.37795167807720859 0.41793783046395716
-0.55478235318532754 -0.23750860054392031 -0.28156239955936591
-0.1699103439557921 -0.26208648134617085 -0.15322418612835187
0.086178666704020052 -0.21808671509081637 0.57542225704194205
-0.16680110004845078 0.15034665104232875 0.4517719042378458
-0.5223604410465702 -0.23883377142192749 -0.29675136273603686
-0.43914464249653512 -0.21299766925135924 -0.13609732188256798
0.051844647825651853 -0.021622830305313485 0.50586834093597932
0.12308601706529929 -0.0025102587007159172 0.23718238281861537
-0.17194280209773691 -0.21651629704492731 0.29271538604697067
-0.41525828760924977 -0.19043372668158282 -0.10127707182705627
0.040547973887813504 -0.22341458510591425 0.58345619383174374
-0.10290248851416692 0.17191518400072334 0.3546985205064227
0.20703730106397639 0.099052119431894459 0.11096902230226859
-0.099130473150557452 0.30352711408359845 -0.22241896808027328
-0.23066139558175974 -0.013648237731604222 0.40961910449468569
-0.43813599721611474 -0.26864939977529784 -0.051161659423279243
-0.33546646966825222 0.080230003978075393 0.29172690830963471
0.093375437796341484 -0.24661188200887357 0.57906607047105974
-0.42850980179565146 -0.31281260294402402 0.018750055045579653
-0.15675149384343223 0.16893741597247572 0.45159194744654579
-0.077461386712866259 -0.14631599754232635 0.5602386183016026
-0.26551937457486474 0.093240780181751026 -0.16039378650878544
-0.48913958811164238 -0.30238693104540182 -0.12454159699692126
0.30713329669557066 0.25566561924833009 0.12593659620738401
0.0085968430886156841 0.18432347386640072 0.43846002163288128
-0.15817880132833867 0.10593703496824101 0.44926142779675232
0.0098947809664500092 0.40752250325390132 0.35116083213632204
-0.47167284849237479 -0.36013766412517978 -0.014273196250746606
-0.095627259459260927 -0.25802580724726709 0.59663723270115321
0.20512051834307582 0.042397335210543001 0.14981406937722061
-0.15699976599020035 0.18163889398349342 0.38310556413478936
-0.02294813629222834 -0.16570365175870921 0.60963524206274211
-0.42867315765186365 -0.33663957224375279 -0.028946831764052841
-0.1229379871880833 0.087782561986637933 0.44097918670547359
-0.53926376455848901 -0.30625620077640242 -0.18262041847672333
-0.083405361930882757 0.059195411308858983 0.47843784301804487
0.0022205557875840456 0.043365061765855223 0.5299278617042531
0.4223990159935645 0.082281007565930681 0.02954990875397849
-0.42624648902603446 -0.3272606129588197 0.0072209510538891741
0.17338894802635504 0.25770171855751389 0.44486685167853912
0.17255171429065894 0.061138420924660403 0.17488352430936496
0.24186580023047777 0.42898702431446578 0.054843623017811365
-0.40001680342520052 -0.31879396875061761 0.060309490016484085
0.18779080354333683 0.15495092519341253 0.43065458732000811
-0.074652367487355639 0.15967711115743058 0.39313241552631162
0.040908042526130027 0.1401102105629175 0.48552181805300831
-0.26350749581997296 -0.058245922060670537 0.40648636094971552
0.049893446066327528 0.39082541163933088 0.28961806801116913
0.48727094814497823 0.19064980725547906 0.079288726279650473
-0.30776549614885174 0.075956293612358852 0.35873024756956728
-0.6177631546386716 -0.46365340605089006 -0.013781441951606327
-0.66148343540909493 -0.42193064696686522 -0.16983214198511376
-0.088493399007584753 0.25932066486656707 0.42816504683016121
-0.010090572406586583 0.030192937697675167 0.51716309238276259
0.11433750369858295 0.21650274656587903 0.46220361447775249
-0.2778059205644241 0.11238355148326634 0.14779473989164554
-0.42488296814060833 -0.32337149033295681 -0.0014048569168740449
-0.12796039915317345 0.24990739196717049 0.39666138648829929
-0.13390051975733569 -0.029115131785501833 0.45431022674452265
0.22610129428771536 0.22224778478555479 0.3365011037654147
-0.43995227047257551 -0.33455868709775399 -0.0047144892677213196
-0.084828925902491664 -0.26476950268162952 0.011326774304499306
-0.048992000372028624 0.2765324151203325 0.38748655430360784
-0.28931233462744238 -0.29825614189031741 0.17266933321490052
-0.020149626723110409 -0.0030593872540536048 0.54129534550406555
-0.1264025272053651 -0.29755676578280854 0.50876763642240674
-0.073430807981966925 -0.31206686740132578 0.53227724929516496
0.42671041022405376 0.39889499179808774 0.069746584698750003
0.20684672114744027 0.037485289445994829 0.13309065988820645
-0.43150958263879985 -0.29401887072378191 -0.020098077351712137
0.035191318855851562 -0.18079383048483846 0.40445633504975337
-0.12125692612309941 -0.32170394851560458 0.52663773679107639
-0.13072400897414058 0.15750290392847918 0.4661019795499145
-0.051753354503071662 -0.20930443643864885 0.39320211869531446
-0.11971959866524813 0.24534305561616671 0.39703130329105946
-0.068443154323423933 -0.35122987458529942 0.50414977014030105
0.01303858499102975 0.031575348979867635 0.51034928572850968
-0.12293303726138868 0.31126217127469741 0.39270423528535703
0.30910639140321261 0.16545356019427046 0.067688317449509677
0.022043044327444847 0.1715160009249474 0.4108549218789343
-0.01977168648229391 0.034684224530478563 0.50519489548429686
-0.42762027853869056 -0.26983481972233353 -0.080712289935278042
-0.38310035205897186 -0.32723820840938744 0.11550335900429215
0.28423700838506577 -0.014386237802510034 0.14198449212018824
-0.12194928791826509 -0.13604807951039641 0.43887840977718012
-0.45722601907921112 -0.34226180467198336 0.0054943191343716224
0.14518590685280131 0.30604845023118971 0.46096300671168955
0.20143227697699478 0.064976461569138888 0.13815449218199438
0.07038656348594495 0.17516546554477508 0.4440460238030236
-0.54329681471423896 -0.39620904381063338 -0.037354443111685745
0.055282351420267814 0.42632368776188667 0.36220880315184434
-0.33421480773553436 0.089709724445918002 0.24730481022008127
0.16241268408662166 -0.25080443053963641 0.51589234080554269
0.12738378888909457 0.36245593049612806 0.40278308913164707
-0.21459390775462392 0.070507275880396306 0.41819768314454514
-0.66063967693052106 -0.43931042658727743 -0.092817243941423794
0.20273856081549785 0.048067755430520324 0.13044505470542347
0.12112060450303591 -0.20389075286132499 0.54214314091264526
-0.55454391147332505 -0.38138754972277833 -0.013019756506179883
-0.66368627134733027 -0.32746683035190627 -0.29858734462126635
-0.030635157344673633 0.058008461489097655 0.52957722362169535
0.38077205019121763 0.13889488158238161 0.082906398231373871
-0.35294069157308977 -0.12004709953998191 -0.11094532979665114
-0.11405396250186264 0.15784494592886228 0.41650894122122534
-0.12237897089518203 0.23012147880564063 0.3984053892893234
0.23457448724888053 0.17649457722691056 0.39236508338251563
0.031089678693037977 0.24082957033729879 0.4174873381881673
-0.20896527037194279 0.049542413301267171 0.45510682279293635
-0.41562406393032747 -0.26415980045816512 -0.044328492427204449
-0.53063654650183001 -0.23274691266938619 -0.25206286241911496
0.041294950001063709 0.15038127960996014 0.47251911490250909
0.034075131444905427 0.021195482322306926 0.51301760803658125
-0.52828078529531819 -0.23489538973465685 -0.21218842414356931
0.13460824412378647 0.33295344435142271 0.40419104149298324
0.10051224220298854 -0.23909494173286672 0.60236008549500486
0.087963447198256411 -0.23756860273597391 0.59020958129821588
-0.22314406248390678 -0.014480722516999396 0.43467058057145164
0.1905690955237592 0.40578468415595487 0.38859389010519502
0.42059495538419667 0.18908603267602281 0.032310436862426122
0.35460039612597627 0.34573682720997301 0.072823247463684126
-0.12527028900270959 0.34904303758876859 0.28732447833775565
0.20581663663891325 0.089132170850997491 0.12691008624202998
-0.13694942323620968 0.22356165297112646 0.42719130792277754
-0.37007996498606227 -0.12996323375037988 -0.078979468703817376
-0.62883439289091736 -0.40842733994700031 -0.16151991244322078
0.0084997629295044605 -0.21307021695202061 0.60442521872182298
-0.089050752994912108 0.16025596656526903 0.4288782111765958
0.040186593517971381 -0.0068882138901558421 0.50256270021664273
-0.3379221598785232 -0.27242740057577197 0.15058471455110259
0.022892519879094311 0.41833269080685126 0.12721538547951719
-0.44184149769156106 -0.33232248462882297 -0.0062510982924160324
0.25170892212268253 0.41965591375878114 0.14724194293853135
0.21359052442586579 -0.023300806063858155 0.14418557400773455
-0.61042048505527413 -0.27456587006549504 -0.2524241833076083
0.40595327274588011 0.26853815419694138 0.054105283470708351
-0.21339800137547804 0.14522744605798604 0.44227797948261138
0.18077426901966598 0.51448461785924138 0.073462658117673094
-0.235799238291798 0.122918997604821 0.37576509390632212
0.23309319738630135 0.25732724239504179 0.39436435165217248
0.014963333616380324 0.016893476606559578 0.54182062863667824
-0.15694435121534756 0.17728219805886289 0.39061940489392633
0.48078008440830511 0.17514859001681884 0.013398211373073288
0.073291716178494698 0.29226757869783093 0.41932917131250802
0.37912958597755075 0.18055861396978656 0.090112604134638549
-0.094379311419503731 0.14986684692098873 0.41787955269284688
-0.11277717664131252 -0.29792177458878755 0.56317703574172995
-0.035277414607825741 0.25223435284150936 0.35385042801882283
