# XYZ point cloud file
0.39387441854804806 0.059720740199063371 0.53512892523607958
-0.56480497103113692 0.24778537518527521 0.72526586955820882
0.44588844974287412 -0.04141496188910132 0.33706169673197151
-0.38591058703952541 -0.77399186787808816 -0.27563864874604427
-0.018689183194364745 0.663879715993831 0.68091406122659892
-0.44543121583127743 -0.74839812396996486 -0.29323261922447053
-0.52609780100319981 -0.91159115052758821 -0.4375750567366663
-0.35882513235899793 0.58827407502451745 0.64151571125198714
-0.3565804332239324 -0.30347717397014584 0.76706092558088645
-0.35093334176953306 0.61418968830055132 0.61707387894086629
-0.551836506777029 -0.3897786503538736 0.6230907343303409
-0.067953029753592631 0.2508490584124452 0.76350301045507152
-0.020731164357290055 0.033182350060659616 0.73635510127701354
-0.16730117439145076 0.056470914564098251 0.74839819748873726
0.28013465186618802 -0.0090014325745624291 0.74906940292295454
-0.015985988766455961 0.22990551001786663 0.76951219334042342
-0.5249688048231782 -0.17054880990787247 0.78689146647370745
0.7406304700367734 -0.50343105351758943 0.67068779201260975
-0.22349623386086748 -0.31056707749199042 0.72682046308784809
0.42631647281520202 1.248334173292597 -0.49676523618316831
0.23222318881875026 -0.42530448450683345 0.37324124802513259
-0.32106067601615251 -0.26218500913028286 0.70835570661338298
-0.81688503311394633 -0.74165327079793997 -0.33127964604143134
-0.68414482053945136 -0.97159883610592601 -0.44625478379767269
-0.10571603730753765 0.28624435565539308 0.73235302408493386
-0.82362435696771641 -0.59579899293319905 -0.28879488802021624
-0.33052723026069231 -0.3719158320442979 0.7146869861905456
0.84979300873317243 -0.22747888894133883 0.64288907396509942
-0.28622073268677539 -0.13166192557273781 0.72113028409533175
-0.35378081226206959 -0.62333454634572405 0.026019745733551591
0.51564908350366068 -0.36764324241782731 0.34587852560501897
-0.72310627146270079 -0.97754052014798809 -0.47023292871023736
-0.8772673759715488 -0.73677511623395198 -0.40644827061538713
0.72048689932127985 -0.2595648937972852 0.73356314929169208
-0.69644424626442358 0.16175467821532585 0.69895037447406061
0.42598462370895973 -0.18526948381230923 0.27994251777428625
0.32386791298093343 1.1150091052312323 -0.41745670851505434
-0.22185968528865985 0.4491776403481289 0.75280858443902599
-0.53949071814697902 0.79029148570081098 0.075122272166420867
0.32283087930332854 0.71421163602626248 0.0041879439922070105
-0.021761662330767706 0.80655814947636983 0.59364180302572489
-0.48788006663089334 0.098516219064991972 0.81077026771256921
-0.47413026123652457 -0.13231707793769232 0.79718998646424577
-0.091403175168778716 0.70074458474102119 0.70843851183647466
0.14538175816657173 0.5097550733293561 0.67920602012282627
-0.82579452230246808 -0.19156539055181021 -0.40087008232277066
-0.606190087003462 -0.2794297746376575 0.70708740789555069
-0.46025109022363253 -0.40077956250798152 0.60588076836889115
0.63373364886088268 -0.31981814721794244 0.76097683249045822
-0.34579591173942248 -0.30871126322073472 0.73940076445243363
-0.55903476576609634 -0.67905103315816007 -0.32233260841073097
0.20429502996282167 -0.24091527139958657 0.72647849996103053
-0.39482310372462237 0.14035093393703413 0.77877786049093878
0.10388009623487449 -0.069155090038238498 0.77302065489661853
0.19677515372766408 1.2052566957019595 -0.50868402767832321
0.26448066671101955 0.67940928794603739 0.27125419692267672
0.64066419473886427 -0.31567921447695824 0.7146998016288153
0.28921067203671669 0.93136153190115856 -0.31584141847853797
-0.41072906006607113 -0.53550519712043787 0.60523390763492557
0.29617901588825291 0.082866312287272592 0.52939205780708365
0.084640465864204373 -0.093847047413005313 0.73160878606712521
0.092971450544695244 -0.27999011093345771 0.51774148531375852
0.30319100341345262 0.76568004817449875 -0.2126802194808306
-0.30078539144583161 0.054844606899816739 0.78709331638365665
-0.66846679115099761 -0.54269632128028178 0.46345997943058936
-0.30416366019453989 -0.0054439062156994567 0.76042683420487656
-0.69605970385113025 -0.42540551548142957 -0.40266491965385587
0.13485299543933493 -0.047126048359551476 0.79060716286866617
-0.50392847337841928 -0.087436424435470173 0.76326537088031543
-0.11031758519177259 0.57483608704788924 0.72211838031826092
0.37287425086810089 -0.18570758246232444 0.12344477342225502
-0.47421907144491016 -0.10448811739069086 0.75807791013933201
0.44571479759586197 0.84742368784034916 -0.29793227015201884
-0.62761609821863296 -0.78293614735242123 -0.33926323297486283
-0.47653641790723 -0.71962616688318626 -0.37182378010872164
-0.74048291762021634 0.53770691878791066 0.12318632924445527
-0.83617258336790634 -0.62632490422033804 -0.34674063680866718
0.73741083744186042 -0.12330308631471798 0.65498733757081196
-0.39661545647228991 0.20359283124457583 0.70546915158213874
-0.5337772475360012 -0.11454564176676385 0.71001446713614591
0.69173488523324522 -0.58311116603366742 0.65019665511970848
0.10200063642437129 0.24202896836428422 0.67051834247568864
0.28817241050774101 0.095020269934606105 0.4854447145651184
-0.67897130695026675 -0.30426091208689776 0.48243544994214993
-0.93407124629114868 -0.72520655419545399 -0.35332417167941443
-0.25529715793660657 0.30113038729882113 0.74900670182880624
-0.39032124862669804 -0.09195010666909198 0.78207549226920214
0.2190806334108153 1.0344454342816407 -0.36706792949119638
0.83541813952349031 -0.47771839707165675 0.54984501082384485
-0.05177700018685627 -0.40791999640279109 -0.30989265913293851
-0.53274833894163365 -0.57446918498939326 0.18506453494793851
0.18899272566146763 -0.050064598219183409 0.8145597807784597
0.014671021370851633 0.2200973543160476 0.71333805653385784
0.83018203002277957 -0.42904155702069069 0.473369769564705
-0.38598486510559127 0.54092316460173073 0.49916570398339832
-0.056504846872936554 0.42994511888049569 0.79639549107290453
-0.11366329711256284 0.50251813486653596 0.80118024800995613
0.48210728113711099 0.58849137507748583 -0.13295524826306082
-0.89887037373992484 -0.0821873178305772 -0.016241721367612261
-0.11614456125380812 0.76505391950041357 0.69034175436403222
-0.15145610731088155 0.25022738263175803 0.74354476488252264
0.70353027789078126 -0.41224787824495124 0.65540965834487674
-0.057385369789855645 0.8240310934082542 -0.43301037955348631
-0.49109692401430394 -0.67963324094624333 -0.3149878444362435
0.016792160651888821 0.33515004840776275 0.78894756993092807
0.41247169156923391 -0.55183967866715022 0.4457731905721749
-0.2881587054433794 -0.6457256238357143 -0.12732969245020476
0.32650363526907356 -0.22276626589492921 0.75056000587130267
-0.523519492112829 0.030383745576907373 0.78762364055340228
-0.33913415709122319 0.045132132040425432 0.74468402850239901
0.16394879343883773 0.91452051164245596 -0.39475823375066565
0.63136061004275845 -0.63537773563101396 0.45034771456354461
0.36043972270118729 1.0661433373073024 -0.36452841950076387
-0.58045630692680561 -0.51857351574156851 0.4699594281023689
0.062638150618610666 0.82664991150245193 0.63601632590731416
-0.17900434690950107 0.96839830533696514 -0.33532237870358172
0.51431015454925344 0.030498114219801309 0.50676836241321244
-0.1624318366484836 0.1294346463791527 0.78056908906431222
-0.51593475118470522 -0.81287856762964239 -0.38069710590399986
0.14460044509329961 -0.1503400839767508 0.78167899421621279
0.39387846015966588 0.5256188130578856 -0.16529520312599699
0.50263668338757839 1.0608749652919656 -0.44343018392815503
-0.80284243309728254 -0.74418400172710797 -0.37923857343370715
-0.064609536449754756 -0.18217992692222573 0.73121952933415368
-0.81557180548877639 0.42321504278294508 0.22515048980883634
0.22793442354999627 0.81436193341220076 -0.21308117914982994
-0.74720566346875472 -0.96472344579904679 -0.49409369297893102
0.29417350912700257 0.50120185406775519 0.61419621147886749
-0.29586275623138292 0.52536090450757023 0.59193989779333034
0.21042518401082333 -0.047792921962814816 0.84307674026304014
0.025600545359761639 0.53640963499358385 0.74896700818222417
-0.011098325383258612 0.66846287473734378 0.65922970223644484
0.51084709758267621 0.68378056459570757 -0.14554684332720069
-0.35235801811234779 0.12262170102727588 0.73351109843161844
0.47049503766749012 1.093876190137812 -0.42588013944866709
-0.44177597582141814 -0.65515138924454241 -0.26949147471723611
-0.20801170945292924 -0.23667415835149086 0.70705266183022975
0.2465501908857668 -0.35540445146453159 0.72140287413515702
0.18304019733031396 0.0044204721421188253 0.81511032287976581
-0.703297450382669 -1.0101169837251387 -0.39495328858202328
-0.022633022956057403 0.76183071202271968 0.67625326882030912
-0.22996498598061166 0.77569468994078594 -0.52569552269103892
0.31371470195469442 0.26162032210969599 0.30349495003915239
-0.52530104868539595 -0.052317694109971669 0.75471934393486961
-0.17747945317223923 0.37281294907463725 0.76542751705666223
-0.10911824561781103 0.51188781541670902 0.78419206753191073
-0.98214828748188765 -0.82300186727057323 -0.4487123040251122
0.17580196039090978 -0.19999522020700766 0.74698801684070792
-0.53267739143140957 -0.76883528269360291 -0.34808142209661019
-0.051429847534215867 0.28486985432630618 0.74609536539078336
0.32753438284711578 -0.08196146378421254 0.74541574923119391
-0.043254865011732591 -0.40444462230118461 0.41257233617501221
0.62168820570888172 -0.042791304978305078 0.63404982326105142
0.24389783541825949 0.18930542212448564 0.59877361360226233
-0.36206195747382708 0.026324959277101101 0.73924587108709083
-0.74270665051342633 -0.89858931822515054 -0.39809075212915745
0.12531853569474194 0.8819006358445467 0.48637085385889067
-0.49938648645862926 -0.10965547755531091 0.75397340625210507
0.14985272084834023 0.32080124430649359 0.7296096676845214
-0.036640671890037169 0.89650767549013022 0.12274215405352829
-0.5713087606753362 -0.21708512752944209 0.68230534382724972
-0.34727958652148416 0.61241369672460788 0.80743102034427849
-0.13030288007711377 0.51965147813557078 0.67172221391367692
0.27210937947414848 0.93017497159228757 -0.34246045954091453
-0.85949139385985163 -0.061876876147049842 0.16548683598983915
0.70567156144694465 -0.48603334199669668 0.61364319558812297
0.51676486250111608 -0.29185536776905074 0.33516347688004178
-0.11782359464114478 0.55277905568305208 0.73049836136592372
-0.12852554448731368 0.51796945030322306 0.75754028705832521
0.058196817910541654 0.87685387168716655 0.3519147560322633
0.15609268787843078 -0.083621874315241485 0.76798794911351509
-0.37949710368512157 -0.24320967998947296 0.76466889607609634
0.75870076647125373 -0.17718625374593344 0.68884748725647271
0.15086070832555976 -0.23370714710914342 0.7583244334455892
0.77910155059175423 -0.30076268118135552 0.66620293052440327
-0.86428306920708131 -0.86862091240655559 -0.43061668107441609
0.54768854131145872 -0.53898945682445998 0.67199384730294698
-0.70592912473738778 -0.65394555199753768 -0.23048434416017338
0.3072051484765268 -0.39663860517829619 0.65821042271072594
-0.17655793184706781 0.74342500551820478 0.37830621474066461
-0.51467816945957168 -0.29369379946154872 0.6645736876625401
-0.98052278009795302 -0.82570764189301116 -0.461719993192649
-0.69243425582955709 0.11026485043170098 0.49913814919270028
0.32792770523238701 0.042483392855519497 0.53403789853106476
0.30937991645208029 0.082916226743092736 0.64633685931059581
0.31964205297036585 -0.25766585608253934 0.19221360099009654
0.29197576998462438 0.339826908790136 -0.25128232158063979
0.31748030960778095 0.64522246952682138 -0.20426904938561963
0.36927422409298671 -0.18674766516194197 0.74125924746501815
0.025493958710278264 0.1704832739519162 0.77685702770756082
-0.54357677586359898 -0.14095504818055993 0.70242433662090953
-0.56917843959345049 -1.0142364621974629 -0.46302449079463415
0.43789991458932676 0.037918963810026796 0.42233541875655556
-0.50864333616704727 -0.74510706723908982 -0.32389332740477883
-0.30289299491865052 0.27887566640918937 -0.77872908510361594
0.12714613413402631 -0.17847415822844859 0.72839440014922685
-0.40599627862841814 -0.71967158771151674 -0.2952025107838403
-0.3924123938695665 -0.61934703351655429 -0.10193447776451281
0.13065792925992881 0.26042375662064643 -0.60755231323252068
-0.41095933743499558 -0.66392703840203815 -0.25009403187580137
0.27552121574743538 0.52292371417434591 0.23547103776808709
-0.10963503848505241 0.10962670756801884 0.7806702780805681
0.52539710074144352 -0.13540099206529099 0.35678627156099219
-0.33518887666057395 0.37074742680259476 0.81652521565761749
0.70232276380365022 -0.38391057614119362 0.70199324795028373
-0.081139597635321081 0.38037618693354069 0.81086854927410545
0.15644894055077785 0.6024329855342172 0.63834770772795935
-0.34490529401434245 0.45643842719223304 0.62261806389937036
-0.25878520576841879 0.4336758402389469 0.77773687880811515
0.74411959069050582 -0.057074365737982191 0.48065464557729132
-0.45898090795170532 0.40363195483929282 -0.73713836087755036
-0.13314622516617192 0.63429973032619635 0.66477017307153341
0.43273855628331859 0.57860158642455684 -0.20262717558834742
-0.82378864279544572 -0.26941920935184882 -0.38630683987218184
-0.31703706300325507 -0.32628880642049829 0.71497498039581409
-0.74234185704967359 0.21896959645233238 0.74360981558295869
0.16013830387834815 -0.37745657663356091 0.39117404610033057
-0.53014901678896109 -0.36797187053733005 0.61295793665270804
0.46554755107401746 -0.38038758351161306 0.73738653955691502
0.50995039875726178 0.81704249893870706 -0.26346008981139518
-0.45223475151345838 -0.0022210112195271137 0.76451501536287925
0.91882770511917045 -0.1706330889690264 0.53113497689717737
0.55366222514972563 -0.0058850395474561168 0.62722211812094963
0.044738619714141947 -0.32899232076210261 0.58977456604136735
-0.20047245922564727 -0.30668439975193706 0.70178646841288117
-0.78391604299472917 -0.67913979803261704 -0.35614188001798563
-0.35509791157041448 -0.50634934238680351 -0.45348315027468145
0.038972821391066503 -0.39471528324306782 0.41689052283629824
-0.33321092894104254 -0.6689026210399831 -0.19403430582018899
-0.46351482690462475 -0.627063015184671 -0.25988837223582717
-0.6304739304645004 -1.0468458127831877 -0.49732055945619624
-0.6504557306304477 -0.27952116463545806 0.69091424900980503
0.17098219376881474 0.86732990415901945 -0.14690223844552652
-0.51787651418505476 -0.31952274605127862 0.6839688280035281
-0.29846334609336367 0.25370574871251605 0.79178256154475424
0.63245677246434084 -0.4549603591219622 0.66103042903757681
0.38798334252703981 0.98299032931558372 -0.36508953386358278
0.76619231343759253 -0.37256356655180412 0.70799747331273055
-0.2261820412277693 0.47477924477249722 0.74036340663605582
0.69575790173777818 -0.44007389794116669 0.7224090215036334
0.10292347549009406 -0.16933274989035318 0.82482989195855794
0.66096418379221333 -0.418810577166294 0.60500430073035361
-0.059736717728490873 0.36440941454347087 0.82711598576118472
-0.54353198984487605 -0.57753599797612765 -0.41295451097235203
-0.75752414508643184 -0.55004527577080609 -0.36549173707374694
-0.44618696494721632 0.1547388510633354 -0.76680484510507874
-0.19669496311720991 0.46543893275526305 0.72298738586616995
0.050496972908621984 0.63960812202921513 0.58178856008013424
-0.26036200892545125 0.37802096693689613 0.78119219882218882
-0.29738910376692473 0.78091568810494838 -0.45523840377768066
0.26940121511545101 1.0863824224405292 -0.40098422427633151
-0.55261298193812181 -0.21200763130067557 0.70236030909401048
-0.70874761149444154 -0.56146344232245937 -0.36807940124009475
0.74327223160377542 -0.40434827092755299 0.47019696138546929
-0.64012944982670916 -0.54047867971429753 -0.20278559732055923
0.38811976031770357 1.163171336448654 -0.44938753988405189
-0.37671956538886064 -0.6977179212591853 -0.15518576814092899
-0.38142618979848208 -0.36469651889795962 0.68841659357753837
0.55837011091811561 -0.13331756955529883 0.66728666065370801
0.73293523835699403 -0.39447365138510904 0.6799259016622885
-0.85245569508666463 -0.98773021324235977 -0.43451099904352208
-0.68551453575495813 -0.61349400078952243 -0.22852333940487668
0.36675890054016236 -0.22784411603158539 0.71585730942459325
0.39376328556751972 0.67657787736376029 -0.19811970225431541
0.039585186079648338 0.90367754677481482 -0.2758760438147243
0.29759324337419102 -0.16746083411178248 -0.26822520580664322
0.25743885054160032 0.90079210031623358 -0.32221588013422076
0.3542229822122458 -0.26753919813645943 0.77613594999880631
-0.11125618834786621 0.52898479413946742 0.68547686200846725
-0.44025450928831944 0.049065304451373137 0.75398824158054989
-0.83557074258323993 -0.5411418060076425 -0.27624943579171335
0.1472135906534966 -0.29430647648238661 0.61175085927276118
0.31047730197523293 0.23478079086717862 -0.30040583070347704
0.15981544778018986 -0.025811521599500509 0.76846759859560532
0.28891681330733476 0.86427462699145075 -0.34077365430819817
-0.51641644011864329 -0.58431769257486721 0.39526359268614719
-0.072667385981425525 -0.25736184832416598 0.6801868742441064
0.32244169739125184 0.082369812516912333 0.68345969942279705
-0.49824204824313156 -0.67805009930294702 -0.32547230670256999
-0.70497129894862809 -0.34362840957840568 0.67141915178612965
0.14776276320690584 -0.27727015794818222 0.69221874771765313
-0.61925139767280513 -0.19398084710265984 0.70713857504128264
-0.45802973151440796 -0.68913652033104533 -0.26967658712943443
0.32889789267032654 0.28010417158600998 0.41473291282783542
0.28030688922467206 0.78379072297205177 -0.32908113481513168
0.298557432202049 0.45980588402829703 0.47612243694501721
0.81136916007844917 -0.41109179463677314 0.67202143718710827
-0.36713027549309984 0.0094308696769260791 0.74558044610880803
0.08602652805242883 -0.11235739290900959 0.7319194295368705
-0.45520387146877539 0.10277156210136518 0.80243437101891768
0.35509967081989657 0.70010263268778949 -0.32165542066943187
-0.23264148485379366 -0.32125096046438628 0.68934441688953019
0.03269847756283184 -0.31310333878609597 0.48243193991939171
-0.074192383278084861 0.11429340559041101 0.70206585005625044
-0.21147456573702783 0.68229316897226688 0.51664793372234152
0.026347526324407511 0.52060717073914198 0.769160161677795
-0.20171569962548475 0.77834304428866474 0.6119048066915167
-0.51043672181485533 -0.88948929871290972 -0.28916438147087486
-0.32166969047327498 0.52114857316392005 0.75040260609741516
-0.13682715975075155 0.74960719008657062 0.31792904914581976
0.081211943063692615 0.41082933794906662 -0.68663235429910419
-0.22185361194960862 -0.15994576448761499 0.72535238580119188
0.2415637875635106 -0.11916132943905211 0.7942143593337665
-0.8302853146602498 -0.9901875074898161 -0.40505531997836686
-0.85440328257871023 -0.05381976952698686 -0.45360069624277033
0.42817827613678361 -0.18521996331629431 0.27032917493359321
-0.2709587427916027 -0.018963675450050843 0.74623549051891835
0.32400499894482593 0.3218766973885554 0.24266307607153981
0.2236578832244227 -0.026160197933929652 0.76492363681912678
-0.25962154768612322 -0.28405317852463874 -0.65189375703552876
0.17366876034969891 0.42069896051117617 0.69262469304925878
-0.33691335111513965 -0.25411231544299895 0.7639571997265362
0.64656776520431691 -0.65116056093322072 0.55172235235089095
0.49973803365290692 1.1754281239570625 -0.42560459171789722
0.030967010947978935 -0.29158551126017862 0.60019648402154191
-0.78380322261950219 -0.93259050222195228 -0.4508207147078136
0.030718548003154211 0.28580337407829948 0.71929857520562379
0.036600507150396311 0.35148081375640317 0.79554395353815233
-0.19107375888468781 0.400602002890035 0.76655559963746978
-0.52974218086188785 -0.92689293998740041 -0.35401970776170577
-0.093285636600860755 -0.47862996227449273 0.32401042734758612
-0.44640776762160428 0.037053363522611349 0.75383478207431143
0.22706826614376396 -0.0094966164209999704 0.76585432105912732
0.69074412224056658 -0.17566874255183151 0.40319061519757748
-0.77821545279506665 -0.90823789591691906 -0.41295707765857603
-0.73416979831946705 -0.34122444120773565 0.64650462241813855
0.72980689429936163 -0.15621339482975216 0.61687079739697426
0.055958020878431824 0.65196776263983214 0.66009360557998287
-0.72538061935465592 -0.43753729064817293 0.60469098090945561
-0.8791441832945317 -0.76387014062197167 -0.40916917077142001
0.44390331481355005 -0.18294055439305978 0.7393931356421457
-0.025108263141419229 -0.35522759967798834 0.50172453822901453
0.30383201565473072 -0.086732491749675233 0.69125841495300344
-0.40936234824028261 -0.27497306336339378 0.79119698659479454
-0.53841381587168513 0.19856537636690774 0.73822226206082053
-0.57542735611620444 -0.27811575199561389 0.67814008506816936
0.93050076647132585 -0.22914855956391111 0.44859502014371699
-0.073022642111645553 0.74115915182421332 0.72859289164483876
-0.9556871565396019 -0.763729714394076 -0.43197665227821958
-0.021171427377677077 -0.023626868021390024 -0.74768098350729606
0.74581983676948838 -0.3260974940079695 0.68351765061372283
-0.41585847601851 -0.16766425889136194 0.80108251209371595
-0.91913764794276176 -0.71371054424501779 -0.48917019202744605
-0.75273957935470825 -0.63627927354943381 -0.32151788574831874
0.36716769736847965 -0.01478476711887744 0.7022302415830719
0.39006305322230617 0.45601413535714652 0.040975541124328441
0.18229073772475957 -0.37347179546148723 0.1450101712629035
-0.72908424716746723 -0.60408465920501087 -0.26597873997552846
0.69040131152358697 -0.41523523233896498 0.68196887960701735
-0.38835701685702517 0.0070690049550847789 0.65440659745574514
0.31704882386840794 0.73873244547715888 -0.26100048232428308
-0.85184344908832443 0.22051388478308986 -0.33971194877068145
-0.30380068676019434 -0.43237264165845524 0.59326223823336655
-0.60754343275545963 -0.68281179218537957 -0.27878619146476957
-0.72432172328447209 -0.4482710420062137 0.57021928853111703
0.79291457932883702 -0.36106033072011634 0.67265534143040129
-0.45905612183334199 -0.70700159480458957 -0.25348645433989603
-0.42356128185388542 -0.12797833077873122 0.8143095190854428
0.36852575225252693 -0.46281180676493783 0.67844729992941177
-0.90916177736729331 -0.21422565622085621 -0.18446041684728298
-0.68388221812883287 -0.74257950810466866 -0.376083235694749
0.24031674344130138 0.96875907222958091 -0.20894112623238137
-0.10988808005474837 0.20964940276984834 0.75421634171322882
-0.33271605629366263 -0.20498652650307569 0.7575907025728279
-0.45263241510942009 0.48841608320402141 0.74733885475636619
-0.47692919608363127 -0.77182877069727063 -0.32765989397575268
0.52978545791406972 -0.66722475118273117 0.625123258587716
0.41084007739426198 0.68104937028364709 -0.193541946264983
-0.49280196511591257 -0.092693025522528671 0.72987770040941236
0.50505299190674435 -0.46420030814278412 0.74841447337994715
-0.45071167265508194 -0.68658208954427025 -0.35489518174164347
-0.23430493527141394 -0.15922725012446115 0.72227262708925544
-0.78714987832927008 -0.79681283582581308 -0.4084453879118759
-0.072919422370702591 -0.14234931607426127 0.74644580024050988
0.15926423264223288 -0.04554939894273069 0.80418917645328136
0.56615663679324513 0.99394767833970565 -0.48779226245241808
-0.43613100117775616 -0.69933699963712215 -0.29268833043285403
0.10525964343175787 0.61011751554470806 0.71102741493152744
0.34468965654918549 0.63161210339342411 -0.10986462427707799
-0.11530610519355022 0.96875088240529283 -0.19476047607515423
-0.35621774078379076 -0.67853983154680009 -0.22899874812011145
0.28129327690939121 0.53343089671804211 0.60196939504529912
-0.28046926489588131 0.035749437354670732 0.69421938746526557
0.050882748985600301 0.19080832542873871 0.79193903445574643
-0.28999382958165398 -0.52308780796135679 0.54310223057278417
-0.38686010622932088 0.55552869952864103 0.59149701192820547
0.51071297015078088 1.1272885138083897 -0.39919253905942509
-0.62607434431987485 -0.43439600954937951 0.64067282687894433
-0.52873074456731217 -0.99924813756647168 -0.36532382746792491
-0.76604069528620933 -0.98913695747361174 -0.44700317579774396
-0.42915292708626751 0.11173860788475487 0.83021895196194517
0.15468802426946127 -0.073974502446578327 0.77390938928187802
0.06420745569555919 0.44251896522815581 0.76236720123357049
-0.78669925607666613 -0.30227987939995593 0.37523850038939965
-0.44759818064173018 -0.69201152862796533 -0.30055993697976158
-0.51638615630324125 0.03508433393952437 0.79262158091335966
-0.028096544090988829 -0.31444022102211378 0.62844396551040438
0.21877079058510418 0.73616814779488671 0.37939040459817086
-0.45819558708536334 -0.71871987004191595 -0.30691453541427993
0.30106104844331938 0.076182500179088564 -0.50584505130243029
-0.39856033217207099 0.21750316945006531 0.76306673949233339
-0.037524299489032131 -0.53108251690298758 -0.11301832088723396
0.20477821278707964 -0.15944089348538704 0.7855170623818255
0.52821856266172418 -0.64430645235800199 0.45064123453349003
0.6413991820938918 -0.61945123928309798 0.49660228319561872
0.1995555969497893 1.1982704773278625 -0.33557457930038437
0.41406447043943473 0.68800582494169049 -0.23412932881701287
-0.52897031087479718 -0.69032646624422256 -0.27803527172813736
0.59745215629450499 -0.097713528267410865 0.3771027019940163
0.57606659680071459 -0.68582193637977618 0.46041838502185062
-0.34581494310985406 -0.10247272116724737 0.82011409178032757
0.48877832232227192 -0.27010574352147287 0.33625622565279123
-0.49471220761713752 0.044387130947493247 0.78684616504233063
0.69995743299109492 -0.61720175410653688 0.42651349722611975
0.19634069989644587 -0.022583532776787152 0.76014769181977204
-0.58054360571622965 0.11978517413988854 0.82672041862735135
0.34901876874108595 0.92659523030923641 -0.37508845863894669
-0.071985711033295985 0.23958943449647663 0.68593107627221395
0.12214353157303393 -0.075206508035597253 0.75907631064191072
-0.60637101734421606 -0.65166925974076761 -0.3343276288481869
-0.25403187104006975 -0.68109897057153113 -0.17522920084109828
0.58190497403793628 0.74155994484025545 -0.248716478922866
0.21413309310602813 -0.38561224871678057 0.48966769669555843
-0.46815831734718572 -0.754446632250378 -0.28832347224013377
-0.0054623206614934361 0.60612553385597145 0.79042790881912728
0.36845864143192486 0.69722612325728495 -0.21025303662838246
0.037650926886271918 0.32083442624277225 0.72532098943266732
-0.55089233685319527 -0.8780479796855456 -0.34854970455250944
-0.37219862870556497 0.59741871219374953 0.7414621485459838
-0.76805783680540785 -0.42647930397592404 0.52317914299984736
0.87933880901628214 -0.15940367740421468 0.56763433119849194
-0.13351519716589877 0.65844011416021697 0.72318049818152197
-0.41031827928471998 -0.32455498889775036 0.69135091134560156
-0.68569089260079785 -1.017357085180425 -0.38735869573444459
0.39212675784633433 0.69089972786123433 -0.2348304801655493
0.77122488582489623 -0.19958637530749268 0.63934354838270724
-0.57417371908891113 -0.90039478632698611 -0.28965676768401183
-0.9725587729618308 -0.92382442049364855 -0.46911899891120479
0.066158012160190793 -0.085690938176272269 0.81883536172349647
0.46931934610716652 0.98643148022058647 -0.37248687271630732
-0.73643272355959866 -0.4698599227254725 -0.26052849669319267
-0.34723365112692051 -0.052599848024003748 0.74489998087077502
-0.47941102275254721 0.021204210143885405 0.77855206426950119
0.31168878991663362 0.66840878086720856 0.48464487371405074
-0.15916224423904879 0.32974189151820177 0.74481815073276891
-0.3361412438300988 -0.35542045767375186 0.71846528734399318
-0.57022211434424364 -0.64570982612585759 -0.28633160935047286
-0.91718109642001622 -0.73895789027568526 -0.41096949605806365
0.029622199888287071 0.2136673946106491 0.77581764227722561
0.25720589114101955 0.00053372863710343665 0.75267560947082535
-0.89077484435444632 -0.74992487381593165 -0.36212469940114067
-0.081854054481190985 0.63996704443135499 0.70323340759254815
0.79099302407417582 -0.37325938987430618 0.71696529506688167
0.77374529754786892 -0.37267901311371787 0.69537110787763856
-0.26680329247372114 -0.4353834340734366 0.62538111799722174
-0.073157793338875621 0.82107443299023242 0.66311408188760224
0.43723513135596548 1.0671367742092439 -0.47376396568907247
0.17382298179112965 1.0857917778722861 -0.31243906402304444
-0.70099302384359063 0.1676103602648169 0.70124772631805943
0.33534504490157246 0.72456569132725868 -0.22829365401406121
-0.47779448283259285 -0.019632203437726758 0.8187944204227362
-0.73456673313463483 -0.51693530129596965 -0.20088050927605616
-0.74025891229054608 -0.94906329671039202 -0.44408471341739642
0.62816675879399142 -0.47660515281474325 0.71229386376828296
-0.28953346009299707 -0.0076128358048741518 0.75793282374639936
0.3181065594657646 -0.013365733411626834 0.70993735792314672
-0.23675167969301114 -0.60737650414901267 -0.079841087856077131
-0.57246344034241048 0.52667944803488354 0.31130353060581806
-0.46719858804835823 -0.72097169559391716 -0.30402867715006643
-0.061433187135609302 0.97699791943469094 0.017252060356170329
0.51311484481783154 0.64506984543520396 -0.22843107932037726
-0.95775796634852739 -0.85671198628647716 -0.38958081116811405
0.32909245253802411 1.1010204156391081 -0.40923458735711038
-0.50100596069222902 -0.24550387908090521 0.79189028157140307
-0.34390782198364889 0.90715441255051399 0.026148005701371435
-0.56063727734472479 -0.28561410045537983 0.69077962713614394
0.19104455651800833 0.74371361100840883 0.54507062551717933
0.23604736877715027 -0.069834792079001673 0.80115763455387334
-0.48102166510463462 -0.099644010518071369 0.73696116770524167
0.50977080819023612 1.1150288818365874 -0.52225593079792598
-0.14314194531838709 0.47136689155470979 0.7545605300497451
0.41693009297939199 1.0124628490480942 -0.34905422649650547
-0.29183740714456619 -0.024790814827520435 0.73383104372648233
0.55871140378439321 -0.69493880670679609 0.53707352960578492
-0.35786571353047236 0.22758915559893111 0.68060732660437662
0.026499639985022583 0.16394655192007512 0.75632305285161738
-0.074951839750085014 0.61310217552300994 0.6279056421476179
0.69599228937973123 -0.65013655917247881 0.4567240674118227
-0.50280654834797289 -0.87547218308372621 -0.45061013935989003
-0.0066952252204188767 0.65428016632413133 0.69444480650809703
0.6442311010480033 -0.14170217283784936 0.69052565402586241
0.15606162284260705 -0.18690330412856326 0.81431088600052215
-0.65694285472054403 0.20825332209141934 0.77103943047169476
0.21540460335089762 -0.36934928198707873 0.49347640098160506
-0.69183525895814313 -0.53700519437372662 0.45483811635278926
-0.7541169177205802 -0.069085452947669879 -0.44175491306904036
0.2043473125421329 -0.019130367168349593 0.81130855036366167
-0.52104051906851012 -0.073952898458493621 0.76401932772190229
-0.46079342972603143 0.80778521683874871 -0.38287570457414688
-0.39293986607166076 0.28068165573919046 0.71502349195030401
-0.12833053585436005 0.92813374238112267 0.13729902406405348
0.1132778759700912 0.31713366119443442 0.7250601934909584
-0.27128318027666509 0.41817291048954175 0.78123816879496388
-0.97106033178388884 -0.77135082602869787 -0.40764874525432981
-0.10060296287380766 0.21675572293198364 0.75196574243111591
0.043554869216443137 -0.19584547586011603 0.74763379012144382
0.070993082357592385 -0.056879437733803329 0.82316347431241876
0.32412654106505911 0.53690053875055632 -0.019320235512682693
-0.78370712380112728 -0.6205744691402888 -0.29962156816535934
-0.46490495604506066 -0.07935557963305051 0.80947705359868127
-0.49950760405393879 0.44166748488370011 0.45063705693317502
0.39656943827744939 -0.39443150532414073 0.72592726886627545
0.55072525461364208 1.1447914707987454 -0.43349868522505375
-0.17643388951873717 -0.48322546891822782 0.15132193844719
-0.49806653167831527 0.24077420561602914 0.70555760388773603
-0.93784474557773123 -0.0040635352884130782 -0.14417082463398545
-0.13749877781926045 0.49007905095090543 0.71625375589947815
-0.17015516148119048 0.0060355015484461205 -0.75130428924502846
0.34049553088337703 0.29848566205421534 -0.15082280386003988
-0.36424154124946639 0.14066723285008287 0.79290602325587312
-0.14895363778729376 0.39308996268584728 0.72886655131556299
-0.55356855393157289 -0.30518800012969294 0.69528647104015118
-0.79088868346132557 -0.39064263707996894 0.58236655780258229
-0.38876519908355078 -0.53293288158530494 -0.48461468306533595
0.20763296371247364 0.85356921838667166 -0.30498848003429435
0.82033348313699861 -0.40816750320408879 0.44580111499050878
-0.59413195797823448 -0.2206325737682846 0.72907914434798649
0.0016653192801356909 0.83293117427491747 0.5801379416310426
-0.63044358956886981 -0.68389025558989402 -0.33161599564662092
-0.73007113003024315 -0.45562868559344594 0.52946181937410941
0.33537247451779351 0.63852331281171004 -0.35085541086550354
-0.48963450960986776 0.15744958098953532 0.57302830709412511
0.48210543911003256 0.042484236565902833 0.5244622794656304
-0.97593334257663145 -0.86457120141146859 -0.43980626377623011
-0.12896945452796871 0.83545641634163648 0.47476135933849006
-0.25891231619059951 0.91662983101964013 -0.39552056814611114
-0.66767674331259386 -0.049081162500630882 0.53201835067466074
-0.2967121652298772 0.13993764547747745 0.80228705093423436
-0.92186406162087309 -0.77878829114109926 -0.36382536450388514
-0.29490535961785724 0.40006112029426522 0.80760761540383807
-0.83355123191853409 -0.16985247951260796 0.22645849410900798
-0.8835713535834131 -0.87071143530777739 -0.45913355790906074
0.77689580715972184 -0.13434280543557442 0.70167758843606332
0.2158403238128237 0.55539231958881885 0.58054232226510427
-0.72938474022537392 -0.50063191265267371 -0.28734347196230381
-0.10455010695913103 0.59894300517160826 0.72408288534654819
-0.14167058593916337 0.49962259022366062 0.79899263004413612
-0.3734130806462268 -0.64589645429503406 -0.12181011028968625
-0.74818881975212648 -0.65999250243260654 -0.33624630790996513
0.6256392779849449 -0.075558658580375138 0.64328987865234133
-0.75795504751782161 -0.16828017352257163 0.59802996394976837
0.73971157319113345 -0.40151132786548516 0.67839142522887941
0.53461829236348635 0.99288709338688808 -0.35489764996973644
0.54379835940086352 -0.16029864519329529 0.7253267981082403
0.50894115296735265 0.75108483067775467 -0.32493653703339026
0.017609990083460758 -0.027729142607137547 -0.66548021043385952
-0.38520966027036252 -0.67840949460787314 -0.25087872770253217
0.0059430388389927202 -0.26601672465307402 0.67007638228397592
-0.36155558219007844 0.35602420664898382 0.74020312033163194
-0.5951587996168648 -0.90275273032898973 -0.29792351102079451
0.14358796721431943 0.8682301435027826 -0.28552305030312253
-0.593885190690564 0.079182408840186014 0.58103231503931685
-0.7226786296951726 -0.67240391934296362 -0.26899772579563441
-0.41454452958129195 0.024776334058538296 0.73791933516547736
0.64311733059708942 -0.46585367189882554 0.7140855161718509
-0.42982470651178062 -0.60536506300758752 0.14184098620592511
-0.66783213225976823 -0.77594911869636363 -0.39080228953609453
-0.2023686199310859 0.39650250671660725 0.78850033982381795
-0.79048762003801976 -0.98856414197027043 -0.41737239805448656
0.050976021746656386 -0.33634372546386437 0.4799416271681487
-0.33598397971564609 -0.42290137613651169 -0.49066700689568488
0.41096252817162693 -0.56776572475846621 0.67553297336824025
0.44093927592413706 -0.58925069336595293 0.628983035110394
0.016356750613198301 0.22945126233944357 0.75323114728924612
-0.51098299943594938 -0.62710675125089921 -0.27041114885459994
0.16014500462241443 -0.31015265210631959 -0.37152760651937977
0.021456226055434513 0.19304416947706216 0.77657978842224695
0.15368245541069925 0.15151466674966585 0.73720141572833198
0.35893506227792571 0.61596952411314998 -0.14318463127251746
-0.30322366364225317 0.11234366342033653 0.75497794320560985
-0.71806019507101482 -0.13526153282292164 0.43489913137966951
-0.17684650026491866 0.26790918379137452 0.7603848805047404
-0.52819317776093655 -0.068126584938740464 0.77107431712135099
0.45464776528578454 1.0955303134753667 -0.45458616768413285
-0.88510107723439013 -0.22594241896164569 -0.35557200934896338
-0.052617665983760276 -0.4629132384833845 -0.21013949221049488
-0.63142791134950826 -0.60156910464222157 -0.11069133872347781
-0.52824334364512637 -0.063199285072450095 0.76288745931746149
-0.16095482996537669 -0.29872424249859719 0.67941354211673666
-0.23265666961550124 -0.17519368701699101 0.75071390246822567
0.056955689325924652 0.33418082810321792 0.79453910154766838
-0.31206953901343937 -0.068056214294403006 0.75232786417441044
-0.63352516782018853 -0.10781430740180831 0.69017617871719139
0.57631530013346577 0.81764333506903153 -0.24020179437167086
0.078885093217802904 -0.13581878651574542 0.82045360676415235
-0.66244397383941944 -0.47806142438694721 0.27453566371171867
-0.59894554212275963 -0.11969748822484938 0.76756147061040991
-0.49678378383262967 -0.4033772591466569 0.63228749147718943
-1.0218621206714094 -0.68703283828906869 -0.46739534680201178
-0.37788870538468089 0.91831140589306504 -0.039339128129570078
0.21251329335961699 1.1097835111989847 -0.3392567597911107
-0.57434780471788471 0.67342543589903503 0.082215631237890108
-0.10716035886999364 0.59897650609694963 0.70711870715920222
0.76282042296397989 -0.40921524047112179 0.64440551937683632
-0.01414746587789395 0.21205079762997769 0.73120316329403767
0.17561446643691525 0.34943323127140413 0.73018638895873345
0.05693067455534262 -0.28362125149649664 0.5929928607588506
-0.80125595471616151 -0.94863462646993746 -0.41121372751421648
0.17695624119318509 -0.13420180340725452 0.80877617018063974
0.3591840860709361 0.86672201851754771 -0.34820913226194933
0.16811069679254231 -0.058549590890971004 0.73474876184619964
-0.15706625964635279 -0.51390064289032367 0.38283745910276856
-0.48037566221815098 0.16112258694696635 0.62300057265048014
-0.4736775808801319 -0.20939710016679136 0.79315287868440709
-0.024765344140046608 0.81443640287192753 0.42701954398610065
0.066545233172014662 0.33467332593167765 0.75954212652961184
-0.023708658922799941 0.9567145185950352 -0.33477966795054792
0.85975378101077737 -0.16807942979765578 0.57199691979159484
-0.82849784589179265 -0.42427933564882991 -0.11974961229334236
-0.15123435281747177 0.16859657170491005 0.79025032801626427
-0.076942865930391235 0.22432794611353302 0.68768003084103935
-0.69243071482230434 -0.22180306227592084 0.47610365636481422
0.49463348705978305 -0.36641497383937782 0.33508001292920664
-0.6748906165999955 -0.22347972583739839 0.74757998765811529
-0.082161300736515841 0.26157403898429976 0.75304398272674788
-0.054226917455793 0.57367715100379613 0.70545441125177311
0.19459146309355546 0.037366653626490276 0.80054437246121868
-0.41864877497464548 -0.72719955654768853 -0.28784850125075634
-0.22925958187619955 0.42029585046221829 0.70515764560194505
0.32456687393912986 0.50076295329709719 0.3682904001994447
0.48247273632915011 -0.51436971715101087 0.68913451456283736
-0.43968750543604429 -0.67718318061526972 -0.17990228774785422
0.29156184666997831 0.7046493718829332 -0.24407593763535718
-0.70895214927016781 -0.36459397081322109 0.42283751379571122
0.75760951373137431 -0.36409561754704534 0.64084028952715233
0.19812897206007207 0.5494059231332189 0.60735209086217656
0.093736366047888708 0.3064066968496606 0.70747106846624108
0.47635527058029581 -0.67016660674979356 0.4953808521256815
0.11201332272150566 -0.073186154398298342 0.7828663169335317
0.23821735842428993 -0.12621788833468095 0.79636452181531903
-0.81942049134077877 -0.70289890585530657 -0.36176830941901938
0.92562890504954254 -0.33345134754335337 0.56805225272201199
0.17099791805216213 -0.014141148377609269 0.80078727414852402
0.15524910848073858 -0.071246960370837442 0.82936626503409272
0.015329590382712865 0.65234267207552943 0.62091647843060915
-0.071309451912764388 0.99138710456222601 0.014135218261772664
0.73086844460185674 -0.35676469331357374 0.64168140107952332
0.4579939039900438 0.73573186828940784 -0.27096562334679725
0.28488025801071615 -0.064146454561106125 0.77529903982437709
0.3493998010147763 0.74957841700359928 -0.25762919687664576
0.21052060801532235 -0.061204572332238527 0.76365595649902307
0.27458239013392216 1.1653522869473392 -0.32768771879074743
0.11054442913463092 -0.1772122957761777 0.79902200312826865
0.31878198883301323 0.1647339218165822 0.51814170091297562
-0.76164760283295863 0.11920301777654885 0.71546376050099436
-0.74628924333460844 0.49992431937203818 0.1756887609650466
0.14767941890126579 -0.10555889183011224 -0.60293916937849212
-0.73224704725302381 -0.48998182883496 -0.40244718784362732
-0.51444251780710815 -0.091563684257502942 0.74824786945379795
0.25211050235573396 -0.12618914640209766 0.8085719230267383
-0.55032912003743206 -0.16559019237707595 0.75726751974427042
-0.42664337205082603 0.23193825222949904 0.67599514108291014
-0.56621719184238017 -0.47789774772926208 0.61772752996083202
-0.43816713945055596 -0.22680368022119168 0.76039410015624398
-0.13323010075819752 0.25574772100070398 0.76172502735632364
0.68725784838873594 -0.33649147593863482 0.74585084660826784
0.29218412959077256 0.63018166982263502 -0.12570341052054412
0.24573144221456289 -0.18490842492770021 0.70512440113876229
0.44230574210105189 1.2331404677723059 -0.4246904972277622
-0.9556666240207381 -0.28687960902030518 -0.19205457498077827
0.090039243802877422 -0.39489340897464054 0.31253731557690845
0.85132300641939196 -0.36370482719800812 0.53496787617220742
0.30315406397625821 1.0224330813756835 -0.34870702342744098
-0.28709335988803986 0.25577913423025578 0.79580503673117597
0.38923447807936995 0.043635768387444429 -0.23216214154309545
0.88707453184310125 -0.2760243106794622 0.59487366722732249
-0.33348384393698893 -0.64086769570760183 -0.076581253434721663
0.16672488172572386 -0.16956859854713002 0.79171323212636802
0.31999660516849815 0.075604418394158657 0.52723153116058752
0.449691960124742 -0.47445547908213648 0.67818940970847175
0.167771134584072 -0.10382096619923509 0.84433756857306452
0.17629776954077059 1.1332511535973095 -0.40349970720217998
-0.54197129717542936 -0.28827487702680976 0.64316891744326998
-0.7082656901590596 -0.33415483014738712 0.42935208625408006
-0.49414943153955093 0.015138091847742174 0.75797092101633545
0.51143399512251975 -0.40371651663029695 0.35300963351473191
-0.58579012908623795 -0.51658714172819664 0.62883924102878641
-0.22719613484780155 -0.034113903511544308 0.76289994852237974
0.36131175133506943 0.68541136772006084 -0.19556700099145219
0.53957787309454375 0.96637545192464991 -0.47673522328061424
0.22357845320006575 -0.43102800674086517 0.51352276079787718
-0.25050949740272088 -0.19852178414535793 0.75918903440379992
-0.92295611980851078 -0.89524965887197183 -0.40531217520590301
-0.40515064805830292 0.26111153264017162 0.72956237007666047
-0.51053790424008128 -0.70317831974470302 -0.3610956892467696
-0.37873418913594392 -0.39884070884574996 0.60293210979394551
0.2860117351238074 0.45476258921279911 0.50871643759737362
0.05778143069287367 0.36038559422872574 0.76246014774702608
0.61220043943421487 -0.44630648841584808 0.67371557416165206
0.70595225408420603 -0.61090855736772731 0.54075159169980602
-0.90289713069778266 -0.98941877486706531 -0.5025643475572239
0.69518256460217742 -0.57420856177351531 0.49090104759543296
0.30607367752638126 0.94346304365878453 -0.3497453535887588
0.77991978348748603 -0.30651711807832616 0.71849714986970925
0.12705802308992276 0.67344643089545642 0.62587340925761081
0.12352088943105954 -0.11740032409365142 0.82766413119072135
-0.52629861948674161 -0.00050135161028208586 0.82887948660535482
0.63375175886226032 -0.032013918028561683 0.60509085794960393
-0.44544146357951675 0.69940640268636489 -0.48748454560676713
-0.80887674942293053 -0.92197122934411979 -0.46983550039991684
0.085313425441626123 -0.037201880415771882 -0.62823156566158622
-0.19415663316382492 0.37176154842893716 0.77556505669350884
0.17055320093710336 0.64411168334822122 0.60572198812451239
0.23292243277639102 0.97750093589770692 -0.2255766802563417
-0.60196764118648005 -0.18854004821344539 0.69468990758451277
0.22371855543546815 0.71816092853420344 0.63151150971045444
-0.44838755014623999 -0.66657551118536595 -0.26110972829423451
-0.20686256894631683 -0.35189202877040948 0.63895542781417447
0.32948259687592341 0.70376440700760856 -0.17022701243799931
0.16614465819946034 -0.095626144607924957 0.75379528393243378
0.39418580163268402 0.61098205088713531 -0.084274001337476312
0.3849930511795101 1.2241504691932361 -0.35358431884675545
0.19701904728508168 -0.0090658516928225907 0.82732850866575669
-0.050673645641531095 0.10498510936343664 0.7123067215798371
-0.24216717474196159 -0.56533031884166185 -0.31178527125428435
-0.0023693226569889703 0.82731635606737708 0.53282018824731425
-0.46775992373201092 -0.69859682047263227 -0.30197795452689657
0.045375640713636756 0.9271774687528298 -0.071787331120834352
-0.49704114866574756 -0.043242288371658333 0.80113423645779491
0.34605629089550405 -0.018568411662357676 -0.38519523491404584
-0.81753066415585707 -0.95251219535401965 -0.50029857021743229
-0.42937087927452922 -0.64843511961858802 -0.081918715717802737
-0.48899638882472374 -0.28436452171844095 0.65257471365432629
0.010694927486884609 0.1841458202186228 0.69593353512175771
0.59004854072841084 -0.43844059203728669 0.32297669964509668
0.024843061343361228 0.93030834715548849 -0.158441341069681
0.36935197327528968 1.1787966077860457 -0.45096618104882319
0.14649315045564748 -0.38403472352272416 0.56700858544598454
0.099863938095463567 -0.10771524726975201 0.81431009393970566
-0.69182899088172789 -0.47149579420191223 0.31365635824056426
-0.54608792835325914 -0.41951537059285471 0.64671534988184742
0.10272732580769883 0.45272376536820147 0.78958927448056615
0.43434117765541913 0.76801580030979544 -0.25420947438670144
-0.85658637992039566 -0.36649830480124912 -0.37474377975113748
0.33405884881294057 0.036035546650555972 0.55641075142491481
0.17000390558980882 0.41803897154742398 0.69407517815443232
-0.41365715731664565 -0.71038255726803179 -0.28906652036277514
-0.35507506913996778 -0.00074799756652943472 0.80470327009665432
-0.38750955005095022 0.0052784519534316843 0.74899241155050955
-0.70809338669726429 0.20497555633104447 0.66118600106941905
0.14330677536849379 -0.39242923936723351 0.62513956545176352
0.77505307767076914 -0.45054524430251952 0.6957211590231569
-0.60421786719118487 -0.04461247724636408 0.49916207097045184
0.6665159219017589 -0.59333615164326936 0.42492530730464884
0.79163029610031188 -0.27285851676625494 0.71292593618710587
0.65217132955446999 -0.66622894813420785 0.52715472570401634
-0.23332669135735529 -0.26448644458538695 0.66826549896105991
-0.22567986837173137 -0.53090630026131258 0.51639741359083047
-0.54092689598901345 -0.36490853306761828 0.70318072120251962
0.13850891914686869 -0.015777332689623336 0.7290775311296156
-0.93572529454673337 -0.94824514555047479 -0.4558039372180458
-0.49162920200598492 -0.50025903919268089 0.58855859347961825
-0.040984165603084932 0.55690466470134314 0.77667166238824548
0.084511121445931536 -0.11871363100500609 0.75984426579878273
-0.39593902931138558 0.86639240887372626 -0.37397701310624054
0.20631333062927837 1.0418405872297924 -0.37401296943149276
0.36579105905328646 -0.38028302869787645 0.35548231643015304
-0.45455080873209752 -0.63395445403334172 -0.21958740743980654
-0.50947669444478194 -0.14594561616678625 0.74667800269819384
-0.89740579044090829 -0.84863411622362506 -0.40112289359221487
-0.57166362459822651 -0.43455019908917158 -0.55707722737401522
0.2792017657044461 0.38560747585316957 0.4332357074160611
-0.24943538910170915 0.82948231675462125 0.18546462602108083
0.34086367254818839 0.77326172561300854 -0.30535972126464972
0.02513504898626806 0.35017899520566953 0.78412804957886539
0.83044515815197428 -0.25013374267111654 0.60805195844490201
0.80803151558811592 -0.32598890764403343 0.63463557909437118
0.43680965867178756 -0.46566273489391286 0.68615939378694835
-0.15143807502303019 0.35665984284654328 -0.72048160427025532
-0.9640088574424297 0.1493578996360938 -0.095500758984129241
-0.81901300519739451 -0.44150660241573547 0.076228479282679729
