# XYZ point cloud file
0.43692566062217963 -0.007617246575012615 0.33371496226018227
-0.47187495043419414 -0.090327741683148055 0.78949864409858517
0.77649690897058044 -0.22931915692409888 0.3412412223611776
0.030114784415111728 0.69163943624970248 0.66651868669603198
0.48607166010987601 1.0699717168969753 -0.50076233207642362
-0.61578725045161864 -0.58566898519261379 0.083317207611893984
0.34472838182604093 0.82338663393812972 0.19801666125450801
0.12906234119793503 1.0120164377422345 -0.31964551862871549
0.39459038913065569 0.69040080373696355 -0.25367131578063962
0.1194121304497493 -0.086836495555988158 0.77125471818232505
-0.043933718325083859 0.4857602383778703 0.79528810576403552
-0.77265318083517087 -0.49552063855235673 0.32919884351965667
0.42650513031825188 0.78230021923527016 -0.30521283195148552
-0.62442668860455264 -0.63957370821558257 -0.25729676403567847
-0.54000032978200352 -0.78883063794522634 -0.41448864744721803
0.12497645049475192 -0.0024776030941922045 0.75043002590492325
0.54440773888236915 -0.58493996771113288 0.67720371914531396
0.10152987285355941 -0.18101987006261755 0.75623072317877904
-0.53718636305536993 -0.34738117686199299 0.59747653975065873
-0.27442423933547033 0.36809601853783569 0.64724132103641896
0.45516132645439367 -0.23256637541083602 0.24593406557150566
0.75084413332210165 -0.275217230867562 0.70298672891263703
-0.27852839864556778 -0.52962858172656535 -0.41489412164556772
-0.80498378645731616 -0.32571389601438305 0.20271879822441452
-0.23263516947869434 0.43381872471466565 0.76390349977492544
-0.1143190566426151 -0.5215001310039975 -0.053921736140972065
0.091907006970401106 -0.105496138085865 0.77689208870775861
-0.38427575005574965 0.056794726189398403 0.772592427537659
0.58405975633189122 -0.60624084477512508 0.66659950347863184
-0.74284449945741127 -0.28750788354117418 0.31595606533950082
-0.44010891390897022 0.21264114034057346 0.59727050116255054
-0.41745969356476476 -0.062430033106868343 0.80422625920426416
-0.35489772643068207 -0.066708220953747954 0.80717684919898058
0.30680272580659196 1.2347804555708057 -0.40166401108201111
0.056889649859842351 -0.2620840410751919 0.61856551715946928
-0.18141446492527891 -0.24290834781320036 0.67345574941130515
0.28408806246922857 0.29878243607664068 0.61852397232929768
0.55654613307146672 0.98258318508213272 -0.36763766221623673
2.4973935357941457e-05 -0.29150612927643049 0.61080162682170158
0.90761955515425097 -0.17808211741758839 0.53405289068118966
-0.010140540277086885 0.53619069841748068 0.74741955564833606
-0.99984851868306013 -0.8523605125311855 -0.45187842021981517
0.14587315224438235 0.84005591510361111 0.1214110881945949
-0.31193277456643553 -0.0059597869466427866 0.1522721379336831
4.4912290935172905e-06 0.81686887937538888 0.65693367107134071
0.71349060713902279 -0.51715833146112367 0.67745791436026881
0.54053839115539137 -0.41497483864241147 0.72891224165925417
-0.94467848351707939 -0.91509494398887181 -0.51048182322360347
0.46603091627927551 1.0371071413941371 -0.44084882915730184
0.20113893176843511 -0.26367692770195728 0.72133096801028307
0.90596268872219055 -0.11589983346600352 -0.71506257843091747
0.2536169446390959 0.96855001505206406 -0.35160086209707142
0.1045943761706436 -0.31881818791982131 0.50486839942690676
-0.72766681649318965 -0.66014461276670833 -0.28672235779006527
-0.12869865887061493 0.30019753455283915 0.75836906228328083
-0.071480848200163649 0.26972178384417766 0.7554563281729223
0.84729541530130703 -0.35196327300218133 0.65030147847771724
-0.6488189664148436 -0.54501751310824886 0.49422571028785001
0.14808433491561956 0.01018342524946636 0.75374454850296857
-0.34209040758278597 -0.72282009562122873 -0.31822588599250956
0.47732324300065354 1.0816293181924879 -0.45772790949733366
-0.54433544442400539 -0.11153898087840464 0.72243329521318245
0.30491060423797123 1.101171704399559 -0.43687199512226815
-0.48992707281907144 -0.21474269461943774 0.75917636073460226
0.37479123048344487 0.79420832502448668 -0.32203884868060584
0.00092652945547300192 0.49895400384531996 0.78213643983499193
0.063589572187558119 0.89899106524961603 0.071420102225849824
0.0048589216410457325 -1.1176295209087392 0.7601041753114095
0.48588695709617014 0.61690956161615151 -0.17553452334747455
-0.54014678109470537 0.61331398799564418 0.29052769373829879
-0.40369645672323173 0.075143058996364864 0.64922828527768139
0.15114168620333146 0.32905146434804067 0.71644432153013904
-0.75084614704301256 -0.33053537549679035 0.5637178043525557
0.43310338087898614 0.73657823667197064 -0.27696885024261242
-0.71875423575091713 -0.41707860736382951 0.38890619255451586
-0.85885087490550571 0.27853703567896293 -0.35590975472824393
0.13275996728305639 0.90191657448440754 -0.3266423086460728
0.41829025822982313 0.021343110174622204 0.3691225506035094
0.46198245561813778 0.62381801730062136 0.16394761840971128
-0.42563963351908729 -0.54640584112322621 0.54767478474432174
-0.52998730284931472 -0.41347982271970984 -0.58686093386220506
0.23631759866778346 0.81611680985862112 -0.23924102877846387
-0.54262393855952151 -0.28259389897939347 0.68019622792977064
0.45605089109977648 0.72567112096768582 -0.20701432847705714
0.0026530098101273936 -0.31847943563139047 0.49423588175161726
-0.48778009516161003 -0.3446662730205956 0.6730810759051753
0.45615304108272614 -0.063960091091903593 0.70924541685062215
0.25299553798788565 0.84440366002611622 -0.2831374454397162
0.27324986287671305 0.15894089617516105 -0.34708202842504843
-0.97361652651002828 -0.70578162107761155 -0.42484760901730656
0.50057154412567773 0.01674681824577462 0.60290784261572838
0.62872431802622497 -0.40149224952298113 0.72483105982551566
-0.8175997061505953 -0.73216522607178014 -0.39986596854482315
0.28518721511836809 0.63057605032552377 0.37615831521034604
0.47634872557737928 -0.64857547024489648 0.61015139738471813
-0.67408933564639995 -1.0181476910822678 -0.41225566081063114
-0.50387622342652882 0.0018075952006322282 0.7621231426283126
0.0038316781093605812 -0.34338472541379161 -0.5218947049771776
-0.21957939787941516 -0.17153581675342977 0.75696104324597346
-0.99197391039742122 -0.8015855090320656 -0.49799794514008777
0.51018548387921925 -0.11866537456225945 0.95906807087689172
0.23880295603620461 0.4047193215591971 0.66003895537539359
0.18684495895206776 0.92797578541588788 -0.24071454884508103
0.28202990295320518 0.068637901782589772 0.61933105446663328
0.55298640510159913 -0.67048205431182062 0.62355270673467666
0.28447507270353523 0.99353427221481905 -0.37488217506893573
-0.52722696628521604 -0.11691848383026215 0.73918420664869
-0.26154978127146578 0.4634746734958588 0.65642520105026314
0.74087226234443104 0.63311191237936182 0.24174051260800988
-0.69422478072789584 -0.27336774928085372 0.71284021256330732
-0.44970321812250802 -0.90870573055476278 -0.29050764191665213
-0.38844675849608379 -0.64382216593431352 -0.12649185179753264
-0.45134485999543905 0.54952058795528469 0.64563023804792063
0.42337638184822168 -0.24375282767856365 0.28326904115452489
0.33517663300705891 1.1482551414975166 -0.45788244954432322
0.23863822556548975 0.0034113874880690176 0.78500224393718865
-0.22014140835257123 -0.10014815084923434 0.76577513316593038
-0.52195656683895297 -0.030016548724587366 0.75745768482643339
-0.5056843991756006 -0.69021942509160095 -0.3207271021567859
0.92907173054544057 -0.26694805455024628 0.536612605605574
-0.44864051829653651 -0.19621714882300445 0.79042867388191596
0.043793254240773294 0.3764820674381042 0.80302029866975033
0.64064081340803636 -0.31151526004207852 0.73086432096790954
-0.31518254984143645 -0.31497129386471556 0.708563052154072
-0.65161934807634569 0.27206501307257636 -0.60938467488055359
-1.006409649271923 -0.78410528093967891 -0.47681368759275511
-0.52474731773247374 -0.61933607115900191 -0.066975819495302957
-0.72547928945661777 -0.53821192172181131 -0.26018126653010221
-0.33236401836475515 0.4732940734329496 0.78974956824087528
-0.65067030321334141 -0.59426910727192972 -0.18904227619461622
0.74441983168889969 -0.41052781450791986 0.66239316763162304
0.37836443768716332 -0.079536585183239694 -0.065964807905487532
0.2283266853522905 0.90583511875000777 -0.27595546204925814
0.60596344677345204 -0.43570294874289051 0.71282950192353933
0.34840294496190172 0.28599021678138925 0.26345171636758291
-0.043630720981747473 0.60756498040859963 0.70546832410819516
-0.60747709781993375 -0.28110381543814711 0.58038942168029273
0.51563041311497582 0.0080026183910968385 0.45245224883032087
-0.33140727153275762 -0.19693956886172614 0.80583639513787908
-0.35995959137263611 0.15440123604886313 -0.22929917101186881
-0.16706479070298563 0.30951056808814315 0.77142890089957561
-0.72055566050313313 -0.47324609737286227 0.48193895413236554
-0.40296283332519423 0.6399366944065461 0.62763069992483178
0.15918084954947087 -0.19630024762080733 0.79585502828635279
-0.94584489940840744 -0.17623716419781132 -0.19754405222881211
-0.53136402225526691 -0.31586976928385457 0.67611344359149506
-0.81973380191352074 0.07877612158965519 0.60908106335940015
0.77582503587656504 -0.36697631299146583 0.69795047887919504
0.28981605427000279 -0.13447208427868329 0.75130129162042047
-0.21710612933745566 -0.043743626143786685 0.75710678351113803
-0.041499132300918617 0.8122031666468672 0.64596617202020923
0.33134434361780229 0.64660699367841712 0.10802017592447033
0.31225037015204204 0.1404908018992046 0.4692167253721804
0.67445409225242692 -0.59089258727176741 0.65205450713250412
-0.40969594751683314 -0.87591836319566507 0.1870185560855937
-0.3614552260174122 -0.27204360165991925 0.7685932313334094
0.24735857965823449 0.72126778521001622 0.49912055926756382
-0.33425879791706059 0.64381275379227709 0.59224326482723733
-0.61771157319789438 -0.68920442868777965 -0.32716715473305147
-0.7432405414202945 -0.76736771731444708 -0.37779997270291954
0.30140364564991184 0.0064407538802564446 0.71534286436223793
0.17778574930793045 1.0594210427417163 -0.41916371991903656
-0.4684926111444021 -0.00094478515090656856 0.72607215543696757
0.14858038597860368 -0.21497072923657612 0.74478325437042692
0.073026746690389999 -0.32589810518037599 0.45513277533364338
-0.18698152619139741 0.34597773464163772 0.76908351652172247
-0.068395600542016766 0.58233171020748475 0.71059430087590059
0.3385657647295286 -0.36427070605138923 0.31088472498872477
-0.1089372222387599 0.3423415766427107 0.78748894047447937
0.24344004689256771 1.1941045361506486 -0.47733013855483275
0.74773317181480881 -0.37060890007324154 0.66914290708365076
-0.72292952436902524 -0.27984532853370059 0.4693101640474282
-0.2223144152750276 0.34348843001569573 0.0074842450019296791
-0.45752103793552124 0.18306821818976893 0.60329687376814167
-0.067880523384522107 0.78599464793247975 0.40349255767254988
0.84189533514098791 -0.42876692330340838 0.6038592420857567
0.41877164303557102 1.1936043587362102 -0.40475784807703308
0.016953232581565558 0.22519678858706982 0.7538092855217382
-0.61813231212538433 0.20366905696401538 0.70514004299492505
0.1777892912048129 -0.17821253673524673 0.80165393815075081
0.11764937526097086 0.3086264601527553 0.73216345881716682
0.14948497565798835 0.15319397798781687 0.32929948004938492
-0.088718570106545158 0.50598501372369498 0.78679426222522419
-0.36685888799769462 -0.24715883703435981 0.78735009931921951
-0.82098304077332873 -0.31977685890090246 0.053122982675552599
-0.22978500768272792 0.62070716326485353 -0.69036753234298409
-0.6923471971268107 -0.83234252374872586 -0.38963909727389279
0.49431428464731475 1.1325639868435227 -0.40209211326809591
-0.57831679864157426 -0.65217597764683699 -0.28781531744967559
-0.79307360545933037 -0.8063164077708711 -0.40337714685534376
-0.43587974717902256 -0.24898886899526929 0.77366375519426267
0.65407465310345447 -0.35669123862624641 0.72852230705084242
-0.32192390576309649 -0.51575704909598841 0.56821907617472256
0.47845981713303853 0.79965373751701652 -0.30162045668960014
-0.44926424844839286 -0.057514846261330632 0.040522303290221551
-0.75701425126080313 -0.95390571002275326 -0.41653906752638559
0.30264679437734543 0.57657137789190127 0.38527399643357718
0.33832211529326539 0.46314432659199323 -0.30447315804878894
-0.27116323413526011 -0.1599411927302663 0.78249576146285627
0.22650339230122363 -0.039471739461151678 0.81460048752731806
0.55157020594297457 1.1118312313584493 -0.45162121895878204
0.070103228469845291 0.9139300601219329 -0.19914050034955189
-0.071627275291108461 -0.43547366341832205 0.63209688504819184
-0.20968546184925607 -0.25103697346964537 0.058662715620648065
0.22125802820257245 0.99160051889105816 -0.31361023126839882
-0.082469533683338092 -0.31150194535514775 -0.62692721537501495
-0.45809037700284083 -0.074242659897769236 0.78639048794358413
0.41567539961781108 0.0025023610609649083 0.66591861952117881
-0.61372452084514872 0.22439587637071945 -0.73446449412060311
0.72636745934747804 -0.3485692062072312 0.6494625140328516
-0.76010267791091923 -0.95873746500514034 -0.40920314809861313
-0.037225293838389462 -0.32574605706776438 0.59940347109492276
0.40594313806805626 -0.62243687018850213 0.085543923772882557
-0.89035435000588592 -0.85285243192924032 -0.43840268354371403
0.088490316461594887 0.65020567212157943 0.66068581845362484
-0.4233701089402615 0.6570186254246897 0.33396031956300654
-0.22510866748745606 0.52679036584053751 0.74579183069047517
-0.39533771401142914 0.41636898022028213 0.5360010564211164
-0.18115919316378459 0.32480953623291864 0.77152667031536293
-0.7274553675910429 -0.37342493533704957 0.35392207310365098
-0.31478521577408536 -0.08436906564600033 0.79598341604757472
0.52642335398072237 0.64540916127467973 0.27160170678217632
-0.32034618719371188 0.43687002997110103 -0.20599904243474931
0.22847774002016141 -0.34526960650440586 0.68811566562004778
-0.56638079189006696 -0.18459594765712328 0.73416738143166604
-0.23355902420977337 -0.12326499697894278 0.75697477866752561
-0.13366248848159223 -0.43828337889812552 -0.47874424997415854
0.42775298473571954 0.74763654910801236 -0.28879256437146772
0.27041590806672211 -0.34636166005418101 0.70698605424902716
0.26725181513553142 0.9704908019832903 -0.35963431345168217
-0.016797488434512786 0.94999698144397993 0.00057148530677242348
-0.15755370900897248 0.60023046842746197 0.64624881977487636
0.44089389061214135 0.71437226763515405 -0.21983408685425143
-0.64007309576067506 -0.25602116411962239 -0.18552256269361145
-0.37123806849562069 -0.39153506301116714 0.62647588369128382
-0.28460916821852233 -0.15921810503042622 0.80315421832839551
0.54569717783610638 0.97974642310238558 -0.36477188636566149
-0.092592724600596199 0.79724965468744724 0.60153469563300543
0.45562772482106428 -0.4355561026907333 -0.10774868436495932
-0.28123197329557303 -0.13852975282902413 0.79360283339622306
-0.011122105467036292 0.53010977763714262 0.75704615962108424
0.10598865846502115 0.072090338869180925 0.76466175366567635
-0.1309111426077898 0.86948991655528562 0.18882031575050373
0.14360071308080702 -0.33865830500487437 0.59308911012853383
0.075486540280170544 0.72470285631190112 0.65394283523776808
-0.75427115303343228 -0.41035003290009264 0.54108020261493994
-0.23972125594497218 0.33058259146361113 -0.25569950787232543
0.63310368001637229 0.076007787846935848 -0.077439832024441824
-0.51493662397927853 -0.057750083323744761 0.75293139263662212
0.19220700522186895 0.76677233414145363 0.38750420074228664
-0.83465839519211649 -0.92056829282112496 -0.42043134410230643
0.33147194672407565 0.31800146629646786 -0.27745211749423948
-0.36834000771895248 -0.65595296434464156 -0.16250404150518705
-0.62838846050181196 -0.1759584385612083 0.72524891557373561
1.03970211711317 0.19410016796491103 -0.26338435057455545
0.19663674146959043 0.97413553975538125 -0.26955022336707923
-0.13595220727872004 0.46644077494231517 0.78217313782544196
-0.76500743825836981 -0.82752985829727521 -0.39756757063061077
0.29810841287945777 0.71454555458637259 -0.26534253361340721
-0.20586146406273365 -0.58296879888652864 -0.19680341858720585
-0.30022866052342856 0.076667985789597992 0.77457238535540984
-0.44159731495284316 -0.59780235626671718 0.22733666202775016
0.17305200284513855 -0.10736205017431466 -0.34355779127782693
0.080518799373532346 0.27349185435976953 0.72359742646922065
-0.23568529888599343 0.20509367078363372 -0.18157343868165032
-0.13850935777401929 -0.29040592765311235 0.69797834583806928
0.14095856089010983 -0.12646259334078369 0.086225131845323766
-0.49411990026827368 0.44474544839926811 0.44756711603218324
-0.71014771479656069 -0.59216127816048125 -0.21566811040586309
-0.30030394695367146 -0.53982693565254802 0.48960224591444224
0.50324960222777193 0.66009471422073496 -0.26841821793961529
0.16900531866979662 0.11797497501531229 -0.61243051154080064
0.69506719504091308 -0.55209868228080516 0.66678262148662526
0.56194786051812962 -0.25273451696196592 0.34039075768237836
-0.31726938145349948 -0.4879698075304626 -0.49723299324282788
0.64284678506865411 -0.057480678288706066 0.63168201898641474
0.77632357637355476 -0.38314256592026119 0.6945294837651752
0.37513900810692657 0.032499563602015336 0.63411293337050489
-0.70713646481803138 -0.45855172106290176 0.41259916215716608
-0.13226978695331315 -0.23175600543289843 0.7254102959610762
-0.23546833739110262 0.36963003837758013 0.7704651601946475
-0.047356473242471608 0.75665123125823008 -0.39079486195540802
-0.64378585369390251 -0.76606973985067128 -0.35610090401830785
-0.096866787987904601 0.768643050996479 0.46056005472208739
-0.13968776322108134 0.77315079647254503 0.6137265231901825
0.41980862031283372 -0.28788928876222197 0.29691565262534292
0.36136999291892646 0.049864153024506308 0.60117436896531018
-0.27684848784270955 0.064269384153782916 0.77015362866918746
-0.44997050933796245 -0.37689402525349447 0.67615052794985164
0.45724654137835685 1.1090921404996994 -0.46140308863145529
0.18389549262886273 1.0021861228993032 -0.26999185037191165
0.35597895975973248 -0.071349381165690673 0.73254367382071361
-0.92088230582726727 -0.71600396048290982 -0.35941377079382786
0.31475194800205397 0.76772329819904517 -0.31788686649548303
-0.17881685139327175 0.98543760444538719 -0.1246981101034681
0.29609553986654813 0.085664550840272469 0.53007693832576219
0.53557001784452485 0.97752052385144683 -0.36665485907072126
0.16780907623535768 -0.023875578225288407 0.80469066945249912
-0.76178338502782594 0.085843896483601689 0.65607877164292105
0.24444398079837981 0.72206084411187899 0.44727673285388914
-0.45112545190379816 -0.74413826467649891 -0.30474236107355868
-0.24237893425286483 -0.059400199131099285 0.76612927222759186
0.20152421554407596 -0.17375535154163568 0.79347067436346608
0.72306404975937433 -0.35211203996186224 0.6485511780004698
0.8677139308946078 -0.14584103849494667 0.50255653538095668
0.10592379307748079 -0.09225657676519905 0.76934053226536703
0.725672066097105 -0.28902343001984399 0.71418112871531214
0.3197689733600626 0.35685255337484545 0.47594977209921741
0.36936459883106121 -0.37616767570222986 0.32627597063341041
0.47832243329818347 0.94280851291973988 -0.41278133481247448
-0.45472146665637592 -0.078297207716873984 0.79863470594243235
0.36336663210292031 0.14380099887480391 -0.22473916902575564
-0.3310048967730097 -0.42913761546468798 0.64465924803624297
0.38096991784726519 0.61127377959893714 -0.15262008233215241
-0.37411839904836519 0.30396924063753605 0.67761518700069523
-0.10369385821723132 -0.41538018621858175 0.43782773395534669
-0.79763257548210031 -0.43085579513179972 -0.37810016173284833
0.75521267926662272 -0.37255183418093907 0.69057951297509979
0.02062296777177508 0.93779300764143247 -0.18366428519515043
0.6334975514501533 -0.70311441478487868 0.50844521192551762
-0.32801377904660178 -0.11907685642526999 0.81503003592921974
0.28003546193039419 0.088876682796354523 0.58550859300836011
-0.66462031073005079 -0.43280272643149331 0.63882859955232085
-0.79164956787756058 -0.93933624755767564 -0.4389103435621573
0.24290903984920575 -0.39407205660235345 0.66157535560029634
-0.10489398696545571 -0.24405985663852015 0.71973634521377861
-0.31830377497341722 0.11389553934428776 0.78619955681736631
-0.49264230525892572 -0.66937674094485544 -0.3032098691433962
-0.60652567470790331 0.43376895691549677 0.1356184277547321
0.81015095228525258 -0.21062447415213015 -0.16355718364470473
-0.11125042914096017 -0.18687311233299297 0.74176947267910531
-0.69379634449964644 -0.71779237038245824 -0.3495272704029313
-0.30958076423475323 -0.10570412447931243 0.81134009072140323
-0.5874090951822506 0.11567851553926456 0.8008498133856472
0.52632581341898721 0.77302652156265861 -0.36903138850665407
-0.53564309474357863 -0.67388823144449361 -0.32431797283771235
0.33608540442867074 0.13059637180412231 -0.087873941771412056
-0.43125189128950314 -0.70994327593813811 -0.25875769866965292
0.23213513861847357 0.045846335085435896 -0.36747713791355974
0.49147968951763321 0.83148052115351678 -0.33277531438545793
0.45816387735774988 0.71275299023181837 -0.18897569074288256
0.32841665304358347 0.070867817892602325 0.54444668142258079
-0.090021483230581012 0.32786448031110638 0.78764921638041674
0.4326248426411512 0.80562441673321583 -0.3182083206263826
-0.32307520788751365 -0.36231220578228651 0.68925708794019158
-0.29039877570793493 -0.25455570956323648 0.75322551176750263
-0.61480561184426108 -0.22235773052221042 0.70632388259359757
-0.26386655760817934 -0.33341779946829941 0.67129760198299859
-0.11456825796469694 0.47812967296214826 0.79558035809523631
-0.21917164397065747 -0.065015069473959741 0.76037452020972829
-0.34603902943949016 -0.045008950610692544 0.77722677752679736
0.65734716016352834 -0.60334050639923209 0.65292703069331015
0.26836312964151254 0.74458400520084744 -0.016068807290055886
0.55905961716366726 0.81766634955949069 -0.29264884146993664
-0.0075116692561199017 -0.94558984437973681 0.57088701514707862
-0.82955864624300091 -0.76305973114063885 -0.42191334339231101
0.19018775258843945 0.5173711004023458 0.58347132199069129
-0.54787278539203044 -0.30775289411086337 0.6816302252726727
0.11342954641210312 0.59330476353846873 0.67397549073888774
0.50078609193324652 0.49998966402163614 -0.42545311036169231
0.16084896498491652 0.34872626721184208 0.68530165082228622
0.29270393891598356 1.1440270948840743 -0.41781573687029239
0.54232751369021326 -0.053650043332034159 0.39033255061468797
-0.49229984976367458 -0.57067376568060713 -0.44956255554528202
-0.60307735423873687 -0.86185516711532806 -0.38725232277901522
0.22546363253053059 -0.2787522260755404 0.72117971463978492
0.033965035791155174 0.58672001369163418 0.67265402907537153
-0.74693253849190988 -0.44516009623321473 0.52843102914695184
0.16377900581398563 1.0173295415640853 -0.39750469479478578
0.14435088199036805 0.98435848139900628 -0.24743779069619887
-0.30457921330880389 0.4658078276347366 0.77692525886302466
-0.39147978207249068 0.52413510084488912 0.8005456225690093
-0.30512135303841426 -0.10279992308364783 0.80757374302280294
-0.8305665035626344 -0.43492271823508943 0.013519286927706986
-0.07330145454905157 0.24475843581049173 0.76624589936203691
0.481538892946487 0.022074901261049718 0.45391013395041391
0.14739748597115465 0.66703509623803026 0.63628845556254809
-0.019225194643661681 0.6341872579395087 0.69479250850776442
-0.47813389476866952 1.0379715125278191 -0.019082705687862855
0.35920860409802557 1.1553803179252515 -0.46341919961969857
-0.45204515561629321 -0.64303778964857816 -0.22548214748778062
0.43023028905568506 -0.016967326117953263 0.28134716128106341
-0.71595389292573852 -0.63409793729727149 -0.24991365709000846
-0.19057468628668417 0.36609665958064053 0.76493897020467294
-0.4663487623885203 -0.34306392260302854 0.67149263564078154
0.058672974400277411 0.29320791699890059 -0.73622591751299282
0.62373297360215307 -0.52082004597593823 -0.46735503764356379
0.62913302477368838 -0.47338509202133938 0.65168689655426926
0.3799814144092224 0.22163890742309356 -0.021694722215999107
0.75117262105217542 -0.35775594608829397 0.69480504221037664
-0.89690963952415803 -0.95810728966062886 -0.42748326037340334
-0.45649327470833345 -0.07630703858668042 0.79319259898444727
-0.67971375267111789 0.092856687934708582 0.60699152482484919
-0.81195787880555415 0.61455359189745451 0.031380271065152954
0.65817926329700338 -0.36053101575035917 0.72530760121857929
0.78673586899113079 0.81845985222175432 0.48651481266841134
-0.60134107971557427 -0.6652129320380622 -0.31007812932363255
-0.66005971496375171 -0.78525527869673528 -0.3656883123417547
-0.066502101837389915 0.74116349026013673 0.70925515722176069
0.31867824655809684 0.002044929683188812 -0.25186330772293175
-0.82194060921447143 -0.63895050415742105 -0.27337931611901656
-0.68679501940412901 -0.91936961045692822 -0.43289686369691083
0.35286179837123832 0.9601583386246304 -0.37273123686537524
0.49925245389441919 1.0621303898908634 -0.39981214902846718
-0.20342447530937946 -0.19572485852624677 0.72268511011751269
-0.46690126483044292 -0.48145944518037975 0.61276770584005558
0.52362552908936699 -0.70451479766096714 0.42978420140504303
-0.54253830358336774 -0.44708436363036519 0.6347458420659029
-0.50637770990680409 0.063836004967767757 0.47609190237672649
0.7406855355215205 -0.3252942654049189 0.71234965334406386
0.1540351884540474 0.3872678893069299 0.69999336094426967
-0.68399044244362361 -0.091040574319579015 0.46132731832766982
0.14850261674757181 -0.2101584460508068 0.75417518006817197
-0.37478910724732728 0.11755797025000092 0.79308036161434181
-0.89835026727539535 -0.84754260532441705 -0.42755763359301202
-0.42824450829427718 0.010182445833932796 0.76859448261939445
-0.43850172796584719 -0.065903289880749227 0.79640411447286219
-0.19358034075866559 -0.37484820225401894 -0.61823390372071518
-0.7512060449118545 -0.58979470899116215 -0.36293364963841324
0.56758937445395929 0.008085426642777449 0.52886689674885501
-0.5158936426410996 0.12757217029804568 0.80393406497264852
0.36390030042893518 -0.28006407566700986 0.73869717252890243
0.51693121906832129 -0.5207340145656012 0.70209560539520011
-0.96562223931034019 -0.050484695459272366 -0.098178917487375728
-0.71075558059248767 -0.44145988351423515 0.33190594717446142
0.35762054030276236 0.087612971050210042 0.43288814502867012
0.45474277747790293 0.78211394880188667 -0.29930568219515319
-0.7781983436559603 0.50785503862595327 -0.15679784355033721
0.49527715638822478 1.057058228760841 -0.40780263448665366
-0.27258962876099169 -0.84205068868294397 0.15352139381890417
-0.76494999013591691 -1.0220033802220714 -0.47985830946415309
-0.24114906625279975 -0.18713022369678978 0.020348295399414518
0.50113173074583806 -0.42288180692587929 0.72577859196495931
-0.80371500472773505 -0.32908631206268435 -0.47570862232442579
0.39550152202576072 -0.35362538680572708 0.31789235472913013
0.49747083860289898 -0.56366796373353356 0.37350645713876363
-0.17576446507635524 0.18403194095804221 0.76736257502634064
0.11720735440059826 0.82903092077083063 0.46429593896407173
-0.20137968944487206 -0.14020783380851931 0.75386610382605301
0.1457713231309512 0.76052446833146981 0.60010836700470804
-0.86803098693113068 -0.18660714881558071 -0.4624849845789889
-0.072413400618505541 0.2018801689424139 -0.78118953303594729
0.70832666193456806 -0.32362562318027432 0.67459135872403664
0.73666529067159114 -0.35203581121562166 0.65541375261021395
0.45230591974429402 0.032597666128947544 0.45528878146134311
0.022874419190580753 0.49989169402779776 0.77506831110998409
0.192894229923672 -0.28471473139550429 0.70745153604150435
0.73977765907250781 -0.47486030991380446 0.68335352966552598
-0.38869058751422436 0.41375319270140309 0.80120985467125028
0.69794635169342989 -0.29899530071839298 0.37228588056773404
-0.5258606764441387 -0.043939457681174687 0.71568607221881564
0.306509896217948 0.18907265315511346 -0.39020579481871831
0.070006083330225621 0.88050391432264341 0.005607635315630688
-0.55371953311599498 -0.21189055752432484 0.71699605974200775
-0.49634924141607506 -0.63946040665637138 -0.26008284814573379
-0.85385875507839604 -0.99514863047259983 -0.44283760185733101
0.13605225042680846 -0.18500565987331008 0.80652556526666119
0.34359428980526818 1.2313965609671502 -0.40570098249049247
-0.73425409551851395 -1.0192627027554488 -0.42176210536264502
-0.058727227638577517 0.46416860314626796 0.80384085394636484
0.083905254642669291 0.033669159757189426 0.75576369010017963
-0.43937880079078262 0.19729862201366632 0.7063241464285035
0.37806158955279301 -0.21856501057501099 0.17419637203509897
-0.53637658422504142 -0.88459399617531176 -0.35507704455513522
-0.30274132391536845 -0.1016009887636562 0.80247095610481622
0.63646085180676693 -0.5097609851797591 0.70703711172337469
-0.1342811374909223 -0.51994423374864329 -0.21737241486605541
-0.75254883181613685 -0.27872742699637154 0.63611522832369083
-0.30273931819503375 -0.00099853940706662314 -0.82603653087143591
0.68599598321386335 -0.49055033101123069 0.69320565284706737
0.18634618845362905 -0.21184048605679706 0.75053167952066824
0.69084292456303942 -0.62657972689751595 0.59634027480900675
0.34074890073052178 0.83402725373030506 -0.33044153708295632
-0.68721743168566807 -0.44686609215206818 0.62649037572674615
-0.651377401411394 -0.34422072879702714 0.68010685496088552
0.28267264093253175 -0.010413884699362441 0.73852317780767196
0.5141306916750743 -0.15152968740595618 0.72675683505782196
0.26767483030046701 -0.098784144905560645 0.78855926456336345
-0.51035730398769097 -0.061256258365232519 0.75096485651233547
0.051625847186646645 -0.20711369303674676 -0.61713178272825786
0.22157529638826823 0.0098267114760322016 0.76508151459206175
-0.67999810120733084 -0.49288259018175307 0.3884509214255214
0.087431366480630324 -0.14798261048935579 0.79352841610047031
-0.29775047652975317 0.40981899445401559 0.78336781539182887
0.87107227764355422 -0.33226842522075639 0.12162077832340756
0.82660657448406649 -0.36128683880288914 0.66611675327931108
-0.68810369940187766 -0.89147485229807888 -0.41878253155979639
0.2025895856175115 0.64427916995848555 -0.63165793194444309
0.69607646389483069 -0.45365183549868426 0.6457183813307994
0.15714737064581996 -0.14111336107327244 0.81539465582051118
0.13475276290591598 -0.15421401377187305 0.81376362091797061
-0.15981790814285368 0.20754871727972013 0.76495996873456917
0.71810723561309775 -0.61274695871286955 0.5299609903977216
-0.90943275948878277 -0.97126336377046751 -0.47561850481961176
-0.1812550406946638 0.35866496955364013 0.74949549100648305
-0.30972033459298487 -0.7077195668544034 -0.16836450903985067
0.25803119579992817 0.54550038101636211 -0.3586762830080783
0.11975931732300715 0.80744139131395265 0.59643323351291944
0.15649116084706272 0.47950081335894801 0.69630899718245232
0.2375928204075608 1.1491374839388957 -0.36545400624502422
0.38916455861994326 -0.27543454729222105 1.1259223137797969
0.75647659839622783 -0.38735112538347138 0.68678592364739499
0.074593604762869248 0.58363873344661066 0.64890213071346459
-0.32890383063715234 0.0022149286485815267 0.77130710447284745
-0.2836242386737311 -0.46911397794754617 -0.45769159286940742
-0.067781441113233143 0.41548656290847052 0.8140941714484109
0.37367624369847796 1.1045597879862425 -0.43719487337703367
0.72314724608624914 -0.45402018616095319 0.40208960471665867
0.25397778074295552 0.76003341520289691 -0.21264840583072786
-0.39683873267482639 -0.16271514601534509 -0.61750580364917873
0.4516482329747955 -0.66544122379925152 0.54091263065215811
0.32695338394012641 0.72911858886030156 -0.29160259439529579
-0.83622872422793826 -0.43228861568770949 -0.22053474822153074
-0.57530150670989499 -0.58396408400914357 0.18715719127254005
-0.53319045650985242 -0.64924959903016877 -0.39219603677459336
-0.19632647061392028 0.40144668796484151 0.76040164467220439
0.080074618181850354 0.87740799797636271 0.11674420181908296
-0.17574109392168324 -0.29709348454155382 0.61547057957902407
-0.87779290276214184 -0.2970951031351392 0.084488966672165766
0.45188622993407002 1.1016726154316485 -0.45938085385262495
0.26919488360073451 1.2687447448819649 -0.42467738939204169
-0.26405467609612909 -0.65058510266977443 -0.24171133986665438
-0.34171056535929445 0.14611130254655702 0.79770375943801852
-0.13103772666258173 0.98818638691442295 -0.11274834911851794
0.28937902027447482 0.91200137258300629 -0.34385930687061883
-0.51648875680580542 -0.61734035402759257 -0.13496345608265781
-0.54209190341012903 -0.38764038895547781 0.65722624292700527
-0.52054695422972941 1.2434993453766356 -1.0769397020400602
0.26254537110163589 -0.36716396220546699 0.29692112977445184
-0.6929511981210057 -0.51213844560120414 0.49088234817253262
0.2833695009037438 0.97291976983893491 -0.36558564748435884
0.3112042088006941 0.49164585380040648 -0.366052806925107
0.17590645305983088 0.48673470317341216 0.67986052344330172
-0.42384033070799809 -0.63538100055054514 -0.14173507415762199
-0.3984452621840795 -0.67566053431154938 -0.21355475529912837
-0.88310937765544129 -0.70074331737822604 -0.34340938436418433
0.31983510444526164 0.086644987070964241 0.49970357532377729
0.15697493913784832 0.95521693342749536 -0.23461141038674871
0.32920950284985917 0.75486192186579437 -0.31478897244244308
-0.44800955511502494 -0.1284651259591385 -0.039168481525642562
0.67136778351706994 -0.50077725594551659 0.69989576946218834
0.39362616805155604 -0.31672238156039079 0.29753557838481903
0.32248730082729793 0.40999877347618163 0.46448381128568705
-0.63413314935863241 -0.18725903629489427 0.5941860547425728
-0.37695717759206993 -0.077277730314810889 0.81363530202576317
0.74733078291790722 -0.39806640649768177 0.66378861520564891
-0.55559392312065281 -0.29116209371838409 0.68667542549137739
0.50834033658048217 1.0154546824578139 -0.42997506097265914
-0.23903741308872917 0.47217820333849669 0.75597416440178655
0.39923749398699382 0.7648259059483431 -0.3119692687021125
0.081143861302447107 0.23896054637684383 0.74057494721557138
-0.29861796577041133 -0.73595404369907769 -0.20120534699552017
-0.13800129411414197 0.54939096619181971 0.74892666541615238
0.18476891088504477 0.73185732625082789 -0.44131887114070789
0.73464281646854879 -0.41731253714214489 0.65248275124211519
-0.36925335916735591 0.27367463957486038 0.67687251570770002
-0.40458555394484819 0.13620449351082353 0.80240695563204767
-0.46742164878863335 -0.64415689794538711 -0.24485395340461569
-0.58629788199749466 0.036192070242241137 0.77176348307224973
0.42069945950469734 0.76079506065795055 -0.29956962751716532
-0.35079845715418045 0.0020422111473559212 0.76930488220454851
-0.1958519100211884 0.1807989211244303 -0.82847923151367375
0.47883547921846148 1.0839381439927074 -0.45333366142530984
-0.057345376499327472 0.7016620024414415 0.70413302818883494
-0.41343025877797324 0.19935493336103249 0.67619078358210238
-0.19888861490236209 0.44767957688135507 0.75905946071243591
-0.53110183604139927 -0.04415786298192792 0.75485909827867026
0.28912990180598097 -0.35276886171054578 0.27476934936230801
0.6760171396472856 -0.46983875267556385 0.64667396986418346
0.066544254933559088 0.56974181199023377 0.67284025813213022
-0.30918213061026911 -0.27249977290512284 0.74809354590136756
-0.22062746216511719 0.22014077028486412 0.34094657162198327
-0.50681704427615948 -0.85832718947012765 -0.32504210558627022
0.21667843377270746 -0.0026211626424297307 0.80517579181798826
0.24892762226321885 0.55302772552923152 0.61706429431569187
-0.46530745130788276 0.46246045463312058 0.51437631894514713
-0.90374854946163463 -0.86883923782024119 -0.41229209030677438
-0.81398494175622105 -0.92056312966165432 -0.46084453140704529
-0.13726766754661313 0.12730643784844542 0.75520069562299863
-0.83772040528472047 -0.89460293175939665 -0.51091773811602081
0.13602040114582348 1.0492897958912781 -0.33762398537034777
0.19775285066606951 0.95061845212993124 -0.25978137253069811
-0.55046057294894268 -0.87519822677408232 -0.37096115160603027
0.61255794834468524 -0.37234721262615178 0.34716066134226287
-0.5436697237074668 -0.62215977184026894 -0.22130070567101612
0.55140903773842442 -0.5104524849132801 0.3665737559106037
0.70799726045991029 -0.30780162055986793 0.72029391034777701
0.46662905920420883 0.80969658324141225 -0.32368015117432147
-0.68219383447650017 -0.44010520682329979 -0.49567710314978264
0.15002707439479757 0.30105547295702983 -0.23784497773603785
-0.31986538279773136 0.021330397933051692 0.76975321085545811
-0.086254921092717041 -0.22948672871845766 -0.6929580935861388
-0.36154903307917508 0.51222046940044219 0.79667946594957773
0.68469042047289985 -0.64230397875866885 0.49484548135968165
0.78866072826560707 -0.30884701645669477 0.40526634229079628
0.066686591194590861 0.21560003946440354 0.6645103950096356
-0.056901057693355739 0.53819951899061191 0.7521964494544946
-0.28280689045199559 0.00018229033378958093 0.76767082512932117
0.19401821673096009 -0.34465525638196759 0.66123072310177156
0.49331323940248417 1.0535658753848072 -0.41763751242190361
-0.5550153518942631 -0.18313172061920291 0.73353478926637194
-0.30523821025742048 -0.33093230467801327 0.71016748084937564
-0.43086004281641621 0.030522189579119896 0.77095844328846574
0.26406843283892023 -0.14417992656011513 0.77417041473215731
-0.53571730524459937 -0.34612074554546091 0.67668086655069981
-0.59644605292801156 -0.22534691451812172 0.63751308410790841
-0.40721167264005587 -0.73881069862414872 -0.23833166495239055
0.72297428603921254 -0.38546727510769774 0.64567076568931281
-0.46703079485719901 -0.22427514853744412 0.77464961317433367
-0.7495020601036666 -0.84227654194800738 -0.40057099376910443
-0.36139866755883698 -0.64346545077619499 0.0066279868261434061
0.087629247981405811 0.40088125951850184 0.76344572579912073
-0.45541738756021388 1.2467843985466383 0.51098788562091357
0.12454638641374061 -0.40558381400457044 0.029607196300232452
0.0080743293513734216 0.70879866335710595 0.67636910393301974
-0.054022865278941623 0.88856290098329005 0.19192595912217314
0.4140748407804864 -0.44084983867528482 0.35397126957702074
0.2318488116453814 0.92630267816576861 -0.29592342437076002
-0.59726876032776577 -0.77463398806780859 -0.34889965167936676
0.27890417749357521 -0.17729383680329036 0.74507935600786812
0.74769034564636883 -0.23387029791282909 0.69686272692934104
0.23033082338846711 0.72749036553088242 0.37440097800350269
0.27206377581592189 0.72926210173892336 -0.20873395090647318
-0.40781482023756954 -0.72646944962567428 -0.2472442650996971
-0.61501336000838869 0.20744017144028515 0.73393590693861732
0.29172403431413763 0.11069437687079997 0.50162735228530853
0.29401142637289013 0.70553997142873559 0.11359325360026329
0.26671042594660843 0.80000080518858852 -0.28237892841563106
0.71364759240057207 -0.49041326181764244 0.69004451944216072
-0.092583472547769219 0.88157977881027527 0.19146855820751529
0.6931346398598075 -0.31796402231361931 0.71252703296800224
-0.53476216975343149 -0.47090169486862177 -0.58321604148485751
-0.878371027745108 0.29184529598381737 -0.25171428175625454
0.35599451074781285 0.34065060939467351 -0.093226444615836179
-0.85207132958333798 -0.26460260952071746 0.14207631950997079
-0.4886173260930553 -0.69296905889025417 -0.29506662975923525
-0.59091915442643117 -0.93073122778527573 -0.3713165182608078
0.69576920308710744 -0.081511574129899955 0.62842150227862792
0.27204873400274465 0.26631044675948523 -0.45080012484770737
-0.76467568858456847 -0.96594752248406213 -0.40466586193079923
-0.23483758179520642 0.50264291109456227 0.67156258051963302
-0.40932174375242347 -0.0089736578057610927 0.75528521064695919
0.66386209270882546 -0.67235421526904915 0.54371305361752942
0.1399488679112153 -0.010732658367891723 0.75019670607002675
-0.3672387567409503 -0.36833300804876323 -0.64122762947060696
0.21633371322168848 -0.3674850361090467 0.66163793944267102
-0.047205631576088258 -0.30600769696638519 0.63869956792864091
-0.75313558880155895 1.1228314402167472 -0.31314545407803251
-0.46567161846160232 0.5917973404734802 0.69295610884304359
0.52863652339917167 0.88730198922501291 -0.32506397085576921
-0.92992237569809699 -0.23045833036853747 -0.05352769686829717
-0.80273606388740415 -0.70256592391059058 -0.35860574716277061
-0.025218730128989009 0.23888024383847384 0.76416068318027897
-0.45691376579573983 0.46433754428065477 0.73608218723384322
-0.44415737791490884 -0.82529813731785584 -0.23770254019422055
-0.13780586969516051 0.26617633162082921 -0.80129754063607184
-0.034880477544884769 0.56658853638240014 0.71912438099765907
0.29703152594274851 -0.068594896467838673 0.7514388019573035
-0.18778271240437583 0.25304565488394548 0.76950298345545676
-0.40674633760274226 0.38037167049604914 0.67907935876505565
-0.48934596228657323 -0.020396118590084278 0.76214943885441766
-0.47923762951636562 -0.35970835280867064 0.95330251521378617
0.63655848094816214 -0.47808076478916472 0.65160718588017508
0.16797985292066997 0.30214025663783506 0.64574551375552147
0.12802468105908282 -0.34256637275278123 0.49279623882513768
-0.72232528815541119 -0.40638941148279084 0.34730997092790084
0.017728378798144817 0.85242028239179657 0.54079186841088456
-0.027677618108037372 -0.22435031997773613 0.68559861469275241
-0.39105676894469887 0.21469943247131695 0.70481554196418994
-0.16288793553080883 -0.33879336312999886 -0.63873618005187804
-0.7200136541171025 -0.68130200145579956 -0.32831204698876526
-0.12932274445497782 0.32004667959707334 0.76547983518876617
-0.081323690236156487 0.34282217559553807 -0.76337011168790436
-0.53200849180692611 -0.37673910460999682 0.66419218930038681
-0.17386145962900024 0.97724630841176463 -0.058713653303761326
0.31937910237660994 0.71561353106011527 -0.26892400844593745
-0.9887469054406246 0.14233901861891418 0.00028525971057469235
0.25349356455473426 -0.027173130630713693 0.80585737393543733
0.36318839846590301 -0.12997374993046851 0.74055499184432305
0.65702165232622889 -0.28778279760485237 0.72811497035121908
0.39390388115079755 0.13463056360421088 0.14521503969139182
0.13188724698538401 -0.067554346841780522 0.75270092029057967
0.098908717581409178 0.71085229698031327 0.64633800241223227
-0.49186863905726241 -0.40656455702246497 0.65520494282294806
0.38550366608966691 0.75726611940773303 -0.37170947972231083
0.16402022897985802 0.79507942482366012 0.55332350530879504
-0.4630511304601086 0.1080573841075001 -0.82215520045762247
0.42912007277135533 1.2227068625931494 -0.41386573260487491
0.82550314902100563 -0.39812428211155204 0.65093235932689764
0.048932711264913387 -0.29784423580770625 0.4901546553235967
0.35137564212980088 0.35422646644077282 0.23563788911702943
0.24181558073100184 0.037721353708381145 0.16883594895145659
0.31838737033877607 0.99649505761817725 -0.37875174501614817
-0.36379933675941434 -0.64918205865892809 -0.084876784698639796
-0.4941812469828335 0.023636291073119153 0.76431488864814234
-0.48916255509984019 -0.14872635269387402 0.78724661076420421
0.41994844169889411 -0.23408282706447103 -0.2377231572761227
0.053942702850875435 0.27798459765657579 0.7572286571593958
-0.58389654185563078 -0.14361707313904315 0.58123104456170882
0.57940283335833875 -0.30575704459127806 0.73276779086905819
0.16986471366445066 0.84617133880198026 0.0037766410877431156
-0.72130384186661711 -0.62104789510248715 -0.23736849091539636
-0.59386601080209545 -0.70209924325186712 -0.3310747113834287
0.73919636668202493 -0.40560715653682866 0.65309491482472115
-0.89793164867684805 -0.82685735196362486 -0.43495053675154782
-0.50572334294815313 -0.024340549846152193 0.76064912450027666
-0.80117854274465294 -0.84795309553558695 -0.42082799566839579
-0.72287480285654127 0.090088015894852269 0.61908472601663345
0.32555383214217226 1.1875904988524786 -0.41494780085246052
0.51017137691654835 0.97905546942199262 -0.43200889289437017
-0.87453453617867716 -0.91489047196993134 -0.51496636292662501
0.20161569821666703 0.62188041916664272 0.62278795772768047
-0.53275592127844895 -0.70224660772164604 -0.32880067203171848
-0.48884668291029243 -0.1686227907270812 0.78347294105881282
-0.11316006856292127 0.55323127441129571 0.73369871761574323
0.050119238124120891 -0.38577357565259174 0.2895793251594343
-0.24597759479081382 -0.4183235376169252 -0.57978672338499138
-0.72567897090559352 -0.13822885300450505 0.38998864445889936
-0.79018940354761913 -0.94178928643242443 -0.46133305973166561
-0.84181918800011868 -0.39311159700524101 0.085619875016284652
-0.20248728266213156 0.49697241028409156 0.75298810516574388
0.20966305642100291 0.40852841560044428 -0.51886528351419781
0.84229781898395029 -0.15734986358479741 0.43889345049648076
-0.44271964129731778 0.58412890115269978 0.6383120832813054
-0.018439485840711534 -0.069205932518826785 0.75782625804762294
-0.53250303872396199 -0.45165217931185264 0.62923453435759669
-0.50168169554095776 -0.09810771806465457 0.75823767155915345
-0.40128204426435232 -0.64395541708442661 -0.17089431188200077
-0.86503447143779066 0.15131276562551221 0.209093276130071
-0.040181063861789212 -0.3296738165365376 -0.57942053964112272
0.57309356225660579 -0.67749879780544653 0.61867690369804285
0.66931064612465807 -0.12571057696023313 0.6782224222487363
0.82661683279467013 -0.4709863927224136 0.56566958413389523
-0.071493065518597021 0.26415675174916586 0.76115949065659194
-0.048705466002679998 0.29846674724755218 0.77750626695285341
-0.21304307045874005 0.017844607503397114 0.75574064749020931
0.29130351169580671 -0.003007487918583962 0.7286903538320626
0.88013344766721247 -0.35845527323531279 0.49998539032692735
-0.92286338798520351 -0.86856117309774206 -0.51700694047546758
-0.79169967783629769 -0.58810996625296497 -0.25276380546423205
-0.42090836451143776 -0.37453547570371537 0.6807332446528136
0.309559796854467 0.069363339578298877 0.57783112342342635
0.34907735604951551 1.082417466375456 -0.41996709360103646
-0.11453142046556408 -0.42118898986433706 0.47002599185453953
0.33926302046776868 -0.52261357120844298 0.43433730800859616
0.41068382250643687 1.0349962415283906 -0.41378394886952385
0.27845733537588124 0.73608871466977988 0.02030277930397073
0.48523018641457938 0.61313870771340984 -0.20815875073494006
-0.51164020401315113 -0.82284647473668926 -0.33011133053489505
0.87205992697018964 -0.17889562655703006 0.44230345678046801
-0.78664464786397215 -0.44932103100907739 0.11580447005465988
0.71293350004585143 -0.29985985692562345 0.71965987681851828
0.10693929150294501 0.76117924153836647 0.63056583750697248
0.40449277883004164 -0.3097113473781814 0.73701212638695068
0.29400825150925236 0.16280417741462827 0.48883421160339058
0.17830347983651684 0.5101472079614835 0.6093289649358189
0.43359959798483683 1.0496536712759603 -0.43025618003050559
0.2380339658681061 0.79020044398591782 -0.21746361308247764
0.33703988066782031 0.71719749587552428 -0.26341371412787318
0.49765734887745161 0.49210049685672708 0.086990243801674971
-0.59177958285942101 -0.046560934437628099 0.74857266845292703
-0.57667756765176037 -0.0026000786058757441 0.75675160550894027
-0.5152049174054758 -0.19945159822917979 0.73998467486260822
-0.66599304360927825 -0.65141447976155042 -0.27207961337786557
0.89713955569371073 -0.3217587529815491 0.49337805454594097
-0.0058872557920093271 0.12990833241121358 0.75140655107201137
0.54657509783913838 0.75923480361658502 -0.33409469952111781
0.36754464179985291 0.87865887988335079 -0.34713423758353201
-0.18938515992252292 0.74862265065614064 0.65586202802146687
0.26755101264795389 0.94974979528128056 -0.35040677809735854
-0.89180328148574795 0.90372699942194057 0.17872834835810014
0.22651542944095304 0.83929751141798992 -0.2410253688937205
-0.56793189866214355 -0.15152648934009427 0.73953076181012278
0.23694066870339192 -0.026924055702524541 0.81198216124591616
-0.6904549838423204 -1.0692765558511903 -0.44941636470404056
0.29972818074778118 0.61902962244364446 0.48452884563389587
-0.086339720991364999 0.057333708246442683 0.7434971068551901
-0.63723426095096336 0.70432378861005418 -0.25649778140868573
-0.63106228617596472 -0.32216281568570881 -0.073419664919687655
0.23550073775995628 0.21939166241058228 0.53218869243730893
-0.57672819117362106 -0.68291522096706103 -0.3253439321478373
