# XYZ point cloud file
-0.45159489031988942 -0.70533915859245477 0.2825348219986048
-0.78640484609404049 -0.97895526207404648 -0.4318416857330285
-0.28476122444479923 -0.18320050439954078 0.065368605618336906
0.42989699771265233 -0.35763044138153455 0.70356871209107053
-0.63212570809956659 -0.20585026026920528 -0.51989479444668696
0.24685017500838402 -0.37715250411370438 0.37402467499464742
0.34516166497172307 -0.52073974826941405 0.44594597830030325
-0.15441006957107151 0.20418719629399001 0.74731937460846032
0.18330896497886684 0.75217961354223006 0.43405304826649238
-0.23326513795179205 -0.070174007313440229 0.75338701551393839
0.20172731783280851 0.67248652614913085 0.5563466097259866
-0.64062501126376326 0.0013179484991170387 -0.52523969931878933
-0.097537174292885664 0.16977657201596069 -0.70240747579906326
0.64723504443655155 -0.33012950071494529 0.63113336606294612
0.67316099059180567 -0.35793097171137717 0.61684876473671735
0.36266494807090366 -0.050459053791789527 0.43788017199045481
0.064053754177807232 0.45105566797307561 0.73135787973134958
0.11019326325007572 -0.23130519012736955 0.70295503714626051
0.6843825240653576 -0.4347266085713557 0.65318320684870268
-0.28308179160891722 0.45164500303204991 0.78307738876579025
0.56838591421045281 -0.37196865618444164 0.39078213033751541
-0.46808987788200551 0.05853652725504796 0.70368884906846563
0.17253900911636011 0.019572609468159752 -0.32507576602348331
0.1371295641323016 0.85484637175298284 0.01258664516083563
-0.52529633652208374 -0.085799286583845974 0.71165977177256856
-0.54032627849211123 -0.62486509886730357 -0.20139078308941638
-0.83286463106600972 -0.93600286284674983 -0.43265564146721402
0.078133836546034896 -0.13760844445463447 0.78172100547238643
0.39891730920032042 1.1449759401607711 -0.37694040741561419
-0.77470840521102602 -0.96443333454345415 -0.36355690824367892
-0.010891942731947601 0.43279112951290744 0.7663557437676991
0.051387974326653652 0.036083187435487482 0.7263469372345146
-0.35672879409808633 0.26443283680175617 0.69173476185707394
0.22496011230653945 -0.2998002254830196 0.2329099746962604
-0.62170396225246249 -0.85927663784761554 -0.26325613545129878
-0.31049341873779213 -0.020551613950039918 0.79759595607076972
0.5748130474293478 -0.43547167823621102 0.68588364572685045
-0.27267362401775475 -0.56504249930516404 -0.10495316594739013
-0.67227978931028898 -0.12047516500599473 0.60674407134643982
-0.27092183979272244 0.014420541341216064 -0.76138600722101724
0.62691982461996743 -0.43376310050994549 0.66803201605937468
0.11809564466833589 -0.17061824338534382 0.73240156348797081
0.60894209841711433 -0.53754808691249756 0.61268826105385332
0.30880334818290667 0.74336485438758215 -0.3060315424599469
-0.6715595877043683 -0.27764494332337009 0.62201168332577761
-0.62406101991890983 -0.18908617845321529 0.6727895013201024
0.23543976250761922 -0.027610281150153598 0.69574924572401131
0.45754016892539173 -0.16902272561409842 0.67404533328993543
0.2180542330748767 -0.089604533165801623 0.74623931870636806
-0.46210743843564073 0.041988741099763999 0.74028693531309608
-0.077248276712855724 -0.37695226242869373 -0.50613561242255578
0.18112437067933262 -0.00073773181985797853 0.72292212632825503
-0.66158078881515547 -0.35196821013612345 0.38595437331080396
0.033410347141765939 -0.10578849946501993 0.77208866913771002
-0.21427682369876688 0.43003314516107849 0.7635699282854802
0.69814467176333617 -0.50127729885028094 0.176026266421627
0.77395711526474198 -0.37875031435338852 0.616900579835157
-0.70775258195824176 -0.86254980065141562 -0.37288627092126903
0.15974715974121967 0.59108456504554807 -0.56995394092472274
0.62603124351701522 -0.42064668562089835 0.62624026752737105
0.10564837078326583 -0.10579101104666427 0.78353399798027579
0.081511782549734235 -0.1133930374682752 0.78541819810735958
-0.13721360678699357 0.22231467034653801 0.74343128287622595
0.62270685228376754 -0.54819394118795406 0.55807392105635878
-0.85178082783345621 -0.91423429604292883 -0.4910520372347924
-0.13013858929592059 0.3619158131022992 0.72639007255151822
-0.43983621359936942 -0.69064192076576925 -0.057274748788644914
0.19231993443752948 0.45175659891004144 -0.31911928972584347
0.18642586412764395 0.72040839058420425 0.55608529939626372
0.17542800277578241 0.41167207007254492 0.64597080434441279
0.30218391655275867 1.0987654732745249 -0.33534775275235051
0.39651925170038549 -0.18832530308309203 1.0138029631411862
0.70280892423232055 -0.37956927573909027 0.64317793086896824
0.11627613532410974 0.5224240235979859 0.6094947346086812
-0.31167083297164222 0.069461413872884625 0.76263497024938154
-0.35705823585647134 -0.5357565301711199 -0.36969559588069134
-0.025605366020246656 0.39086814500908373 0.77717290866998101
0.38724826495102405 1.0164816141666406 -0.40676009289270887
0.59779473268920835 -0.47757181498918622 0.43522066299527107
0.23722302128629247 0.68943836147154203 -0.19352525050393532
-0.36296106677001916 -0.15442458529973266 -0.57210359281268719
0.3244471353829419 -0.53866188938177495 0.5962264796740262
0.28048818584828394 0.63350174955501037 -0.26755377724667739
-0.69148361055964558 -0.31679904923431501 -0.27452599414365486
-0.60432702477654554 -0.47866763596589323 0.21630885891055285
-0.55522827863279312 -0.65268394671306929 -0.3399107410862332
-0.13532500484351262 0.40332092145357112 0.73696687092767399
0.14867642568231254 0.83875278564378175 0.11486813558844244
-0.24535857780185921 -0.21679207614010998 0.63989327958829234
-0.70818824062851982 -0.14074140836911397 0.014390713311755343
0.44366743908222395 0.98849228294646274 -0.43111130723556768
0.35294491756968371 1.2051316703807575 -0.38999960791038735
-0.3921896445777513 -0.66636340478827993 -0.12892277347310799
-0.29507162046360724 0.19933694682782332 0.78229358447331321
0.013854548752085805 1.0341127644920296 -0.09088685857304557
0.28638751925304229 0.84385165132679907 -0.31690924590903369
-0.55567862180079541 -0.57636546095901009 -0.085959536432499428
-0.55562315639058557 -0.24238003302227362 0.6677186566859119
-0.14227043500657466 1.5694051957792541 -1.0184132660097869
0.11347705301446886 -0.37524946251063496 0.36263637027028994
-0.6827719800152523 -0.35178428066582834 0.48957701178008994
0.29411674315371261 0.91004813321956324 -0.33692280062392133
0.22248797241033058 0.37012022165919078 -0.32476017705872162
0.19268972259833239 0.41511047439831117 0.62892105587811731
-0.50050271049421768 -0.60850140592127622 -0.06822845989379922
-0.48980737419208431 -0.6636267062166844 -0.1262786712984707
-0.7711877200053987 -0.62134758717817928 -0.39148565304667438
0.25047103856567166 0.023792276576383067 0.48097438663279934
0.20537049677039043 0.92386014515527615 -0.2123218065082304
0.28556282353658391 0.66121724362073953 -0.28937422216390485
-0.40991929228243595 -0.07406498550475589 -0.02394428123288983
0.61226639639576641 -0.43662561902772057 0.67584833167788516
0.24568643553002056 -0.35365720935967487 0.35168730763667577
0.29250898563105121 0.31689957718396033 0.42636133554865485
-0.56883038871113634 -0.059983659125386557 0.57793500933613751
-0.36582531891371417 0.011175230627155211 0.80673293551674852
0.68697951588605344 -0.3893599446670245 0.62787344921094812
-0.54364446098057839 -0.1565265708889893 0.68709535780176889
0.46772307222697029 0.88028946812131426 -0.40818841785328575
-0.15774428278167019 0.47653810533951729 0.73478158872264165
0.3403409551629637 0.64795011839006011 -0.29085539750778389
0.076759489433625205 0.21072676247713845 0.70170343006160141
-0.43754817510849087 -0.72289218881183315 -0.081414377771609425
-0.064705229908315509 0.52702866257842973 0.72171403927480271
0.16975863049161033 0.69109089269872914 -0.39834849144532414
0.67025480767373935 -0.40206740693903248 0.62293469767446252
-0.29025415259781662 0.32224899225400661 0.66321755126817705
-0.34546423727982578 0.20172370417972463 0.78714987167844286
-0.52448030425245729 -0.63124095082036802 -0.17846672034383215
-0.49659877914557149 0.14424887628276908 0.75176319284223925
0.35683952251230666 0.636132488645616 -0.28084800497464779
-0.32898466125998249 0.072659003375380921 0.760674625793748
-0.17776023448907385 0.20242145745229825 -0.7559353005449545
0.46005953359249196 0.9612546923403722 -0.42737355456420056
0.024183772848527685 0.65209519787651105 0.67381401931593499
-0.33660446884833028 0.26152050772791224 0.66310847051719435
-0.12989805317847836 0.44595828892830885 0.73552572126117188
-0.47366043298051852 0.06096187824336681 0.7419717722807615
0.13780926038879571 -0.37227985837830435 0.34098660734571995
0.60399838579967779 -0.42765393568909044 0.63102044462787976
0.10827896573675089 0.51014479663669043 0.63241095707837003
-0.34991377138364177 -0.16451401539375682 0.75910974792294139
-0.18987080976972504 0.24380197890390548 0.34525427387278151
-0.5985751183606236 -0.83309284164093289 -0.23036466010808732
0.17982953369101029 -0.0063428487509527842 0.75831318258833935
0.26260625822561767 0.46349160712956888 0.56298307818216897
-0.31882850193285694 0.5364977840359153 0.50152768791338564
-0.82322839103632628 -0.80422949096744312 -0.44469387656511739
-0.78340232360308204 -0.87952527035622441 -0.45225826002445668
-0.13180048146819834 0.14774320239139691 0.73638493828128038
-0.78241211624503126 -0.86119285636625698 -0.5156025388559129
0.20704655270278716 1.0331123335417538 -0.30575741348683461
0.23262691789750534 0.90821039465009368 -0.2369790403993961
-0.62624956506055085 -0.85418700915517642 -0.28512144427179642
0.47138601894336674 -0.41550001579982931 0.38798445538447446
-0.56780806445468013 -0.59227029726609748 -0.17760218226036417
0.4041681236306971 -0.49537947935113369 0.42874937781763367
0.65819398675445617 -0.31122032193257504 0.66459970109831845
0.39963475707956331 0.67371888378458844 -0.30686851469683107
-0.58607687235420536 -0.38875159481607585 -0.50241298304350313
0.077944049392400849 0.21446174711502416 -0.19378998213499066
-0.30083632185509224 0.084616717355427792 0.76023570841866861
-0.17409777346190314 -0.36500648563929927 -0.59171861801212988
-0.24591711919168535 0.53677998070912247 0.7790787736415441
0.57660888275893152 -0.56788903787668865 0.53872751169195343
0.67020415864092264 -0.38910209889320724 0.41045079469194734
0.055033816941730596 0.18997587398384697 0.63616546123207596
0.00071526668029386897 0.50094966521986251 0.71787913800393532
-0.27502171327133373 0.060385752020932396 0.75899490087723853
0.097747820010355646 -0.28207590174703123 0.67076099578128456
0.46611749183168327 0.92406257932965818 -0.39643937584559663
-0.52047924890035824 -0.059237204647880848 0.72610741115668231
-0.35897600979872069 -0.21607031528121654 0.72895781839989016
-0.38500678570400515 0.11107511042793686 0.75964063207912913
0.20754449069253766 -0.12551804434947345 0.73849872232286184
-0.54179554081937731 -0.206404956924233 0.68384302353520421
-0.55449709488112275 -0.097844779920754452 0.62872758172494758
-0.50966766561270904 -0.72291846306457075 -0.14163666598459934
0.65571539931328493 -0.38006898062945038 0.61488458044975802
-0.46598841459211005 -0.10292819070159968 0.77550117114718509
-0.73031457048995896 -0.80363900097219076 -0.38414789628820678
-0.46669478487753113 -0.59099223732057671 0.090852242004447525
0.10690700048444901 0.35235887486716694 0.71574056771918593
-0.1741518850104542 1.2828672112208217 0.52950952071997293
-0.041068391774653712 -0.4475165294197751 0.13135081988141839
0.079305059693065338 0.64741831999807131 0.64142513770985632
0.052724045123242913 0.87785065824257502 0.19235323248748082
0.26313594703197962 -0.43391797606669341 0.41593178517996199
0.25020256487348336 0.87495081934056484 -0.2710640757862719
-0.62864363862220851 -0.75404064166079088 -0.29599890724583533
0.21482940798622074 -0.15601107911604983 0.71590663452747916
0.69606562336276845 -0.26964497479575589 0.63391631870176068
0.25526866791328917 0.63900488587798765 0.34188572355572178
0.24500975610194553 0.65053318864952869 -0.18994935529128809
-0.50645254990342026 -0.71448623990777682 -0.15271168842328997
-0.47863726075548563 0.31053700847845567 0.7087857752590796
0.2278144778702611 0.049824371512667331 0.48267107378851937
0.28244173924665228 0.61232118139786818 0.10133214063610363
0.25019103478985061 0.73035570214935897 -0.25827131158689176
0.65709924418758003 -0.43889365071672881 0.66284551250446833
0.023101619550420782 0.8817523646539831 0.19361914174721484
0.64001102498229834 -0.31713852533254261 0.66134389831930585
-0.50219321439423092 -0.48239451536560052 -0.54764549875500768
-0.56832792436608437 0.5733942420685787 -0.31269898411493924
0.25283249014696185 0.20417741207844686 -0.06806467689031237
-0.69050652655177691 -0.11035967323685476 0.07848592224782891
-0.5462287113579114 -0.6839015423340935 -0.22572735839059765
-0.6669279687479055 -0.89519500635096205 -0.2861585470338015
0.62969666340933417 -0.15806336821729389 0.56892219890722018
0.15478567579758673 0.11570324970407933 -0.38747866252155094
-0.77674132397449802 -0.91335886807709477 -0.36923064936730876
-0.14854083362147064 0.50878483023279031 0.65404914567326444
-0.37618139755470636 0.071754434242873422 0.74674818588608916
0.56538937326115368 -0.57125145448572423 0.58207009797237252
0.09782202412785157 -0.0082164435811911685 0.71961383547146407
-0.37968289110926889 -0.42276187766499285 -0.57526197688520475
0.1178716468885046 -0.30031560895536535 0.67199895593351933
-0.13182996236705247 -0.23368528042087014 0.66008618931813468
-0.33051426000493023 1.4230456838120515 -0.3209319180423893
-0.30260676383204066 0.64458123064680761 0.67951053012125251
0.46320194991720154 0.73625967072688159 -0.31436023908558597
-0.71160143569069256 -0.049278968528170319 -0.14019334057154342
-0.72578302827706587 -0.64391397965423536 -0.3800044746357969
-0.016802650718337642 0.22795196124439182 0.73227555415773304
-0.32099028286052622 0.51804561008794692 0.71975686296246533
-0.55615430557274004 -0.78979435785988117 -0.13392207440647552
-0.12898472057098487 0.28384505746228261 -0.72750519781831047
0.022903861164220718 0.52415432799852935 0.68500385851789836
0.2453661115515593 -0.074144778984945092 0.70979496854425883
-0.15276822978445637 0.26765592749503192 0.74776216138358165
-0.29816763906330745 0.43095759580950793 0.6640942263919587
-0.43858287192226508 0.075349966658509501 0.7507059032269281
-0.51178766965652378 -0.18371268401927046 0.95732894581713412
0.56130042861506624 -0.425797609510838 0.63969574221087955
0.15679529908082079 0.25016251500745801 0.60634521402636898
0.012132785022935355 -0.30348785533671041 0.53130813361597951
-0.66309636247328418 -0.27087862007398178 0.32682499926548725
0.1074340602408963 0.78824570650214099 0.5152178938453571
-0.096917998012699513 -0.16587258163581392 0.6927473047641699
-0.31796848331312155 0.27096834907909018 0.69105379519201704
-0.24541624864194911 -0.45813137179743396 -0.53868905968337422
-0.67695804307315055 -0.63507798368678403 -0.3262794404150926
-0.093383700265904146 0.31739888985974879 0.7388348529095794
-0.081633750062979793 0.35313272322831857 -0.69016494614846691
-0.54588836664110474 -0.233713294939741 0.6746805224330239
-0.017126986090373553 1.0299296202288375 -0.039537181485695294
0.27379072182165043 0.62105595323611629 -0.2462546570505133
-0.67032509078565572 0.40488668072118633 -0.097123754078398461
0.21381842324410538 -0.030333251298158018 0.75664711783702954
0.30490384133744497 -0.13111324994225626 0.69927097746265043
0.60494459406722889 -0.28788562378452409 0.67385847918290032
0.27933663859706614 0.010755467966134469 0.16291626115384661
0.082842182805912046 -0.05269197730051621 0.72678917430788048
0.15585603662346958 0.6334495539893803 0.60398241618367332
-0.52285365767384984 -0.26379031039562345 0.67282169972457528
0.3243984998117182 0.64475471098934478 -0.34368866114093377
0.22068034750388454 0.70372831999751007 0.51137119707839362
-0.34808310144856525 0.2350065212541827 -0.78213649658304374
0.4604946355180437 1.1098393820673609 -0.38921620268824109
0.76945224088301112 -0.40636917262837829 0.6100640519331606
-0.05482235983730499 -0.26110285629447827 0.52573405672049756
0.28373159241736312 0.24584447613553675 0.22555943228283049
0.13712205285632306 -0.046330635950443816 0.1994125210561104
0.32429263231597671 0.92313807218478328 -0.35074608789299799
-0.46637969845137173 -0.61601942785043096 0.0024059504368012519
-0.43309988531845334 0.11574745304971015 0.75087677438656852
-0.46670041035198584 -0.035116121765425848 0.78167233925281554
0.22056434289773774 -0.42014126713664768 -0.12867853238909399
0.058925915775141835 0.24952859217422851 0.71750911731900691
-0.52422195877029543 -0.029202295825157876 0.56928672800363134
0.52126832853402671 -0.28813148484166529 0.68772904444270155
0.2048108238380677 0.79259127378453731 0.0060306132191929596
-0.67070311473371436 -0.55810559683940075 -0.24292028853003944
-0.60923548363909452 -0.68178223171963848 -0.28878295643459007
0.67537382303196214 -0.39496772059822349 0.62146623554708502
-0.80444681466174384 -0.76664564702152715 -0.47205220031888806
-0.45132920127930398 0.074572847232756673 0.74848099106527055
-0.75875730191073676 -0.80416770257373948 -0.42092769027033605
-0.56624039325975972 0.22481405907230095 0.58140201727913099
0.37373082126425072 1.1107651235615357 -0.3843320122097067
0.46061921060840105 0.84171769761157678 -0.40980407760479309
-0.80861591971160518 -0.87508367361018147 -0.52906002639695404
0.2309656996530749 0.53460180603623775 0.57183500348094052
-0.57298558024609858 -0.69237789181235254 -0.26937731415588684
-0.47065528031219417 -0.052392831966886613 0.77920093476380026
-0.043876201503065815 0.52648272187756207 0.70542869790413842
-0.084455365436192587 -0.36694357615229212 0.35908319154106771
-0.31670739340694976 -0.51228887891617547 -0.48684683299276998
-0.60380086855483928 -0.0023209852424237315 0.35407991343327971
-0.77667628671947297 -0.90266688303144704 -0.44012280599270803
-0.71059741664030951 -0.25482272756740676 0.029553498852724402
-0.12482260457005179 0.49196920227099761 0.72991407449323753
0.12813819107439395 0.30612249178019957 -0.45887687683016432
0.73603495984482725 -0.28003132864172764 0.41111876344989828
-0.28566429969512841 0.63703971981616092 0.62582192590485253
-0.058502944184266159 -0.034873069023217337 0.74321245708522277
-0.56310102481579216 -0.29931798916959917 0.64759519214348482
-0.46394160287121755 0.0084499580991798245 0.74977325468332245
-0.48628920720619528 -0.62562875474163271 -0.090368807780432547
-0.61252010951430846 0.35251289392510565 0.14123714342769866
-0.16281780311343397 -0.47643603795655776 -0.46479872430337088
0.48028754184453382 -0.54433057435808718 0.64734086697290216
0.61135275953147072 -0.179859285232637 0.61605258567017107
0.75012242019422759 -0.4721431767167294 0.5546635313345849
-0.053261804767691157 0.25771485412875422 0.73227709232166638
-0.027706442355643457 0.28439203935166779 0.74435155244222884
-0.21450422085265242 0.06440641017132509 0.74543861496429442
0.24341839605388271 -0.023802972768291561 0.68601215933264048
0.78974722798203434 -0.42200022420317862 0.48290239009590397
-0.82058642070705812 -0.81886261408355265 -0.55650012729567333
-0.70077167753822955 -0.50851163718800596 -0.28271590382193801
-0.46162079735658401 -0.24230267536429856 0.70018713607282645
0.24894456473806903 0.018447275123306114 0.55036651349279886
0.36464528832165821 1.0017388026188272 -0.38991655752394871
-0.22287233418716834 -0.34367181342851089 0.52229772300831745
0.19223943871693283 -0.46286545380321553 0.49766713287934339
0.39945953648929655 0.93305230389288618 -0.38761702313612556
0.26808702585017707 0.65002706481328887 0.017031568242590112
0.38843693785666877 0.45366517084768343 -0.19664480525863226
-0.59145269457601168 -0.80436842775475714 -0.24376049149314749
0.76721634099788005 -0.30234665849287556 0.41359482889966537
-0.6949902634450722 -0.32396231349851978 0.078821716159327204
0.66347369711618498 -0.30662851922785628 0.66268787144921437
0.16963248869229197 0.67847738465976304 0.58874206411629415
0.33326224668643967 -0.26757342489622582 0.70981455466256227
0.23529280993754575 0.094912497500142787 0.46706288964546006
0.19319243973206968 0.43732745861978817 0.56465931874870257
0.41906834263803927 0.94095538528005629 -0.40380923601458174
0.23105739417398841 0.72680472159740017 -0.1979055315051832
0.28774997765748411 0.61678823815138728 -0.24219071121942215
0.41100465455393698 0.33889315494105593 0.07368656389775774
-0.51692328478995031 0.069202320526694602 0.73091572862488485
-0.49727990532737709 0.1066836032562283 0.73879254779792891
-0.49542288647541177 -0.078709895859230342 0.73682616780079435
-0.64355769096059068 -0.60650999838167241 -0.25782233297750956
0.80580139997659961 -0.40154416305852514 0.47084687536128977
-0.01693703649788425 0.12980204773498963 0.72416669205999096
0.45132863799084211 0.58998082996184009 -0.32040736162466787
0.33687775506559081 0.78237434727592892 -0.32339786952628691
-0.073396269383325219 0.72831971529331763 0.63948486581542463
0.27829986330698331 0.89065521578887286 -0.3222430143389583
-0.47679259123828599 1.1646150223351077 0.13273617633525814
0.23109181951863089 0.78329004408466774 -0.21976937710162492
-0.52290113840407537 -0.029117762842070447 0.72904102448464014
0.19810561883506583 -0.027455807872049265 0.76358460635986636
-0.76248491249477168 -1.0136783502550064 -0.36350222062636428
0.30585581586741251 0.51796928748134385 0.43723811149012604
-0.099919159390484236 0.078903240644136716 0.72643163037246317
-0.35536576193231295 0.94327734131117991 -0.26123954806888849
-0.56075035198027168 -0.23988787668292491 -0.081158990447358859
0.19495939445151489 0.15928615565550747 0.5052670538691415
-0.59472831286765326 -0.66506214647484418 -0.28105555207786814
0.54545302910619853 -0.40852580251487924 0.6843974317688577
0.34122867354375819 0.93682831599490557 -0.3577563100779233
-0.61335050764984422 0.13914524683441648 0.59884736263609661
0.40606229329296273 -0.5980417852607427 0.49898347549909938
-0.094320977714633436 0.55178489744951342 0.65757547965322494
-0.6623851778714942 -0.21685591852372749 0.42151291478050257
0.012603519538014307 -0.12477516163791595 0.74198290422310564
-0.12803950134409181 0.095120330571231884 0.63928382142157081
0.69702305032499767 -0.42716216119565298 0.64981069708500816
0.1808101613342159 -0.001045712707922572 0.71193644685351409
0.58825031400672678 -0.42318207173170308 0.6304709338562744
-0.12620087489397269 0.48903307355743125 0.69333332529956881
0.66940728104371416 -0.13010670668691129 0.531135065926855
0.21221412328321465 0.68974643369841426 0.53492464075292845
0.2707682570076857 0.32672372891419732 0.57095752911748598
0.083018567893196504 1.0434128426467999 -0.50288302634870141
0.42642926714128304 -0.57603142924524997 0.61385047166956497
-0.53589599623096751 0.62560510568486294 -0.0018345866813540557
-0.34762509358796123 0.069761784018482265 0.75222812231816794
-0.67661860324746592 -0.73957324001603819 -0.34016787955458883
0.56472034508542945 -0.46390499617257541 0.6792237103954446
-0.23281032835460858 -0.2743382168671557 0.66626516823492521
-0.66546431910425152 -0.63320069760714004 -0.31343555209584961
-0.077664837327913627 -0.28020876364388297 0.51019858503103355
0.82316260208395819 -0.30487260722795428 0.45614958575852693
-0.51347551162009641 -0.78549902355545154 -0.089649203224500651
-0.30352813851683802 0.17460138094433175 0.7760265061740792
0.035451492168867116 0.47308587244079736 0.73515255010083735
0.20353950719633396 0.42107751033340973 0.6183513376733234
-0.27420680522941776 0.79834186122508477 0.26417522222668066
-0.042000130472761299 0.30456628020003484 0.75488893502463994
1.6645071149401502e-05 0.56055730142412719 0.68916988955032044
-0.17690029167326382 -1.6710443534231607 -0.86981471263175092
-0.40554213327257038 0.22942586694966743 0.59945695566593749
-0.41723528359309991 0.27228148107087652 0.65908859881500637
-0.32546470973197961 -0.026128819066881512 0.80913570380730726
0.61975216165370917 -0.45804067161764783 0.4294719999372143
-0.63235525821973826 -0.66279912330314938 -0.30102643111066607
0.26670677901571649 0.66143628616454875 -0.28603458126009573
0.21036031385769993 -0.10429901379536315 0.74802105104909233
-0.36294215892065163 0.75665271093089703 -1.1980478686752729
0.43540438798725023 0.769642443197324 -0.37952584375524889
0.22322602400009872 -0.092919409470481315 0.74053107076062497
0.17177280168206721 -0.045855148311578386 0.77142036347346954
0.10004241470713326 -0.087714409477345698 0.78213608211605035
0.080119229587458207 0.58195374630144658 0.64575200254849019
-0.6019159542622865 -0.8476029830647327 -0.18429593399286626
0.34763405941498204 0.56934970994295198 -0.24640350041518766
-0.21934577898003571 -0.18169406246083758 0.64481056564211547
0.097931788695255761 -0.16456084304069885 0.74388528801964537
0.36634892673772335 -0.093840382528480926 0.25764992936127595
-0.66091651116336814 -0.95057599688253425 -0.28988757853166192
0.14415652346459984 0.89737530932067178 -0.084432109874876149
0.031683485817493917 0.25477732594030744 0.71879137527398251
0.33404427197214526 1.0034827498581478 -0.45098134035638826
-0.51084196066206777 -0.26803809114398186 0.48568010318440025
0.27893693911200712 0.26506369858721246 0.35445313211222507
0.28269486229217478 0.0059019445616403654 0.22395233822901917
0.4495528315691546 0.99876751337114267 -0.42141158167011938
0.2595712142164448 -0.16875495638222912 0.096450157443475293
0.17237640853524416 -0.24505565956623762 0.71036532398878438
0.20474341407281216 0.056743364308689703 -0.24435157570612032
-0.10619942620224565 0.34064745117570638 0.73912189308719545
-0.77189607997358678 -0.81739542674472765 -0.44116554013148601
0.29774801624963665 0.36580268639702684 0.4145130900505487
0.039773501690585356 0.32931391427136847 0.76700682381025342
-0.092932807457696054 0.56888896291851976 0.71075213781473612
-0.19347962841934052 -0.54465390995527052 -0.21316535531385328
-0.21562454316087143 0.54091277136117444 0.76393766148586151
-0.52556890288924141 -0.71739068043858589 -0.18948468280238506
0.29195228495503001 0.54763735216543752 -0.181958638345457
-0.35740778065790435 0.03192789543127364 0.7796535913072522
-0.70851763308313909 -0.58363565263520145 -0.29897808264287717
-0.70341430269167682 -0.96923290170971699 -0.32333117865727656
0.46371439575540707 -0.47037806273395744 0.41271599125006819
0.67562591728159438 -0.31898101749674779 0.66059805756021439
0.17755719770891298 0.39680922662901513 -0.39645904490945982
0.098179688774607587 -0.058354720028700791 0.73441480498703449
-0.26890505527773234 0.66293517307109417 0.62168546076978437
0.22339969877761501 1.0697845410683939 -0.32480736104908314
-0.22847104912463045 -0.032177626684141855 0.75505423478485945
0.68731080724521743 -0.44284141212028294 0.6481614901445707
-0.50339142879428644 -0.21691594172370918 0.6593139621713191
-0.43254186609866663 -0.17655134813265966 0.74419739531193585
0.092675679014463608 0.78839488026884563 0.32880786045121324
0.61332366307388941 -0.29553181375118664 0.38518558516172163
0.38871939156156543 0.52022698547289359 -0.28920103181048473
-0.081801330442750508 0.51727455161074654 0.72506658505364663
0.2212846053177655 0.29419639876500903 -0.28338134900674272
0.17894476126662617 0.9037745476845257 -0.23053888358375452
0.1533543473843153 0.43880442072044401 0.64690465283713205
0.1766203247188467 -0.07777894755211201 0.76860901754111643
0.33366562950511813 0.59483702342599143 -0.27339063517849227
0.08657461426480495 0.76494873213547709 0.60583398677129807
-0.81064749577504935 -0.81647963516616506 -0.4529026267205134
-0.43295884638604965 -0.52978086649871137 0.23465701327190724
-0.51474546554188749 -0.25382538024946022 0.67997572233750314
0.11252795107616365 -0.3777507032165226 0.25224470773177399
0.4242531998645398 0.73463424010003298 -0.35865857992229877
0.39336023434598655 -0.21945226155678421 0.69843667768874718
0.22365709696543901 0.69578273340307883 0.31182853300627245
0.15292437335409081 0.31019920320767669 0.6751129096376538
0.3199656814219638 1.1830094495750667 -0.36080418154846128
-0.41607319471497384 0.072520711690710088 0.73357890298192774
0.065123596916927262 -0.31436864216708527 0.61923112703177408
-0.50247398701922497 -0.41587221050254308 0.56654319843291523
0.17752531510013991 0.51283993966975994 0.61507769990326433
-0.081965859007056441 0.3743722317403782 0.77051696630574451
-0.31225362950310798 -0.38539180212330082 0.53534752664710594
0.016328227061086498 -0.29801397075437308 0.081268805521798937
-0.43541597520887643 -1.1245236024806953 -0.10774249474816933
0.077500629413790101 0.4194934427568689 0.7369453958507064
-0.44043204269373781 0.081603504048722367 0.75141429617310607
-0.47300985821883113 -0.21839051518712399 0.68631255109825595
-0.73929522764025379 -0.58650634408172242 -0.33676310598219716
0.14981017566781452 0.0045264746320055754 0.7516472620593595
0.37507213137122708 0.88716755815768822 -0.36604117084141308
-0.51115188057173411 -0.70391498142356634 -0.16699474589651486
0.30101569989440735 -0.08545164981481651 0.13131365547567686
0.1868880187832973 0.013597538285844188 0.70140108254557121
-0.098792375375580832 -0.58718041977825119 -0.49887099706912696
-0.25989127577577964 0.078567065267128616 0.67282055356030668
-0.58704425854256548 -0.71230268305451738 -0.27328069372135322
0.69752089459381716 -0.48370625153479641 0.61168408286445142
0.60575618200281012 -0.26437973434112383 0.66642347783909694
-0.0025559399399481819 0.54552744977828449 0.67320966145806138
0.11298282407954785 -0.15852554141670955 0.75550575465071379
-0.025638028937773116 0.55918493445718565 -0.62405649523240614
-0.67036002772512004 -0.82409642309558606 -0.3360709174141705
-0.64719955470621682 -0.52934466437788052 -0.20789193559262631
0.34709942956564177 1.0304475778820417 -0.40153458689892574
-0.57747269843549298 0.56790717537738744 -0.213050564221553
-0.59106199914557767 -0.57003052351443562 -0.16838695214285915
-0.014393072351194025 -0.32178916936462038 -0.076856805611036805
-0.60935325300163812 0.19951986678558142 0.66304824564333575
0.66457527459827404 -0.36662969207247964 0.61199391905973011
-0.1697471768783072 0.21010625905632557 0.97563410407205131
0.12423030980330751 -0.82081559840193785 0.16857247666587138
-0.58381421202476469 -0.033184097315853617 0.71626683396435964
-0.1602013986993196 0.99939608878692321 0.050911157282987007
0.26321919628562984 0.63162512439280338 -0.26650049389648034
0.29422295313186009 1.0493044202711304 -0.33962455823544757
0.20041810746677013 0.78571345125729009 -0.4084026760726216
0.22601002107587043 0.074524369495794635 0.48982245705773342
0.090536225218734501 0.56738867802459692 0.64290938707429146
-0.26501122876012628 0.33383370421518926 0.77928514212358801
-0.66120471580491191 -0.22197637364451855 0.6569908868877774
-0.025779311790630866 0.14296058318713759 -0.63909745889585823
0.32140776159433582 0.73950354034543186 -0.30841596842926089
0.33532800208836155 0.75831997240271554 -0.31657938837562094
-0.028408667687854994 0.57103971008426369 0.69242240985689607
0.33807500754773034 0.80626157028944812 -0.33007998584234266
0.019191345359555356 -0.25979124092376787 0.61709378147586458
-0.40621781408845536 -0.64337788481841907 -0.26693917313237603
-0.11299673479038086 0.17495692983202921 -0.95036802012485055
0.252085445061077 -0.32846581769317557 0.33160226375759416
0.33686577350080649 0.57038974602614112 -0.25935469713610493
0.23174011231887182 -0.10139787287847338 -0.086314234243813237
-0.58382067103471558 -0.25978690340157912 0.65504678808258254
0.10370454762764814 0.83402284219328937 -0.41891559629491737
-0.62199150640131995 -0.23266401977944073 0.65742441970775722
-0.45388240120126278 -0.61206015979009876 0.029262302415771435
-0.028858401725833982 0.039533491233342669 0.54620253956774678
-0.48837773747941959 0.089720739029088628 0.73582720429907478
0.58285531306013816 0.022476269951383715 -0.021298499469712961
-0.48129853421343705 -0.23461303077195428 0.6950305897690392
-0.71282877734769712 -0.17627646274358294 -0.24184760380045622
0.25204451644299519 0.82814825739156994 -0.27451122352463941
-0.4485294344162527 -0.0049477120313612677 0.78884775360987081
-0.63411246462405257 -0.13721776386579265 0.39950379176062856
0.19286871510209069 0.29441774126457609 0.64208125981910591
0.21632877788631033 0.43133611580757025 0.60721588910119806
-0.16460450444482388 0.24907229229891784 -0.90592902126029728
0.31227205982202788 0.36015808238552482 0.49281933619700258
-0.26049974125713904 -0.12208865240270825 0.75121605666082414
-0.46827782315070565 0.26722786065685722 0.77583086358189823
-0.49663808097691975 -0.8070751571714021 -0.14113381013844339
0.83421000368135267 -0.32668597967112284 0.55608203654584876
1.0018985427457516 -0.6215041070866032 0.29945803399975723
-0.037152739440455829 0.31204656208659054 0.76793620167046872
-0.64230246874845665 -0.010620313979790963 0.65895005997105516
0.30355624241186741 -0.47299208095790019 0.65015138874900447
-0.2241230488989312 0.6713936312025518 0.59405556965338202
-0.26458551156459365 -0.0920830689240274 0.75714319541272479
0.64065980977393 -0.51285954591185245 0.62179310578770997
0.018279596611618931 0.55275108093726322 0.66614035162844676
-0.5653698950716568 -0.34544524255516268 0.62052749918315642
-0.48049267240424332 0.026001191358841949 0.71737541399474325
-0.38111173836466117 -0.25258427608115308 0.70380474316096686
-0.667846070516668 -0.60394260645230946 -0.27678873333852727
-0.24988487214863397 0.30130785306556285 0.78364886001879275
-0.56032434678863141 -0.088340838518938758 0.69707322539749517
0.035023514290172475 0.29595570824734813 0.75034885736864432
0.011934071064867879 0.3405009604350635 0.50899055872756938
0.67041031763378633 -0.38194680782212997 0.61505701821987691
-0.54347085026706976 0.1112150594905153 0.74647140992173866
-0.39753398976677135 0.10389118396753365 0.22036279598902175
0.18909116536006065 0.96379907029663059 -0.2497603944478608
0.57394803164288843 -0.36391343436368695 0.68305694639352565
-0.45383467149062562 0.081431637439715543 0.74772805669716469
0.34349895546103237 -0.18281441237831975 0.32638940655547821
-0.044869650612949563 0.13444545136767799 0.72329547183699439
-0.16926148577281053 -0.029544776296073938 0.74490313101217165
-0.67704190915099294 -0.42602672110476197 -0.067321005076772522
-0.80551756430150245 -0.80379801526753547 -0.47753644197176626
-0.39215073277498202 -0.025048066142647166 0.8099174395256763
-0.71518782744743659 -0.10884443221770172 -0.19515464212001254
0.22509149897668612 0.068697391737861643 0.49759184657944422
-0.65887981126170536 -0.068769031551090293 0.61842814073366914
0.23316675193978087 1.0008261019868545 -0.25237155932738675
-0.24353077850017124 -0.33540643332744269 0.27134659549090956
-0.58850259610209643 -0.40982401899823129 0.54698185545762867
-0.70858129532592606 -0.55978017443711314 -0.4273924571124208
0.04802522707581236 -0.18567223262700894 0.71324786432448928
-0.25635580924511769 -0.030379202033353384 0.74817811394070954
-0.23783080228970777 0.78131134553194326 -0.090110181291782609
0.31290347495796755 -0.089076726736374484 0.33065727253377042
0.068623047672603743 0.01538531938403985 0.72337902293729606
-0.68394038557123826 -0.17035814710021285 0.56652579367931755
0.032314090294241815 -0.1409091506308208 0.73669893842619549
-0.068673440694287269 0.46943532009361832 0.73982318451680396
0.29683539337666609 0.56431123606747968 0.046584748311372381
0.10924549972753361 0.43572309613868687 0.6899109238824439
-0.40633191950191017 -0.6626958656817864 -0.06273330491569773
0.21130843302572977 0.8918016371652514 -0.21007183725868939
-0.30718726854396561 -0.53983475687251725 -0.14554307700069957
-0.35996246189310499 0.30822894355558028 0.56621949286940709
0.60922434924997892 -0.13892220866133675 0.51280371498745869
-0.36340009593155598 -0.56479237876168042 0.10683909082449428
-0.25374663498508632 0.60967829644192606 0.59248600092630443
-0.23658848988995107 0.56019343255691845 0.7752766866225882
-0.3251298734042094 0.052290411624233035 0.74652424191362443
-0.16976532079539686 0.48330440046743361 0.73649920264567803
0.66468891105700889 -0.42732581309316497 0.65684953494377796
0.24216956905304121 0.2660943046221137 -0.21524539569190004
0.39597214567276184 -0.045964915283274482 0.59051804083048176
-0.18908170033809757 0.24072830002185863 0.76038544829662635
0.3064609040739148 -0.37779776574877055 0.37608448355249213
-0.18723316281380509 0.57216141419278588 0.75387558430895441
-0.2661287375367789 -0.11956094184086562 0.75486071060337023
-0.60685215536641079 0.011971074784685176 -0.5747054315429394
0.33123799583995028 -0.36223886336730449 0.36853438650978321
-0.53235374723222506 -0.089666293972049393 0.67848330783263155
-0.24832127586115549 1.0472291019120061 -0.23207356772058652
-0.6130103855090856 -0.61955181446203789 -0.37162416679053711
-0.69610568209796697 -0.91410390033283939 -0.34303474958100022
0.10998440436148904 -0.06057756178044027 0.76777461056026297
-0.46697248642916556 0.77620102297521465 -0.29889282503477732
0.27318844001023024 0.22200643509841983 0.54325343750786459
-0.79763137314603583 -0.79674296535114864 -0.54590450359876885
-0.0020878868162754749 0.24305552107039602 0.72882352114782023
-0.074688287875172676 0.25128415159076312 0.71072792953294606
-0.47722975500253462 0.067957168578787391 0.73921486433026318
-0.37073347529348655 -0.63814701096309012 -0.14156139991757
0.1014654916978408 -0.057301662230158507 0.73816011716183261
-0.86421988206575318 -0.84253532127785957 -0.53285660623470554
-0.42090468719754681 -0.64791694718308845 -0.050981468862568269
0.81439652011575836 -0.32627929689460317 0.57852196322473937
-0.024846332606693888 -0.012974322875736841 0.73077474708241019
0.13350852913709943 0.9040127640285569 -0.22701663663445704
0.29462363871074482 0.54107511681840881 -0.035552260176808348
0.07366334359151594 0.72415917376160321 -0.49649249786939342
-0.58043760231848585 0.49206549061779109 0.076327091947703263
0.029361785969310716 0.45252811326661441 0.74733786562514481
-0.76260028881100683 -0.91391737611383927 -0.41050933290095815
0.28662690633700372 -0.0013621448617163884 0.45272059176465973
0.36981674356548577 0.46275507227630708 -0.13219468506635557
-0.31356815414751527 0.47270849791258318 0.6928849347264685
0.30690512913035706 0.3707807160352532 -0.18910591442690716
0.51796981432409162 -0.24236879531936034 0.6803340824795121
-0.83217397059103626 -0.64054047193865371 -0.49971134519561589
0.40049467351028145 0.0086343971642249273 0.64028598563889738
-0.23621802311541851 -0.032867805417656076 0.75939628690762695
-0.19771686202480909 -0.060090479866578603 0.6744986629028995
0.04261071448587872 -0.07661725802400389 0.76129039405219445
-0.6988161148771197 -0.94637719080817728 -0.28724969728852878
0.41705752515630623 0.50932730358674871 -0.17654144472137046
-0.12597916142183729 0.26326999393154876 0.74352541524571336
0.081949309000163506 0.037130106318410294 -0.50750767166080801
-0.12393324247937931 0.67976773090868081 0.54274333157640253
-0.034032738629552028 0.21059369538300649 0.72759910969116914
0.27189923433379093 0.63707665605552488 -0.27596668491219423
-0.39844673738893843 0.34758068424356536 -0.31965673675690809
0.19203932175335625 -0.77217772061717382 0.24851438505804468
0.36006917304041575 1.030309330590115 -0.40399460148234656
0.2405682609639701 0.75531082113614312 -0.23277174570231107
-0.39423509462019912 0.03382215372882913 0.78443103270518089
-0.19260321542571734 0.20342419970169354 0.75945745775390772
0.62880472667780651 -0.31909406277939956 0.66966995211384828
-0.053804747047333734 0.41839311366544041 0.77516624940389334
0.25352929453017437 0.62582218610999252 -0.2089381198055249
-0.70042451542294004 -0.65706019635057422 -0.36715093708151003
0.15723471008355805 0.76212006551175604 0.32461688201722771
-0.52937823478564905 0.088624638925737464 0.73790425677240479
0.095136593251176738 -0.37318515994812212 0.34992813601970174
-0.19839228373710016 0.42702116922780764 0.75270264011443189
0.2333131928890233 -0.049917945703317215 0.73364735330681019
0.21367042968826988 0.30465126774431339 -0.47131074566160169
-0.11783857150030164 0.60254607305208696 0.73007382239043972
-0.72030991554410395 -0.74782838862133771 -0.37904908128161541
0.4621932778760951 -0.60515542165309244 0.52060520852113057
0.74289898223324879 -0.47831789363813015 0.53603769687995717
0.70097908795446529 -0.38941490496007647 0.64271154510932615
-0.077334586541689898 0.700820760455798 0.45229732007531065
-0.018774808648233332 0.49916596028664262 0.72313377645597732
0.25659981838692936 -0.099934519969158767 0.70528375686690392
0.19052506190613627 0.44899707591768184 0.62293445847494677
0.13289366631433541 0.0045891474564609125 0.74611872305896498
-0.53312597157466324 0.22912759899420274 0.76976698512221375
-0.46503342798601821 -0.69407690524739063 -0.27040089640017118
0.041963278588768471 -0.22829630073139862 0.67165857589629652
0.16467780883786265 -0.06807356123946208 0.77253276957346073
0.20594182069694122 -0.021592654921147342 0.75839562587013631
-0.36356728160250262 0.80298520059979261 -0.56951705500333527
0.48071305688989807 1.0631707776199937 -0.38988277298760177
0.39179095995892199 -0.60038123602144067 0.53560302809633642
-0.74049281738804518 -0.7279968778604391 -0.41683182128285123
-0.36691695738998042 0.24754128124182334 0.60877710022813325
0.50814489788825501 -0.59665871133601767 0.54061983277064485
0.17419146413199904 -0.099413091030548573 0.76621396934414476
-0.72083134648137581 -0.92131929916019284 -0.38394882403697195
0.16370489838179569 -0.40366872507270168 0.62730497429795307
0.24851804499428942 0.8291734432874508 -0.26217078218657819
0.16965973244632204 0.50494974204286747 0.623077487140689
-0.81619811942764597 -0.80971240838027647 -0.44743528271040334
0.70340852483797889 -0.25015651630195418 0.61945817377063839
-0.69372850842201839 -0.20317106757207221 0.61234919212996486
0.10343818207477407 -0.35373269400114693 0.62397078686709717
0.051515886239600572 1.01552363773509 -0.25827627266772857
-0.20600202661954503 0.59387581860441985 0.76481072724434096
-0.7048111722960988 -0.043987661698448033 -0.27858349739201826
0.71284983860146589 -0.21832648707977897 0.5817070667804376
-0.37224966155088834 0.24034005384738877 0.78170472530967383
-0.15979158031221363 0.61400333422453868 0.74942343895609898
0.080803633827391863 -0.2995501487570974 0.64671531436678564
0.10208263385657235 0.35464972251269999 0.72454987871646459
-0.31920122363393544 -0.0057061511958056976 0.79687198405589488
0.082141476849145967 -0.33279229011918643 0.6216141599038647
-0.062517701424563255 -0.2757947109401786 -0.57277675023277919
-0.58884182087319181 -0.74263460525272107 -0.26821475485457524
0.67432581264339753 -0.36632113017089962 0.6144740645573552
-0.55709478531021839 -0.69800254336897283 -0.25361385447652052
0.55562945054502633 -0.37243954379699606 0.68698432405812038
-0.25348413676531889 0.18249371443548329 0.014637603940199861
0.30213534071830361 -0.10216463506711115 0.27500819440584889
-0.51967418712396052 -0.18916929100962537 0.67868358336361823
0.13900216213875272 0.90519664609558859 -0.12887388947670964
0.61516256627670529 -0.4245994600693877 0.62858341369987558
0.10305993467556762 -0.021478457248801569 0.74527028315823651
0.39680703054965649 0.62722344664419682 -0.24839813633084185
-0.31772199652393596 0.018594718049211409 0.77155101726317499
-0.65098970372352594 -0.11731382837576243 0.68171298642445444
0.3503510013243285 -0.091605628871526179 0.37586510592641131
-0.63989570474212543 -0.024713259276020902 0.57061116198988149
-0.54077199058609193 -0.73320873731800251 -0.21992699484832956
-0.4174559119224579 0.1206722430070219 0.7542013290162326
0.065152282103609904 -0.60604859114163867 0.64735587539798423
-0.039373154902853091 0.8881670407232386 -0.51815429732964224
-0.46171309989238085 -0.62839272898032683 -0.037933389139144458
0.53460266837446691 -0.39052424323481283 0.68637561558621907
0.33253035536457221 0.65939022351710708 -0.29373072105703368
0.57855340977314818 -0.85772133164862474 -0.046172395629016316
0.11336096042454802 -0.041627552020856939 0.76344934809874543
-0.22084513154092544 -0.33724080628234121 0.56662287133703204
-0.67889660397265295 0.24691456405440493 -0.088138852811649127
0.19076586521924499 -0.33204135471407215 0.23618047898913019
-0.22522018819958944 0.7017884373874369 0.63062251380715129
-0.44787847071211506 -0.22914099853959161 0.6913673731129939
-0.26923316516347207 -0.18431362262803042 0.70387347230893305
0.068152497517735888 0.74000358733529725 0.33757254488836308
0.2620311679832823 0.80302497869743228 -0.29306110393254059
0.03375729288512197 -0.085097278553236039 0.76247460254679189
0.44467337850850486 -0.59958191121455517 0.5027801403579355
-0.046751265020196886 0.14642341928206448 -0.13558353341424145
0.31300647345787902 1.0724549874932412 -0.35729671446155664
0.19308101625098595 -0.27946742208266206 -0.4502568979696262
-0.28753011178313703 -0.56095747945149854 -0.28069499724387392
-0.38486797500557279 -0.6010749405869491 0.032682221522566834
-0.036803326848524165 0.19254446866971894 0.72487190906569121
0.22556772337258835 0.061606178941913933 0.53029875991308262
0.62000145767650938 -0.22585272544933949 0.64502639519146365
-0.53900047927923844 0.10389014537094665 -0.64954566435178207
-0.30014514917061508 0.52198046545866228 0.81396341546610396
0.22562516611937955 1.0106837266653046 -0.24928372064391624
0.11208531619868944 -0.19034617420338373 0.71937081749388154
-0.08465013829853385 1.021394454388354 -0.43253528757144899
-0.18315754377823446 0.53943846845433041 0.74571500012702807
-0.79140800742397088 -0.57929350199862517 -0.4233965581268273
-0.3616905611744019 0.0019428794632695146 0.43535301736606025
0.39585189236282847 0.97167245681264702 -0.39299900280803723
-0.35352606214006244 -0.23129722034195338 0.71815952780563075
-0.82846339882442188 -0.88395415803483446 -0.53614859338763088
-0.16042878623905255 -0.30185700760558193 0.6801174371965375
-0.067542902706220875 -0.47570534309164625 0.043237984291796927
0.1229192306653899 0.075552798282008476 -0.44863338394043306
-0.4540514192157894 -0.00059216425076522028 0.77788296760475917
0.30104971186602425 0.5062093689447098 -0.14916571244355348
0.61949269844774735 -0.31847899613429742 -0.43560004165926958
0.64079626702827053 -0.31352999391335568 0.66646733337737007
-0.59236863819902275 0.099557455475198897 -0.58806592591397644
0.24167574296603433 -0.087660007173328808 0.33304650346421316
0.13093097444070123 -0.15619186240168212 0.75130414985222571
-0.0011505210097024765 -0.12876962135501668 0.74268982636051373
-0.093506919096062457 -0.065323122888857665 -0.23776712112300324
-0.25889587340739739 0.69272664991586297 0.66638424800377827
-0.049037402119900486 -0.15042486507869357 -0.61498818230399777
0.61845635925973008 -0.20436394129417179 0.4158119660705093
0.264024769057424 0.87068404260967414 -0.38550588745737202
0.19133783048847164 0.3572248845268331 0.60095872436454512
0.06977898237715241 -0.085133857857523337 0.77958395118459634
0.0988439028925443 0.020945171304060525 0.72421083209334558
0.67124785499889494 -0.35133312353955787 0.62008779735402886
-0.53687408048426866 -0.70476653773756637 -0.19978098365429986
0.18998121719192618 -0.065021005754608313 0.76581347418136669
0.033373975883989715 -0.095509884376619988 0.77021141412678618
-0.54852841679865549 -0.7137598422693805 -0.22771588597250392
0.78876421917890971 -0.25220946758973284 0.51759402788566744
-0.43836609537382154 -0.30858612111718337 0.66887185398775939
-0.59802252815028378 -0.69841762855719247 -0.28149978416408117
-0.22953133314761365 0.16003337546469656 0.76304288415665478
0.70523582704480114 -0.35624773040436331 0.65068310934456997
-0.62009850348975593 -0.089654210061591688 0.4189745012766839
-0.37815337935353965 0.023497287420329846 0.80226591185234142
-0.67422557365915914 -0.16311208265456306 0.6486382581989294
-0.46151230970045054 -0.49869300375429365 -0.49567015941547399
0.25964511939864288 0.61755993517395535 -0.22732397616457445
0.36108101405736237 0.42299124389116949 -0.18699173168432615
0.60614601307096816 -0.34471581057850031 0.66992426729745835
-0.42011736036339498 -0.53103365206065578 -0.4614586419524378
