# XYZ point cloud file
0.063835737269145737 0.30243109324423645 0.71116556435272116
0.12929707114648847 0.36547480693854717 0.61803692349091743
-0.73434406899569493 -0.84446951000698722 -0.27876288121464809
-0.25934372230538361 0.28422838912036585 0.58579047082354774
-0.55035665086176744 -0.074508636511425363 0.60353343488295375
0.23085737771877457 0.31149324227162833 0.506556483055837
0.19902205849896842 0.19418253709589273 0.48241460857179741
-0.60321986049691945 -0.27657265373869766 0.46326753167728763
0.090553785963312317 -0.01207621348108523 0.75871899554097566
0.22992780447680228 0.90404298386284143 -0.25801809617918048
0.16886210527372353 0.085660450290310663 0.50141639271425975
0.15085905331884217 0.70238021898595271 0.25530733294934937
-0.099715272042073436 0.39287800239551318 0.73049849298917902
0.26672905399451419 0.57382805109102453 -0.18384579801513579
0.069759529072225532 -0.0098580923683320165 0.72545735540338541
0.71681157199332313 -0.31910866084874723 0.43137390983875445
-0.75276969848423492 -0.69983592688151197 -0.44403037843049642
-0.45041373738801443 -0.076345041608762321 0.70927877991482846
0.26761910784886805 1.0142591776362269 -0.38898615466958075
-0.381474167539683 -0.53870577568966027 -0.054019211848744142
-0.70878630814959953 -0.57512288584236693 -0.45138973303410834
0.068145402623111195 0.50364499587522249 0.62960037404201341
0.073125546911978118 0.79176749583733974 0.22435966771564286
-0.57697477626374316 -0.51805199780228572 -0.14462155760034245
0.3989393549714787 -0.1185186955679427 0.66315773367421615
-0.31929962642902066 -0.39019142918931737 -0.43558641004654186
-0.29915690910953729 -0.052027444948342438 0.79885267634627433
0.28398693822792187 0.67630871031051321 -0.27451602780596018
-0.10586636492994737 0.49398969234945089 0.74111662561084468
-0.63525490027532583 -0.67548917846399337 -0.26373718598385154
0.16809282174383422 -0.04504566193020465 0.73945240624165298
-0.1299116795577045 0.57378481788425328 0.62483581892172457
0.36595459396641561 0.73357564905371087 -0.32203592830804673
-0.57272653429555953 -0.22704398948206084 0.40763921472835407
-0.038026729423935597 0.38608968351275763 0.7524113838910953
0.50176976967434839 -0.51862102505287933 0.58451239471411032
-0.29962979700388592 0.22108713034451455 0.67510961145621884
0.45606566675258414 -0.27712412793944119 0.700195161026961
0.53155675635761479 -0.22623490476972519 0.66892341911472097
-0.28225006328204116 -0.093049775656858236 0.74744054758897538
-0.61801524040613098 -0.21381914406199809 0.56159587237586561
0.12209222873498951 0.38084713238323742 0.63130572935421603
0.047840191083701009 0.41912045742675397 0.70440611585855661
0.11700616642219736 0.3198300787521664 0.6519610486720534
-0.13400986574073862 0.31275103335554078 0.67859969291420597
-0.0098870532788052495 0.64697480236970462 0.41074544580334627
0.12998744541557627 0.47973990530350474 0.52224506444436092
-0.20959938091681099 0.46670880010251037 0.67506527292663554
-0.45797625103910222 -0.49754606881784524 0.16194950131959884
0.06571987508662186 -0.022706138922008012 0.76478684858788648
-0.76139642160174903 -0.67400789599783351 -0.44429672796959285
0.52957053222876249 -0.36064715314395568 0.6538512704262528
0.32055183914098206 0.53303834754419377 -0.24454636153227738
0.3639984334112763 1.1218345700368826 -0.34804064448057948
0.19885351603313203 -0.21456851372888308 0.3394202794554898
0.33789618522104553 0.925019332253606 -0.36166934054296207
-0.28539380831041439 0.40378985643886423 0.41794111731633177
0.43464699281004671 -0.20821472061764812 0.68609416941901979
-0.51180909693335108 -0.3378758325552278 0.55899810783774018
0.24725212593261114 -0.13206493744046699 0.70436192583805435
-0.057537870968987492 0.82069922602964174 -0.48990338973137249
-0.29776858151138774 -0.10739204402739722 0.74391279118749076
-0.7064099894464293 -0.82975095927187659 -0.31778885206553986
0.75216136265743028 -0.27715778800991475 0.45913317453460478
0.39834710807969936 1.1378388286233294 -0.36915523366906422
0.4373343317959606 0.89871321094766232 -0.4644357827598028
0.48374435875481248 -0.51692226895224946 0.56522409674669727
-0.098743324545839631 0.3192763647579826 0.72721089505717629
-0.5862611330328209 -0.51653988696138198 -0.15492234586796783
-0.72702799791596706 -0.6066751329384219 -0.40389095895949234
0.4398147421724003 1.1060270678650634 -0.4688172896937185
0.27623491961142799 -0.32393009662935546 0.43763397227766543
-0.41666085570229083 0.185718992820046 0.77201547701752116
-0.068186745047214253 0.44881017983598714 0.71429690012291802
-0.054525404798474751 0.25921724526413525 0.71073892481498213
0.32789637725434678 0.81576756520587956 -0.34857253454277126
0.20702043987709884 0.73985229241738959 -0.2411105620556997
-0.56433201102206754 -0.56379456603919453 -0.1828472192955759
0.19773400418124201 -0.011009984535038875 0.69637249387306488
-0.53871320818694712 -0.59526179994356343 -0.18594735382308536
0.50761731451959979 -0.32101249832094036 0.68297478912764209
-0.37542225467097468 0.034088465727041717 0.78188656328460393
-0.40579708834641048 -0.15722621251299307 0.70526231521789018
-0.73188499415227781 -0.84966414513882826 -0.34300127468650254
-0.21900425384314143 0.29590032933089838 0.744838217801987
0.4864529559928864 -0.32284791639178079 0.70425700599026719
0.61430339955004287 -0.48053577219813737 0.60809432658378892
0.1614941599518421 0.42400982137291043 -0.28477089275760492
-0.20028084628306067 0.24502692074476329 0.77549856318587607
-0.38073486562860276 0.18360555341520035 0.78001481271977602
-0.30433046204306713 -0.076581839149331365 0.77576400825800174
0.63120641762836827 -0.24375719121101214 0.40928799969190532
-0.49452824090745062 -0.12170637313330057 0.6930074397641397
0.28379046154100535 0.98701646579592328 -0.3494794627950033
0.48237543628992785 -0.48806943643455503 0.66084501770940618
0.2072905236380026 0.71741755368801119 -0.25001462700612764
0.088724567821509517 -0.086916860228048565 0.75417210667051726
0.56123759370116932 -0.40278430003824162 0.68975620985131858
0.043263460356628571 0.2721984816211378 0.70725107167699064
0.042034762653256091 -0.069881110246876821 0.76902472623985896
0.69753621599523929 -0.24730779327283536 0.4367134268147338
-0.067943616475196325 -0.15297489417606736 0.62204326966704482
0.53476384900298224 -0.37742928970020606 0.44548883615869939
-0.186988889267346 0.43730627998222338 0.7822465073767183
0.17995295286564608 0.61965528150248228 0.51644416230336732
0.27300542407692047 0.79640533160205851 -0.30172903392704598
-0.2523352715003459 0.053792283851062495 0.75182058901372639
0.1958369988989751 0.41038504701453982 -0.21900466405324637
-0.43125188122027674 -0.29045257397647406 0.63063446939814527
-0.51754865880138601 -0.65145043785836609 -0.0042581648463146937
-0.24096695852053596 0.24927880846572403 0.62919035676770219
0.33499038083523491 0.66923969151968454 -0.25617734210570431
-0.052929419875133395 0.61188989471233324 0.63084016191659675
0.022829903295843473 -0.067903670261038496 0.75030203536517215
-0.2404416123634473 0.18717851612760916 0.77799421820767201
-0.34883205455207 -0.057195286603900719 0.79853547312149931
-0.21113872009427015 -0.042212431408301221 0.74830766206568
-0.18245604065037935 -0.41785907165419478 -0.21828562652339034
0.086894181977049928 0.94585318666622253 -0.083683949895687393
-0.63947639493331443 -0.55693584156868847 -0.24355428763804698
0.66270818833097744 -0.27276762218065165 0.63339729244882426
0.74546764732594828 -0.37925438921826227 0.59069861561064385
-0.56260303937955269 -0.50416299830017741 -0.3160618437201892
-0.70409889486166599 -0.76351870553926116 -0.4363850124134423
-0.14532312872591119 0.82175805885668374 -0.32866943812946636
0.18901945680923532 0.64952386066721868 0.45046786162831376
-0.19151285056882011 0.39354114521563366 0.62518575601816584
0.38046913821874001 0.76982246144933431 -0.34982043064705293
-0.50717724026080124 -0.3578041547921782 0.48219814296063301
-0.012107477797381444 0.4121141827057746 0.73805727250582509
-0.80741809410271781 -0.8785170372486204 -0.35585073236390041
-0.44050484124902978 -0.20228445020491126 0.69054664737835791
-0.19271269648506403 0.3187135527554894 0.78094168757315141
-0.21366718426822698 -0.010324037828057353 0.73577312393549676
0.19298652650803766 0.63755574369087786 0.24069635388058241
0.67610549458220459 -0.30109836431779979 0.64121672766286897
0.2692164122059158 1.0610105771686604 -0.27198750311384634
0.011679059479191789 0.5533058893222611 0.67662497018361767
0.7306309712354756 -0.39337021815102924 0.60102749750381013
0.60554304427381056 -0.29127694535913795 0.62304079699051507
0.14523100530609745 0.72502005800845604 0.21376595914929375
-0.12844913043175865 -0.39690302491400864 0.040494555052373649
-0.44851930175086985 -0.61819658568095104 0.0018823566439982731
-0.15916366878252353 0.32686857526507507 0.75881938305818553
-0.088817498557915472 0.43006235328820619 0.72045814048161583
0.032708401782939434 0.97139950247399387 -0.097206170539267944
-0.53190470489136699 -0.18508306663081608 0.66892428909105695
-0.53801080121183775 -0.091435189371973591 0.7030739786821445
0.081498486061523934 0.39233529541262668 0.67976010166490619
-0.69384599507645062 -0.66133080552190981 -0.39057805633778431
-0.40029736053258236 -0.07663493551263989 0.77537124544896197
-0.12347333424956664 0.34508558693747982 0.69116698209745542
-0.76940327177614121 -0.86252651336815545 -0.30676544934753647
0.010056366580885004 0.38199446238161849 0.74116932024905757
0.62627584007754711 -0.19416568335141915 0.43937325002820293
-0.45417200657480022 -0.16752899349700101 0.7024808985530574
0.49454458637575299 -0.080309380217025161 0.53824752848031021
-0.55565880415320634 -0.17133282870712696 0.45834558680250814
0.13292364447515201 -0.017397284598519525 0.75616303705540222
0.067145344701186382 0.31873579472258395 0.72069095642162084
-0.25831982896882033 -0.44799040380504396 -0.022668090151369169
-0.46079461185587034 -0.52404273858455164 0.077829319574607148
-0.30234654907481401 0.089421317193763894 0.75813874144106852
-0.583767876002249 -0.1355968590460368 0.655933110502948
0.66848626607939554 -0.41236779441166793 0.48975182666322548
0.17207910917765312 0.32127107395210119 -0.17589798221910113
-0.63680168498533773 -0.62870214126490565 -0.28299949106363709
-0.12372421942669432 0.41315687973783399 0.64621177532206131
-0.48908912795937731 -0.061233566911843562 0.70373018271910093
0.39920126445376436 -0.029129552483788901 0.54726123560333162
0.18705301383000339 0.53395447816529629 0.53317704712494574
0.32405785234457685 1.0151151915298171 -0.3803166204555628
0.28837028460850678 0.012940424564323649 0.47477516541197906
0.49919607916830905 -0.33243203049334413 0.70245112177126767
0.4043377683284034 -0.17407823712409121 0.68338080172121285
-0.59092634469225991 -0.43664001020676513 -0.1170149768672093
-0.58662266368210103 -0.57134664196215046 -0.20867968596434805
-0.22013161694703959 -0.27499992768739245 0.48452127943136991
-0.52281326726986388 -0.02570655350096529 0.076784166519861863
-0.3976342791705999 0.074709608952680417 0.74210782644742557
0.10473830399134164 0.44013227497032137 0.61520163382026249
0.45980086906554335 -0.48719436519057591 0.52461809748508181
0.05334741764243689 0.79077949915179602 0.22941774736781773
-0.72262624387520202 -0.6250368310640726 -0.39396627976475673
0.17990785786897079 0.57924695211150135 -0.31935894365100959
0.17260445762867127 0.10697200353338543 0.4783909742211836
-0.45296872223582518 -0.12640008747504416 0.69215965895707787
-0.42625424618360119 -0.18182706998251574 0.70471806476409871
0.26054161109973983 0.60218087198532899 -0.23220107315211647
0.28051671142876866 -0.03625496270037365 0.39325700477969749
0.3132318890544894 1.0308831003351455 -0.37636341960509334
0.0066624667948486371 -0.059710766154916994 0.73592166226276723
0.19191946033189988 -0.084313798077765734 0.70595052965183946
0.66405853732867426 -0.33445736492797007 0.6501550330933985
-0.13001026663189644 0.035628631235246289 0.73692023354078229
-0.15472705683727742 0.46469628965767718 0.52531167374819521
-0.78214180279945766 -0.78498150858023563 -0.44561757040434991
-0.35010426969053177 -0.22903620326281149 0.6808683571750771
-0.68147840658372538 -0.76062229724981001 -0.30262275706875519
0.080705091882089727 0.53218763482583986 0.62017848256796204
0.060461147858902803 -0.20896837090625975 0.66264972254809673
-0.26429677915709826 -0.022732603260283257 0.78192326083105845
0.54751082462721423 -0.4870045231281741 0.6498441920261393
-0.55324889561014901 -0.36932497533648179 -0.3599735250107936
-0.20687859493766467 0.26925352748658526 0.77181706143398576
-0.5570825072069463 -0.68208348983181821 -0.078889276733016045
0.14524274547618848 -0.16602694652826777 0.71262359409658915
-0.70905320158745289 -0.68417239688041831 -0.40838258671438044
0.0096786062991448679 0.061589899112795443 -0.45814529927644965
0.51308538062654852 -0.43954808445403359 0.48707103410627683
0.1011730694391904 0.4835320111677992 0.57122220721261541
0.50367004836815044 -0.33512578510635627 0.68663446297074393
-0.11095161553631619 0.31243454901662981 0.73856225568491662
-0.41013484730907923 -0.071499605069192063 0.76910537464889595
0.070485080344436818 0.31680943841699194 0.71605304363314137
-0.38257775618022727 -0.1583901520216795 0.71073967308662778
-0.6109903619197673 -0.24891339264018009 0.5001043394263982
0.17576803475292033 0.66530043694966556 0.26560563193350473
-0.26149351203184973 -0.4228955398540224 -0.33970945584024381
-0.082845562314567855 0.46645507876256254 0.64681710250962121
0.18641087937381018 -0.21403293195071349 0.31725799784621223
-0.60307051016359925 -0.35956171354188737 -0.00015361831822469085
-0.2600730045788735 0.11485298735724392 0.75947054628499666
0.26593377863204515 -0.41163180012262757 0.50115208037631598
0.11822526786545479 0.89953831630614722 -0.1622751191004661
0.12278278000067361 0.36032742698673204 -0.31917346516278045
0.34618956588260125 1.0121622823864205 -0.38918124644101748
0.59653678030721657 -0.28765681626711959 0.62522589039451015
0.56191560871104351 -0.45710893495559857 0.66944284853269564
0.22910674384791035 0.42710109484092884 -0.06146341366385677
0.1050871812679907 -0.089186858188144313 0.74421406947594915
0.19907288493861292 0.16161166776175628 0.31327006323159645
-0.034109214161255286 0.90143374074613791 -0.40870127544961732
0.051043930281910323 0.33019739058398101 0.73114765202907017
-0.20287619336394658 0.73289960543631194 -0.16451441455930027
0.10926130091187358 0.46046611432042939 0.61514739041388122
-0.46635302274061252 -0.1073564781372891 0.69319981697187538
-0.33324833099699191 0.41130268936197334 0.25778355142332832
0.087901814861533797 0.5185113300406563 0.61977130232050448
0.17795395022087651 0.082112443122455581 0.4810613400107191
0.14226842388554534 0.037629295743037972 0.70181608315890531
0.39422368311687167 1.0382823629649627 -0.42036217879769455
-0.672703428908483 -0.58770063053716393 -0.3156826496489531
0.24562579899439152 -0.16200427204189527 0.34047588636541937
0.70389915049202845 -0.24578805216041766 0.58224797664252803
0.38033688826644274 -0.22708403651493647 0.40008923217691283
-0.49819802007179548 -0.17885578314483852 0.6811122933876369
-0.73303988318643043 -0.68186775398059396 -0.52964018259546264
0.44538979772210785 -0.33803349540027794 0.70807630073133876
-0.49624039832028316 -0.16199178745221765 0.68589983990973102
-0.52938959526694895 -0.51512626763277436 -0.31976440277708673
0.56688634412337047 -0.37018193475092764 0.66315392942513518
-0.53359965997630165 -0.14157688258799617 0.68010912813522961
-0.78197162120964503 -0.79637762011520286 -0.46200333129048499
0.51489951537625755 -0.30818671546193555 0.69462766652518937
-0.46504060222857402 -0.5375874655751256 0.022287834311555343
0.015304080714854257 0.66879596456813473 0.3865408978877688
-0.22822221395071463 0.43713481890271777 0.47521597504199808
0.32980642903561258 1.0492907346366758 -0.38388884730571249
0.32714905028373292 0.0032658809154066937 0.55357839818162202
-0.28176469570106522 0.041514076014717682 0.78020338459448413
0.11446804875599814 0.3869954996764926 0.63414481661103439
-0.029788042803986226 0.3778667386153991 0.75368143918145081
0.28836377801315605 0.91707440156133613 -0.32995024330676492
-0.062293528889993066 0.44120045148305365 0.71609925156477539
-0.4433378862755874 -0.54332783166460952 0.03672213935935198
0.33217257888155216 -0.38369442171334511 0.46453305492874897
-0.19699091508184152 -0.1247348472889831 0.72360351097319886
0.57377168626293773 -0.30049510865888318 0.63538768596194883
-0.089885934470173109 -0.19361188124881612 0.54368311572132222
-0.3903536243536781 -0.1900242664705114 0.67254958403650056
-0.67830013081098706 -0.81010885185053416 -0.2153878898365007
0.07219001907050232 -0.12515208784160547 -0.2098093344286196
-0.70318504046905539 -0.68635907184893297 -0.38287610564960683
0.62270213626719528 -0.33896499836399352 0.62463128154380509
-0.077875034041393149 0.35024249659394213 0.73476139602478008
-0.053542613376218504 0.32028862468923247 -0.59328184701380371
0.11730533005443509 0.29630587271791842 0.65329513887451152
0.021835457710261783 -0.12203656394442386 0.70355788545446196
-0.51232252341722684 -0.70205126821127029 -0.060424668110048207
0.034625475138086226 -0.047906936366408859 0.77110352945588656
-0.40312050141645367 0.030806671540750896 0.74245043129068111
-0.51205571510385306 -0.14719569282831313 0.67975473412727028
0.25337933770143112 0.60531529527176109 -0.21864616952874516
-0.13873306091608445 -0.19972697347353363 0.58351484242839191
-0.59792725868140506 -0.40088290238977886 -0.062557484024357679
-0.59593386095389567 -0.46739088248226812 -0.17365404031842946
-0.31467932504022805 0.086041526621978726 0.75422883623041059
-0.047208271004484784 0.24996773846033338 0.71485632881907724
0.23068439654890011 0.74006394637490835 -0.27212513798607119
0.13552864798363695 0.67724927725064887 0.56234048312190688
-0.45219388813257688 -0.21508144925357287 0.6824304336003294
-0.71558393430915512 -0.85055950477771836 -0.22917350492583966
-0.4328813090765769 0.07825076070838044 0.74289010468557848
0.045529918664310207 0.41463213654382391 0.70974808049677773
0.25041284515383644 -0.41065596711902375 0.60430435207063637
0.17214686790549097 0.023112619263872869 0.705964809361456
-0.46186019433209502 -0.075461465172608655 0.70963513201236184
0.0097258102415393594 0.4426574881940879 0.70035064014613124
-0.5424163530667051 -0.70331758892145868 -0.19497214308359068
0.05000111665677473 0.42460463153890493 0.69334706674441771
-0.27258755024710879 -0.098853527829009025 0.75099565215773345
0.10462929757263446 0.32505151660046661 0.64823299008649304
-0.46091354995719613 -0.05558622165408833 0.72347299565825662
-0.52963982528290943 -0.5073992361552333 -0.017527966486461821
0.12576071299365052 0.22543301914235592 0.64739433554273929
0.077442605678333956 0.49939081024773513 0.6250551001138509
-0.63318213326048467 -0.5038942147628227 -0.21660130150303547
0.10868371840029116 0.42176610342068543 0.61854388890541323
0.23230782967242433 0.48135014120193564 -0.24559617576403392
0.0072848525181671564 0.63996720701220267 0.57028157635531873
0.13850896717320868 -0.3327285279183736 0.59989269090014097
-0.50171988018499414 -0.064750747389627605 -0.39821873617097925
-0.83261791317150591 -0.87140593623798912 -0.51670155377289451
0.34014219491162062 1.0722897368382629 -0.36289078713861334
0.17413159099283534 0.012273551920235048 0.73754121346678547
-0.39424655038594614 -0.20538576402469788 0.65183756809296811
0.10609823825825024 -0.03980894246699096 0.76438034737496618
-0.74903889991734507 -0.86600843986836695 -0.27103696104872732
0.64637720232283213 -0.37974963178939558 0.46013270307789667
-0.42596367261832913 -0.1502455325715164 0.70268765428138491
0.37119850555944794 -0.13945906416844434 0.68091841922993301
-0.42878714849536015 -0.15429287065751573 0.70521453093991815
-0.31981898971211542 0.057417726366415955 0.77800033179604822
-0.43498502966587371 -0.16343070411727267 0.70794861581157931
0.18387573183900907 0.16222658583688143 0.45671773632603341
-0.056019058379465622 0.6020221760152169 0.57994045825008411
0.17239460373939766 0.66836992862481925 0.49742768709849872
0.19450570171507811 0.62465993850427881 0.38280703832332341
-0.2230465434266167 0.27885230610491707 0.67301443608289035
-0.29847020635102961 -0.27186710900747402 0.61517110228987137
-0.23406052009777747 -0.15208740134841259 0.7139054608817017
-0.47549015780540016 -0.156666914083881 0.69710115156102725
0.11933132025047784 0.46774988050863908 0.61189160576408586
-0.77509853110569948 -0.76801675835753147 -0.46320374330785441
0.038841519037389596 0.28643106787663331 0.72880289796843312
0.32902051220810108 -0.34628636859853756 0.69975492138865358
0.21409376493818699 0.65286211631317248 -0.24041439564797318
-0.34422764774389625 0.10508018159194599 0.68638978210555934
0.32325469299161519 1.0552915423792795 -0.36052891169555545
0.41862683089356389 0.88360784492862887 -0.37803185727515343
0.002321770082512567 -0.14986292434216364 0.66238634377781258
-0.12492137213561463 0.40185092588813487 0.73424007189658169
-0.44334578741847908 0.057273163551713413 0.73805682838815889
-0.45306090907421254 -0.0065364240907945792 0.72355956398327215
-0.56598478000081742 -0.57028740636991282 -0.19492327149392219
0.39260655513053061 0.67336770808488255 -0.35810669034532006
-0.29865410266504527 -0.28310930748779617 -0.52228895387978547
-0.59917520096926147 -0.32202346560703621 0.50407998270198595
-0.67285922088220018 -0.56182843517951175 -0.29805582154754684
-0.72017463858921982 -0.68750149233325697 -0.43942786449182458
-0.23765327693018062 0.24698714274456801 0.72169028831590631
0.026340519860210149 0.26607730963679299 0.7138513854903914
-0.28726516454192924 -0.3854855650847222 -0.42995541465352827
0.24090266615517258 0.6408761305173627 -0.30516680047241884
0.75167804478284783 -0.2969391373579251 0.57579088685080315
-0.05488701247821353 0.59793098657773913 0.68009030213410993
-0.32551556796756509 -0.41643492778647584 -0.39759683428618442
0.65353548824105134 -0.29980932267072546 0.6521108078195107
-0.15748143548758467 0.53983661703733565 0.62157566304587764
-0.077681792401394084 0.41722460053014032 0.70229394992791516
-0.22008065378958941 0.098292398465955166 0.75275083417481625
0.16950042443028443 0.060749713682433981 0.61654890345945679
-0.46697802657715404 -0.03325440116471956 0.71537431431607024
0.57656836187254756 -0.27943451649630635 0.64742209661750438
0.1883882634515773 -0.0031856134324415031 0.72346891630663968
-0.30587520289546244 0.24284623265036043 -0.64365792545479361
-0.29854894441305529 0.045345405685589757 0.79693646874449375
-0.58291711849808414 -0.47790430824491259 -0.10290384912316308
-0.57796488831612214 -0.56405657486711713 -0.31014202131619872
-0.51013114489622624 -0.63425731721112166 -0.01239966719955099
0.35183398587741754 0.97562147473514926 -0.37991622899700261
0.20040218625772899 0.66713256195555992 -0.22669112132656966
-0.19571941973438484 -0.040857308299743655 0.70206008096314942
-0.13208704999356599 0.44507402303174493 0.74486413306508248
-0.58541246886112863 -0.31584787596470831 0.33218602050012858
0.01110021182131056 0.48297742442464497 0.67060042894746485
0.36342137716896888 -0.15456176738116545 0.39375454139777943
-0.53919868536084548 -0.12187669934014034 0.6905697984917234
0.22585688413598132 -0.39713735384163118 0.51649196468483005
0.21044462171831019 0.98770149359324555 -0.22224017922235584
0.21143624331091476 0.66799552814037133 -0.25407681564152629
-0.42401754463925012 -0.58787690636604095 0.0018922752362320328
0.39386640278542823 0.85588739834856731 -0.41067839782603555
0.14946792675928683 0.35851596482377035 0.61302494230929672
0.19630701537994172 0.86578490628970273 -0.18577964012060466
-0.3610191625241464 0.24549329231873229 0.69366784023051054
-0.53584785762118525 -0.58587067573116469 -0.18608580112767537
-0.54006442861893189 -0.053827911547886798 0.69964136765138907
-0.029555304049546208 0.23439753729050161 0.71959708273292922
0.15996785015531723 0.033015410855086413 0.72065737829305554
0.21688507042688288 0.72212987383985516 -0.31660324579191346
-0.24786491501811794 0.64627795898717078 -0.18306564220732224
0.022283447964897896 -0.17211477850213819 0.65833422158639598
0.22244982776697303 0.93124573312320047 -0.22530740380408076
0.44591078988273875 -0.49667714531580076 0.64883177378295176
-0.09463006915990442 -0.14972685459112234 0.65027527503643245
-0.47031893646486356 -0.53821887472976959 0.008888917838938859
0.73930481157237482 -0.28059020751572561 0.57685207966619734
-0.25146854518513068 0.08337917236622383 0.76115896447431941
-0.4494803562523712 -0.51769805845362638 0.10461348775015633
-0.50812361265498074 -0.3515690299400942 0.51236475901577139
0.62501208139311559 -0.30315314671317961 0.62751223200537409
0.29729497344150402 0.75550526108646299 -0.30583318101913726
-0.088037811142423997 0.47573102752069651 0.62764893741798999
-0.32849623906268 -0.056506346308232258 0.80031791621100679
0.095763208905008765 0.28683029813137928 0.66866860821683127
-0.27421740242229953 0.21135263712694985 0.77830813742875993
-0.65531793238186642 -0.50761992521540256 -0.28962277399132463
-0.3030756520659702 -0.44877541730805559 -0.27506284697647954
-0.36040389143076179 -0.060931712962846607 0.79551581240391844
-0.34900910221734738 0.03803094627402559 0.79998763754299151
-0.21111677890932651 0.31213776552228856 0.62542788476327082
-0.77746743251277373 -0.83923063726025959 -0.39399025595030279
-0.22174057615698062 0.23008491407000364 0.77105491242814306
-0.47088907834730986 -0.15273370999278724 0.64891898463832898
0.31998363069594493 -0.45885262037605301 0.60507044912541563
-0.63276484395988919 -0.70163882415787149 -0.24905649101072824
0.0043396713794823447 -0.25541495460093055 -0.20971182707552916
0.17016987901808006 0.87347917754444504 -0.28360595684168888
0.16626665881685246 0.71290447631923493 0.17255535945825373
0.20179021331069757 0.8885089311432528 -0.19173713324141839
0.19610584846968093 -0.021503541307656526 0.70448865172045683
0.17234371297735282 0.077275850452009021 0.53204909450590288
-0.48294387071152289 -0.026428727690501752 0.71668871348512342
0.63707044330473095 -0.297055281801063 0.41629224655141173
0.23148902560274739 0.42212473876803136 -0.090834614274164505
0.15478775545231499 0.37491413854556033 0.55295462093170578
0.49960928653793135 -0.21466504274338738 0.40227050701699618
0.1110852604512107 0.71078232267384989 0.32485003073656393
-0.54088447568369702 -0.51660239936567276 -0.087333018048018296
-0.42292692092924178 0.0055703086487435272 0.74213781641444176
-0.42112653703809966 0.21618502752122737 0.74646177321513463
0.69303383474511082 -0.42062844119248854 0.62122018230958709
-0.28683300051407479 0.038993011461534444 0.79303936312643519
-0.36537285369565375 0.083425598648073418 0.75507709235864107
-0.77586573202933906 -0.82834811093328975 -0.43063661086978944
-0.31077312460288664 -0.062293527702285578 0.79659448736939542
0.29842097624157621 0.66319242828582059 -0.26565055659079606
-0.72759177461380609 -0.84074402484520561 -0.34431589110793226
-0.04174294448749058 0.22836798707446881 0.72252994308251306
-0.030014254999074334 0.32637712865976654 0.75950033601987443
0.095509785046792875 0.22054790612932718 0.58656338222889881
-0.76842424308321156 -0.77462942968504445 -0.46657097978016981
0.29873484957982993 1.0083335218225109 -0.36548522568347375
0.35796427869611941 -0.092414677227872 0.40216253168536387
0.56596048760781592 -0.37831199899691659 0.69219958427494954
-0.088634634276980886 0.34899831873140119 0.72652801309358128
-0.5559278932370042 -0.51159491454800654 -0.10298901508140146
0.23200091758619129 0.4735969547600436 -0.041627630002907035
0.17218364436922892 -0.21617913947758161 0.28387713107672485
-0.25053711517941935 0.23385659754289811 0.65040680449407096
-0.41108423925028559 0.16228416269366552 0.59970818353299449
-0.014078664599930478 0.31083408878569996 0.75672795454119068
0.18609145269442862 -0.24015037067991374 0.36139612242923269
0.058488664461800371 -0.0026331189593087334 0.71841148438888769
0.6127168227019868 -0.39381790749445189 0.67725428008795563
0.570559144913938 -0.48104131221558855 0.64554960109733128
-0.59300120949833868 -0.7108422871993858 -0.27633076108616028
0.4327482572886045 -0.15454619422050775 0.66845852142124118
-0.62479592971050713 -0.67219407970641609 -0.25030125214293841
0.29240202088429834 0.61066684804115501 -0.2117912968526412
-0.082760885959941258 0.22927675968114136 0.72821407337025157
0.18646923692936151 0.754529564261329 -0.17115417821727141
-0.010061644765814226 -0.042277684238162916 0.74029006638263684
0.021377450765707795 0.98769320692155294 -0.22221693015881949
0.29667108133015074 0.80902094921749113 -0.3197802763305575
0.26904444620957069 -0.27636996284338178 0.70728039408018295
0.23175876953611127 0.44445092265137576 -0.024633207155139614
-0.38515021320461229 0.052565426863268483 0.73015715375909995
0.2789750860365412 0.72155820856264752 -0.28769395007316301
-0.035603918000831042 0.0056278002415288686 0.73437849334044136
-0.098826088488130015 0.14192488956670113 0.72385228181927019
0.54626330658886457 -0.35097491618612287 0.64421487499467456
-0.10393271155741429 0.38091248320026905 0.73275343443618335
-0.17918299621127137 -0.15702221300298946 0.69316507064491184
-0.064368799174818303 -0.30393188780476388 -0.27895553579088195
-0.055430234320461229 0.25538648719297274 0.7165175987706216
-0.022601932546521888 0.62456679177820229 0.61427210741529237
0.41234549047218905 0.95989371851882854 -0.4100673661199109
0.12900065788748075 -0.22994602741783932 0.16213844670991073
-0.37899033126297521 0.03985740656539849 0.75767560009455459
0.062119378067705684 -0.030038415245490224 0.76853404090148747
-0.73783108365375893 -0.76711771663547879 -0.38598045749216792
-0.495625934556567 -0.61476453570207767 -0.014057582785358402
0.2835567994068221 0.52445027113761 -0.25324746204467874
-0.38585396460519461 -0.32582906820068236 0.52434200535496234
-0.26184823516611333 -0.27121232518217875 0.5521708523257699
-0.009046066349990084 0.21709339482615775 0.7126010131880105
-0.32003932527546664 -0.38228637783646913 0.33338974090697682
-0.59298821621394548 -0.40592816681298216 0.12793780169911262
-0.4493895267127595 -0.05359729675765923 0.71638088333993155
-0.38855823765288122 0.053460910911020676 0.74673416313280105
-0.13232221504416802 -0.15046995445302502 0.67585661179916068
0.041755671674401584 0.98883077225592819 -0.21698009493137693
-0.4733882890341361 -0.1912640349149155 0.68736877680146524
-0.4943730533642634 0.071500463458305852 0.7106044929363331
0.095764599059507655 0.037630320969229913 0.7375783992471866
-0.52408850540251839 -0.64434763986174581 -0.11973926174250771
-0.798441207937018 -0.8679404882342836 -0.3464809152410846
0.56848647827594734 -0.28741900399768561 0.65124823395807785
-0.0028968492063664447 0.38640740654855632 0.74461605871995373
-0.30065712625378027 -0.15671256310543913 0.72098486622613134
-0.094311404465174636 0.43448278813042074 0.72019419799655104
-0.60562898483130811 -0.47364510274800931 -0.25971718065542149
0.27372609974553258 -0.010517605430476307 0.41905038575718478
-0.5047759673615726 -0.44060862340428852 0.27227058727405273
-0.21177380594008255 -0.018692031392456787 0.75466586716471606
0.21266577078243504 -0.047268499348617432 0.69444628687322596
0.30280924978658796 0.63980364128596134 -0.24476121430301534
-0.74355802957163342 -0.6433240358432597 -0.42456854831204471
-0.091370017581346441 0.29622703187259614 0.72563313444103006
-0.54289345148205392 -0.66764705735953322 -0.14735179124822206
0.65789635521088896 -0.35786646296056102 0.65448763501822649
-0.70971840578238732 -0.57014460509968878 -0.42230422338957618
-0.16557049758816961 0.39710834254912997 0.76775477569635586
0.15298050944079278 0.79181311943299293 -0.31998782060196218
-0.55560099533385321 -0.60439104982499314 -0.20180915893430074
-0.50295355763911598 -0.015150232485948711 0.72523082998040889
-0.01408562732343533 0.52641108843154227 0.68449725603453904
-0.51610744677538567 -0.16068274040602559 -0.42536985537667893
0.7206702325550195 -0.38305091443769368 0.4813783083604688
-0.21427435186963684 0.067194117345179327 0.75209288898399906
-0.070962545569741339 0.52266181587025606 -0.61890620583046796
0.17454250720786918 -0.14107546088406986 0.71366755197299792
-0.10859518994932195 -0.18600023214436656 0.56357515696488525
0.011767386473840569 0.96829769020724998 -0.098166952431066434
-0.52252517400326182 -0.64448173500603967 -0.031969473183384611
-0.048447983783387119 -0.26422613189826905 0.41920378947696335
-0.10339645643230122 0.22703926345838399 0.73214145422182642
-0.01650559238388917 -0.20295519021635577 0.56493020717067466
0.281291049482359 0.61008574690102413 -0.23616593312021861
-0.38101902301840407 -0.090206795732642231 0.77491054012512561
0.15487537995125106 -0.015769560724332443 0.74890171258354787
-0.11247273308350537 0.29539069154625697 0.73894408255903798
-0.071364203302383231 0.2689623794089715 0.72034417166400611
0.33410798678755665 0.77789364427317698 -0.34584289812887214
0.12285014056610007 0.53171537178747941 0.59307749419042433
0.041013197305242097 0.24337885572107432 0.69937805748790327
0.059674562984112667 0.75358467954361497 0.27324926013936446
0.3673425635114646 0.72697490051354574 -0.30908380205499419
-0.53520581418364277 -0.060621199029271766 -0.011573150776654106
-0.057241666214053605 0.66969621442493255 0.36404383274403196
-0.46487093673149293 -0.12734463288895648 0.69063467601324025
0.40339801205708575 1.0403365979672512 -0.37874961794774198
0.36157590940049744 -0.3281079283554007 0.42512149860565895
0.10860405586434525 0.3234838347052702 0.65043540129387345
-0.047895144387834876 0.39388851632241861 0.74729742647969066
0.22547858793295422 -0.19347150352782072 0.71331142326770769
0.37991934024617929 -0.49645595788160501 0.60642303639424977
-0.55625604437018028 -0.75357888789614069 -0.13359894938420913
0.21562251819808725 0.23213042848461396 0.48620003939825107
-0.14291634495015396 0.4822236446580177 0.59179179910238855
-0.028253932427407868 0.47058194324866376 -0.57642432544134903
-0.6303405215821436 -0.76834137942430836 -0.18546929222760999
-0.25433740454794157 -0.056293015757553189 0.75397897024211025
-0.57678056571611191 -0.47338265758136577 -0.027383800618094201
-0.43305173743981307 0.17951926169144672 0.61976205617923608
-0.44279444278862612 0.14791048027227771 0.60421309100126641
0.13264162569329491 0.66095504334748933 0.57925397179456117
-0.26931605269041248 0.0068791337850102607 0.7949412892458011
-0.042123823058629259 0.17411000807140198 0.71342313015423076
-0.41326125640673883 0.043566402500000878 0.74204959866990572
0.31914390202711201 0.64935115454603554 -0.24089397424763637
0.021848903044744988 -0.081112708144677637 -0.35839788496094704
0.017835442488597392 -0.044572250737912267 0.76332703251763001
0.22907033091583895 1.0284561152585625 -0.31203069907251413
0.1644160292609915 -0.0068139264396978039 0.74492806424383462
-0.70540916076805804 -0.66850424960100718 -0.41688779895057038
0.035341102832881013 0.31308431675089743 0.74079021012862789
-0.28240504773149255 -0.12501171967797386 0.73864113653748087
0.023511704313190537 -0.14738545661504254 0.68120904959744288
0.048528976830780814 0.29849734176060161 0.73181894520455082
0.041973629431952736 0.63937509216435062 -0.49316615036963585
0.1920797241875874 0.84355497535741897 -0.18167388782850713
-0.39096905369278701 -0.26072387691358356 0.65901862146374979
0.17264734635490525 0.024407796576837448 0.72686149985470994
0.39030953951361008 0.81678247937161674 -0.39768635760458015
-0.13871220875453105 0.33391986814330754 0.74393001765543354
0.18869265264545598 0.15480266862531389 0.5117713841349899
0.098744551480547949 0.69210126371709957 0.45327092283941273
0.62405002431942524 -0.2152830595180768 0.4196157343475857
-0.082944695416391157 -0.2268096885755746 0.49728407611618664
-0.13251368740293382 0.58281029285984887 0.6696745631426384
-0.4552696100251552 -0.61448302023620061 0.018567839336793623
0.082578555437224976 -0.0025009892729086491 0.74643445797939312
-0.75775620377449648 -0.68145286486576406 -0.43990852769535116
-0.48861780302482738 -0.15489834464811625 0.69161289746037702
-0.77241233414487454 -0.71177952683799539 -0.44690269790924475
0.64339125530240915 -0.33275588107752063 0.63308910854094735
0.10548130920302512 0.019715829920146755 0.75113078827457957
0.091906559009526947 0.52733632150872656 0.61441979545128034
-0.71902782053029157 -0.72963823927303495 -0.37068189159381637
-0.49863398482607235 -0.19563001938795188 0.67665269202136857
-0.23161839574032442 0.65587084198084011 -0.37998806501388382
0.5112680256242802 -0.42794985577629419 0.68929069454558123
-0.017933342611064714 0.086921150684032389 0.7160217043311381
-0.45833762957778257 -0.53623216067139112 0.039536757723508176
0.21211662379328122 -0.14654734525612878 0.26779490644647286
0.17050960778595531 -0.089879066572004618 0.059357158329511384
-0.32809078796781532 0.12945735826852389 0.76006871893263306
-0.54569115416342107 -0.66215873898134991 -0.16092076737568695
0.10653368276365227 0.030375115180486301 0.74617020956301949
0.40573197484994672 0.73006273233316499 -0.31600809546950148
-0.40774023789586611 -0.0058052822198055853 0.76677994330928068
0.52214701101482808 -0.49075286482039338 0.53787668093209196
-0.52079927079544397 -0.12955264571046388 -0.3861891002928961
0.27781742963438794 0.58008070204698292 -0.17924896424591963
0.011385447838975833 -0.036671025890128384 0.74300910711753398
-0.27552705350928708 0.19913989837500634 0.78501073457294601
-0.74578621761495356 -0.84615598325226249 -0.36882123129738154
-0.10168191414078578 -0.036697118678008289 0.74971929170887797
0.40945690716024113 0.88939091337427945 -0.42325279773866686
0.38145098306843395 -0.29820412572197053 0.71008623439067353
-0.015600525649606451 0.23839558225446322 0.70521185223433847
-0.53113430363738168 -0.098983693657469285 -0.27785139060766362
-0.41176390242617522 0.018653622451641594 0.74123789770501525
-0.55259680280578294 -0.2389098823400797 -0.34498270243308093
0.38298587867744632 -0.36629132829129296 0.44363891046957582
0.061559657741422191 0.3050963889716376 0.72184685149135297
-0.2918681460483934 0.12429190749422192 0.67562956272780061
-0.13401713906824511 0.55889378525037525 0.61170499113613919
-0.34408125790237992 -0.27706370947194703 0.63102280317835857
-0.36861285868363691 0.11312041452292609 0.75162502097066242
-0.7984398157330197 -0.90644493122433722 -0.35259748674079794
-0.072161615889002689 0.92722655650624031 -0.28017039055673676
0.10076564966866115 0.32104489482515386 0.66629091337373503
-0.0077485196295980011 0.23224182814934569 0.7163343785195514
0.26192121202336494 -0.29281005011160577 0.41839464349361433
-0.37072729040823765 0.010246517671940403 0.798337853076871
-0.52443879916654002 -0.57268039179949515 -0.15484651832260532
-0.29488309071838487 0.21196185007729107 0.78040442819682265
0.3660145341657709 -0.49390465273699569 0.54058151166992807
0.025700471944757886 0.53133013279934183 -0.51544043436277898
0.21957862006075013 0.51107135071184873 0.33414263169974878
-0.10417246948118179 0.32999815296786927 0.73215389029193512
-0.2312736301972349 -0.018625928524459212 0.76057421445618045
0.06537024320777246 -0.017779019268854057 0.76044782997391069
-0.78450545211748524 -0.74362748831569636 -0.57090373082681478
-0.68653279951342139 -0.60421582213057468 -0.34427031373572303
0.0006191679292804203 -0.12114695171660284 0.69207719685738411
-0.02061348285213141 0.77819266199999326 -0.51129844146254566
0.62478592427067026 -0.41480152615242649 0.6659681799383641
0.65203376750183306 -0.35677061324505388 0.65085954119829792
-0.43128774849423585 0.1410565756987987 0.59414121039572376
-0.48087740165604959 -0.13593629256429218 0.69599426833697164
0.72687810983818069 -0.41851146299663244 0.54521308879896546
0.46667990160901623 -0.28290767971028363 0.41225162264179771
-0.76580354388735128 -0.85388553626094432 -0.39375915834014497
-0.53625215744417498 -0.17312496938583033 0.67087188767534633
-0.40471071376968448 -0.13327707069590611 -0.58047113051206778
0.71272818573119545 -0.22314125541337226 0.51261456943521366
0.11647286056790589 -0.060853010624712933 0.75905404260812781
0.076970010376763348 0.33007483114709801 0.71070312488852461
-0.094147746801156368 0.5685483519814909 0.58271242750035002
0.79122354771901759 -0.31778597758549432 0.51248455556933059
0.27384329751933684 0.67145681189797024 -0.27448129113728892
0.51850978651586421 -0.35108285021364027 0.65352805096711342
0.17594647411438796 0.12377381705688051 0.50600532279716637
0.14247831677136635 -0.2443368944372013 0.29060264840403949
-0.27118239327434024 -0.0053823688717102858 0.79944823684793109
-0.33551003260919043 0.36792948650837975 0.3349525824953834
-0.29703704113703816 0.22882902238184188 0.70117529626863884
-0.40224700941845287 -0.55977171792819935 0.00053305994587504735
-0.40154363019728156 -0.17679532446182522 0.71143991061719192
-0.25357837305135517 0.0071041943122274187 0.77316584327249027
0.6629657502009908 -0.41218875297651336 0.64688414638224379
0.5789719825111399 -0.39928444065932389 0.46251124567923663
-0.42103797963403278 -0.38848097462291475 -0.45066113175922928
0.19548335802676001 0.59174017618501518 0.49789776940240549
-0.58179590505061729 -0.26135164025143065 -0.17031718185710898
0.1638949462252392 0.80861920103704188 -0.30932943429220394
0.29266008042388036 1.0883360679070586 -0.29421929535748925
0.5854904037987716 -0.28031999861409074 0.63562064073808977
-0.078620658104288491 0.46082587128351271 0.71303014357799233
0.58669694591508459 -0.27159591265172645 0.65191851676517354
0.77749909937936657 -0.31590661274599863 0.46895200041910912
0.20022047465902523 -0.3623561239846993 0.63130341728457273
0.23284964809410652 0.64414521768504462 -0.22705363432782133
-0.06113573081308761 0.19678403214825901 0.65425804806138255
-0.16698679566885605 0.56539920780928488 -0.64487473799545358
0.12659293152868553 0.69425940618272652 0.39244085044830312
0.18213648702602894 -0.077548683303817034 0.71031449529091351
-0.32941906845949842 -0.1903666647658897 0.66511861993326127
-0.058924782708608514 -0.088311471714413559 0.71608868534594761
-0.47865863129901942 0.012099372736700698 0.55521570190658953
-0.22086238787805973 0.25318202580665994 0.75922331437950241
0.28408104530423889 -0.091493897182790329 0.36405054799844005
-0.22063079861015744 -0.10450559043774854 0.73346691870622549
0.16333570937537839 0.81216960946055083 -0.098453095687357051
-0.60457913271072405 -0.47324586852481576 -0.19334738030126353
0.16117149922448534 -0.039845470295061913 0.74401867307682745
-0.18503448964628483 0.048668232728020566 0.66469981958226443
0.070614321526740131 0.033665325413194891 0.70907000307751344
-0.029666675141848849 0.29123581015811517 0.75314903675354095
-0.39630757001830219 -0.071488222859518613 0.78018926697021529
0.18040626537160528 -0.0038615267090718053 0.73402133738799347
0.087876048192615255 -0.11722213728649189 0.71880098531211223
-0.38708719608498471 0.023955112883933039 -0.59249879412274975
0.54345886989394498 -0.45780941295695854 0.67370619680325516
0.19207984255074265 0.66080346122756395 -0.16199150573263599
0.55374863296789556 -0.33356532252189663 0.64163105755927963
-0.52697068076449816 -0.65111631673354631 -0.10193258034787367
-0.70998080951157916 -0.83927937842214817 -0.30639776771661564
-0.27848492377923972 0.22769376122297125 0.70089950747691987
-0.41955095302833489 -0.050724607289010626 0.76220855723695835
-0.40049123312350665 0.22872477679888781 0.65586730523242687
0.26604933253780993 0.82016081754530346 -0.3018226149509402
-0.35456296806885257 0.075007108250967125 0.75198378676524158
0.029015931446302927 0.40453594609249 0.72442786161354655
0.47247292936216106 0.97320225483965994 -0.45860265360436303
-0.14108038587778868 0.51447715937753902 0.76512251057256986
0.53009075181861787 -0.35876498497332499 0.65044032955383524
0.018181793139099275 -0.026300726661593998 0.73378636456994739
-0.019253781756638409 0.23648252263976755 0.71528678385000111
-0.4068767229046002 0.035136966950791715 0.7461701194962298
-0.56478484569689291 -0.16825337460782475 0.49332483129409899
0.069269096381419273 0.40105285893754594 0.6949390766597846
-0.61102990841470184 -0.47405485895972976 -0.231647898254419
-0.3750995108412164 -0.12594429770599791 0.74224827443855967
-0.048037847418697238 0.44449881210002418 0.70945120854185939
-0.47890583212954302 -0.16566501837124603 0.62570606135009177
-0.70746505832520179 -0.83265413906237118 -0.28165156679929293
-0.22150086217011439 0.35757203811313509 0.70115918486052098
0.25587578314325582 0.001227217159351035 0.41917132121169121
0.63886060045989856 -0.3714639729064646 0.66275699677201627
-0.26703264247767911 0.0062868025492914814 0.7893443559382326
0.070506921086036151 0.28162091638528675 0.67271673968311241
-0.59987423279167951 -0.40690102672500639 0.031991032689790977
0.13019250109950831 0.4792353918919916 0.60067341287750098
-0.40221596145084537 0.24188453211340732 0.70696636039750427
0.29100211572889184 0.62249507896729117 -0.2365529746630215
-0.68199511288490811 -0.64883083358107818 -0.36828162154991362
-0.22397469050925847 -0.066723128642755425 0.74519246118117477
0.76320111864419793 -0.38151408663574049 0.53499328003711899
0.66901506346420525 -0.32441800154559264 0.65063663206839928
0.17390366305308924 0.90218106905628215 -0.19922284422775682
0.11376589044641583 0.78713334256853473 0.17910308699922983
0.33252195385008787 -0.22465171192321143 0.39400670998184306
-0.55132144187338117 -0.5920229111222699 -0.20097337728097919
0.048406948055701379 0.47263853724112992 0.64531487008010902
0.092073774020017762 -0.034152772202242554 0.76726286040780034
-0.36768398506073174 -0.091203533754210531 0.77759248736430508
-0.022056436243753863 0.44220165481680529 0.70366824735943934
-0.51465203305765284 0.013326064438730523 0.62504957965136554
-0.59175079140543962 -0.2599112112693942 -0.048365137106285871
-0.067429103887280198 0.36766816385574352 0.73930758732716917
0.20803906689527457 0.67018951144310646 -0.25151589094362881
0.16748045393595667 0.79286382830931235 -0.07534257588157689
0.29456248299618826 0.95735722271655743 -0.3432950790246736
0.21441566096766246 0.31990589949343495 0.082782748561426756
0.16940598465440954 0.10767954188743434 0.49301815364772694
-0.58396746352945172 -0.60053696346291829 -0.22400135780587727
0.20221348176220547 0.64607615359627468 -0.21400825835619064
0.25908823427655137 0.65238190615639979 -0.26430584949072045
0.2214369793645691 0.62209258212081942 -0.20129478981541804
0.65559371749718076 -0.35056683724345583 0.64878405182354693
-0.43015226716995536 0.037090130473347527 0.73304314442347118
0.0055918909285541437 0.23010327892651761 0.71367385472199196
0.41608038330253327 0.95082442337395356 -0.47053186380215173
0.10218454545678492 0.51937372433457796 0.60976388227482381
-0.32755995065036697 0.030712733453348795 0.80545861434688837
0.55073471902253757 -0.43901729344327967 0.68083362705752193
-0.13058632039631865 0.19893486712174924 0.74013994575623587
-0.6017176538594361 -0.20400014319602677 0.64153575533509377
-0.48030619792870199 0.092303120138119032 0.61712787645225831
0.1743556226766618 0.25899283741762957 -0.1101930322487954
-0.56606344398393427 -0.098570703698395157 0.66827369806085324
-0.095782614062559529 0.48062841609643647 0.72827677608265506
-0.2888156210101287 -0.027368940627266802 0.80454993522445284
-0.048195509356428717 0.48090902694756732 0.7000139507113099
-0.3359270817108474 0.052891029535237832 0.78960678785859284
-0.23598656072057381 0.032279673008177356 0.7517377714966117
-0.13192536695265905 0.16887523572816154 0.73747166941208242
0.20453361111023599 0.73752222357415764 -0.22951620417358587
0.62149358614079375 -0.45337105831483515 0.64488531823513306
0.62378138388856985 -0.37941760161296334 0.67220449552183392
0.38458842330705933 -0.12934386635860906 0.67313308058092325
0.42560249765444985 0.83570934257570206 -0.36116643935178738
-0.56104027117549427 -0.65985068146770254 -0.17995152156654859
-0.011140678333975043 0.51531205068837638 0.6778123600459669
