# XYZ point cloud file
-0.38027108815684851 0.29155118671491587 0.61684916377966559
0.221131205327876 1.2168104917697384 -0.37564271646069436
0.73202641400826707 -0.44518280143629063 0.6679444138031414
0.55042292562023931 -0.093423154880389214 0.7030409435055418
-0.10364106550016583 0.30982483651162296 0.77736761079433947
-0.083575425553816807 0.11552625631445856 -0.7320797912889816
0.66298009263608293 -0.56064851046061759 0.41126952614989776
0.54278640940900758 -0.10981229013239746 0.35823316306421304
-0.18478127577464498 -0.30274638028074596 0.64075309358695165
0.46583213048348782 0.90218185946573115 -0.39215604802083348
0.83855694673558112 -0.24448081739245175 0.66517714700586339
-0.43470556927831439 0.023568343484493326 0.77527256367952546
0.24082017124882338 0.62793014079680809 -0.42635956701408873
0.42712490026459626 0.57507102813875211 -0.24849408478735668
-0.098804400006752502 0.23075533636391921 0.76428958784839907
0.82295891146410405 -0.18929038434540413 0.40824987230871557
-0.76695601725513907 -0.45828828235142138 -0.31645305243046806
0.30090007783360839 0.49881086349855241 -0.3715749160716868
0.89763372109303496 -0.32318216518276111 0.61730875736344615
-0.22469916170663851 0.38457698387369121 0.77329154220516116
-0.47373090978985566 -0.64853858723053026 -0.28600477229222676
-0.43601776681190785 -0.0098163124896366583 0.73422580383166647
0.13675899442805317 0.31883095902347325 0.68728784002605181
0.44174258330385474 1.2510533540674089 -0.51453779247820108
-0.76836514122575661 -0.6388016055947463 -0.40360233653551347
-0.23612589268386586 -0.38138379674341172 0.59524808766379067
0.33641946081473417 -0.11118625503325519 0.74084983959322415
0.14792700449290219 -0.046976846943633577 0.7874632563413968
-0.56613042497415833 -0.89463356012225859 -0.39756869209728762
0.31704934325002809 1.0375817607717188 -0.38963063573250345
0.7573969217296046 -0.51256310368017788 0.65974847899504496
0.15783010691738841 0.47304488649025789 0.65849613009550012
0.85458548329793338 -0.45983738486585435 0.52359545415000497
-0.090228909869876084 0.79667867782303414 0.66374980856971888
0.41112340581154072 -0.41532159979629624 0.35908445867480765
0.095770822042126724 -0.31818928151889359 0.49271742310833133
0.1830385710885345 -0.21027449799091347 0.7697291088310898
0.25588178245519622 -0.36364823604285945 0.27444933683526429
0.05661150659318448 0.61652061566755512 0.67432402070704711
0.017933673227887748 0.93018025425086748 -0.0038730878931829693
0.30343160999180885 0.58627580039926386 0.51137400720958226
-0.34275417012658238 -0.096310872863160757 0.8123418217644307
-0.15540762151036969 -0.17278397023284287 0.66560474252590751
-0.19863728483971954 -0.49561054666443138 0.40143468141419802
-0.4295637648573214 -0.76834436758200497 -0.27358536559864177
-0.17770633307322559 0.71126674818288382 0.73471673700155193
-0.2112483244706107 0.43876327666301651 0.7657826543481967
-0.73879100822946731 -0.25638439367519994 0.59680576069785829
0.56137059732910721 0.91075282703358695 -0.44931334146036761
0.22275422786399268 -0.017164386122140218 0.80898893372361513
0.26928632773513428 -0.37442104197993631 0.69157633079780467
0.095676238387222057 -0.16923031204044547 0.79526439075431554
0.22518957922464633 0.90989068881551916 -0.3875531629141058
-0.072048201171876158 0.12449759854813958 0.74699617022296749
0.51047549886358823 -0.34074225241374623 0.73781312385611386
0.26380754779943727 0.9747573369907343 -0.35360653648919538
0.44263563537080408 -0.5816227070547535 0.62964839473473333
0.021298757293908288 0.68927099493790589 0.66703040520351919
0.25492396260756145 0.75628743732517822 -0.015858208207170321
0.19539665313424182 1.2202424325297443 -0.44145104496457499
0.190491864568191 -0.36522994863018154 0.35499934437035208
0.082249113805547225 -0.14250356282063459 0.78424304189866234
0.34137671495834576 0.64539168700879124 -0.0071485531121133761
-0.21129975339921891 -0.33917579476450976 0.63097146058330722
-0.01625035244548112 0.34463627487253023 0.81054959168276142
-0.53370610496782245 -0.16364836399135019 0.73667157897827451
0.51396745229170548 -0.2424481487409722 0.32456747241184658
0.52272239335349191 -0.66482021163825067 0.47260075633400334
-0.46790969499023571 -0.21517293771524715 0.78475961182146037
-0.60468754697314309 0.4247511614835604 -0.61668730921201131
-0.97448639931010383 -0.91725754300955997 -0.43463245966100672
-0.55934613547770695 -0.041089270303730885 0.65784564267815426
0.059380859495593796 -0.30120779058002611 0.510568966057658
0.52415378408325353 -0.038944050910170169 0.38980624542961806
-0.62107523458605929 0.018117510129640024 0.78938491475269856
0.35977494141228239 0.96535571865425318 -0.37841270374735103
-0.96931683905400945 -0.72080645385609521 -0.37381018005913091
0.67129649830911298 -0.46992529329897614 0.66903069364983381
0.39171837772457829 0.7287097397081439 -0.27235042724900893
-0.20084143030918522 -0.34861056475376628 0.60543381796213325
-0.4405099099398635 0.18481435952385983 0.61062261949698282
0.27813974172361533 0.76084137653879935 -0.28407082572417508
0.31478104848029531 -0.17257558891828539 0.74306050663963674
0.39246127843941725 0.89775223655713354 -0.35860884236246449
0.39366222051124033 0.67426743919492882 -0.20280913502349662
0.42773821637820308 0.73014365446813567 -0.25953136801227217
0.76113868425318643 -0.39475713375719046 0.66771984192124378
0.13629929845776723 1.0343434657603243 -0.37800804937487342
0.048899439449999971 0.90056023634084426 0.084242888109997693
0.50364516821779048 -0.52245251428848616 0.38324897007885994
-0.14043538910100284 0.97160886408672464 -0.24795601837546144
0.74919484545978676 -0.30717660944238911 0.71502812649608316
-0.74413539692604314 -0.35544227542687823 0.56558527833558969
-0.61513774176961755 -0.20799245283783607 0.62393338388718789
-0.65155600214082821 -0.28597385585153301 0.70877603030778857
0.19630725945431937 0.016190443014095113 0.75143797984665639
-0.4787643548832623 -0.55532192621290033 0.54003145153554399
0.31207260913380885 0.070334551972560888 0.54723959833003377
-0.35666072574367691 0.20023279788159143 0.78323368260302928
-0.41007412046269298 0.1832436414049925 0.74175930527980682
0.77142728241275371 -0.39709816120392039 0.6925453916331108
0.13732058696262506 -0.33973934672048656 0.56307243850267241
0.85659487203653661 -0.45949606065392823 0.5498308551158928
0.49819379018840948 0.83814281261088741 -0.30404930338370129
-0.3785784565640844 -0.5178109478331514 0.58194409840905337
0.36092341571444653 -0.019586215053277067 0.70800020136730879
-0.7963056406736273 -0.95656332616186479 -0.47597622962269881
0.66339705375333047 -0.081567323355502097 0.41746456211875227
0.36378139857217473 0.64086936466985556 -0.16120149066560074
-0.71688803945618762 -0.29189687250977037 0.39136905633979779
-0.078183263189566254 -0.19701232430814919 -0.62587510489668574
-0.72139242962471917 -0.55263503698550265 -0.30602494493769683
-0.22293611174229211 0.75347782777900818 0.32377567420306974
0.2550326586846744 1.1051781714435549 -0.41784701475655162
-0.64012043155829801 -0.066736585878832244 0.55735819538748288
-0.61219079558199496 -0.96994789375402091 -0.37614954718367954
0.33529758857957648 1.1796761495781247 -0.46855138579026701
-0.67802458577831803 -0.13730322264344674 0.53905464598994612
0.44769577582733283 1.193988050328727 -0.43364313074353511
-0.13022645565020952 -0.034621811886144105 0.74503230034092738
-0.58747216525526547 -0.23813850557225535 0.71292125275379448
-0.1878173700275898 0.33839772813627 0.76782074333573291
0.051889419468290399 0.88480497005737124 0.58472634090962217
0.45799689319182235 -0.090798776014455296 0.23853552144559131
0.53868833790098591 -0.50994231950528679 0.70926275088765678
-0.43962973026886809 0.59456316349542404 0.68231801176403195
0.62032670133748624 -0.40434161887352227 0.73250932807535563
0.10356697286341365 -0.13415764558024845 0.8033725092082129
0.241426088048601 0.0044223238956273558 0.74812871802215497
-0.43989133863359431 -0.084962198157467306 0.80408402127434897
-0.47574145699409698 -0.53087785672110299 -0.43097657862855598
-0.61337823702053118 -0.66406771565289624 -0.31408329057895656
-0.23802319140972283 0.47786718091431091 0.75908809588448634
0.12439806270243547 -0.18464046932478428 0.80593840659901517
-0.19956847879107276 -0.39957253669305581 0.64564424118730557
-0.40381480315566476 0.83622461153468741 -0.38010448674963726
0.4645420042890871 0.83210976391736846 -0.33489201655277512
-0.62169762369512505 -0.8512794568305142 -0.4688240953258358
0.37645023028829883 0.31746957216926486 -0.17962800444351146
0.72030741858758773 -0.51219151792079787 0.68606957324355022
0.14020933479184283 1.1326211138857882 -0.31700625383006553
0.1153100676409764 0.72557747937496142 -0.47764555792256402
0.19374035142288015 0.025312951997328748 0.75301798289407884
-0.17159182251593297 0.61411826330952457 0.73834410583562615
0.21273464637191009 1.2534706520259178 -0.40815622629093617
0.51335808434842356 -0.6379806041153917 0.44030424484241948
0.21482548518120659 0.25709798236348158 0.68441556473141318
-0.51664646132799286 0.10677320958114578 0.81180975568216596
-0.5203890863519236 -0.34194679510987047 -0.54627065071122161
0.40791958198830747 0.67873143126807278 -0.19527092178002903
-0.28438790758990695 -0.17312158918409581 0.79805843971898227
0.26612021929333274 0.77020414283945193 -0.25787362123236335
0.16941878012584688 -0.054728421919880477 0.80816809335963313
0.033109054837524354 0.42751104170996967 0.79400339039100487
0.64271004642154317 -0.46792415548319344 0.70984724359962215
-0.41211036905392007 0.024499584087377402 0.77547041893417656
-0.041362602375266788 0.94050591912927306 -0.30210190774058532
0.36951629437140809 -0.36574239669159936 0.32149949582026238
0.22849471299712931 0.9267688516935868 -0.30820132822914559
-0.40856964068360835 0.35528621919445591 0.69329148308750987
0.058124627487359248 0.3692373695762865 0.77670855561112262
0.14213522191967076 0.4689640936335806 0.68135826816582679
-0.66882047440474857 -0.96753191992036081 -0.40185075085955901
-0.44874973854024836 0.24054738498377848 0.59091896221271512
-0.74397749767560439 -0.25266719405421023 0.62693789542929679
0.30806897250636212 0.41866892482821516 0.56617012761504881
0.30208202875867407 0.25314054675998143 0.51623975068187633
-0.70887424167506907 -0.48712363753129573 0.44662239898694622
0.16171423681452168 -0.08825471503051241 0.80765543564951514
0.20633843586939782 0.98628709674603243 -0.30648717733700082
0.28642811959433967 0.10253544841958506 0.51661074443977029
0.11329209623247616 0.82825076759724592 0.2615841786734876
-0.21823233065132364 0.43963758284453935 0.76721521303558049
0.41240661980626481 0.69546769947125853 -0.21666037481146816
0.14491494733356536 -0.084116192223493869 0.76117955453245756
0.91554346860550773 -0.24391496798108214 0.44374974535699252
-0.91352778334984253 -0.81258655898533938 -0.42134066293857231
-0.53505032689775778 -0.25663702717642156 0.70198988155325992
0.20846040151446288 1.0897799212390655 -0.45156682338568999
-0.21647357784511811 -0.58425383249224505 -0.23969981937122853
-0.94972987155136623 -0.68667958753584912 -0.39369216739478929
0.0094437336701012065 0.63355966316923329 0.68084562858537367
-0.064799120438811642 0.88068302636010287 0.21195907163855665
-0.62584293277507808 -0.61016863971122315 -0.2193039221729407
0.5171777131097457 -0.14258031184083619 0.72656430333058353
-0.21253022922753839 -0.31170723837540937 -0.5791609775366986
-0.30667117916864939 -0.22647819650887069 0.79708796455919995
0.40712795330544527 0.79751010916249587 -0.31313251698617606
-0.27963003841978917 0.57046890833739439 0.77651594823887748
-0.63799147374503828 -0.75830146452868674 -0.35649327685035814
0.2555596666200497 -0.11540609899561627 0.79275491243040008
-0.37263307414342162 0.63248226689690945 0.6420665118821951
0.50490826314014114 0.88143168516145209 -0.35431447642860014
-0.71814372922482095 -0.41068603383743096 0.39924744841285431
-0.11925859355920387 0.45520140970341938 0.80453061868057318
0.67456750286291012 -0.6802442266721529 0.49453849665376381
-0.47837769533637164 0.15881507365226977 0.68793525582567483
0.57088251957791236 -0.38004406459322682 0.73560325969981477
0.64588265638045428 -0.26187115585892484 0.7306758556541979
-0.26461376358764443 -0.27174513996324889 0.72909604383024984
-0.75405547292332198 -0.4332823444442111 0.56946179751268744
0.12586659902400399 0.48941444366076858 0.69613281648813441
0.00014632304057737855 0.52563572815576154 0.76626510342529386
0.13269812259278346 0.40583072100718098 0.7178000007616312
-0.23491584982993974 0.31844298965537399 0.7005199160445521
-0.16268527124052468 0.72351504250165144 0.4128893964300886
0.12453758137952331 0.60525418363231775 0.56912094949219139
-0.4640864547486252 0.48337083956579407 0.69724142646917642
-0.34792495726821748 -0.63451885225012172 0.009313013261589731
0.13570555416646979 -0.11186627637121882 0.80830868038420078
-0.95771660749487264 -0.79758771166680598 -0.39801275112339241
0.65873568624865797 -0.46535440016537999 0.65887840137749976
0.51302655079292414 0.67860870275057472 -0.27631050879022467
0.28752398122229017 1.2480629365001725 -0.40964512547640552
0.42779917533810519 -0.23214780598589546 0.25562391069987456
0.3721664000080307 1.0460218869374209 -0.4104062627796683
-0.60979356711068045 0.34216867487705138 0.43184493685418346
0.5511704161817228 -0.27440055129723562 0.73683820024115221
-0.47249308002894974 -0.58430421979191394 0.48170647260377919
0.35981276740692891 -0.22033241413263749 0.74273249172576428
-0.35140722248794398 0.73179094553309909 -0.53642004419344502
-0.27884393794659967 -0.29372014937752211 0.72200054156827065
-0.64674683737417737 -0.9279034480430256 -0.4399687817795126
0.93280317932850565 -0.18452240687577248 0.50171818279126867
0.32874515163053886 1.2779638611327577 -0.43234568794306938
0.53286036406129211 1.0557091131119325 -0.51090220336738135
0.66732368018595345 -0.67261962676730436 0.46790578951745943
-0.18330546767996836 0.34161002704574472 0.76286660258062966
-0.64961747665734082 -0.61099745773232828 -0.22111470740775019
-0.94198177625615553 -0.72791788590476902 -0.35679848315646723
0.41321638234281699 1.2505151133285146 -0.53513023806525695
0.5012867461296775 -0.39352667441007916 0.35158433101195996
-0.65541713245038835 0.088384577215297799 0.81012904028968791
-0.19141487808089375 0.52215886401012934 0.75285683258382718
-0.091326671719477837 0.27198649261991048 0.74884496232036923
0.41417114357574936 0.94121982647395264 -0.39156165578538626
0.25481324983789166 0.82507621161088274 -0.28661578710986646
-0.56952645848089656 -0.63885341381043093 -0.28143464150260655
0.2911210389921921 -0.047959396723931347 0.75080708148487929
-0.49219470975254254 -0.65698786751806071 -0.31344727839379516
0.62555474466758376 -0.42390062393463634 0.7077709925807234
-0.47390191845270024 -0.10701699165029965 0.79206656859964752
-0.40965716951291586 -0.36562291257615076 0.67237177777878188
-0.6833008681829229 -0.95334421205959796 -0.45493922558349453
-0.37136604466878076 0.27735981731941628 0.76980631462168247
0.59904705020066373 -0.44335864192469754 0.72993448910387571
0.7559583062153088 -0.59247250292698395 0.56753151731168217
0.32099401155778873 0.52863848363766408 -0.34951184545957048
-0.31125751839687954 0.21602281571110349 0.80451412385150789
-0.58566314492093419 0.093593580093006334 0.81067480740890119
-0.30240599453712846 -0.25762206586363412 0.76536603608506582
0.84193737983948047 -0.16888038371571223 0.42081061537318121
-0.57754933830975297 -0.32122053992314914 0.68363131740800753
0.25087808449393989 1.078719497461103 -0.40592849184635149
0.62456125580662558 -0.68601149842378017 0.59979837258305224
0.26692652011246842 0.80433376630288844 -0.29633197490476704
0.17752152756153894 -0.20393139582422148 0.78602684178234838
0.67278808923112976 -0.53528770319456265 0.69418168324047258
0.040327749645419964 0.31937071636340075 0.76574804214351033
0.12043548909060497 -0.19159640742642159 0.79976086415778624
0.8916303897759299 -0.15857229443096621 0.47005539502126936
0.043782084037162328 -0.29455751293439603 0.57969161867459817
0.74970838388512107 -0.39300166137013504 0.39346684365095186
-0.39373383099497428 0.47364991206375673 0.81667011674432999
0.14890595607185997 0.80923638598791658 0.57011667329155102
0.3372012163860254 0.90260359605501694 -0.34620680806699156
-0.29611481871481615 -0.056581201765334876 0.75740532361757573
0.37189186044396649 0.52260781279638557 -0.27440493430704649
-0.37127801315382847 -0.53699691041972919 0.55688691435581816
-0.36917422087971641 -0.76727902058935449 -0.18795286838129854
-0.38909194220577614 0.206389665055841 0.63497671810335277
0.48176523912688163 0.81076872235343345 -0.28499813864106116
-0.24399411574118091 0.71607153776227683 0.65403031717688265
0.10235618786319911 -0.18800885159016834 0.77259507805144878
-0.34600351206075608 0.12812936453281254 0.80136472518810109
-0.37438568349074774 -0.23968787806060954 0.795690900080956
-0.19169893365733692 -0.18813540781292759 0.74236976344048244
0.057509839356906234 -0.34440630753306989 -0.40899549155452419
-0.10489042400219484 0.97249699502368081 -0.12678636116536879
-0.75195310050358444 -0.65774349589522774 -0.27561814662657369
0.7778690444570433 -0.27003234726236514 0.69936468370726601
0.87095631869974355 -0.37833411517298621 0.62380711658110855
-0.64828846582930133 -0.55825939824987847 -0.37299142966529431
-0.74772480086376625 -0.83706805715704879 -0.49343894435942559
-0.62762384673539628 0.66622514520347487 -0.32531452276148087
0.16182803692884651 0.83341081204312051 0.49436827976962405
-0.38192529624107729 0.39508899511775586 0.63865050802468559
0.5112944615903694 0.91989373641957073 -0.38413515961189404
-0.46907951190131492 -0.58186026385892342 0.39525685341839178
-0.089074804741984259 0.49834213944340067 0.79266878929245976
-0.79513751830867729 -1.0175949022618105 -0.43279092406910635
-0.43395042657725469 -0.43005175026270903 0.64929221951744509
-0.33700739360119103 0.31716569536678185 0.81396321087548529
-0.20934082528512032 -0.13934574452668747 0.731921728821888
0.20870095119102938 0.76908212684512822 0.25406611655011702
0.78705021290882016 -0.3098783593389276 0.70198343036292954
0.17327686313808321 1.1522369028362078 -0.32759866818724603
-0.10442372927995125 0.68449495199508803 0.72063550872556448
0.85391619347548797 -0.40985292803978401 0.62695243500967024
0.7332223507408937 -0.31792500053995609 0.66493498682807228
0.10007686908806512 0.84182158430616916 0.21296113673647454
0.1185291691520387 -0.40050414183553307 -0.14677341637931818
-0.27409190293297403 -0.71193793096628188 -0.19470838744772578
-0.28527388466907144 0.33616506149046721 0.79170569179124684
-0.21729669969505272 0.4908758509067439 0.75689867089154816
-0.25005025648991697 0.95507632101194417 -0.13832455566911861
-0.59499833785810274 -0.40787374903607354 0.65075852840157822
-0.67118067081772637 -0.28842681716985119 0.7147505164570731
0.059587737539605889 0.49755493355627056 0.74490250214670439
-0.81242455345876952 -0.75290152507190466 -0.4068254741326669
-0.44187537566068436 -0.26768740576969519 0.76818301627565333
-0.23336433035615212 0.36464861982196606 0.71744253879387898
-0.72419835336456551 -0.99502789738494291 -0.4118297523475043
-0.04563436422805367 0.46554363196664861 0.80171946675009309
0.82109644663266401 -0.1152921310947792 0.47229587286634711
-0.47657937260205152 -0.38440104252610174 0.67356973839915213
0.64804202934247712 -0.029788164898674641 0.59822807599235617
-0.71875178245076388 -0.35008683482790115 0.45845802429913363
0.20915534922136914 -0.085067558870558058 0.8124363899501077
0.056337662317153203 0.3945159541453056 0.7896980141505523
-0.056508005217718704 -0.46444621635906302 -0.21065653282791175
-0.34799540378359328 -0.63616585615768861 -0.080573642718729133
-0.39308140184698637 -0.015911944825109936 0.76822434575213094
-0.72811654332568576 -0.34531057778037733 0.67147641984329098
0.85175109878307076 -0.41292256713119468 0.46557028776570419
0.36085162066354659 0.42998164983464626 -0.23769635662220168
-0.69025881720581861 -0.71211784677472134 -0.3470811242778602
-0.2662846983872047 0.44540515560048233 0.66665360974337062
-0.6128487354952088 -0.24027942999985497 0.70870591717429221
0.54495775342581965 0.0086433004004313752 0.60065195708622099
0.18514068002578421 0.70359044848889418 0.59481227969130757
0.29859833522292661 1.1209091000776876 -0.4382731307209955
0.44437809827334007 0.04329600950811141 0.49408878696295488
0.61131076945786411 -0.45312783377949306 0.72657315650386067
0.5211413467174264 -0.23094483088956141 0.73751958214489832
-0.72193408768656298 -0.54772049034939285 -0.14839718334295426
-0.61603743452625359 -0.65044158130972751 -0.29245100620299169
-0.090638455620701386 -0.4367654670279999 0.37879726382871937
-0.89597985255314461 -0.17766205353240183 0.14117868094297847
-0.54664646212124257 -0.05007351038316421 0.75667152376622582
0.086620611208318987 0.56070565067721656 0.67339267395788127
0.66089295323257424 -0.61320906702545885 0.42717939069581945
-0.10317966896151276 0.86987401940675468 0.21546308657321944
-0.91075109246987118 -0.74075697564761356 -0.36370237846396947
0.29100375895292352 0.67141805180645875 -0.3775234115926267
0.29137031510599432 0.1332053100389734 0.49254268813022506
-0.50670533221796177 -0.32246559200171632 0.67234526031356623
-0.42395572049470953 -0.40351015266575141 0.66827551474013447
0.39839472664121711 0.72022469686432089 -0.27060642743090568
0.46822766343006172 -0.0068995939178231325 0.38064988601938055
0.27136863077508311 1.1304726758072174 -0.43592782873397873
0.084574406133046232 -0.17533182653817803 0.75302335905140794
0.29591894793015516 -0.16245478439964534 0.74542461410014482
0.77385429354793978 -0.36914618054116399 0.69719994682443343
-0.11446913523269409 -0.059970430607377168 0.74835501377047819
-0.35172111489162816 0.47624125204000634 0.52999399622981969
-0.8837371498008717 -0.900465418090727 -0.45234707055703183
-0.28869243823059421 -0.45890290439724435 0.62232839004447271
-0.66153648889310102 -0.8523360023451898 -0.40300416717420617
0.018916703121402811 0.6747478155779385 0.67172094604297072
0.19656202554723734 -0.36899744145692881 0.63286440782066578
-0.27382494478878172 -0.17418282518845607 0.78260213203888895
0.68275542824535407 -0.6525494970139285 0.6009722269556157
-0.7543129812041558 -0.43936440526909504 -0.36294434727698288
-0.33483536520988544 0.24684736270767305 0.80068670939593289
-0.43195703450046352 -0.78673550685013693 -0.25011714049246692
0.26227654094206265 -0.30217352298645461 0.72341869845186579
-0.82739942261463284 -0.77810598393674923 -0.42130189340041468
0.21475521827205846 0.20163560590572249 -0.57486185981598226
0.71863505427758945 -0.50633259537492203 0.41380566779721661
0.073844408087401447 0.60838334821283713 0.62030249102031831
0.62162962713980896 -0.44918083808569165 0.70590426101096426
-0.20003897487562838 0.32964352866895785 0.7742076239799438
-0.46138031993125139 -0.25951988407503457 0.76301231426508309
0.062022613745220667 0.39244485913274496 0.78478011017819682
-0.37370789732127196 -0.3669833686868551 0.67600089645296535
-0.73418639203492031 -0.462722465056018 0.49563000576370797
0.16698914630884332 0.79907953493685824 0.27890123542868039
-0.078300439575048841 -0.34000540313200345 -0.51329631159783418
-0.22120063023526004 0.52721794057767601 0.67242607391336051
0.41954610846294571 -0.22651641954195512 0.22775610620623965
-0.78757751244926011 -0.50043485658918763 -0.0018283301877168867
-0.33963726615226619 0.026220417100675242 0.77278941913150589
0.48528337832030566 -0.54905419821725232 0.39447136147544626
-0.00062172012695538292 0.93563895167842581 -0.21006366192434811
0.28570401566671499 0.46421430093042293 -0.39505981910643939
0.33475515704994829 1.128021138986071 -0.44596240478398563
0.7242608662619876 -0.3167767876262404 0.66694870138486451
0.68464670588958398 -0.61071477344780889 0.64331557713093446
0.39142859879434333 0.53788012513979577 -0.093221683873128569
0.19747167053104242 -0.20108742751604214 0.77590245648907441
0.34963983692084266 0.22145450193117888 0.30584667229791052
-0.35507357904789583 0.80907139737133527 -0.45318016197188982
0.029830737222002135 0.40628106622217008 0.79886872219568872
-0.72468155806015488 0.57612781118575374 -0.13661821601614577
0.086434584070422371 0.58999721929348148 0.67431950350808734
-0.54223473515046905 -0.29780045974628955 0.68081904684453676
-0.7665442463256914 0.30280920784492116 0.29851595498350747
0.034819114269011742 0.6597113687202274 0.67343767844609204
0.30289105398130456 0.10234946541466616 0.49263723555375449
0.22018964760240856 0.0086152996823589678 0.75484262722437023
0.39070683997725847 1.1716990677387749 -0.47845405848849332
-0.81615055943309089 -0.69104248693646864 -0.3236212140745991
0.46880530286020772 -0.15683987059978399 0.27890877004138304
0.83483993467983453 -0.19783151509655905 0.65388538392176443
0.60272545397295119 -0.22338687436661964 0.35735998335428931
-0.54231976353713129 -0.39865292713354972 0.65647687155922441
-0.91908268433188134 -0.77408463091486324 -0.49506361303070889
0.56344929342742311 -0.48454001044571982 0.71955348729705548
-0.55094636579257461 -0.37590720399754574 0.66576069499956247
-0.56547158361739402 -0.54878451816554108 -0.4043271205883201
0.68717036297388745 -0.46969771765086676 0.67548902922930765
-0.62999054039679514 -0.35074181271822447 0.6756966365493362
-0.87750389083594493 -0.90712004478168362 -0.47231410466557477
0.62636351889502606 -0.40536123580195049 0.72974838529852448
-0.35514689301164015 -0.63356951197527134 -0.13663930982918515
-0.12422979064621642 0.75489485221103081 0.38851919226727105
-0.49382273177805502 0.40879362122523544 0.4802092700417866
0.2857289209527808 1.1549582209069644 -0.44435239895519452
0.46439278545958018 0.030359452040769064 0.59982323329754195
-0.33248516500182479 -0.082740646583225663 0.78852573650472735
0.11333808883809748 0.49542627425385444 0.69786069969135056
-0.10376996546367723 0.44702013778796235 0.80785816007998079
0.29881589639045103 1.0187715011499723 -0.38020997586437666
-0.17830517397691414 0.5147446779184246 0.75616678954015981
-0.3104909791171 -0.63881402379750263 -0.13367442415307096
0.55594062674310685 -0.4730279376869615 0.37231752861608669
-0.13644804811807454 -0.30230408306582457 0.6983767149033504
0.70090193186916316 -0.34869629514165013 0.66966430485317829
0.041377816084236407 -0.32963955622677421 0.47266716840313805
-0.37055504862642952 -0.40127288771381497 0.6260345235566902
-0.57830045585603251 -0.92583928477098654 -0.36644760932248488
0.35446346394980388 0.0050195644004125128 -0.34494800854339047
-0.80466263168172825 -0.7806901551639871 -0.40719113246160177
0.74967580531805744 -0.38354767929324729 0.65237229760490933
-0.16446676863841203 0.39061941822325053 0.77586402625701112
-0.019013738427221316 0.39099213310098957 -0.68342778556360884
0.1391877400857009 0.37321891472759239 0.71825209811665047
0.12431483975444291 -0.25830185703845521 0.70106913988138686
-0.33398269404508341 -0.80179016713349283 -0.26403046085160042
0.10641563046789049 -0.15943198818694371 0.8054181002289944
-0.52517003710784493 -0.10971268188579675 0.75076711163905685
-0.59005744091003365 -0.35544201542559906 0.66748849406813804
0.38475680350611263 0.72025381358752405 -0.25661733025114231
-0.022149495957682674 -0.35838314280182892 0.51574489146647196
-0.75543173311403011 -0.52716622470263985 -0.079226072940578263
-0.72023451012593753 -0.56842911036804611 -0.20761998984013275
-0.41153865072942786 -0.022175978447717348 0.76363391610182063
-0.077819089013278386 0.26151670102263691 0.754731654526136
0.29574890727143721 0.83419189446558306 -0.3179001532209611
0.053123724597379685 0.87519922615801349 0.60830709509670555
-0.44415633567610513 -0.44708605430389881 0.63874063188177388
-0.61020899898823355 -0.98082438067402378 -0.38063342895679142
-0.61134902129328683 -0.051772649176398122 0.76520802423851464
-0.0022991542663559628 0.51944318633340769 0.77214339059440462
0.43740211935897833 -0.60780068068221849 0.51911281547076271
0.25493889607923226 -0.0052422107476619573 0.76417238018437317
-0.55451562228731888 -0.25699219418541475 0.70495257241837805
-0.064142225805753128 0.5419773108546222 0.75230090894460133
-0.41575430438806471 -0.76436256660253288 -0.36790826992698555
0.0027645304131902471 0.53210702802873922 0.75353622454326086
-0.2483018370279817 -0.28041408289091385 0.73251805648668977
0.11566852539305028 0.40828563691606723 0.71054045909949437
-0.56422755744894459 -0.2324600712994469 0.72405419861510367
-0.50732999177877147 -0.61030759179195626 -0.13066609576806343
0.16922246079573089 0.27625528725012605 0.7075808289954324
0.025509699919886497 0.63090468089032825 0.67779372064544319
-0.78085025515614515 -0.61299728527132213 -0.23150581856736707
0.097411806632593745 0.53802117642682656 0.67824092555408555
0.40456300157716019 0.60093109917465704 -0.29396299934363412
-0.14385306522629149 0.76436110989985817 0.59389757770908247
0.31913571753366021 -0.51353658336369779 0.52600752819615337
-0.90711072006562243 -0.18861576747398656 -0.32345614398774458
-0.91360325999587211 -0.99182030742393801 -0.52467753011647034
0.28554788014093924 1.1853093433073063 -0.4226953451727713
0.25161594337664361 -0.025074962976041615 0.80326332208631612
-0.36945610555229713 -0.41683708327150915 0.59939878605009866
0.18340228127544123 -0.12844000943263612 0.81283392247743791
-0.6698968039163713 -0.99906346802616364 -0.40148555649770756
0.84363553147625048 -0.36322545181661958 0.4372151405958995
-0.44532543220985144 -0.35659522605058891 0.67370140543703272
0.48730341392552212 -0.18787456459088347 0.73733733976794014
-0.44638768193122669 -0.36352595788347219 0.675928436187899
-0.40016404403552386 -0.065537517610670282 0.78777230525050967
-0.44899728899548297 -0.37832380305394953 0.67761180049052072
0.29707672956184084 0.20836390989673514 0.47689393455242168
-0.24108112359946232 0.69003025766589099 0.59719350281213579
0.12237063385906666 0.86315665527522434 0.54332986536024563
0.1907943466370754 0.78625924308360062 0.41855624411144632
-0.37186607857637144 0.25003163153951169 0.68660270266754608
-0.19896404068152496 -0.49178267915639928 0.53261781275244147
-0.17186249541634702 -0.34446869051416251 0.67874626324380571
-0.51901546624038986 -0.36927919201789372 0.67451636371063728
0.098781576482482869 0.60335289407902781 0.6727931415150934
-0.89421178496758724 -0.87906525816262193 -0.46027007909226825
0.027068349689161053 0.33972081726547843 0.79177803242608036
0.4664359728692471 -0.53329997749492764 0.68097374612123929
0.30658452240782808 0.74856583998546622 -0.28538096472647823
-0.4827049184379204 0.0033223120836327613 0.69168823247211719
0.2704197274812522 1.1608111902275997 -0.41985725535112728
0.51024183773542031 1.0408301828027859 -0.41660951861110362
0.11790091114954038 -0.29106823444434826 0.63946756628003598
-0.2649832800881744 0.44314689488770442 0.76785028137976852
-0.61536778203045994 -0.080629200851273009 0.75868783633277914
-0.58786046331521025 -0.16483516748749816 0.732894088674513
-0.57039767403778363 -0.64290327658580426 -0.29378366471047102
0.57117661332674219 0.83533511312474218 -0.38881745693331204
-0.23457160445223213 -0.19583339781908116 -0.64368559018447868
-0.64457407435552483 -0.55504076367637634 0.46374022673330728
-0.83644408659715408 -0.67227497000985781 -0.2951434290012358
-0.85741843329106793 -0.78279930221027305 -0.43838355646893845
-0.37743071901728786 0.20803426119270996 0.74006954592654495
0.018630255721522992 0.30582723613757534 0.76968857201339347
-0.15002277464597302 -0.29424914836514837 -0.58312340849130351
0.36019495058399542 0.74877057581557338 -0.35312313164294906
0.88114961990609331 -0.25016319098711559 0.63930900830249371
-0.24215980522571501 0.7104665566127164 0.70973091903034558
-0.20797072000573191 -0.34606093390944981 -0.54786012731656797
0.76288726435460852 -0.32109707579903191 0.71094729101774945
-0.40742474829668129 0.57983068339127386 0.63822601846661087
-0.19181284572852597 0.4753826123945557 0.73775280245044428
-0.26971666702134378 0.011040255470655458 0.76529026508780262
0.26553077273881698 0.058194263645920952 0.65645502154129431
-0.59358737770689673 -0.20144878750287898 0.72176009895180471
0.69723905459725799 -0.31967260682594545 0.69396042236513011
0.27302503545360146 -0.042714916852335749 0.78529429733960754
-0.62403846221443682 0.17496153620128219 -0.64474694205492256
-0.35855255956311094 -0.082449298910952429 0.80840544369095468
-0.66314796721269698 -0.58382102284218229 -0.16068558040647218
-0.62941403221989489 -0.61866539638646167 -0.38250666738131756
-0.37102786394304577 -0.74235825486361451 -0.19051294561333876
0.36484953974375989 1.0978261101450766 -0.43253899445282329
0.27691840019702108 0.75614425068383184 -0.27183086319947236
-0.17002405069439863 -0.17360421594522446 0.68775540549350467
-0.30000677415473564 0.49808632066987468 0.77873455151983606
-0.68637196569209991 -0.50164737980500229 0.30075170915949201
-0.074875191876646596 0.59069060085747571 0.71666302407680504
0.57688397640529487 -0.13335840129139864 0.36767486633492652
-0.65208960281745787 -0.32714511877359698 0.69379628247137148
0.43997405862527827 -0.54644299293100063 0.41239536064548687
0.11772584055052637 1.0593586636263899 -0.27289299506477249
0.29696062906077492 0.76111510353674294 -0.30056808999684037
-0.2527029325979635 -0.67076468629906216 -0.19087155024172375
0.49275195932672977 1.0019745515105392 -0.45377738542832446
0.17147034578089748 0.46616040454568441 0.67987009297736023
0.16521794109732912 0.94245883964109822 -0.2291592122048165
-0.61298841105424273 0.17380534472912346 0.72182937625468568
-0.49399243232054957 -0.6466395691203799 -0.31118782139270351
-0.70771499226797285 -0.23811516775328201 0.72262085733722614
-0.04801031610655393 0.24505341393937696 0.7630672378539991
0.23630934702381712 0.0044946557390415087 0.78211736263747511
0.28583593415155484 0.81102096292481107 -0.36818350869812022
-0.78644191860205503 0.47780040923985911 -0.1385066860057691
0.14696176982565401 -0.31922216790009328 0.63169499710284782
0.17481464442671846 1.0123450629231705 -0.27255196434492746
0.59998217904364637 -0.70604331151132604 0.57282753121691243
0.0067281769779032885 -0.30269763065344812 0.61229862977263139
-0.36648268636221371 -0.63138771932354509 -0.14725447992226748
0.86943812293313627 -0.23204422864522822 0.6435227006597195
-0.30962659844969753 -0.016131659196015002 0.77187897429448782
-0.32844371637504288 -0.63546516785432927 -0.056754410862222215
-0.46794912237731889 -0.58481954968919148 0.42827399504295371
0.7488440739899076 -0.32959834332773719 0.6708592227751673
0.39432105481661361 0.87497990180402585 -0.34666001281370029
-0.23411310980598099 0.53325471076992859 0.64974571782150647
-0.34542394243887209 -0.23692743154131257 0.7977013421281498
0.11123324182400474 0.35407678041673107 0.73145118439971668
-0.41570806874151245 0.15338121937145044 0.80249721129510831
-0.84844736176369384 -0.6188138041714577 -0.27504333835535988
-0.14003132483500735 -0.39840394151600034 -0.44734525329929298
-0.38936387461617272 -0.24570135656248482 0.79184163095499116
-0.43149398249419857 -0.10069315434179016 0.81165255428197014
-0.37056014409242 0.29088108216887076 0.63474134926183368
-0.79821603420371678 -0.95542660495259546 -0.45384665902433241
-0.33870172054126835 0.19057489068459033 0.79693382121091005
-0.52666923449777325 -0.34976554092178347 0.62318910313405951
0.50581354916207566 -0.66283991501101402 0.51144054269571626
-0.60465049104500856 -0.78561142133749495 -0.35988118526887902
0.29283673143607025 -0.13532294548735102 -0.37319300449880899
0.12230765147391298 0.92553726391248503 -0.33826317434713005
0.14647544829852022 0.82936754979998284 0.17027085457353053
0.16202841587748895 0.96599972135599721 -0.23592914836783052
0.28925661255305002 -0.065494566377214625 0.75871787665420243
0.28520815470915206 0.089507054850739287 0.55390642386648636
-0.62589396911468809 -0.19501187915508389 0.72882695326660496
0.8485138315766001 -0.23861636898007887 0.41264544806362125
0.40150273813337556 0.53554850814112953 -0.12616465776661556
0.18510235710764622 0.48169420500924076 0.60901370568153013
0.71752997672014729 -0.17268969190801187 0.38984215413871937
0.032946727448960988 0.8355976642704821 0.33278577701473111
-0.53817463179203884 -0.60618401124272192 -0.19106093192698381
-0.54086477715168435 -0.14686823484631795 0.74923784380414915
-0.69522952561502382 0.12497564542811124 0.78975890548818484
0.81365649632555481 -0.47570873677623782 0.63084733987201247
-0.33781831071221191 -0.089239433315644323 0.80328045765914169
-0.49440339069800565 -0.034242526317220356 0.76786533735520734
-0.82066467900080875 -0.9369415915966075 -0.47482589586284618
-0.31757394570695396 -0.2426841117177585 0.79247664636840653
0.43301079929587161 0.7910739990153477 -0.30118617556280824
-0.68481875267830716 -0.94210004246772683 -0.45300442981629629
-0.063185376484522493 0.23332241841409296 0.76387277304837298
-0.085332783510700061 0.37606569659163225 0.8146726460736069
0.14377418029493771 0.25811491520472885 0.62522019393318118
-0.87546054292538944 -0.87983601726056571 -0.47253586530896285
0.26227768494342824 1.1037937905939721 -0.42357393507886343
0.55874737863345914 -0.058397054587744801 0.39366020080676734
0.67454883548913536 -0.49557485840724813 0.70927186695334044
-0.18030725481757193 0.3845669408756125 0.76423263405635211
-0.57691098502363758 -0.60382203925237077 -0.19368114963465999
0.37636290800439642 0.58377178776285543 -0.06730395473834605
0.41227180338658442 -0.22054117183884081 0.18608108258315781
-0.3966162162216591 0.18584478933176429 0.6579703105076895
-0.67151477187107389 0.059126584810847316 0.62511461718640504
-0.056825501984397064 0.35923277561300471 0.81453210517460661
0.4131686861875874 -0.27489735591865538 0.27245275936972746
0.13176508528530917 -0.074741077665547939 0.75127600668616878
0.72071012595671569 -0.49405679741170938 0.69429498566950443
0.70328454539018104 -0.63159196877870971 0.60375622763392656
-0.52596474530937876 -0.76862941939872353 -0.4124105385444885
0.55073561483403921 -0.18724483597457731 0.73059848857565157
-0.61596760323067645 -0.75332879791425245 -0.35082987009267796
0.43909432330323517 0.73989586065658219 -0.24280565160252365
-0.1224069967324839 0.22362500663706486 0.7632620382440507
0.20671793649031756 0.83391328600317838 -0.21199206633986023
0.059794124722395203 -0.15327342181996384 0.75897298801935875
-0.28647229481346415 0.9370860361082185 -0.26751254989334328
0.36862579907180915 0.92338764880983959 -0.36352321622656092
0.40108480518389555 -0.4422781264840614 0.70543445048487996
0.38298044717924729 0.55433969237709313 -0.049961025235976564
-0.51198725562911385 -0.076125052713215791 0.7380459813114939
0.38082736836952202 0.83685858480556607 -0.3286231185872488
0.016209455582418819 -0.085568174442509637 0.75535437038802655
-0.11144464999824066 0.098432075118455309 0.74880941353558939
0.6764146313921291 -0.4399130442729402 0.65436777183749228
-0.21965410231570148 0.42268127396685751 0.76921613952885437
-0.098820811562861266 -0.33864095138203565 0.6557057924977947
0.2093404358448403 -0.1798729658269016 -0.45274197286551043
-0.091761872078407691 0.26672757620497856 0.75546155586752306
-0.1935915450186414 0.74224397597197456 0.63921753602518905
0.46240317365520478 1.1073893568880866 -0.45860138331169154
0.39265745218994397 -0.2030342247492678 0.037949715135241036
-0.4878912222733307 -0.095870064724934867 0.76596815107364336
0.13275889009442299 -0.12482128073058885 0.8110058365680537
-0.79425664722855061 -0.86991347914641315 -0.43049793598228092
-0.36040972204675281 -0.71545868817559533 -0.18953800966224321
0.46489514192082204 0.65827589893146854 -0.29243790763267796
-0.29711914787573601 -0.54030949099322756 0.42315649678009137
-0.15065585832425832 -0.46196801798890785 0.45885499035069799
-0.013325476387071156 0.22641543055150648 0.75754460194179174
-0.18033747437162884 -0.53261536018057365 0.18909999036414149
-0.68353670194937477 -0.5613440331057814 0.081991181914126798
-0.54835112838626543 -0.22672339540770636 0.71444530845974441
-0.51522548059088713 -0.077432189863032352 0.75704317037149593
-0.041805883854841852 -0.31723162407869132 0.63984270098742257
-0.23533783895362737 0.95424499464263235 -0.26542349682375033
-0.49245746791455502 -0.41588360897614862 0.65439094522415786
-0.72766229494544632 -0.070224104714479818 0.74917469966311856
0.16052959960331492 -0.0080132329828386251 0.79038315720235275
-0.41108239707835192 -0.72053039297588484 -0.28434830644939879
-0.78669820574558669 -1.0049524254022146 -0.42459027200713351
0.68906572757172846 -0.33639280447430031 0.69395504670124453
-0.066395643856490771 0.46737068658287839 0.80286700542144018
-0.25805652348796571 -0.36050135225268432 0.6848023729617374
-0.22867611403717358 0.49455134763089559 0.75565701008468977
-0.75966568784762778 -0.56608100990935539 -0.27651954147532365
0.44845811528289214 0.018461240788862465 0.41678635683037157
-0.44950473812040137 -0.6144913086963244 0.15575889082069594
-0.20320525415808888 -0.15511446413909935 0.75367722579718333
0.31372164479630271 -0.098097325481692366 0.74371669465082846
0.44661828965313877 0.77110655073733714 -0.27744790606417524
-0.94602554129246386 -0.76459110245348527 -0.37984549745009133
-0.16196997982897177 0.31262187554734933 0.76160831322017231
-0.43391232483468656 -0.74293802885901594 -0.309761987401167
0.76743652811637908 -0.4094234111639341 0.6915543861834621
-0.94772277107844172 -0.68663843062292607 -0.36659232913667594
-0.33284876220073523 0.42741415231110302 0.80191343609962118
0.14064286107112922 0.84297954248586215 -0.37791193048060734
-0.52231847776981777 -0.66894353887456171 -0.32141068271321416
-0.66672050645232872 -0.1846901429448069 0.74614498840049137
-0.13535396752012741 0.63973743640347913 0.72583359500010758
-0.86146087274020822 -0.2607932375575297 -0.37169066753047275
0.89966008448450374 -0.34838851389558378 0.48089315198986426
-0.24622574582267287 -0.031547880341582957 0.761605287878659
-0.17466200538927756 0.52467587179926767 -0.68982817409735375
0.28665639633621609 -0.25644835933303667 0.73731363621172008
0.01283319326710064 -0.32839189272469826 0.49710436661812096
-0.30077208502313901 0.93663000395606932 -0.13641504789165282
-0.38920500523173995 -0.75046925924617913 -0.20725787186628608
0.1342052491396597 -0.37347001060477436 0.30899938865455567
-0.15201277082522857 0.21521395535210686 0.76441916159912537
0.12930528301256317 -0.33847171269648801 0.50280189140106657
0.42633630391202271 0.73536465405245099 -0.27164763575947504
-0.40461458049800658 -0.28569788545461261 0.76363886158601701
0.23382767864190157 -0.075369998924120774 0.8081909711841142
-0.19493406989449547 0.3062204609769783 0.77398728158822649
-0.12050885578118642 0.28100494637350959 0.75777061409563728
0.44147067929771122 0.90904926450321177 -0.3864110099678868
0.085294896802008857 0.68653084311319201 0.64997381395702547
0.047111374921696481 0.27757764062250101 0.75386569929234426
-0.074237824265477093 0.84425261799413498 0.2657551218199572
0.50840187195430975 0.87618220647057043 -0.3395837443147034
-0.91675533621725025 -0.21316175057901687 0.059609885915314464
-0.26850195997492188 0.71353616176676882 0.35757106424841112
-0.5255446639152952 -0.32477657631714241 0.6728531314627979
0.40046863197384386 1.1846017374530593 -0.43235820306018624
0.58988809719586399 -0.37083990714800308 0.35050352024049403
0.12096690857368753 0.40776921202783756 0.71409918174736475
-0.13708951753318566 0.46159273977803439 0.79635201664234501
0.34581984820500367 -0.32497878444714812 0.73203674661069584
0.5612371899684252 -0.70281137151306261 0.50704492246496358
-0.38646485047598667 -0.84573798551136281 -0.33346362913783523
0.31260552897994387 0.3076683711629391 0.52943359282489766
-0.34021558567123122 0.51282299535715303 0.60465931460838362
-0.043322634315854813 0.5101450357113011 -0.65753171453886949
-0.52032520863411236 -0.87110409200327987 -0.34599445936500217
-0.24416428757503716 -0.21581602138285838 0.7442617010450121
-0.63393367292072833 -0.59177747722153562 -0.096516691769199525
-0.72658561676950262 0.073662028198064222 0.65825641740719476
-0.724674340448483 0.034463910222689798 0.6397371035373034
0.053124456957317268 0.85776705552010579 0.6283280634373547
-0.29531956017476624 -0.13395404570153113 0.80212688360266782
-0.043900874621996877 0.15733522811091216 0.74869011009358033
-0.55161575926948059 -0.094105133301787935 0.75418538149271797
0.4656220631995085 0.78623776533259715 -0.27051266514106587
0.27915343425843453 0.066668424665114578 -0.49266562348027065
0.088284519694518337 -0.15615825621435375 0.79290637825149801
0.12901994955139384 1.0923937526274461 -0.3712301403610887
0.24314609492594919 -0.058246128175118317 0.80694466025673961
-0.83814471809148827 -0.76166787527037827 -0.42213142921058022
0.012558279916380144 0.37752164902024976 0.80648454152211713
-0.24888122594761075 -0.31690665755344649 0.71248474058891276
0.13722128712542503 -0.28943464023632726 0.66696064240188591
0.035940849019995724 0.36039160209357157 0.79819476506412101
0.014367798461830894 0.66552482213706909 -0.56734218121301438
0.17014735206294018 0.91978938780897046 -0.22443699477135581
-0.32891774290040843 -0.50107760369443444 0.59212498588179585
0.25026611948552713 -0.0056447738110305679 0.79141007221535986
0.50649107113495573 0.96516519746633911 -0.43774625394622291
-0.2547881131768861 0.35042626773987062 0.77692361288419676
0.2918457497028264 0.19802800147969846 0.54469895166260685
0.0024921763031831023 0.84208819011810476 0.4760637835463335
0.82875398428677727 -0.13778768436940325 0.44080818439587333
0.067655113077353057 -0.35787862245695967 0.40918482955922997
-0.38366767113944289 0.65239696581702833 0.69133922563124273
-0.28538634903900206 -0.71610231725817641 -0.17522750945894927
0.15325907472963163 -0.073455925626279894 0.79197303021922139
-0.94115289464372198 -0.80168475529873873 -0.40243962592010973
-0.54264432165139986 -0.36662701942388631 0.67195727230936697
-0.94161340575922203 -0.83415636153426775 -0.41407639829670373
0.76353420447299492 -0.36891848043876241 0.67080919003447192
0.17260505405167148 -0.03442897580964499 0.80682411263411424
0.038290654950791314 0.67196369257844957 0.66779896004748096
-0.78957109199341513 -0.82925997249474581 -0.41032948143351078
-0.53125082272753765 -0.42130434508629033 0.64708573552641369
-0.75229263863675122 0.48062992333352828 -0.34495809939336652
0.63279257606034989 -0.5951074040222657 0.6706933489583129
0.015672741212354957 0.039183315288680909 0.7471911678640879
-0.34132176052900842 -0.63600046105269481 -0.12255040832055286
0.44741941563138887 -0.12378150733203652 0.19147983188743467
0.43323342358792516 -0.010322466939977737 -0.039120440032021975
-0.45985691544402751 0.033661830386091385 0.77596631495181256
-0.44664090842498183 -0.73398578625519595 -0.31756284299863324
0.17244870967437009 -0.017239891726358092 0.80251458403339981
0.56011551444879659 0.89352303120347187 -0.34153691114784301
-0.50242996263326578 -0.16475490285062078 0.77215420134447754
0.70939773680411022 -0.60405788165234808 0.45509126727705862
-0.89650998119058944 -0.24585802683993485 -0.31868236048574516
0.425477363900995 0.70541715557267004 -0.20956827884446838
0.082415623232291679 -0.14098867367694212 0.76731403436253487
-0.41010176302566403 0.13662658974744413 0.80935508772743603
-0.72232024422176888 -0.95048069853183759 -0.46244699937250289
-0.052682833556850106 -0.16380284282420732 0.75721270940638163
0.49770448085155983 1.0386275961630993 -0.46797545253789252
0.5035709511857025 -0.44357898371503213 0.72411763641300197
-0.028380577090489467 0.25411015234697687 0.74858868104897525
-0.93208775476039829 -0.2364346580231258 -0.19770015292644416
-0.53153361744737104 -0.12729921410152456 0.7487165664430897
-0.86985235023143392 -0.34554744879564492 -0.29521448622843494
0.60897037257601561 -0.424619037663863 0.36316997124756867
0.052744489701347597 0.37329066393758992 0.78932645735849505
-0.40342984780394708 0.038473396379610225 0.67727825102221573
-0.37121698743766363 0.61028701814764252 0.6275521529554382
