# XYZ point cloud file
0.26242962256019053 0.97429243760700524 -0.35435683719185462
0.44328119447689218 -0.58221012846909126 0.62876030563847252
0.021168635198490549 0.69026741273239933 0.66728324088540347
0.25435428651199521 0.75750078379177532 -0.015010234692969249
0.19313506041645967 1.2205279897780184 -0.44290929908768106
0.19107413929273598 -0.36479532156812411 0.35474533635964889
0.082013853542962423 -0.14314469545680542 0.78411521745346846
0.3413614560791931 0.64680087358744043 -0.0058938302770137341
-0.2112116852551118 -0.33971041141245628 0.6305193584245572
-0.016387250327994707 0.34465328475830503 0.81070909500297716
-0.53333978242980251 -0.16396240320113797 0.73678684006770112
0.51481112362039738 -0.24091618678497184 0.32492981339826343
0.52420858319935171 -0.66493536421735477 0.47148129916581638
-0.46754814070336792 -0.21547690527076035 0.78487002254964011
-0.61412988402652702 0.39886111281608871 -0.62783876446990661
-0.97418415789929291 -0.91454107998981993 -0.43422084117667481
-0.55941017339269283 -0.041801269932787655 0.65759960428339781
0.059542958727211825 -0.3011814071126766 0.51030806312739685
0.52452237701929683 -0.037732584502113919 0.39067426783240933
-0.62078422694049129 0.017664110121810239 0.78953835273429007
0.35936250764213851 0.96512806688810704 -0.37858033201275987
-0.96656501506819925 -0.72201254867698328 -0.37264881533818084
0.67156836733945724 -0.46979593556950539 0.66883008669780608
0.39153162797749719 0.7292317377953168 -0.27197125523990451
-0.20074433322126417 -0.34913024618525235 0.60495712364813414
-0.44175654388515184 0.18417642244315502 0.60974408332623398
0.27701591748485832 0.76058996941253887 -0.28442181703404401
0.31439991355336971 -0.17348824288548403 0.74303141220050861
0.39225073893475804 0.89765559928205341 -0.35858694475148667
0.39363537743699428 0.67524352941066912 -0.20207838575599624
0.42783120352044524 0.73088396108760789 -0.25891946679625377
0.76113475217634274 -0.39463765934496386 0.66774904857597761
0.13302589981041546 1.0329042468241081 -0.38030033374234762
0.046497175324968332 0.90195625155852044 0.083664984744814319
0.5048839958512179 -0.52199550574757225 0.3825661084460279
-0.14798623944467626 0.96757677043068635 -0.25357746777001466
0.74870195955338303 -0.30786449766447843 0.71516902146532502
-0.74314514527286768 -0.3563528336940518 0.56534834342284768
-0.61467595892924365 -0.20874863088271489 0.62381173136478196
-0.65088202691245467 -0.28652988768345367 0.70884111638042668
0.19593766414833347 0.01552685583556368 0.75166094384368165
-0.4787407566844939 -0.55667609456631695 0.53887774468951477
0.31188712286392306 0.070631150772777485 0.54796649470083025
-0.35706396139158691 0.20052018286034112 0.78307627947628333
-0.41065956351311339 0.18328951699193041 0.74144224492926725
0.77130087077250309 -0.39710857423356982 0.69258730938541646
0.1374735968284817 -0.33999476924117289 0.56267256518696485
0.85741942458433762 -0.45804551661634907 0.54979329703312629
0.49885226453727682 0.83870554114760276 -0.30325125752789006
-0.37854580387007708 -0.51914876777945018 0.58089522453883546
0.36050003074638326 -0.020472010203752333 0.70837965288928473
-0.79795945292655013 -0.9540706743884444 -0.47643027051226028
0.66377436544160417 -0.080535524189834895 0.41823124888743735
0.36364307217712177 0.64195202998506584 -0.16042498850661602
-0.71601187677211353 -0.29383078064976509 0.39081192442446167
-0.077013079616886415 -0.19713980364881589 -0.62323097359221435
-0.71938468851522153 -0.55487957800036369 -0.30506198335157819
-0.2273591433023765 0.75338388483620999 0.32098906376546665
0.25355491190362756 1.104862682194502 -0.41882066109723226
-0.6402241819389225 -0.068417678021782002 0.5567033826577017
-0.61483296406694521 -0.96945539136765291 -0.37832272101061903
0.33508020063645594 1.1799407238111184 -0.46872382632197329
-0.67775363739626382 -0.13902891642816151 0.53850363329641482
0.44942905343338202 1.1950793470965957 -0.43222100537733965
-0.13040364746610855 -0.034579077408986691 0.74504752242126671
-0.58695763239817467 -0.23860658659758549 0.71298995884818339
-0.18835313110036633 0.33891746361285424 0.76763965047720006
0.052099938641350541 0.88673158301908384 0.58521336049068395
0.45877411871259177 -0.088722245698686919 0.23939944752649467
0.53891756602417118 -0.51036595258667283 0.70877284604569368
-0.44226326642343139 0.59429209901445113 0.68013077444207681
0.62012366455659595 -0.40489857225457992 0.73234456849872132
0.10329953941208814 -0.13492454251452113 0.80324496060261197
0.24102898788364868 0.003628705677211741 0.74837687497758054
-0.43963370515112921 -0.08500290268392785 0.80428772389559811
-0.47443858835966246 -0.53145494520223391 -0.42932041106345764
-0.61232300582500176 -0.6641231246277588 -0.31334514514468736
-0.23885370993052035 0.47859843466663676 0.7585334646187647
0.12413005807109379 -0.185530661718877 0.80571793495293065
-0.19948823864624998 -0.40042529819823969 0.64498448144581033
-0.41648758089911342 0.82167410791748874 -0.39158777694727576
0.46482916874297242 0.83241294708237201 -0.33446467967986138
-0.62253775128380884 -0.84988485912057143 -0.46868037042283817
0.37689743584859592 0.31968205910455239 -0.1784631676890811
0.72066982660881429 -0.51179422859551149 0.68590412081786312
0.13747872289333507 1.1330241859216772 -0.31845857882268547
0.11203342025024865 0.72135936323650141 -0.48046965453440293
0.19337123919822297 0.02464823062214716 0.75325049320385773
-0.17236807415982724 0.61516612391090231 0.73774100144767374
0.21117890644012249 1.254831147057077 -0.40882974712319964
0.51480661371116909 -0.63803125590095355 0.43922393157002659
0.2145468248093767 0.25671226660311941 0.68509177197655902
-0.51663934255891775 0.10672098002194819 0.81188103173929704
-0.51890549858273793 -0.34640201911675739 -0.5445032836856285
0.40800095294022043 0.67978331472875642 -0.19444253033900338
-0.28425493147281955 -0.17336111733977155 0.79803852869298453
0.26496470873914868 0.77008432397716375 -0.25815682999407841
0.16905398682418316 -0.055648411274531462 0.80818734282402716
0.033075668983750361 0.42746158762537423 0.79427618825994983
0.6427972424182915 -0.46809635095599589 0.70961664804840296
-0.41214481923301527 0.02456896639972328 0.77553208828025788
-0.047119299480296917 0.93712005317848646 -0.30633321121003121
0.37039359702446362 -0.36484606566970168 0.32136745977827275
0.22681137983164223 0.92630493854758789 -0.30902906508190853
-0.41003668815518779 0.35515391051520417 0.69226605490949567
0.057981393923543401 0.36908659502606511 0.77703461109140193
0.14204769375753656 0.46895338435883271 0.68206742938925657
-0.67124974996366138 -0.96636961365858198 -0.40356379864908121
-0.45039425834376701 0.23966716210045114 0.58971609635911193
-0.74306272881010038 -0.2536935247093659 0.6268462197396758
0.3081037118603378 0.41853688715152959 0.56749588088138125
0.30190281714459832 0.25350727334679224 0.51729738035895423
-0.70802269853208699 -0.48792356690395167 0.44603239452692378
0.16136476816495815 -0.08916055015185087 0.80761741606888648
0.2044574252352569 0.9860118705748413 -0.30741422325599288
0.28624745498023874 0.10304716581147666 0.51739223690720593
0.1123506372229337 0.83008398408034412 0.26221957074441349
-0.21891991115083087 0.44031577064233929 0.76681054111537605
0.41247904956351267 0.69641589357567413 -0.21590813297153133
0.14460593256091769 -0.084722492062901722 0.7611957153113309
0.9160667166318035 -0.24247181509635229 0.44399527916399961
-0.91211397038807362 -0.81159299904320736 -0.42029230945313145
-0.53463851293041476 -0.2570831141906833 0.7019769040541135
0.20599307495563246 1.0884871490981878 -0.4534963781997341
-0.21584125325974846 -0.5838745240372436 -0.23948059458381721
-0.94687073913035835 -0.68867414568164254 -0.39240259500481756
0.0092025927040504385 0.6343985680434443 0.68104037587026056
-0.068150199151379542 0.88193587844336685 0.21042818946667552
-0.62451313202519465 -0.61076968100830609 -0.21878797980015463
0.51662118300555271 -0.14381157468149386 0.72680039361718229
-0.21127585170558305 -0.31217488511490643 -0.57664100783100736
-0.30649692020587249 -0.22686643659505634 0.797005582660546
0.40699873726005098 0.79776912584631066 -0.31287873576912517
-0.2805599607580529 0.57136498389967461 0.77567860911680242
-0.63761026750964511 -0.75763573445998933 -0.3560787391040634
0.25512447039825759 -0.11650232290509788 0.79273497370658674
-0.37539983857974857 0.632583542641731 0.63989139937658024
0.50557116273386526 0.88169043546349402 -0.3537334556614482
-0.7170851295039018 -0.41184638096177295 0.39879571883107445
-0.11949460075833862 0.45575292579936288 0.80442514535153009
0.67643809993213466 -0.67930169560829867 0.49378017410160169
-0.47917025371929434 0.15836451049791211 0.68736422501599748
0.57063120765301889 -0.38077005390208996 0.7354088593100272
0.64532721408464155 -0.26291153016661273 0.73078804465754743
-0.26451280288415013 -0.27219932075970643 0.72884891667384011
-0.75312933201894605 -0.43401198417216946 0.56910289912426748
0.12581998550587947 0.48942667089982539 0.69678775474287846
9.1489432699987105e-05 0.52599897984881316 0.76644889416857609
0.13256320671632338 0.40563498637800688 0.71839099549772811
-0.23583737047407638 0.31890361096148379 0.70013098248305994
-0.1657553107182359 0.72429760871951121 0.41120781817043905
0.12433922242294582 0.6059880234469297 0.56992553276573688
-0.46622187373257962 0.48290902372438005 0.6955122906619664
-0.34760341349599688 -0.63505699648467662 0.008471854329862083
0.13539218546656961 -0.1127171211022242 0.80822155563469522
-0.95579492140967437 -0.79701093040827953 -0.39695483067180959
0.65903441662302242 -0.46523325450344899 0.65866168841107609
0.51350328498422382 0.67968820568070765 -0.27553867527402787
0.28735258627331617 1.2497290797407374 -0.40929506934371673
0.42871289158329517 -0.23041874587437894 0.25606233087868446
0.37206301687575083 1.0459383697073781 -0.41042996011195498
-0.6137353609599776 0.33750407219707768 0.42811702453002454
0.55070842214415272 -0.27541577868365152 0.73682169032166911
-0.47250034532985552 -0.58569962039539725 0.48040756073707769
0.35943496178712309 -0.22130201171540165 0.7426353864442774
-0.36204778837831475 0.71520575888682392 -0.54682688828201265
-0.27872901689112428 -0.29423923245618422 0.72171138474426755
-0.64861574582408821 -0.926533000369961 -0.44091848710976222
0.93287060855098147 -0.18389456994505782 0.50206841979525052
0.32935041061577142 1.2799411663896247 -0.43145927494082414
0.53387529682205548 1.0550649925253399 -0.51080941964141857
0.66922512319256455 -0.6717157590376992 0.46710158188302842
-0.18386116728246549 0.3421334028838503 0.76268218173187563
-0.6481967353138316 -0.61170263311758521 -0.22057776423586972
-0.93950643890307273 -0.72868809409347168 -0.35574448164513939
0.41421203986725896 1.2510756008153674 -0.53466011932506774
0.50231917915808211 -0.39251282813335031 0.35140174418673098
-0.65518548492677731 0.087783567590069111 0.81022480582134193
-0.19216284599147171 0.5229883294576787 0.75236111948256479
-0.091768872382482769 0.27232866083723017 0.74888092561592856
0.41415018008878013 0.94101595388424863 -0.39154978713264299
0.25344750195759191 0.82469409951160899 -0.28715682768683237
-0.56849667235911649 -0.63898835496119766 -0.28080065389618625
0.290687289553059 -0.048910846043171752 0.75100028161990195
-0.49150699159096423 -0.65678023430982169 -0.31287483527139415
0.62551230533390445 -0.42424541174853836 0.70758267223314064
-0.47359797259854286 -0.10712637074404263 0.79227231541774046
-0.40944530440700255 -0.36632354654941857 0.67198196051135994
-0.68546230205536851 -0.95170138161487206 -0.4560056578135061
-0.3720346317990284 0.27763394927771667 0.76942347847470671
0.59898033865444589 -0.44382980384572424 0.72967331317035189
0.75725665090985217 -0.5911765155436095 0.56721223457699566
0.32048305376374397 0.52884101432184583 -0.3494542768128639
-0.31157035068623529 0.21640599469279564 0.80442517316263462
-0.58555089886888778 0.093299876197328047 0.81076820864814891
-0.30225610507247147 -0.25807116766983906 0.76519751879779818
0.84241311983232414 -0.16761079299789738 0.42128250212382667
-0.5770608261895207 -0.32179733842026081 0.68352624783990734
0.24931906924045633 1.0782844522701032 -0.40694520161078884
0.62599087986107449 -0.68551712865491776 0.59907673331260369
0.26564623237511675 0.80392145992347452 -0.29684681032814808
0.17722660029071058 -0.20485033115425111 0.78580136751918417
0.67320142567193919 -0.53504897266156748 0.69390613341326102
0.040081268754262211 0.31931009293331059 0.76602630819463968
0.12017970609048589 -0.19245912472232973 0.79953164236849261
0.89183171628124391 -0.15777652125255193 0.47050077355130782
0.043847713154997692 -0.29474313108235695 0.5793810112979827
0.75089831308055821 -0.39132935466132768 0.39342098767166434
-0.39454732306952645 0.4741890016869208 0.81593612338660648
0.14953248050169421 0.81042552225434483 0.57131660635514692
0.33652739904651474 0.90236200226329188 -0.34644892284806872
-0.29614601162472809 -0.056521569312124598 0.75744051294797998
0.37177051959893603 0.52363464427158668 -0.27388387401109071
-0.37126882558960084 -0.53840714571084547 0.55573734924481499
-0.36961336465524663 -0.76779422289047528 -0.18921170180590963
-0.39025172068522629 0.20614177540961354 0.63426408544794555
0.48229550072941585 0.81142410047203017 -0.28420289701799462
-0.24593651840826869 0.71720018362165128 0.65252517165282597
0.10213418251745665 -0.18870784282313657 0.77239437932864519
-0.3461787637146525 0.12839909820799722 0.80137502184497578
-0.37413497191129519 -0.24008356641291684 0.79566155671170691
-0.19169377649111308 -0.1883776280724101 0.74223612821352702
0.058827090824493666 -0.34243814691007657 -0.40723646117105261
-0.11104607320923776 0.97086041458394035 -0.13086058849028603
-0.75025016345373619 -0.65845841953414563 -0.27490049783615689
0.77732983138840339 -0.27078134554107747 0.69958762502952609
0.87106007062792301 -0.37771845348990674 0.62392206602955014
-0.64654450892678295 -0.55988500765689508 -0.37166707041537705
-0.74773915195114871 -0.83545717323227286 -0.49253194000151979
-0.64187035139753257 0.64433842607626624 -0.3395707764451501
0.16232897814354441 0.83491852792528687 0.49571897019983169
-0.38384447806020772 0.39485820579644315 0.63733179592664158
0.51203705594593085 0.91997397440525042 -0.3836321533942666
-0.46895884790927678 -0.58302208935518607 0.39405785302506047
-0.089272777452848118 0.49891226237834019 0.79259490723207193
-0.79799130386207118 -1.0153247078689152 -0.43454160410015419
-0.43377241892654439 -0.43099161217278947 0.64869317339887544
-0.33745545966643231 0.31764077709012462 0.81370038639106923
-0.20937327480627754 -0.13943365756945614 0.73185838312369356
0.20850583084401153 0.77069760221974604 0.25542235615657916
0.78658986186141178 -0.31041733194545795 0.70215263428077535
0.17113917431654069 1.1529992509833429 -0.3285876833545025
-0.10493355845435026 0.68570360028866206 0.72023148051429331
0.85413537929561656 -0.40912542078306924 0.62702555617341815
0.73301462751288327 -0.31818026661322696 0.66505781470574377
0.098817961819181122 0.84361135996679293 0.21335826444031625
0.11974649251635761 -0.39895511914105874 -0.14619738505245294
-0.2741597841059793 -0.71229588206000383 -0.19560179838093461
-0.28582381672358448 0.3366837176988664 0.79140761774711876
-0.21808796411748688 0.49164098286925473 0.75637963374284567
-0.2591820805389784 0.95041618954244877 -0.1452109804492494
-0.59455556349505745 -0.40862792804493786 0.65040739206837372
-0.67045402988831349 -0.28898699960786089 0.71484342448476923
0.059548758483689568 0.49767852812153901 0.74529295187856093
-0.81103984358735293 -0.75257960585275541 -0.40570512957734195
-0.44156448857752206 -0.26813060712275494 0.7681505085819893
-0.23428268532033947 0.36517632735008121 0.71701058682180729
-0.72691952003801319 -0.99345652514799276 -0.41367618772357417
-0.045721345802499869 0.46587577756930543 0.8017883930142844
0.82126418041631766 -0.11469463483966047 0.47289931898622939
-0.476306695747021 -0.38515599086404073 0.67318752561246953
0.64774135822369416 -0.030494330146996873 0.59897538302194064
-0.71777861202059512 -0.35133753428494607 0.45806608840184992
0.20874587662538246 -0.086147070610978815 0.81241867211348051
0.056269217213330336 0.39433449107114971 0.79002046383769198
-0.05550023089777234 -0.46348097821007084 -0.21005370914316046
-0.34760048130622589 -0.63645097708529086 -0.081124946151355459
-0.39307455686483017 -0.015859224239669345 0.76829792236547689
-0.72724991881653089 -0.34596054242543772 0.67143903366885382
0.85277747435613804 -0.4111968870317213 0.46554045900758823
0.36093257547302215 0.43148255519307077 -0.23689699039143619
-0.68920758025957252 -0.71192715506324777 -0.34629343785815081
-0.26776421046370391 0.44587421688123019 0.66578711025069737
-0.61227929436823647 -0.2407867525029701 0.70878315514125489
0.54469369430213455 0.0080614189398904301 0.60142722013469552
0.1856548678944332 0.70413457540364766 0.596080077917577
0.29771386799424437 1.120753672629168 -0.43888460210434133
0.44437335736998307 0.043745112292384647 0.49498504560877876
0.61128457762960409 -0.4535216532914772 0.72631616914095076
0.52063966314037735 -0.23205255110123968 0.73755947441181036
-0.7200961918840818 -0.54951220975471493 -0.14805397020363387
-0.614897655660263 -0.65063717099015861 -0.2917553800604793
-0.090305349060415097 -0.43712032371793086 0.37816217518648898
-0.89543134046887385 -0.18608411545144854 0.1386196652174263
-0.54641977769038697 -0.050356836968608931 0.75678738382006827
0.086526687925644552 0.56110524934099892 0.67394788009084294
0.66264041376041583 -0.61224537849752458 0.42645714922586464
-0.10704227079963968 0.87078279904113698 0.2134506612365854
-0.9086110542375927 -0.7410715202475826 -0.36266269994511902
0.28984484557504064 0.67058667070463751 -0.37818789881618287
0.29120653515085149 0.13383204297728213 0.49340868785536429
-0.50634653767506244 -0.32302611920305324 0.6721586236958359
-0.42376138401212859 -0.40436192278031413 0.66777208877557825
0.39825396276253766 0.72080145142400598 -0.27018877827054766
0.46854878568231939 -0.0056398731117370815 0.38157140123679767
0.27012871419566742 1.1302808613662516 -0.43677226943655612
0.084370852476519431 -0.17589222529884463 0.75286189995212283
0.29554255655025408 -0.16334707477974408 0.74540003025688861
0.77360867585264259 -0.36933320086016863 0.69727962189958959
-0.11462519950149197 -0.059996846620426147 0.74835240848366169
-0.35460770122194152 0.4756675923827629 0.52802520236579653
-0.88382047358716953 -0.89811965332918842 -0.45191761646567841
-0.28861698299082406 -0.46001687777537015 0.62148777353959872
-0.66217570974012308 -0.85107630669226531 -0.40314744513837297
0.018764325393200387 0.67569502246395308 0.67196152290326694
0.1966459630048778 -0.36958486561865644 0.63234792761097225
-0.27372070393340397 -0.17440938612154699 0.78256018160236351
0.68411456305729246 -0.65167794607320761 0.60045880480879532
-0.75214845522260632 -0.44471661171418209 -0.36220471239987262
-0.33523310208923274 0.24723356280230213 0.80051743173347489
-0.43250269112747652 -0.78686716279097357 -0.25113431152963983
0.26210121336572634 -0.30299338906531936 0.72306978555904067
-0.82617923915282354 -0.77744207026356094 -0.42020647642624454
0.21507613102924861 0.20161412010400237 -0.57370260827491393
0.72011119407858359 -0.50489296745622525 0.41344709822136849
0.073589784726729057 0.60912402449595682 0.62082824604966902
0.62167506696798114 -0.44945334434889617 0.70566741265395194
-0.2005535880444711 0.33015656674184246 0.77402586821749964
-0.46104529131807936 -0.25993425013058591 0.7630120365271793
0.061942430576118035 0.39225598794731731 0.78511841902646751
-0.37353127876381365 -0.36770363289903685 0.67557526647053123
-0.73327523907751591 -0.46350969915540219 0.49513164936729481
0.16658079784289548 0.80081516305816114 0.28002048990382278
-0.077046266779655426 -0.33886380075366418 -0.51101521526459948
-0.22261476098541699 0.52795393499164156 0.67158294972689703
0.42050861433518705 -0.22466501824277785 0.22824308668556625
-0.78561761523940321 -0.50282200364329821 -0.0019895837670276251
-0.33973234373959205 0.026372363521891984 0.77283494792400376
0.48652358971964915 -0.54881350772136983 0.39366090459853353
-0.0051973843000963083 0.93410804889990962 -0.21296947125205179
0.28517502607224721 0.46412274181999291 -0.39502705432188634
0.3343802370232547 1.1280240320139221 -0.44623266737166745
0.72404678844585213 -0.31706241589549489 0.66706558789396198
0.68562725567770677 -0.6100142388137888 0.64292126870667587
0.39157163013685725 0.53949001592644663 -0.09209321880467769
0.19716709870805893 -0.20198721719536294 0.7757016759773947
0.34974023499927842 0.22292922477149268 0.30709371446305056
-0.36660569078551386 0.79438027803193534 -0.4638766105714609
0.029777079496264847 0.40620268263787107 0.79912787049630651
-0.73769054823706304 0.55546004025986218 -0.15000718968526172
0.08641121880324043 0.59044636645692572 0.67488902011057661
-0.5418099330228765 -0.29832523301726255 0.68072103430537823
-0.77174908673362541 0.29284533879677799 0.29246253638176256
0.034724032388180337 0.66054986381668979 0.67376663902215483
0.30275653981129746 0.10297677667215765 0.49347121097177649
0.21980242901074032 0.0078501170878269022 0.75506932650591096
0.39117378247862744 1.1719633474846196 -0.47822312729381977
-0.81426226292619663 -0.69167156492469406 -0.3227155387931262
0.46959118076852491 -0.15501739340181375 0.27955910252927652
0.83430048031534731 -0.19859751538377335 0.65426082387032025
0.60351067472986486 -0.22186694498283632 0.35777727514866342
-0.54196178022744945 -0.39941261901753755 0.6561055205334867
-0.91717078223683357 -0.77399842113201878 -0.49334654479243767
0.56355996736574987 -0.48496457868089404 0.71915932045898856
-0.55054865094493266 -0.37660186780512994 0.66547586515054036
-0.56397623514364437 -0.54985813975120923 -0.40282212770311077
0.68741301780003106 -0.46954421365746057 0.67531663285654275
-0.62940624813472468 -0.35137443500680909 0.67556767130859185
-0.87774507582013506 -0.90466891033942964 -0.47183848380423399
0.62617184853710839 -0.40588702890195538 0.72959111314951386
-0.35468897731029703 -0.63368810765725758 -0.13695031369510957
-0.12711100815007015 0.75593494092048363 0.38708360461932756
-0.49742416223194219 0.40628876568029959 0.47728860906951098
0.28477059921187342 1.1550044484593966 -0.44498440501844883
0.46415013316751974 0.029956751199417209 0.60057849023790766
-0.33238899868070959 -0.082743250528562129 0.78861347398134285
0.11327525757278778 0.49549909768967426 0.69847221181816366
-0.10396118683362499 0.4475071279276932 0.80779951125182237
0.29786608444280782 1.0184895991009633 -0.38072091572212585
-0.17898385268242034 0.51555420338976177 0.75573657292871133
-0.31010620498660124 -0.63896425862653761 -0.13410945186417678
0.55717931393929909 -0.472149996838227 0.37187937220768674
-0.13642101308078303 -0.30285432900954401 0.69798026942781632
0.70077616479842675 -0.3489060715919905 0.66970334360967954
0.041611286897257571 -0.32961574569656626 0.47234943566750331
-0.37038905825769675 -0.40206511357550667 0.62548313192474581
-0.5803140126994375 -0.92536222321388006 -0.36812667283154354
0.3558273379576935 0.0082509854830532525 -0.3431539953171665
-0.80361967202600759 -0.77992794432294232 -0.40624385361690685
0.74971447768308863 -0.38340420425964528 0.65240374157397696
-0.16495444549350236 0.39118639922545473 0.77568094313112113
-0.021388832845226524 0.38357759817067461 -0.68545481059960878
0.1390119316853724 0.37297534232647411 0.71883353525070248
0.1241972581898203 -0.25885631306982315 0.70077872558737653
-0.33479208717613673 -0.8023440162938229 -0.26544425550073214
0.10615537513349516 -0.16024742205387454 0.8052434564141393
-0.52487299947802768 -0.10996116422944979 0.75090455755728414
-0.58956370985712603 -0.35608432835749504 0.66729913563805354
0.3845599269596427 0.72084660951606883 -0.25618694109772733
-0.021973448361537251 -0.35865554357866714 0.51527578959466069
-0.7535159425480904 -0.52925931504822188 -0.079133879995303857
-0.71837462268016417 -0.57009069596698403 -0.20706135647954227
-0.41151633660247811 -0.022157973862672264 0.76370626834756905
-0.07822368036999805 0.26180800176740249 0.75479761730328931
0.29468106924943571 0.83382281187525198 -0.31833239983988193
0.053453697406929734 0.87700471317321949 0.60880636019216539
-0.44398947393704891 -0.44808442209981614 0.63808020403445909
-0.61304955463399757 -0.98041245313944358 -0.38297135366960333
-0.61097775029658763 -0.052215394672376902 0.76537500184133478
-0.0023438241450062236 0.51978507197005097 0.7723199766009472
0.43840180056248101 -0.60826725845465113 0.51805621992096462
0.25451711129508148 -0.0061857719031506164 0.76439196682929378
-0.55406521778939677 -0.25745270048402524 0.70496053506207801
-0.064444564160071494 0.54265081198883003 0.75224325246862378
-0.41615735965158152 -0.76393131959255545 -0.36813169463180628
0.0026684493563156053 0.53251546501766178 0.7537278424399716
-0.24821017551033453 -0.28091266171434803 0.73223958086948926
0.11548864565327399 0.40821199482054871 0.71108915186724886
-0.56375516092017364 -0.23288327579403578 0.72413193035755796
-0.50647630987496939 -0.61057515182548894 -0.13063865807679065
0.1689448956534072 0.27592357582412941 0.70815367064496115
0.025325348433012707 0.63168833221304288 0.67807153717952673
-0.77881823026927322 -0.61449017642784831 -0.23089759357445416
0.09732514037528972 0.53831541877595335 0.67882853466591087
0.40445157482232741 0.60175221024320202 -0.29355027403576273
-0.14552359893521416 0.76585442146463478 0.59284223624056409
0.31972114629407855 -0.51409454679729105 0.52512927654025532
-0.90671147282062448 -0.20447709519976343 -0.32671013016538808
-0.91522450306682934 -0.98826341371948345 -0.5247703947195177
0.28488850596365678 1.1859820206710392 -0.42292514808674753
0.25116045879761373 -0.026260117876903522 0.80338692654437693
-0.36929035816859646 -0.41765572727460665 0.59879083977804015
0.18303573903364345 -0.1294563335286103 0.81272792699138563
-0.67290028889851516 -0.99809402621743537 -0.40372886060445268
0.84459868136447902 -0.36149767139956612 0.43726630753587514
-0.44506840757666843 -0.35725613052278149 0.67337272183419827
0.48678558332188615 -0.18903189501800277 0.73743484163608031
-0.44613425994298339 -0.36421430266893218 0.67558191356496167
-0.40001926128446641 -0.065534440808716177 0.78790847601882774
-0.44875323421807956 -0.37907034076147461 0.67722316261983906
0.29691013340122563 0.20901505141824384 0.47790398487808972
-0.24344814204229248 0.69092147967025497 0.59555671823780187
0.12289152093472877 0.86481134838322671 0.54439815867192465
0.1910446871079321 0.78770509775317166 0.42002187769702104
-0.3729151516637712 0.25004260426698455 0.68598672114815429
-0.19885600529763892 -0.49289853598306976 0.53161609008193267
-0.1718026705549569 -0.34513785350834603 0.67824952443186248
-0.5186667965205487 -0.36996808186823138 0.67422538177694236
0.098836990659641799 0.60377532084376284 0.6734305916926715
-0.89387333601929786 -0.87696472618870391 -0.45953484508867604
0.02690351526472412 0.33962134920364306 0.79202215468058768
0.46680695464569233 -0.53387589176598294 0.68028605127003772
0.30570872589659892 0.74850160627312978 -0.28554667669019551
-0.4828990435142213 0.0030064943033885072 0.69152101055262705
0.26940688890389897 1.1611506760463142 -0.42038813471755887
0.51152615225704112 1.0409665695582753 -0.41577501065396305
0.11789172386455959 -0.29145678076336967 0.63914069392693307
-0.26579238824340257 0.44380376181492842 0.76731296622872947
-0.61494023352459681 -0.081080056918159116 0.75886864934366116
-0.58739404837373854 -0.16525035558788126 0.73303438016822042
-0.56938079959730725 -0.64300212285096503 -0.29310686893032312
0.57193124381530502 0.83552922193913526 -0.3884228419991409
-0.23353578666296038 -0.19836199477183403 -0.64134727009724202
-0.64417365613874011 -0.5559400850741163 0.46280262211919876
-0.83433188226363031 -0.67330017909848827 -0.294326016278184
-0.85604673868878756 -0.78216463604378816 -0.43715411684812722
-0.37807949008912711 0.20818087875517843 0.73973324799049323
0.018364655206593028 0.30582577862816152 0.76991957418223933
-0.14877591604797225 -0.2941757099507778 -0.58054511089457606
0.35954070139452288 0.74852671700248585 -0.35338213662294038
0.88074629491511125 -0.25046599387481017 0.63959680965457366
-0.24358311123905629 0.71170736774254806 0.70847243514623415
-0.20671376287014542 -0.3460845344469945 -0.54544944250881855
0.76243769146107532 -0.32166615929592624 0.71108064462225329
-0.41024517692411155 0.5795364268415657 0.63601506611413328
-0.19263532124664273 0.47611614693372051 0.73729882499960553
-0.26984549001883629 0.011200234210379634 0.76532563508690288
0.26520323183521821 0.05790489857833947 0.65695338062099751
-0.5930800412167665 -0.2018981205465753 0.7218727877474862
0.69692665392657105 -0.32017693644405476 0.69403997228780412
0.27256399742973869 -0.043845855727201233 0.7854305218641997
-0.62857034659680555 0.15316796188892501 -0.65103024728359316
-0.35838696032069173 -0.082457221943108117 0.80854395478329621
-0.6616365508191544 -0.5848126165733909 -0.1603254289810252
-0.62798728064470311 -0.61929006930901398 -0.38122201800892697
-0.37125652265371745 -0.74269857960142982 -0.19149691155124771
0.36479912147211335 1.0978473234468495 -0.4325615785564878
0.27582318998330635 0.75598312231155496 -0.27211660457327014
-0.17007471322940049 -0.17370526392143137 0.68763379964528326
-0.30091002919906895 0.49880255519228012 0.77801066835024812
-0.68536274589489565 -0.50256469503310619 0.30018730936470206
-0.075370626710218769 0.59157397418633106 0.71649098971968783
0.57746919062434543 -0.13192795815604574 0.36833429821446373
-0.65143484299059917 -0.32774227111254106 0.69376687482932908
0.44107437653764592 -0.54642768225348615 0.4115379562853505
0.1147427851927596 1.0593430942915159 -0.2744961437602953
0.29595210511856385 0.76086089314266458 -0.30089039881330848
-0.2525120785251751 -0.67091142715847862 -0.19144819079497921
0.49340646773474361 1.0016084390851088 -0.45362513626179535
0.17144658243931854 0.4660051867325059 0.68068292120423024
0.16308075464858707 0.94242364112898991 -0.23004518080431779
-0.61366863989415155 0.17267221018128431 0.72111999720920039
-0.49323307820659767 -0.64648478744128113 -0.31056193948906952
-0.70688132101003376 -0.23872555369508675 0.72280479940044273
-0.048360723227538926 0.24523555550185172 0.76318571729996876
0.23588999639004626 0.0034951700652481321 0.78231075326633714
0.28447792118038961 0.81007521279309302 -0.36904096236402495
-0.79825084267083923 0.45534070557510109 -0.15159521041196911
0.14699026169275164 -0.31966555540818398 0.63130592922977513
0.1726931374996532 1.0123978588483058 -0.27351149802410646
0.60154903649798541 -0.70571629001847569 0.57195190045982613
0.0067659691746335682 -0.30302425244899478 0.61193042537266251
-0.3659918030028475 -0.63147435471454028 -0.14748982893281237
0.86898178638279333 -0.23250646504426875 0.64384012097589505
-0.30967448327119307 -0.016017841631713381 0.77193582865109533
-0.328081177465398 -0.63582624626652429 -0.057414404871508395
-0.46788775456148723 -0.58608337656013454 0.42701792289463469
0.74862897941515882 -0.32982695422667341 0.67097454900916631
0.39411744033083407 0.87495644445395304 -0.34658733120400598
-0.23575159943595292 0.53392502952555709 0.64875547962149938
-0.34520510224775247 -0.2373297749304033 0.79764422005126079
0.11101980580345661 0.35388891079775009 0.73193213119255063
-0.41591513011768999 0.15357001260509051 0.80245601118941323
-0.84601127852599722 -0.62091040112072626 -0.27427785598403887
-0.13884156143410209 -0.39748252801564643 -0.44545516814256558
-0.38909873249662574 -0.24610703540073686 0.79181524268989278
-0.4312131439775051 -0.10074908868789478 0.81186215512301629
-0.37203657994024697 0.29069910633955054 0.63381760930018771
-0.79982628960632507 -0.95302619603275041 -0.45443438627568611
-0.33901352915207106 0.19090166584067081 0.79684611707772035
-0.52627939200358576 -0.35038751774679255 0.62291418344030092
0.50715386987467959 -0.66308837131502418 0.51033499436036323
-0.60469957859394174 -0.78483386139908617 -0.35977860741557066
0.2943680618267166 -0.13215204578297968 -0.37129477451205872
0.11906328025150259 0.92373962492181949 -0.34047732345451465
0.14554091809711522 0.83109296177881364 0.17098958394785058
0.15983732965541719 0.9660177436849875 -0.23686129781581755
0.28881730210105516 -0.066484595831496129 0.75886456270094982
0.28498868395750243 0.089804356048234002 0.55462038153340387
-0.62531085717598067 -0.19550045308439401 0.7289814537680499
0.84919300608991932 -0.2370460226061839 0.41295584254533679
0.40166717124967999 0.53714704563969895 -0.12509877419020654
0.18499377292532593 0.48186804666599681 0.60995817670067254
0.71815625501638003 -0.17126323849433156 0.39037939493500673
0.031461050000542556 0.83745074939230824 0.33277345255455515
-0.53715108828438218 -0.60649049934463761 -0.19073050062678476
-0.54048665991928857 -0.14716205012432049 0.74938993533224618
-0.69517948006083374 0.12391474423427162 0.78958182243067654
0.81414031622213656 -0.47480438304331063 0.63081764971063237
-0.3376797714840194 -0.089260414455551995 0.80339052489478036
-0.49425344051944808 -0.034370105109302607 0.7679847680695886
-0.82180849693220193 -0.93441786992655373 -0.47491174311990392
-0.31739000169387044 -0.24311421117551379 0.79237203471080875
0.43310165093903308 0.79151766009730307 -0.30073894280780777
-0.68677484799293609 -0.94043576185492395 -0.45390630055567982
-0.06354066824511051 0.23352907018350422 0.76397120630672077
-0.085505009091143336 0.37636713656471787 0.81470275278869053
0.14337469251717483 0.25831653166878921 0.62580007703359541
-0.87526945816153479 -0.87771940851750596 -0.47177992860205364
0.26086982912111334 1.1034393167583838 -0.42452668252124326
0.55914459811644868 -0.057199980352598878 0.3944895062882452
0.67473573629993133 -0.49553636928369738 0.70905861989889729
-0.18088418957885999 0.38514699978358813 0.76400134701311373
-0.57575307013232813 -0.60427164911376163 -0.19329276643768623
0.37644237680382098 0.58526268930237624 -0.066143766965993223
0.4133132652424969 -0.21851030492551171 0.18663755663111203
-0.39759811043660154 0.18565842359369267 0.65737702692233313
-0.67204055682979247 0.057124434974649141 0.62418503814129878
-0.056975544176394166 0.35941283610644703 0.81461916042493954
0.41408710523170988 -0.27338743847496616 0.27272525197157904
0.13146680866361038 -0.075256078632367718 0.75131252706761842
0.72095824369538875 -0.49377363667004959 0.69415566354669522
0.70455656216448936 -0.63062822535769758 0.6033248627078045
-0.52613470527619288 -0.76782324415689995 -0.41207901396043667
0.5501725472218908 -0.18844935888384562 0.73076599747331983
-0.61563165686525423 -0.75270401269335796 -0.35046456202131537
0.43932061659993682 0.74073951925884463 -0.24204383963830978
-0.12279758264720186 0.22394077928084766 0.76328402642492676
0.20510921188701037 0.8338700775708785 -0.21246220792657411
0.059592796141468618 -0.15377836339291662 0.75884417962328854
-0.29707011227168689 0.92909417294730368 -0.27614382324544806
0.3682411984400682 0.92319984413358425 -0.36362990459549849
0.40113606052366713 -0.44307219942337728 0.70487219356885333
0.3831150336853959 0.5559363769624428 -0.048735146008198171
-0.51180487091891802 -0.076368761238968297 0.7381207105012848
0.38049735919624394 0.83688450461431074 -0.32856654017595943
0.015997552525268688 -0.085864658397260207 0.75533115519151295
-0.11176019725301511 0.098626358840238737 0.74887044209427245
0.67664661908266588 -0.43978169395072708 0.65421957340829096
-0.22031847857129261 0.42333239025462799 0.76884139754844938
-0.098776605927634265 -0.33923661134466521 0.65520943571729617
0.21081899757991351 -0.17712199389732142 -0.45060215959772165
-0.092179556990484635 0.26705093152943604 0.75550264974013004
-0.1952993120439821 0.74359763158722192 0.63795637254484205
0.46342778029558174 1.1074718376462283 -0.45803468274475989
0.39395436349095903 -0.20043652314520877 0.038774427957349644
-0.48764077009336049 -0.09602003689488825 0.76611886434995569
0.13245207061986619 -0.12568935730960007 0.81089270414243231
-0.79444435436943017 -0.86810641610072992 -0.43018993846319376
-0.36044139633562633 -0.71568590416074152 -0.19029118779945975
0.46507869363666465 0.65919551645136987 -0.29187788678292748
-0.29699345999964244 -0.54145228928134692 0.42203444221998865
-0.15044633019922049 -0.46270392522097215 0.45803325734153333
-0.013666480227017885 0.22650305614010335 0.7577150694741519
-0.17990313061572483 -0.5331150774120923 0.1883061758708493
-0.68226992531570296 -0.56225723708621889 0.081641353684425155
-0.54792187747649557 -0.22713628551423604 0.71449518466296524
-0.51498831941682344 -0.077638587144233995 0.75717507764353087
-0.041775001239276577 -0.31769834298511412 0.63941110865073369
-0.24491942695034818 0.94771784795533098 -0.27302470894655073
-0.49219686203855684 -0.41673166802299022 0.65390662104080377
-0.7270056885027536 -0.071154907777764009 0.74931008898661133
0.16017571773628703 -0.0087886833576211743 0.79049196685853929
-0.41107136735130911 -0.72033145149028144 -0.28458988946920982
-0.78932894749035842 -1.0027756303775615 -0.42622096872755577
0.6888026270137626 -0.33683797173457686 0.69399775898232718
-0.06651803451644156 0.46778178846454654 0.80288228827819097
-0.25795821098500138 -0.36123795278648529 0.68430547500190642
-0.22951553183058682 0.49531713160315771 0.75509021954353983
-0.75754096560583317 -0.56836058463737871 -0.27570728526769273
0.44865197074716967 0.019472582036664576 0.4177137460747673
-0.44917256733177258 -0.61525039664284797 0.15477321223761464
-0.20320787384958905 -0.15528313642269609 0.75359880414280411
0.31329491974127599 -0.099037647234627713 0.74384098197290882
0.44684374266252558 0.77175496135097954 -0.27681922929535574
-0.94384337519291606 -0.76463015049037786 -0.37876669750179559
-0.16247510045250113 0.31309229761261204 0.76149703413827297
-0.43405116999946536 -0.74265334860195154 -0.31002409491699723
0.76736086225258227 -0.40937288114656623 0.691576882765645
-0.94489436254042447 -0.68849246857289526 -0.36544156056091737
-0.33355676841659054 0.42800562882172066 0.80136710566095104
0.13760602151255696 0.84054239261997332 -0.38015869666154245
-0.52161929107215066 -0.66872328609389609 -0.32081483453560367
-0.66602162585326141 -0.18521169616554012 0.74638009697022056
-0.13603311892623093 0.64084018334864279 0.72533577492496448
-0.86020091408581489 -0.27367724749585243 -0.37335848411037631
0.90036705296607167 -0.3468195594488428 0.48097914145859377
-0.24631659342319079 -0.03145189933961845 0.7616355801887309
-0.18003820787806379 0.51156505897410431 -0.69536575434502623
0.28638702792921222 -0.25730954049392096 0.73708159287473052
0.01302065142843567 -0.32845915530044412 0.49675803652464623
-0.31085619251665753 0.93067297098457158 -0.14426258397602254
-0.389478765080705 -0.75073427291646944 -0.20820521664271041
0.1348125470768835 -0.37301630979999079 0.30874954753709716
-0.15241136989440651 0.2155592659883574 0.76441024668017121
0.12954918594516407 -0.33851082778990538 0.50245790429644188
0.42639176249172106 0.73602749150632207 -0.27110632017779679
-0.40435732219984555 -0.28620641835434846 0.76351846721401273
0.23339033210567983 -0.076504570198301813 0.80820932727709049
-0.19542049297497677 0.30670102854106496 0.77384352706074822
-0.12095594478791227 0.28138997777070252 0.75775656336653441
0.44159972745347398 0.90892407469482661 -0.38629915328655073
0.085425756363624927 0.68730945898069251 0.65060034777415865
0.046813561077263088 0.27751378079895073 0.75415013500149541
-0.077370814689734058 0.84550601207288101 0.26434259949262184
0.50913186863466287 0.87654068109371641 -0.3388917744854254
-0.91585470304699967 -0.22248124288413784 0.057060546866381401
-0.2730534593960523 0.71304644887436819 0.35455004920336108
-0.52515519081122797 -0.32534736964684186 0.67267912996776857
0.4014888595479762 1.1855496629087616 -0.43143882024845581
0.59099137184705164 -0.36949563713404387 0.35045456037923373
0.1208050307513151 0.40765184266466559 0.71466035608218448
-0.1374085061233945 0.46221144796280189 0.79618576875362379
0.34560835428421299 -0.32588008642133115 0.73169352743671112
0.56288607929321444 -0.70276891873697611 0.50595455911562581
-0.38775424985979612 -0.84605734187591608 -0.33493008884421727
0.31247457099956577 0.30786538045569145 0.53059803116355653
-0.34266735949767257 0.51277873589558087 0.6029623624360454
-0.047045644082997828 0.5012115390251517 -0.66113133325819717
-0.52169648482551878 -0.8707968243457449 -0.34724437997752489
-0.24409741855040146 -0.21611743808373252 0.74411430898644682
-0.63265323814784846 -0.59249629202154885 -0.09643103100730599
-0.72695737433416685 0.071384963230073595 0.65732435153071123
-0.72490385073090202 0.032237462539532302 0.63888083172395227
0.053511020839987378 0.85942344731923903 0.62882318834087414
-0.29519230096592608 -0.13408883158714335 0.80216620754472956
-0.044252581312219874 0.15747060063776708 0.74881521607522927
-0.55129444277011963 -0.094398111859151257 0.754337313403596
0.46602885141639039 0.78695671624197527 -0.26973875520633328
0.28023230164964374 0.068832229258849464 -0.49078480566325311
0.088047158334426001 -0.15687179035272081 0.79274687528404542
0.12569820258312547 1.0915226206827937 -0.37344707875224969
0.2426968460133061 -0.059409469516973346 0.80700025976227607
-0.83667865249476225 -0.7613135909400599 -0.42092241261114083
0.012471026995203083 0.37746278038495706 0.80669973466984146
-0.24878721110514412 -0.31751018940689679 0.71211124434734074
0.13717098272039507 -0.28993255500466919 0.66662286550639038
0.035828471411134544 0.36024129139045868 0.79845786670286145
0.010056450810840722 0.65828779615653055 -0.57140478348615886
0.16808070634403771 0.91971185929327381 -0.22526770160038012
-0.32887237075593578 -0.50236621984375596 0.59112142840712778
0.24982455183063479 -0.0067551181038876251 0.79158360986513543
0.50714877127632363 0.96487467091714185 -0.43754884584325993
-0.25539721567308149 0.35096836851047541 0.77661366793467579
0.29162249949726426 0.19829495399573904 0.54561570121870062
0.0014617625010218127 0.84403697581101467 0.4759993222884944
0.82908932867183083 -0.13681157808336852 0.44135998350474637
0.068022723576724786 -0.3577545654772063 0.40884768415923389
-0.38607902537894745 0.65272447137481215 0.68931319509288613
-0.28547774719634766 -0.71654523082090726 -0.17621407108179454
0.15292275882507766 -0.074242608440581392 0.79197481634069788
-0.93940541872874572 -0.80096861023265298 -0.4013992911044113
-0.54225327986039051 -0.36730102518419727 0.67169596926094499
-0.94027209019252878 -0.83283004812612482 -0.41316118637414689
0.76342810464818989 -0.36893706140370952 0.67087757965222394
0.17223549965437357 -0.035347310031249357 0.80687848411934482
0.038215132250182471 0.67284123841444465 0.66814835268817063
-0.789213600377491 -0.82788624774901898 -0.40977242973016814
-0.53094031171990075 -0.4221395624343085 0.64661850320028691
-0.76470397766906106 0.454183684187214 -0.35904404704821502
0.63353986106258375 -0.59482455352687413 0.67023093450549709
0.015380532893496834 0.039076951718987729 0.74731143491248275
-0.34090143364400571 -0.63616643308400533 -0.12295581614989004
0.44834823261423651 -0.12152195633187546 0.19231183068297497
0.43442459297921587 -0.0071510614108571957 -0.037790331186513981
-0.45987034080221889 0.033646480615221463 0.77602346437190306
-0.44667240160938348 -0.7336373027029266 -0.31766552094338607
0.17208032655501881 -0.018129663559060205 0.80260079467175416
0.56126626104877797 0.89391008777386016 -0.34060995833328533
-0.50205911446870211 -0.16498637999167798 0.77232481619800808
0.71111736494031064 -0.6028076976228558 0.4545160690787462
-0.89538164730482261 -0.25948105191899096 -0.32094133191669982
0.42565851893653317 0.70642118398097753 -0.20871921181774766
0.082185475018014209 -0.14155156016863391 0.76720414218642219
-0.41024055347252641 0.1368320923616464 0.80936764824564023
-0.72425405194098236 -0.94852476108921913 -0.46323906355690525
-0.052791534810017637 -0.16415123048115721 0.75706839801505055
0.49854694615459261 1.0382763409471951 -0.4677342992106297
0.5035539500058448 -0.4442464376113513 0.72370191941896067
-0.028757877661589326 0.25429276392777478 0.74873758872197982
-0.9310085931325851 -0.24952270200068405 -0.20044487464216587
-0.5312014018664275 -0.12756973247705972 0.74885816949023365
-0.8678272235778417 -0.35511626092477488 -0.29602746755296749
0.61019266897837987 -0.42337640092085582 0.36294772952720677
0.052639060507653213 0.37311045765128625 0.7896338234865965
-0.40381720473784366 0.038371963594455494 0.67707131010893562
-0.37403100490250285 0.6102764302952437 0.62539209604422297
-0.25696830411749172 -0.51136959456657927 0.55076096615550085
-0.52050858072132478 0.0048749079906000858 0.76851680188708116
-0.7513221824841585 -1.0391509210211547 -0.45938822884246377
-0.511722213712138 0.79080002648232317 -0.31444806072423148
0.10852623498707104 0.4033054467496644 0.73197030017220044
-0.01730738263896292 0.24823657852118686 0.76356798617585042
0.48846097122145338 -0.34615411215494518 0.33637962179814451
-0.4479915951081157 -0.1433065787742418 0.80715900812836594
-0.47416587683474809 -0.63722465016088492 -0.28383023394146534
-0.45162512442357627 0.1496752371699106 0.80523604433292917
0.57540590513217893 -0.66289493526270604 0.42399931482896847
0.036076324848189678 0.57088883229606302 -0.59815354102119755
0.27478424786863709 0.64697017989853034 0.36901098543182798
-0.19738910024816647 0.35530663259674 0.76782813267422512
-0.2301132259689247 -0.15916661697802503 0.75933858672578936
0.13468669570201719 -0.10433916028278123 0.80351704168862881
-0.97398512196402898 -0.848959273883791 -0.51754959002504108
-0.83675222811619498 -0.70910420783097017 -0.34297947748199675
0.10245596248961242 -0.25805983580679204 0.68308350991934219
-0.2273453447385827 0.71628709252886535 -0.58021736714333372
0.73690073610451989 -0.51610303589655349 0.6732029254539853
0.76397839529131417 -0.40873324369917885 0.68591227674004429
-0.69800420446472433 0.027332451134031821 0.62214870638943154
-0.54311355871968736 -0.34077217714370356 0.67967463101419412
0.87776550724064251 -0.42216423930576585 0.54586765354941491
0.69080082217169902 -0.27346144577210918 0.3725133332814039
-0.76302126046431784 -0.96024469580704164 -0.47278052931139314
-0.61077574485664332 -0.39299379732313078 0.65738372196646111
-0.59876403212192431 -0.15597327903847269 -0.60599626549467445
0.87124811831204418 -0.14309018802566476 0.57639870971712881
0.19967758286549042 -0.15860856772824938 0.80357161096394947
0.067528815966138467 0.41277969253699709 0.78057689984083112
-0.29833222713355712 0.63368534251452946 0.59548371664207167
0.94476000387474635 -0.24149332896133791 0.56328683241670419
0.39384036713325044 0.78928556973066155 -0.31439887337105077
0.64902512942984103 -0.45452580594451542 0.65969480169649586
0.28480896225106278 0.15434185923716237 0.53093811530962398
0.38373116781073158 -0.26153774382582906 0.18261750725778114
-0.29138189654578284 -0.15349369851612416 0.80580383086275731
-0.72367361851922629 0.26624472168465818 0.36062730066662141
-0.47628408131298006 0.16952130367196716 0.71700553072987816
-0.23336999717386853 -0.63279523732171317 -0.18884647838011404
-0.38952240344789679 -0.39704771795703664 0.673706341180214
-0.27370770658328514 -0.12719214607326101 0.77685705152812545
0.77706720694451548 -0.48687831781685453 0.65948815268744454
0.78530156411387608 -0.41365793154718578 0.41570515861613444
-0.43479222597627931 -0.36258518978045107 -0.54465546129815579
0.18463281981077095 0.77577632158631982 0.55497036850739434
-0.87816806831163063 -0.39850586586493364 -0.12392369485915822
0.14734911641959414 0.86126626225593483 -0.36777550291909833
0.19298353753975284 1.1880024107453413 -0.35313033223270907
0.70964451063039391 -0.31396629138563981 0.68059107687572862
-0.21542953320993252 0.53437723969706852 0.74872972476735811
0.70342732347839032 -0.30577881305679 0.70528735708818857
0.95270930013420418 -0.22886445984857495 0.5069973646464021
