# XYZ point cloud file
-0.092176017290302129 0.24417280447672929 0.39622799744054504
-0.013160288155754082 0.32865369647100706 0.34845584115742229
-0.12744900137266285 0.18032055280122031 0.45145705229571464
0.23337643982597139 0.43731176852596582 0.17595939106973416
0.076884672398452328 -0.00046689475307895578 0.5027333103703
0.14304376705931887 -0.31893089431080751 0.48960506951797905
-0.41243817749567424 -0.2420521363882932 -0.016640224382069524
0.074645314258921597 -0.222672389654202 0.43081071221868594
0.025002741830534109 0.27047798385068078 0.38203832163109958
0.52678759013656073 0.25809536620809304 0.036378638527053794
-0.014614378648871953 0.46381895519202143 0.053707019957948764
-0.43627313539161389 -0.15604420581311487 -0.10737340164947373
0.17769362816769885 0.037090695898379558 0.15837674670663526
-0.20211460299280826 -0.28181212588927673 -0.0982929203552034
0.23483869251982184 0.37635425878197137 0.41157944904836813
0.15930811120336907 -0.31233800768523817 0.51708969152082673
-0.032196445227602094 0.047387770914476934 0.50715257398941582
-0.098513120722887815 0.17855117043137805 0.42722559136596833
0.032529524307244248 0.10102312919584329 -0.23008986837824935
-0.13124067915916521 0.1920529823824616 0.44405060282519282
-0.09780570339240395 0.11977904933260261 0.45223386530050896
-0.12159673312118896 0.2778722900197787 0.21764813511234538
-0.43727361025156697 -0.20060185728160337 -0.15098515675322752
-0.20419834038799695 0.0502427375752732 0.43080400410089387
0.044240028817069933 -0.24135856828548821 0.58995219786120723
0.49445619003516977 0.33403450408832447 0.027616059022532086
0.14095214509005213 -0.21441749781348993 0.47973544606654195
-0.045921305320165404 -0.22924696159540478 0.61932690411798985
-0.10836213307683273 0.20236818125730607 0.41822882031948261
-0.29185208875444046 0.21840761310699225 0.27940254870384468
-0.36500317846883956 -0.091516082736002077 -0.16627701656047872
0.03436014855899653 -0.23367315216603068 0.61462878044562919
0.10584688158658956 0.35221108090665559 0.40739428253069504
0.45955714659394098 0.30503633223748589 0.010561355547375167
-0.12622172660865674 0.12022913627396292 0.45096203064631352
0.06136102631886247 0.1530268055431763 0.42450031681939138
0.075180060355242037 -0.25095584757337264 0.59702706995201116
0.052219313059599995 0.33781912299321665 0.40305799849457091
-0.64714982888374373 -0.32533437021627076 -0.14882974730135448
-0.016821395128865629 0.049225799968861728 0.54083632087723466
0.17024739825903812 -0.28711037617653801 0.52445861954364259
0.34613356370886844 0.14588761820477547 0.048267334461071607
0.29194017195385641 0.27113308659314977 0.090103476284848077
0.12485016555406361 -0.30759145566462442 0.56489696867472083
0.39462990521531893 0.35572136515156771 0.058102532084034181
-0.069852686747813447 -0.14689973276828594 0.56924579067624625
0.051880157965937132 0.4656914541299797 0.29271552741192564
-0.11619311000289363 -0.20353831846442344 0.47546794648908847
-0.13380514372249092 0.060138886353097443 0.46005262884291764
-0.37101342187942588 -0.10500562268630197 0.083398012250471915
-0.4352483076588477 -0.25070323560981922 -0.046326570446400012
0.065741504501638667 0.33377292454514673 0.40627125708232981
0.097975978611720943 0.22389047650554952 0.46502324419683955
-0.17101761213778593 0.18851494631486648 0.42916553989905254
0.051081715705896723 0.07680160264825267 0.50069817792565208
0.032292648822298944 -0.28411995920396477 0.62038526731852139
0.028020610907301166 -0.01926028902697071 0.53864231085458603
0.041264054545160161 0.49095228367396626 0.33908388908940829
0.25112053482926694 0.38730476038859757 0.32894950120692001
-0.11315014578449414 0.25899875367976588 0.38061585847994356
0.085116249509254407 -0.23047868203887842 0.57656149893763509
0.22068768890816043 0.075831015092511264 0.10718889814127841
0.17833592744914778 0.32132983822318817 0.41177109955294511
0.26523816086256619 0.19362079978771585 0.084237751265662825
-0.088243593696719524 0.02453953974912185 -0.28809577706712908
0.24033902501596111 0.34741368740505574 0.41041868526375358
0.046059735117505635 0.36344388842857739 0.3932917268086018
-0.21033179703038743 0.16730388201595778 0.38819251249807851
0.11226203073784524 0.26707616110930876 0.47025793398126919
-0.21530013165813194 0.32240682882359761 0.27475816635737305
0.025197583100395743 -0.22123622680398777 0.42171039641449704
-0.087665587348132457 0.36109487272651858 0.31854220637897424
0.043976009081441662 0.055502584784740128 0.54282910505997972
0.075845697425802314 0.34086849426799071 0.40505095322843926
0.092878790412728895 0.14772213791755262 0.46594205018991569
0.18721424249779309 0.049059077622816277 0.15253754640491823
0.19824383795016406 0.38767945459812891 0.26415057349318793
-0.11262493798198391 -0.21037041582964147 0.52703596599665292
0.24993551377970946 0.045835727068046957 0.13780593529118426
-0.35526222350678233 0.13314574387467618 0.24989090571308642
0.038482017196279472 0.20325301362462014 0.42376053778309797
-0.15446753063596519 0.27419210316984638 0.34780770089100482
-0.41409074621639441 -0.1619695918554539 -0.071337281288620824
0.081639942536554697 0.042612245878118918 0.39090822479051546
-0.10890261754230121 0.29809736781730856 0.3704645000306227
-0.62267662830983295 -0.37760634132406951 -0.058993800026769461
0.25947335226651902 0.30765879905780658 -0.0015593528837075377
-0.084707559990084211 -0.095772222252227354 0.5211198154050436
0.17111154557713387 0.11905714344838009 0.39781466623770217
-0.22160936800937206 0.20525950294595491 0.18790126025094125
-0.031976880393340193 0.034554947795821161 0.53689033329647007
-0.10877765853411892 0.36594718044906333 0.34713519474155274
0.2379330548968896 0.12782782479916258 0.067685513331327343
0.010436775326865128 0.28763740626074985 0.41470676768079434
-0.43668247843746338 -0.28685291479043568 0.0027600135489319055
0.030124150073887052 0.31161240671236989 0.4074883160649862
-0.25791360291060728 0.15063997513398386 0.35030445623046608
-0.4190234093562531 -0.12517240595777762 -0.096974644698304663
-0.44626517422679768 -0.28436872463731327 -0.01307953054270003
-0.2057123534260793 0.17046404048395308 0.39637597677727843
-0.31006336902074549 0.17771484593991221 0.31918977297523016
0.11627506880477728 0.087198929005479056 0.42953502615455547
0.062029141086553469 0.37512860043455143 -0.25115188471530736
0.025837747562407899 -0.23549667490053128 0.59861400074765991
-0.091596183979268123 0.19331318147981535 0.41898691902239837
0.17744396843249746 0.22653085557084046 0.43841115234777694
-0.090031631566948697 -0.24549220302637914 0.16104248222480297
0.38982123927713352 0.042371936580312339 0.045606255201171286
0.48134372702450173 0.19474787025955986 0.0089873285171545303
0.02798357004379199 0.012266707408163761 0.54462084436290703
0.22136887537089117 0.14038769808410007 0.15495295310240689
0.07134608733390238 0.33657156783442332 0.4057078115184955
0.086713022500926162 -0.33668534508479397 0.53069489088192479
0.069382758121869226 0.29855026380581295 0.43762823719185301
-0.087644074843947345 -0.17143979751727551 -0.15884674931734671
0.14022137228496212 0.46301798642291336 0.35324480060953412
-0.61100225287229215 -0.34438351994937699 -0.1064832095201157
0.056791378620244547 -0.20859297900710105 0.59023024492526166
-0.0040983170422676032 0.059999046940447817 0.51193811258443445
-0.53448460155255983 -0.16960086276377592 -0.23836828017706657
0.23090964992735644 0.11903013093832662 0.072211353123213806
0.45157913571217639 0.29270275393854794 0.012121734513340587
0.028162864951833726 0.075315482207391912 0.50598485937954296
0.57745563396395538 0.26299578297927761 -0.0038818959134923059
0.46530717325087145 0.14946081920033588 0.041757851162099541
0.37817012346753465 0.36953389404942921 0.056334683992421725
0.21985353368029384 0.1119909952823521 0.098134577178262919
0.49757982781392229 0.38425089829528725 0.035143290725381526
0.097563567542790525 0.46989477799351553 0.37838590964054392
0.012620960711581607 -0.15373295096742512 0.37855136176007365
0.2390355374971119 0.22703398306042169 0.40382532049332009
0.22470312795562319 0.2822511443731277 0.4181089398791808
0.089172033788521371 -0.22952502286524468 0.57965133844437045
0.26838187268126429 0.27854975432669321 0.15692951982561307
-0.20966623919417068 0.20481247717386092 0.31799251476437973
0.094800705743229158 0.35806933998341922 0.3830267623456623
-0.13254800500100644 0.090129142910984325 0.44524972202945506
0.37788776494006721 0.29577543066934742 0.042042428082565128
-0.40609283385134154 -0.11937385292555647 -0.084044769613910553
0.075311585992095573 -0.022683302641866757 0.43191272027278405
-0.026998827247353183 0.053693792051477354 0.50693086299925405
-0.46089286824136821 -0.091730345558738255 -0.21844389728893529
0.11542386182257831 0.22512541957037782 0.46542404026991252
0.098164152108821831 0.048218626504302073 0.37462858709793379
-0.18384855999137178 0.16072635776189637 0.43662310737312054
0.073658373708850783 -0.1928866545433644 0.60192006454354907
0.022492753586279571 0.41277083594878189 0.38733303147542314
0.051110201731335417 -0.27595055821409109 0.61900706594254595
0.40650533949782514 0.22114481037703246 0.036610196009297769
0.34575077612887606 0.29457463474299672 0.06579898701960589
0.44340160829990027 0.37235731862243776 0.044676906939158614
-0.54029739770101903 -0.33617706488374588 0.0035087110018838519
0.12667626317591424 -0.33052847995775919 0.50402765689932982
-0.35862151609772314 -0.00055391182882485318 -0.08945950444684786
-0.067667455013089572 -0.2922218523908155 0.61833796415051512
-0.3611097980372327 -0.23892386950161504 0.10025868592059406
-0.0067983307307222657 0.31884365493322425 0.32365291711818883
0.096869234972178683 0.088211883384447728 0.44860050042608218
0.14883679366005126 -0.22371570789924583 0.5720720398008835
-0.26180941968157367 -0.11743396423064524 -0.23842439900160614
0.072225919853649803 -0.020865456493933343 0.52827313922013641
-0.42699200652388125 -0.31559604523794182 0.032211057203258064
0.063316955263505142 0.27436153518755124 0.44063460145606598
0.29699272905216617 0.10601365953181036 0.065721271815270446
-0.18618619621355867 0.36806941678059996 0.25463130532980111
0.15932060799372705 0.17807978914752831 0.44393495790424059
-0.42959996389111021 -0.25745007233796996 -0.029861183301236799
0.028512273858315874 -0.22881635239742082 0.62866660562575294
0.22001535762813038 0.34320456826700441 0.41117193696806908
-0.067295089884295875 0.1690301430015731 0.433167279766075
-0.15187867494280233 0.34826913111816055 0.22553879507042818
-0.24592431837971515 0.19265480564944992 0.038130978050143899
0.026113413550422005 -0.21109566634788537 0.61282061739240667
0.49109371734091334 0.21795905068495269 0.0080077278504956662
-0.38364927738740517 -0.25802009552811628 0.10301111525182471
0.017203848636470828 0.42263001996968191 0.37778917538789042
0.05428413449308319 -0.19506445957282226 0.60716030508216423
-0.13132441122991426 -0.0079603544691799373 -0.28704897970915111
-0.32484541373469877 0.14833519267747802 0.31776129226766237
0.0042181859356717269 0.05595295595109382 0.51708670684878488
0.20130225205166485 0.0015870248632363082 0.081237921836021049
0.054219834835447553 0.31168015062485599 0.40966987488654116
0.15235777343008411 0.33410814957148377 0.40905755759833773
0.18211439141806354 0.44427364841509315 0.36537543937561567
-0.1711479651948023 0.26233038092344063 0.34503001832910118
0.13997264649845784 0.27062535019366607 0.46498647767437151
0.051555550571075394 0.30991725568026895 -0.2660573307758628
0.30171075490451982 0.24929785747282687 0.079921112810161593
-0.015520862625770335 0.30273058692609556 0.31450827345212762
-0.085150779602635882 0.14829310022619779 0.44397849889721541
0.056416295230105031 -0.058001003068821458 0.55468632245188987
0.011319560686886977 0.061368060823545477 0.51418801776097423
0.094682181650746669 0.23982634050902232 0.47301189040873681
0.0094882835258948972 0.058807396218448632 0.52700056439743936
0.2369052818763609 0.17853055483486652 0.23257119973299029
-0.020767764305532323 0.011765485053433201 0.54189137828069889
0.31491624757670478 0.029263426316496519 0.098049127342378306
0.38016251447398264 0.25945993178613469 0.034996996915174938
-0.045271309094076125 -0.3217536962148379 0.50134835108536158
0.47411402445059703 0.37106228126948387 -0.0055800558008541057
-0.029916429591288145 -0.21574073337582689 0.62079873894139403
0.046165656553622349 -0.098312464500083546 0.16348265834000653
0.063196105985071221 0.034263547959742277 0.45067111510221308
-0.24690317712909035 0.14286558481499734 0.35953734684493921
-0.64439982137439722 -0.32240012634352222 -0.19736101746213908
0.073759489505025255 -0.23704359774538925 0.58084228825022932
-0.33624174986443767 -0.056564650841865016 -0.22068920951128462
0.58123690558858065 0.33527299560728807 0.0098792936540855192
0.04142736972667551 0.038049121546951829 0.54543333225033486
0.4347238909157371 0.23083125562091061 0.029110082855801175
0.22750441278601879 0.19077007569992141 0.30839622851948223
0.067799361278878451 -0.19884805958467744 0.42376420224421441
0.35303336504276611 0.16917842906542618 0.046553687128415733
0.059753785357808731 -0.3205533343682514 0.58622032591387696
0.039005284657641345 0.25696333641044672 0.43060176326164823
-0.22668617062434129 0.21319718550288208 0.2027497904658519
-0.33729510929147527 0.1642462417328871 0.29274958506891346
0.080809958946045507 0.28960788416546102 0.45532871278930903
0.21600931685300956 0.4128938583913353 0.33522312785685365
0.42250460040604398 0.25371281650764732 0.030426329621429743
0.27224611643205338 0.29631373941744776 0.13878231467708427
-0.28547933490945798 -0.13628573955381415 0.24800937700215359
0.15248623398732525 0.3612524959655381 0.4087010357557152
0.076182569550311496 0.040377437147589415 0.39753483730867023
0.095316072559064269 -0.031001546378117001 0.48691915494383498
-0.51460269242960854 -0.2053308697554771 -0.19302660418749457
-0.01104878423786651 0.052254850689293662 0.54002457359857592
-0.031839555590258833 0.17029513907656246 0.43719141535400824
-0.023014653044149319 0.053906249984057006 0.53268956080539398
0.043074532144111624 -0.04314216721237478 -0.10233240810583119
-0.14321047911488838 -0.16878617263814819 -0.20194144381172557
-0.40455581461262058 -0.19011092532110829 -0.04910287987715159
0.27428685101844491 0.40514069083428506 0.030164634424430917
0.47301870455562228 0.28043200159543658 0.010517823110066576
0.10050143797003883 -0.20361755158038822 0.5911872245080011
0.035127590801574488 0.21463105344112721 0.44040762658938853
0.15435834415442867 0.092765096236040789 0.3332777476488098
-0.20059846152708774 0.34469703662738688 0.25586834827820715
0.064571865966172676 -0.010414019836752046 0.41499344658955251
-0.17853231070437781 0.24070531803032461 0.3603452012766899
0.1469386861008728 0.22020205693011863 0.44720932772968419
-0.067408333282968469 -0.32844356910926498 0.6003149133636223
0.045332422852883157 0.25852237615173407 0.42543995170788795
-0.25450377944211489 -0.2367954762358998 0.15298136000196005
-0.1573391407575514 0.18261015866849059 0.44282027729803891
-0.2450287768824852 0.2682814557940813 0.3099998466513777
-0.053482085497665539 -0.20955096247445254 0.20951896148897647
0.25248343925966293 0.15444269269853039 0.070060087456280964
0.14478910891430355 0.22761541812494784 0.4529768943414661
0.21107028988225685 0.108189589028027 0.1787409092227793
-0.31529883063024239 0.11597153536488808 -0.029905324350507967
0.082415251481722157 -0.24670293783130631 0.43820944965216446
-0.097470185860752345 0.14619267204792305 0.44409644442819712
0.1109639664231918 -0.23875411006013955 0.60497233510570658
0.091234727407856708 -0.22484355959736851 0.58020059000360558
-0.52201927119674862 -0.24555416676933928 -0.14394293209335751
0.044684264875950341 0.3997118232009087 0.29632132795313043
0.15690416473049726 0.33826476334251609 0.39919739020579303
-0.045862665187633295 0.15498752850168637 0.4405516912693882
0.24275647622982466 0.14040834367166621 0.070716397100247519
0.24710693808955592 0.067875271383552815 0.081324157738731057
-0.42318857533656795 -0.24969682305804128 -0.033642417335878055
-0.12437797225761196 0.10203506804499288 0.45344515203092634
0.074882214296515773 0.11062346254223165 0.47957745878555263
-0.01539936184863798 0.061054735012329678 0.50857787450352565
0.1683188506738727 0.25091827664298305 0.43475208731639037
-0.50689708986538085 -0.1799956841984684 -0.21070284817240909
0.11241889070353817 -0.29028893498725561 0.58644080013404531
-0.1754303518266149 0.28472500576443555 0.076430002060793867
0.062851260243384013 0.44421183785705409 0.38445384036949881
0.2355780584480302 0.0557040225455274 0.12493911162407124
0.20965507512084031 0.10980864921874586 0.15498809579822154
-0.11469143991946186 -0.28093277232326275 0.50105678135815279
0.27463979791914939 0.2542063656776446 0.030626424715005152
-0.0075486583958212991 -0.16457999504104251 0.20834011791268478
-0.13425994342844397 0.25092290438562981 0.335650680730738
0.26754348147257517 0.24383264659804399 0.10484825825889245
-0.018179178959130196 0.31845764891276696 0.39139337442652894
-0.59276000465901579 -0.34587999995322777 -0.062736462027416284
-0.11748078713593708 -0.13599562347933336 0.38702129078446218
0.048287021466747237 0.28420559458989236 0.41468641983906851
-0.037303213814196406 0.025118971102021177 0.5204416427959625
-0.45483870612578531 -0.23228605750495984 -0.083879929628501326
-0.54696541036563251 -0.27171421105103644 -0.14254271466998678
0.19061666942046779 0.25874123138086425 0.43166915922760429
0.0010974631453289294 0.056168224088224111 0.51086960833248918
-0.074303987790158094 -0.013963626624542631 0.47763561444323616
-0.10268784020424797 -0.064288169962692765 0.42660627095873166
-0.089783263982647951 0.12932023860907399 0.45007250842072716
-0.14347503562105124 0.24514071065826901 0.37063017625029898
0.12955482866002918 -0.22480032726698601 0.59099081266746478
0.09849951427159806 0.35388917519273944 0.4063549655855066
-0.48236122791762204 -0.097462268150613734 -0.24496107335390543
-0.0049700479224059485 0.0132464396678405 0.54717614964275751
-0.4004048641319452 -0.12453466255425766 -0.07238610233618531
-0.36831088822403169 -0.18765481862063033 0.041708403394777077
0.14432037599794698 0.26788356439861294 0.46393281184037588
-0.21678337324613234 0.10538539529170882 0.40621222832303089
-0.57086865468130166 -0.34394580347064385 -0.06297398796311407
-0.24272091748538002 -0.27022021309962774 0.11811167180896497
0.23633316415051595 0.26269545253019283 0.41291351948870819
-0.037344921682215579 -0.15347037406932348 0.59321991720012546
-0.67380245510677417 -0.23838617560017361 -0.30647587953847133
0.05937600525832705 0.23008695249229746 0.44438634996714516
0.17636062665715671 0.12351725443273143 0.34894677901706639
-0.3750465014713032 -0.25358985217689106 -0.061545297135590732
-0.41535583463087933 -0.20567633098744856 -0.065976058793441095
-0.38217969036875837 -0.14122290456655054 -0.014462618094680302
-0.087944152088670541 -0.1870395111031242 0.37698886773104934
-0.29019314851270189 0.16923424812923504 0.32975194888669179
-0.0030708522803473554 0.3273416228586663 0.4074135101237864
0.49092841945596416 0.30505839595437501 0.012729585580379843
0.1808254061832518 0.28589068965242426 0.42211071061532673
-0.19424613795493154 0.12598642162378315 0.43173638884849447
-0.073417490160706186 0.19872007052767207 0.42181973629892139
-0.0099649905034568387 0.31106223165105873 0.41001508409171716
-0.33592619271469204 0.08780725354401453 0.32237776742989327
-0.093449391891695183 0.21890632777759156 0.38666712633526279
-0.14640691484202972 0.29035244937554761 0.34717253010751448
-0.14719054209119267 0.26892469698403093 0.35475367412262687
-0.18801224098647906 0.14013029687858214 0.44192765266910689
0.1406209132466924 0.50477809249529437 -0.14023075916913805
0.028384779052525837 0.13694872542874151 0.47136773161763196
-0.081251790855457307 -0.059223747070330457 0.4958169058773842
-0.5044534275451561 -0.22519610896543535 -0.14931477712736765
0.091203203312350545 0.30944537734930744 0.45028549131554657
-0.0055666481460965173 0.3172436035062316 0.30181133920263503
0.47443090768211443 0.38800099820022282 0.038977823521114507
0.055910998139729891 -0.2523469261560406 0.60315571030919379
0.10290845375513349 -0.078685722525171253 0.54181407833749895
0.058706342644710446 0.25904004875898456 0.439589050322026
-0.10784340585610594 -0.14787970335891204 -0.19980467444555514
-0.061181412170554755 -0.31975917028365314 0.50432997360616294
0.027030025053576816 -0.15464158887872981 0.39187644062939542
-0.14745065014513287 0.048671000813093543 0.42422493293125924
0.35738056588451589 0.099962309407367778 0.041973181265025833
0.14915251548254191 -0.23669423320875138 0.57353393700771738
-0.10337591768424127 0.25937699880383219 0.38436128050482188
0.15886737604735449 0.049405372803170727 0.00027170602769041596
0.17681294081903043 -0.0095068700118180471 0.097520649388039157
0.037050455183805758 0.22671522671354016 0.43887500601129625
0.090965542155772294 -0.27010474583455357 0.44619175788660309
-0.35520229249046054 -0.053817486032745034 -0.18198279436729758
0.11081410156645943 -0.023118686052805648 0.031025234976684052
0.13649216091322913 -0.29626008875733123 0.56777513388567802
0.050650077036967917 0.32652615268830865 0.40764739472819617
-0.39990455093076155 -0.23037099120656562 -0.019072116382978316
-0.1116605218649081 0.23955802232933887 0.36718143543467546
0.11355336540404479 0.1724760394878144 0.44358881899497127
0.58082514000966878 0.28858352388909975 -0.0017914489454025073
-0.45133515229202892 -0.16139721405468183 -0.2062394210670693
-0.18738104229437574 0.026703783302114772 0.40540200054801412
0.04329669759396429 -0.010965955933758355 0.53369746117502692
0.018541637327060538 0.069771804754113542 0.51939043499622484
-0.55182028710038633 -0.34126287874533823 -0.062317036644039259
0.3950350683286078 0.23682862572105765 0.037679097559109781
0.04516671392833177 -0.28493234518334543 0.61666056708702532
0.16419021739409362 0.21597623898724455 0.4308166975540485
0.056231350410664412 -0.33989355030001633 0.54757261880169283
0.20260293114681377 0.43682309122990098 0.38305881404270609
-0.091961677618135382 -0.20572959447010331 0.42288387430056934
-0.10593730183691423 -0.05952893012968765 0.41437817908875824
-0.021723501501064231 0.0085399827732443381 0.53851782221554079
-0.12017950156747645 -0.1678064289746774 0.35665858796136579
0.18498365553793392 0.30715493981211744 0.41815098627078368
0.27307017551629054 0.36720544920201742 0.14853651723828676
0.22643848827387808 0.18619802025524587 0.39292529446970115
-0.11853812649661516 0.19541535113872166 0.44176767238226472
-0.098271994420094072 0.087853597016576385 0.42173492631701165
-0.23034606902122065 -0.064248067747292428 0.3469835006062984
-0.44849650075531261 -0.28836720398719523 0.026432879499969059
0.15357691144055455 0.44174037178033843 0.39368253698833167
0.068984323116401944 0.34223721664099493 0.40507419962107827
-0.26611276239017884 0.22123188116738668 0.23562929559398324
0.39517465917812605 0.052415159813577847 0.017751933698709171
0.049242219368743158 0.061924531221266156 0.5384853457905362
-0.057873691431561472 -0.077731752974766338 0.54269863820656383
-0.029553109523384025 0.048909476027858043 0.53068323307650966
0.30061891446402084 0.20748957021559025 0.023565053539605862
0.012129302779351106 0.17869220208137185 0.4437597550018994
0.027801074867976137 -0.12938976811935496 0.59153013899465423
0.34460144649673102 0.23151111046545597 0.04584254760253402
-0.081840106897950904 -0.20023977574007681 0.58361778270477771
0.19847860471506082 0.34837687534154926 0.40816181252520295
0.24061417890587175 0.18472740816669581 0.18041171851983429
0.47385932734327763 0.39377486393753036 0.0051868415917270816
-0.12037483696844073 -0.13071522668913499 0.37982272987687132
-0.026154144738959523 0.058260007819823496 0.51913103816235295
0.2094846870304593 0.10458415349489003 0.19243132299023685
-0.16601170155513328 0.041745670070844773 0.42022809741839368
0.091282897308315902 0.24998718023946628 0.47133184796021732
-0.18757882813734528 0.21512911786929834 0.36160898156747923
-0.025563063087981432 -0.19383259785214796 0.39215728273315059
-0.11567624050214007 -0.28739967377848263 0.5426377172985607
-0.19068927393555221 0.18623930363697949 0.41388273943318177
0.009394633614917762 0.28259248922646885 -0.29301937582391524
-0.6574632403155185 -0.22892487139800274 -0.28289000837267053
-0.1467537787357201 0.25440647811508343 0.29750755495140951
-0.10582230103254596 -0.041064437363690975 0.41290773407877945
0.050384911270072205 -0.11952061023345789 0.39537399788546124
-0.15720582980849931 0.32499838702152956 0.33791364563263104
0.36398455461480911 0.18080759509938796 0.043808670303741096
-0.53207681444184529 -0.11586248478174303 -0.28366892491074686
0.028607492091771349 -0.23614308272371531 0.60303409840273781
0.24359939412309001 0.069363908467202723 0.086653130210303048
-0.16779796263821087 0.030495866035171883 0.41207998768840509
-0.048340542323071473 0.29396725371697646 0.28931607885301763
0.23515655327599783 0.12827616772011391 0.071463213626248107
0.020179034790208994 -0.022079501655323228 0.5399365190589287
0.33363360746318432 0.13510605393187872 0.052892210871258172
0.22036229170338925 0.057926555418009291 0.1163008747450624
0.25351567612400833 0.058169991768794366 0.095213912295545558
0.079674914281024634 -0.24888202198427817 0.59526803217120916
0.35001509310936352 0.31763758216448407 0.01958364973616783
0.26687123377448768 0.35127121860196964 0.18786729394720239
-0.097959478108676834 -0.26009841248360926 0.46649142358153917
0.2705941778352709 0.42983811581170289 0.017355132302762838
0.11175715539485534 -0.20884923423433494 0.60072048187879579
-0.30530142428620954 0.1775333345910059 0.23453353382687209
-0.21613605196571273 0.20247771458236918 0.28536041487973451
-0.26447914393940763 0.20277653182518235 0.33061725205350501
0.045114804404793957 0.06862982997709749 0.50315008810412976
-0.31501473518542933 0.018995748430823606 0.35228551446434064
0.061747117795022281 0.012892916579901145 0.42481360978717103
-0.032620654473004301 0.30143981797579894 0.39176382173144525
-0.048182991831787619 0.30570211921587176 0.35892822395201407
0.08961015650260111 -0.24882782309502399 0.60880502014364568
-0.095766597391818545 -0.060867871708756759 0.45618503950765332
0.064509259051284892 -0.33473616499790804 0.55989608187346751
0.3305942295211351 0.071659610371477458 0.082781815637510497
-0.27317124219639527 0.015460132190657241 0.39261280938473064
0.071280998337558729 0.0023962315161586561 0.51119436159265352
-0.64293140267785986 -0.32292140342585757 -0.19926940492574863
0.078246532544272968 -0.17375567677629422 0.4250687872747112
0.20061130205875299 0.063271125111506191 0.13088440108463029
-0.25821151041760693 0.15735491712173857 0.14908160208816545
-0.22249224005937868 -0.26642872710495713 -0.12339449203737995
-0.39217179392430823 -0.11256395183591258 -0.14528124788898444
0.16549222073419664 0.42291953448517916 0.21287408629458857
0.41945598088968356 0.29874470675030451 0.020412864236275058
-0.16703927872370272 0.25406726990970041 0.22596480080595532
-0.60093447134487021 -0.35377242435862205 -0.051498749934900501
0.49158559942060287 0.29921735596311466 0.0084207798272235013
-0.19937760393072046 0.23569743842346025 0.2124353851226774
0.53844657722705502 0.26246475111196416 0.035714772498446318
-0.047699920192754902 0.1418350755258585 0.44687826394663777
-0.22741093812720586 0.20034691221862755 0.34490877975549861
0.046632521124170691 0.29524819717621753 0.41556831460217758
0.2688149160732316 0.41209092507246425 0.38279336688774762
-0.0067227361922983578 -0.15038703972631473 0.33178837139834561
-0.016151741200076078 -0.1929757381434718 0.61677907136544119
0.06130989802106368 0.48603568159145005 0.30103720479545137
0.044573058735598921 -0.18560328621958511 0.61453232336797625
-0.01651465753656936 0.058802213827943609 0.53100166232864388
0.052782180804796644 0.051683528483197336 0.50984818104328755
-0.14058940982976109 0.2272971039687488 0.41156760448465302
-0.36467680890859511 -0.2214212609093015 -0.10926379813457904
-0.43055809562750558 -0.20169559335137444 -0.08595311910937628
0.073448755699948631 0.36659081849763231 0.39430282804710759
-0.025557172105982393 0.038838200153591858 0.54305599129749038
-0.18351391394078509 0.022940716095128988 0.44148912889073388
0.19044554508558831 0.46567834057684743 -0.11305027325346192
0.31644762371014801 0.076503385134646357 0.066273452081808737
-0.54667602479022492 -0.32809857257725478 -0.13503871235889317
0.062008009784432799 -0.082496283953033281 0.1260575290916521
0.038940096627943677 -0.26442772089441319 0.62599417357792297
0.40264966000925256 0.38244233479346029 0.049614696766411004
0.18684486886203303 0.14042888537502662 -0.037463908097575271
0.047299928479653613 0.072438618769503013 0.50259006133833906
0.12788191079699698 0.39681948781170462 0.39751375781802778
0.49620586227666064 0.41105943728644229 0.023996004141324037
-0.11728845070039828 -0.284025097711049 0.52004617689650845
0.11353186980484259 0.12749233015329817 0.45801655677560849
-0.10288383259414074 0.32615879402411374 0.37156566598641139
-0.30052524430237393 -0.15118541147458897 -0.20501666003014365
0.22623910174998413 0.055904591913888697 0.12088279611625012
-0.12724251372327011 0.15003472032989582 0.45917065503399651
0.23832504401953594 0.14272375348242594 0.081800608999857333
0.024103595519046117 0.065458332065191915 0.53391496507336977
0.12728335851893385 0.26167632061049778 0.47011530288254516
0.029569600228734408 -0.21674993800882794 0.61948264914876761
-0.097377045998084236 0.25239330234147639 0.39031617105516203
0.27021114078394093 0.35682651365100215 0.017737038286153056
-0.092282588306029534 -0.188163414500159 0.39276450508420863
0.31023438047960733 0.2286769894997272 0.060054588033444906
0.0032290389613332943 0.36703266870355616 0.3249719788983248
0.11577710236002094 0.22976142035443708 0.46844361567171661
0.16076552938642788 0.22329282797639144 0.4381020188548731
-0.61413472540228364 -0.3444826178030041 -0.092072428214015511
-0.032877504842159067 0.31664532881305979 0.27430996395502955
-0.26973494170975343 0.23069764831046474 0.24868158433485149
0.1748404942342342 0.13289630312300266 0.41662945181421795
0.11231763358873771 0.069148460910695944 0.39939407878138011
-0.343547691044086 0.088927031586160735 0.21225024001933446
0.012361392503130529 0.05750077931039884 0.5365431686455856
0.33732495400542134 0.2704840543025292 0.059881756272484557
0.061625298609581422 0.02463124308367353 0.40575369440970999
0.25504073376975361 0.31620250154521101 0.26622795535480509
0.067517364687815329 0.3452653196541503 0.40409367415498065
0.23433190261865286 0.057253535896729095 0.11224866248164134
0.0042683412215927391 0.054365152919275593 0.51065941496011091
0.11610836747577508 -0.31893459212840414 0.47459530660934768
-0.57667058936384996 -0.19592693773049852 -0.26289909645156379
-0.21851706625351322 0.17479956998490398 0.35820303106946888
0.40012638101312675 0.30589618729223889 -0.0017607408149054593
-0.33378100402048416 -0.26423392929523515 0.076455671405313952
-0.50989723083320748 -0.11185647795337922 -0.28867713851569676
0.1785082026266086 0.33137996137000758 0.41150397260964983
0.23862374020977267 0.40599125728752677 0.21067520538724943
-0.39726384945766685 -0.14821145116220091 -0.052791976056976414
0.083360440385833998 -0.07746713256543826 0.55515561851292461
-0.2704419428125136 -0.25648146758026535 -0.12306867034747573
-0.15049512885032815 0.13859282656002284 0.46228932470869744
0.28221484979501038 0.08770377562905507 0.071354946110646272
0.087528812009900092 0.42435363700588075 0.3897932727061047
-0.48659045557010328 -0.24737893429425048 -0.10163447406898388
0.02778748190656561 0.020721283117394983 0.54737751809369439
0.089745964638067985 0.46987935685769799 0.30166582061127817
0.35736218997435293 0.080279036216743288 0.061173140031670722
-0.30886198532568354 0.1114920768687206 0.17085339374133637
0.096070807602787051 0.32375929137642012 0.44350937201815183
-0.070138274380299709 -0.34178377960760242 0.57328070696067079
-0.067958023040615947 0.31054480862825778 0.3161128444691772
0.035575166503529487 -0.16088496258383284 0.60540756190374201
0.091765967455401526 -0.15402356768980199 0.59002127295166062
-0.15413639503298118 0.098257066204505777 0.44457907713906186
-0.34328830414121864 0.1514846092878705 0.247996962247026
0.1641299701232932 0.23851475877038913 0.44145411220556646
0.14630131961465104 0.30491574247154213 0.44875842563774992
0.14165624737517524 0.20952490250178524 0.45385360729255286
0.030642118491200271 0.29167610269628425 0.37451983387823612
0.16571281143706121 0.39562507020498772 0.262581245703426
0.19253684055513332 0.26301709479045754 0.38636759683026417
0.025055545235359605 0.44626018620685548 0.30465499092079035
-0.34368437950384867 -0.17623903477977215 0.1593587450336944
-0.0012106181615771372 0.057712368793147964 0.53572045262545809
-0.57611997838199203 -0.16521091995572573 -0.2773753468088539
0.023105186068418878 -0.23219280622484967 0.59580735671906848
0.24756878706613841 -0.0037231407079702794 0.091596748314484097
0.51547004017036768 0.371896155103556 0.033650995218539759
-0.052561295642352159 -0.18114842694272487 0.35254573697121511
0.41658272513307193 0.21395605203597123 0.033439239837622703
-0.024777424455109207 0.4024344102795544 0.1488058775670057
0.058727689165940296 -0.12395800709170034 0.58420992245305214
-0.32512071108461199 -0.0063142077255147061 0.33154184467483538
0.018713002834889587 -0.048685209362742829 0.5533197655225891
0.15040074587519053 0.35007272985465498 -0.16523068363420554
-0.16512640339688059 0.093459980512000884 0.44165759336662164
-0.59076346014072212 -0.34556188162053947 -0.11291608453442792
0.15678495344972915 -0.2951004577964445 0.49310638033778803
0.54971074715032908 0.36867359512580111 0.029168517150650344
0.48267572765654904 0.13207084223965598 -0.006709409848628084
-0.07692701823821807 -0.3429544503361221 0.55831093127812559
0.04860565957296871 0.29413423177073134 0.41407555459427553
-0.40155843393585899 -0.14127491667664394 -0.063549385632374167
-0.52870990312712862 -0.12585499459795321 -0.25797646217888293
0.57106032600652568 0.298332171593788 -0.014319568020913942
-0.067372081615916568 -0.22858894134254276 0.42678227077408892
-0.14831457713536336 0.3705911073609689 0.32972889297737268
0.09709696676696096 0.36728083834549141 0.4011930103677811
0.050109103306501548 0.23643125252336347 0.43070475957741094
0.36525974412251372 0.1423700425365578 0.040800465299900515
0.26289224963880653 0.16908406722679406 0.069490140953621521
-0.40844404030616205 -0.19559161846011702 -0.055650458275205733
0.050925470331292758 0.022423035395937829 0.52423800552018096
-0.40957360503967966 -0.23635849328599451 -0.038055666461886711
0.035124258556764688 -0.19802584274873108 0.6070137979312914
-0.156266549374042 0.22772981309496262 0.39924204084285897
-0.22362871213226612 0.094353833233330422 0.39788988141272519
-0.61467540093018169 -0.35070712878457322 -0.13189466507001807
-0.013884697147804007 0.33434021972414768 0.37587203356714249
0.026295047468377131 -0.18997080543422162 0.61908069507044527
-0.0010910088557899919 -0.32938289011344979 0.59166156830260308
0.12882500270462205 -0.012142116883091511 0.043030322520751937
-0.017922534337762655 0.29607164751855403 0.41230704420145486
-0.12612520306931599 0.34602309474796056 0.35175827602607168
-0.15923100875586188 0.12064742846683363 0.4520666643927852
0.10662925147341175 -0.2688798682195207 0.44999860749412535
-0.25360633804817034 0.160902398738755 0.34733952560621256
0.40225904917501132 0.2870155485525907 0.024401587254068269
-0.061841722406890953 -0.30016713435988479 0.61916668548464837
0.25452638774631287 0.15192865955614074 0.066004316853432915
-0.019394922808328052 0.015088057536632012 0.54467027433951987
0.018149214023646401 -0.2513451260445122 0.63068615664618644
0.096031087527199188 0.2157123078451868 0.46193477745356742
-0.029252505574951279 0.036634599016911587 0.54038385691079138
0.14025144206962184 -0.2757488657186245 0.47321961647899596
-0.09986440563667591 -0.01985592733708488 0.43968065176078691
0.0058379222960835871 -0.30594313357052733 0.46835580251235476
0.030059062453317673 0.43255703443904886 0.38261203360672069
0.26925712438618177 0.33969314232144221 0.39467232995628543
0.32206679918117614 0.16322308471432687 0.0541195854094597
-0.093062295635691281 0.18431702315651327 0.4194707983456118
0.13977014997475942 -0.017132956612443961 0.081417403648758796
-0.27908777556250669 0.0014927010942996782 0.38641508209051634
-0.42806857103747886 -0.27799798743317461 0.089021731174568602
-0.032459193277927872 0.28876430431204098 0.31294963543573112
0.31063001400951784 0.069053412844710782 0.089672410449416387
0.1415670954800195 0.45834451248561392 0.34078328749142406
-0.035530951024460508 0.037085256133203501 0.52341593198277847
-0.051417258490955048 0.27403722514087581 0.40958380871732813
-0.17339245585794566 0.15289726576222989 0.44785459692500518
-0.10902307370750051 0.10837205179914175 0.45344580615175023
-0.23961529887298544 -0.30417531423241856 0.02974287004424199
0.27283089806571176 0.42915243517718676 0.074041169829479364
-0.44652343198873135 -0.14178887468799367 -0.12930665184235807
0.12839765986349877 -0.21241482152031343 0.58927926164450428
0.11290407040288004 -0.29979550887669137 0.57948736136884604
-0.39102846999434449 -0.15891017531709478 -0.14599535778236752
-0.56418731699924018 -0.28800579530889575 -0.21138079343622448
0.10666940197864286 0.49078612170770647 -0.17069164796256542
0.27834977705865444 0.33444753375617026 0.36671841149952922
0.022652182597942674 0.36516136796664189 0.30564644308452976
0.38283263492822567 0.091342152526793299 0.048837143389233686
-0.32325320414645997 -0.027046117229816216 0.28935839895533505
0.11586507231143325 0.32852913516720733 0.44319475279090409
-0.6769007108315257 -0.33866707502516963 -0.15768549422381756
-0.25406803979747583 0.074302716402955188 0.39273621298634004
0.0032228331757820777 0.34580243621330337 0.40389019586422431
-0.098132999003395796 0.12683463567164097 0.4373620162982762
0.25226413433757555 0.25250241492799408 0.278974963349998
0.12157698917958548 -0.22737274405975599 0.59825351973979835
0.42191181204076378 0.37733229147276592 0.051009550563430706
0.16516470159604091 0.3999477019213098 0.40455152825172941
0.098825708712528174 -0.30126662599136123 0.58609777623159554
0.089828738382635831 -0.21560888845331239 0.57677230717938277
0.2559265002680271 0.32054291596051232 0.24549050266154859
-0.21475177738259388 -0.26059200588146086 0.16624580502143393
-0.38926707335217109 -0.28375593025657569 0.10462745039152582
0.022216472035809454 0.33140330685379371 0.40455085390874918
0.082083882712705003 0.36419990409845321 0.39781899878423344
0.24655240776612286 0.48863602204834838 0.030724465689292588
-0.29101617192905832 0.12809126820928032 0.34161818016869966
-0.27234220815606375 0.20965413556386633 0.32779470443144726
0.15252411647283301 0.27105613932672984 0.45095126580713923
-0.52008695039628217 -0.2002771113873848 -0.21214020307377124
-0.20074574340176929 0.15702995228179623 0.42109657073400769
0.043878871214957746 0.31217571153432527 0.38039470882793158
-0.64399371695674623 -0.34346980142822486 -0.11656757522948191
0.11794109764963075 0.30276189636798856 0.45728388368163086
0.12919988384395065 -0.23200742484152848 0.46479215126654594
-0.24891231921149601 0.10684207717595831 0.38412379623210063
0.12945509141984604 -0.11400941477146855 0.49730494336135256
-0.28659182710791026 0.14837697628626709 0.18930009862320379
0.026469954703451239 0.046272578938206639 0.54602814418359114
0.12349403575417206 0.24159565229097707 0.47340310476777253
-0.26573431521227053 -0.25426905069514555 0.11156206430783772
-0.35350753246762551 -0.20190723866216587 0.11878991106940295
-0.10461651200590594 0.23021775606873213 0.39623821247280616
-0.30867072889535629 0.19829431372708714 0.29513522725150404
0.051651847417813743 -0.33742846717149361 0.51108658003777629
0.10004383081151316 -0.044379555632543033 0.09718820957975044
-0.47043441000532094 -0.20705606473668475 -0.12857331675986439
0.060153517127053822 0.34829736636996411 0.34626442893539428
-0.23519131449001812 0.20695290404317668 0.33504955862370134
0.11099606199340432 -0.067186975538944899 0.48346243447668691
0.24347237233037533 0.28595542560550968 0.40944871520275744
0.44191479514980359 0.28516102584695074 0.016516628025959601
0.075654959758865881 -0.046262778196409782 0.42222329772755218
0.026965539036866444 -0.1977987723354363 0.62095851266504687
0.061695474248686877 -0.1017375839387665 0.57377045401194693
-0.37766860345655628 -0.070254178508961984 -0.068687144276697254
-0.42209138234401156 -0.18882749506065485 -0.078441022199312704
-0.190906492725438 -0.076963211025357886 0.34983004908012316
-0.24013424495429875 0.23159412275351715 -0.054622763497826465
-0.15460452230981209 0.26564278332342606 0.35218958031287223
0.17502711088553718 0.274773664028863 0.42360849059573569
-0.072476302319045477 -0.33152667034943573 0.52391104681752143
0.22759252574706712 0.41712786945580504 0.20273266459385414
-0.529625111467527 -0.14610261543474651 -0.24250113313654587
0.19005620015776803 0.060689003732345162 0.028763844961421925
0.068839610077599492 0.028325934890327115 0.39437048889923715
-0.23338184961422281 0.1366580738558994 0.36285813699241826
-0.24164753705995917 0.084687449386123659 0.39965427960351396
0.24086645382476385 0.06305416500531523 0.087760108488164248
0.045928202908511559 -0.09369895578746687 0.38229114903911549
0.43993766511726745 0.30356422335758187 0.014927008336469205
-0.038090199176963407 0.041636458587603169 0.5089975173648974
0.018409793560505275 -0.013375065257377264 0.53688041712068513
0.099255675341236957 -0.24052811609853381 0.60576541241328252
-0.051477835578028194 0.12984326304307883 0.45467065301635706
0.055123247285315979 0.37249016917971112 0.26428174626705225
-0.62577779524586752 -0.25877545234285293 -0.24582646148751991
-0.22718539533958804 0.021179139602084611 0.42210617316327864
-0.54647047267493287 -0.29562739135354327 -0.11752080832879994
0.1934439552787941 0.3438104619445288 0.40961425925005007
-0.082474074080658738 -0.069429036451953113 0.50292798218068924
-0.12467903509844232 0.14357083315869601 0.45372133854107516
-0.033141948929315206 -0.31151809391693847 0.61653468468726025
-0.34867290611624113 -0.061073706512826634 -0.20128988554789387
-0.01496938189340459 0.31511561308397051 0.40240178868458548
-0.45497841011279372 -0.28788301597381516 0.041107769418398929
-0.033951742199238605 -0.048588296640168359 0.54349177494320267
-0.53847481987443968 -0.21094754055825199 -0.22324562788526367
-0.039690295470515273 -0.17902682911971463 -0.070443190303899061
-0.02959332282191135 -0.32356531201243843 0.49803751493899834
0.18417122463359176 0.28951839825861342 0.39823032997794539
0.026550736931682112 -0.20440187986989503 0.6110714863632779
0.041260710051623004 0.29704358231963401 0.41630359011236795
-0.20305536491169973 0.16442506969349427 0.41169444779198561
0.12408704981928506 0.23822825581734947 0.47220761092018426
-0.21481458808503986 0.08495417889936771 0.4092829316464987
-0.34329210440991154 0.11739987427849327 0.22275700756898043
0.2561982399884194 0.28515743573813618 0.28208678616718424
-0.26346153552370499 -0.29286775627432832 -0.051450197545778648
0.092937719952007725 0.3674254643456259 0.35748989646385232
-0.057225837231445996 -0.18403923598804639 0.33948355509837808
-0.36033822303039648 0.009128886729027938 -0.034497226291924227
-0.078789020723636458 0.22950624334028485 0.40705316468761987
-0.10785474172744991 -0.25947485427766587 0.47506784069554447
0.27273990936617143 0.34886659112756374 0.063944017705776846
0.09173911457346505 -0.038669387485875659 0.018813755760515471
0.45744595703564028 0.27186862013250823 0.016899966823995527
0.087543651634401892 -0.21140619136433275 0.57668200299700956
-0.01059325012069158 -0.2898080470643572 0.62601001600599449
0.16491163814115362 0.022767466027078728 0.1611933492786353
-0.014543884216588081 0.008543519238862117 0.54238983779613925
0.083195239600691903 0.002181383124667334 0.32223424974894527
0.18335162744256905 0.41215545403863585 -0.12854370219189262
0.12046908795374305 0.25577765320620227 0.47239167032605234
0.060550161342791592 0.51442846507572693 -0.13235236445384843
0.18427911632788796 0.28646944111053341 0.42393585154328928
-0.23435566029959237 0.1578381219137667 0.35228166516398607
-0.054896899621558623 0.43725475295793104 0.035430779087749692
0.19289730660935644 0.33221436550971878 0.41354605049201071
0.061749756902987951 0.014944817774988288 0.39816179289086745
0.049390112439948272 0.060231370118375309 0.50929385418936679
0.50561232050486382 0.26781251864511446 0.0082345731261146971
-0.47971864392652491 -0.14701042701755399 -0.17996822701513199
-0.017776111012635341 -0.1645591409816598 0.35694538824275085
0.15791875496920343 -0.22355498413853142 0.56069340307146853
0.0070478562554658723 -0.20940887924237811 0.41217336536226995
-0.27218165398848265 0.11700060453695815 0.35899757990219228
-0.56209913836382053 -0.195138777346961 -0.31425444436955335
0.0010426258912115335 -0.19179112082642039 0.61894351164089834
-0.26615290354532473 0.12955081091381937 0.35666451242954611
-0.37965415965870369 -0.19182624653544336 -0.12844405989878033
0.035713050421898991 -0.24075617884732536 0.60775737649988815
-0.28027728139115582 0.16491760032633804 0.33213325070013705
-0.63033454620770013 -0.27014786107487671 -0.25226950532402193
0.045672325027106872 -0.18858308280553801 0.61405677089024968
-0.35957879163599948 -0.2149611313497588 0.090280859369945426
0.18323900759548564 0.39193112261605845 0.26252971419375992
0.012242449939704303 0.39139108818305651 0.20434700546082596
0.45945091114179815 0.31043378120646203 0.013609119974654499
0.095302986218883098 -0.035086988814975288 0.47140806278560121
-0.11084046755631602 0.19224369987907938 0.43001241903011267
0.16291187267613227 0.24508330496740149 0.43986319901318827
0.097767286739010473 0.31594598790160761 0.4486514893823475
0.37887361864209956 0.23592682132220355 0.039345690392879676
0.098183631298860319 0.36007258441986184 0.40594509014435709
-0.35516313562879248 -0.22813557116256056 0.10680679551452359
-0.073337039825112027 -0.2649811271809549 0.45722536192348279
-0.13377686062128441 0.048790649452132656 0.46210745948877918
0.071461415730202885 -0.21130381687780414 0.58154724509783418
-0.12219397518157693 -0.053847079224282203 0.39781283294596226
-0.2261005098573643 0.061776588118860325 0.39167957484991806
-0.56771403995375325 -0.34123201042831053 -0.043226434551439763
-0.077280653258938237 -0.24530991452414347 0.068082414100965355
-0.5340783454597291 -0.21631325495086487 -0.20344510308843011
0.074462569048113991 -0.24403800768810566 0.58458696468361648
0.06678928807240779 0.30896040612384879 0.42223927677062917
0.015124470122099252 -0.021871273269852831 -0.16504949255116474
0.13337676386774225 0.19603027110398324 0.45607392167540278
-0.058318168815686744 -0.0039028230555454291 0.50364994367527915
-0.44847250964841973 -0.32436271339455575 0.072264300112020965
-0.022948977565973472 0.050948091434500978 0.53608829467643104
-0.16798333954223754 0.23498396701577437 0.36351529125306226
-0.26947059962604725 0.14899945631519718 0.34145381964367738
0.23839674603496919 0.0714418156795113 0.092888686290386879
-0.13948322934754631 -0.037130384390268077 0.40968396776358212
-0.36985460626759259 -0.032462100305035629 -0.053188504626235117
-0.39143886168873299 -0.094946526619175908 -0.093888327052456977
-0.11096148196566466 0.23289194615781322 0.38990280848798992
0.050441061526148495 0.22953433324583045 0.43678618214754744
0.27558885605119748 0.15091538563793536 0.060449267854030542
0.26614999721721544 0.41049509973649378 0.39276597675904895
-0.26324861876185096 0.068984356756447193 0.38816749961198643
-0.60743913010822448 -0.36052993548106904 -0.04998502406212596
-0.17420199257445096 0.28927900127412698 0.33701884014326838
