# XYZ point cloud file
0.32041085857352058 0.42738818704135539 0.36194644265137299
-0.75464613852903106 -0.027069848854589296 0.71192494387568672
0.35721256103855836 0.068428069818089909 0.51035552149086527
-0.54880862391713414 -0.12075646092807979 0.75674176903735457
0.12262532849804586 0.43159517866258845 0.71000754324875004
0.66213313440263732 -0.69502163121898519 0.54101397249880989
-0.13608346821758488 0.29148055078262658 0.75902428199727723
-0.036267660436177351 -0.46804237017208017 -0.12722955928435198
-0.38870086492407552 -0.1785093258757442 0.81382942850104456
-0.70554284927265698 -0.18163226717313741 0.73980847391412397
0.42561159775568669 -0.057390584845151693 -0.045439937009703613
0.25864689787424311 0.8015609582931269 -0.28734641385688775
0.10900916989061749 0.43156325276007657 0.72808864446156463
0.32969220088784112 0.66405158055045455 -0.035312137807729016
-0.85144063393979508 -0.38074161108255566 0.10276546837602041
0.78090619114932025 -0.15663395283463366 0.40483869672846851
-0.23295258289072152 -0.12046198201697855 0.76144785516501656
0.78602721970864664 -0.35072599353775757 0.70216850470077929
0.74685712744209098 -0.33137274564061592 0.66520814209513901
-0.71454118415534396 -0.7946387284216847 -0.3815140266301853
-0.39021303720858747 0.47574645218853817 0.62376683854938619
-0.046410557187432033 0.60785701006314952 0.67875135937737952
-0.15058534792975564 -0.012471581541930732 0.74552097045986443
0.26658274382216085 0.77929289661956425 -0.2863343120711761
0.39456828773882258 0.73695038195750762 -0.28513628887971265
-0.48923244334285343 -0.68873619578157985 -0.31526059585246458
-0.20951070985846698 -0.22395217073794882 0.73862870395709024
0.17406374860651397 0.14233004509057423 0.73280125022903775
0.094358779280319993 -0.11246270377757561 0.76670327599170918
0.1114120545720656 0.51446688129046336 0.68941451605571302
-0.81563066239005622 -0.73387889877224666 -0.38615358125593247
0.85783650979114867 -0.37705399725176214 0.64051800707785844
-0.78394129241065791 -0.049904781855044433 0.34524313930153738
-0.34847895521287597 0.55048269604291633 0.79837454888532733
0.42315746032984158 0.69396725460444664 -0.18733671261784934
0.31257030426976051 0.67644530234987599 -0.090125741630330936
0.51565146948020413 -0.60480270855958906 0.40901944459752571
0.11419729915875187 0.89445049177540525 -0.34457848680101222
0.4363441419204328 0.064695568742175524 -0.024796930859317001
-0.50857682506383739 -0.030641771048728117 0.70709608727629103
0.16163189273285994 0.86522068354774362 -0.17899275990033914
-0.35150515203083188 0.24864113697506873 0.78635007619943309
-0.62713309751324076 -0.94918923156684443 -0.38745344966618944
0.21183140794705935 -0.36661825190033781 0.35994839539150547
-0.17142766442681889 0.33130809644301351 0.75642010920699931
0.11888212263800568 -0.20478610102616734 0.7553085657194174
-0.60017917024151046 -0.71502507819681682 -0.33466205632251445
-0.71213864115685865 -0.83626755843266665 -0.399525086524811
0.13885570447588691 0.56561845985492099 0.67208245500366814
0.1351662829114062 -0.089689153216689022 0.76359484141067924
0.10165408724439828 -0.27553162379489748 0.64631777961358239
0.11790563268727894 -0.32623813912734789 0.50653179081954391
-0.18937492025469282 -0.12919934317819504 0.751926088921266
-0.49226804694911053 -0.059982024427670311 0.76072179685569807
0.79424981077294987 -0.28788230632057399 0.6959618652022499
-0.171741567550459 0.5106260345150968 0.75179459577874042
-0.90472506666808883 -0.66627771510807676 -0.34083260563173923
0.20763737044850217 -0.18597761222758535 0.78724521811491144
-0.6740185124058371 -0.60530927591993589 -0.21181975701005484
-0.452005214594287 -0.61672249459294015 -0.16397476579745529
0.052366314878920406 0.46975476383100556 0.77593028386562679
-0.40735385398851776 -0.34988354255455079 0.69360873041605942
-0.59706044692453375 -0.92002892459014518 -0.3954194285367052
0.040923939763345629 -0.41738958364630285 -0.22541579983001725
0.20685445190722973 0.66289072927896697 0.60007033990532221
0.44260890236013495 -0.4781370858277878 0.70004009643005816
-0.99019918587491063 -0.92369215493067713 -0.46394683745250376
-0.059129565220821689 0.27624875792496084 0.76442951032217366
0.3102270896684427 0.47869545572029715 0.40625056519431268
-0.40641124517409466 -0.58765117105533804 -0.39240997879274886
-0.56735079290177026 -0.652365194016852 -0.30340783898983403
-0.587513751162966 -0.60249086329890744 -0.16815328848767308
0.37383735725669354 -0.32872742718826053 0.29312434696414158
-0.6494668725651831 -0.36099167475562588 0.67969985457160931
-0.32501851792854097 0.28400649158154323 0.81027088470104047
0.32797386134385498 1.1832411053486673 -0.45849564811577181
0.078794307477288328 0.5838053569972157 0.67508923277966204
-0.38129042742651009 -0.30158764064073118 0.7482658856769433
-0.27829380391272451 -0.0051806823252782408 0.76635767599183424
-0.31647437817828994 0.2508304950012441 0.80699511910140842
-0.62184894855301565 -0.50728047437740642 0.58733160997419986
-0.36440221535868744 -0.0060351097671347276 0.73690758026247494
-0.56301393067775685 -0.0078035824197950632 0.76825517172741797
-0.53599984089330377 -0.035417916090626278 0.76057986629997743
-0.38340804042523402 -0.27901813504364092 0.77684333690121576
-0.58405388773388367 0.70872249496365924 -0.3435959612374333
0.037823371242595272 0.089824061197061766 0.75560366405752433
0.17833533147397773 -0.35093156550322746 0.62941248916437331
-0.72097813289102675 -0.76270236321583518 -0.37232640923690496
-0.10731598160617573 0.42748925265814819 0.81098307445100204
-0.38356057595955662 0.29218681834439764 0.61463790763507831
0.21642678641465096 1.2194660575291216 -0.37424411982667039
0.73247305858429712 -0.44554301654396511 0.66728987258956352
0.5487667372660745 -0.097136362579043123 0.70509845509965885
-0.10453297191478583 0.31102268178759829 0.77737169859990729
-0.077340271107875225 0.076087182309549917 -0.72672168656841762
0.66766929111464179 -0.55250322303415089 0.4074220803517079
0.54381731718569171 -0.10012869823569837 0.36029942429298956
-0.18416152137261577 -0.30462738159674707 0.63876424598833381
0.46597990569429193 0.90247813089880857 -0.39320638389642681
0.83775581469446081 -0.24658967133001486 0.66692456365974806
-0.43389870537981956 0.023254901170936648 0.7756036213106583
0.23760846357913579 0.62169187586268571 -0.42994588038105519
0.42656257348961368 0.57989667846261206 -0.24693913083541474
-0.099627698041018675 0.23181331861108845 0.76435756643429187
0.82517973545375867 -0.17819493548742038 0.40978957165564367
-0.75630024817517061 -0.47735125176454041 -0.3177242358061747
0.29955360597367253 0.49718309218825674 -0.37164104504982731
0.89817230120474179 -0.32122874019777914 0.61815673003076199
-0.22591314989268518 0.38657979167658496 0.77257322980180732
-0.4719019843176504 -0.65170400011211882 -0.28534190682298544
-0.43555248422529758 -0.010229608866163531 0.73424114638187632
0.1351089350896153 0.31838985706366429 0.68932293283790358
0.44462432872802538 1.252027991634173 -0.51210786199808211
-0.75958346457454695 -0.65026049428159283 -0.40122563185081361
-0.2355830981195588 -0.38411057016237038 0.59242834220506779
0.33514305884193618 -0.11392036771812464 0.74148659174959874
0.14722134845733592 -0.049017887819912787 0.78757097852685831
-0.57113070875364969 -0.89369297899922984 -0.40043044524698956
0.31457995910311887 1.0374229297620294 -0.39074970235489559
0.75863312275695449 -0.51212135392223246 0.6584751033228784
0.15619378323564703 0.47193024629355662 0.66151836739059888
0.85772935887300861 -0.45195065492633191 0.52238979992028334
-0.093443839189077949 0.79944748979705338 0.66357221929530397
0.41350684586398856 -0.40874917577612635 0.35672219260301574
0.096267308987936673 -0.31662185103644624 0.49074560199952799
0.18270529295044113 -0.21298308669198107 0.76885218538736666
0.25761980202080892 -0.35702044850425629 0.27282118287529045
0.054800797503560261 0.61656598141676255 0.67639617647376582
0.0088990398907604629 0.93257498807334649 -0.0044844137479884694
0.30256160208428007 0.58434144075686412 0.51758816145797937
-0.34118327307500707 -0.097600246955323655 0.81254898036480228
-0.15515043655123151 -0.17317205869406749 0.66460705135723686
-0.19854878319205937 -0.4976139955133192 0.39684498398032275
-0.4315732730301427 -0.76911281354824013 -0.27637111498890476
-0.18034886327615141 0.71440304408482724 0.7332459791115653
-0.21277444699243375 0.44093919317973196 0.7649387671034944
-0.73849007296508162 -0.25714613574844236 0.59567941025401439
0.56300843505405851 0.91055150372279137 -0.45129142872857386
0.2216336461372137 -0.020492061340636525 0.80953779019000649
0.26960312706079037 -0.37693550210628501 0.68935627770762409
0.095638086107840081 -0.17172451515401299 0.79444113589766374
0.22003946821482678 0.90697967788355349 -0.39193154122875029
-0.072716928690461202 0.12524534055309822 0.74710041890083545
0.50958114347101713 -0.34439402855308288 0.7372728221256466
0.2598415940541301 0.97419749508043196 -0.35560670100843339
0.44465090965193355 -0.58405297754173446 0.6253417193698283
0.019246835697696696 0.6900022262050669 0.66873588434388864
0.25197996856482341 0.75996764648435722 -0.012698119804689156
0.18906770980743381 1.2215321072864791 -0.44298826300894945
0.19170561934814501 -0.36092542785556425 0.35290216031711452
0.082158040686032052 -0.14452117848257018 0.78358446817419747
0.33989695960926802 0.6505707527336444 -0.0033580551259149161
-0.21063954303776811 -0.34159648133225851 0.62864474473358456
-0.016863894626540699 0.3446876708687121 0.81095675587151561
-0.53259419997615076 -0.16532007594572562 0.73704082591778786
0.51588153617568722 -0.23201279377762773 0.3251029499507041
0.52713743578321015 -0.66316583363519044 0.46648870684774835
-0.46624701311579564 -0.21777129166716058 0.78507349477020938
-0.60946810171319044 0.35537057340842004 -0.64849989253097817
-0.97330506529407756 -0.90934127007390231 -0.43508729999938112
-0.55941705103871442 -0.042240667288952594 0.65720518031309894
0.059751097026115474 -0.29997443555293302 0.50870616190853468
0.5245757727803948 -0.030828378644349286 0.39247499349748693
-0.61990028273278241 0.016904865257467705 0.79060011708348554
0.35808592702251474 0.96515810425225901 -0.37961787482068132
-0.95907930996468238 -0.72668554435814592 -0.37427958051640786
0.67192651945313031 -0.47064491363224903 0.66778787763230696
0.39044799277290565 0.73117771557605948 -0.27200301366833202
-0.20027217860631197 -0.35080708354108125 0.60294754000666018
-0.44293035981805318 0.1846185724098266 0.60859338302125821
0.27485258817948655 0.76103652467501171 -0.28543764613417011
0.31378478939751631 -0.17521281391899812 0.74306887464509686
0.39127308958135032 0.89804522143418897 -0.35955116972786527
0.39260878200402516 0.67838559355445405 -0.20121947886387659
0.42709307309098676 0.73337719007938951 -0.25858100517791627
0.76118751204334956 -0.39525906402941757 0.66771980233902184
0.1284052463379588 1.0322637812623245 -0.38293367430817682
0.041431626336768446 0.90363985021620863 0.085606781732010973
0.50719473559362882 -0.5164190751492761 0.37931314729139132
-0.15627399428432831 0.96617050746733213 -0.25923526148280018
0.74792621234995593 -0.31086229108038665 0.71606204379320104
-0.74426399500419471 -0.35552848256440228 0.56387761043178131
-0.61480323644225265 -0.20932367226765614 0.62317825572981178
-0.65081341401361037 -0.2878801304423817 0.70895825768432985
0.1951918882973942 0.014519186702138143 0.75222516699385977
-0.47980814917486825 -0.56003042326493002 0.53513443245508796
0.31085281533800924 0.072812345135899292 0.54958228912745
-0.35678668314885442 0.2012159289785842 0.78297112356032272
-0.41071144619530031 0.18381676501986099 0.74120630607142601
0.77109890253242597 -0.39879012495431709 0.69270669427935871
0.13787985861548435 -0.33953649864651503 0.56083783142069876
0.85933143510946053 -0.45287087292412487 0.54878836234713901
0.49908010679206782 0.84064032861636928 -0.30302973178125825
-0.37868868332751404 -0.52314152448125917 0.5774952002429572
0.35946196349025783 -0.02183545831400302 0.70958206220404918
-0.80065196378938985 -0.95103442258128545 -0.47669045991410286
0.66431652593201918 -0.073332813536890029 0.42004382472805446
0.36238852823349532 0.64541322570158677 -0.15928893230758234
-0.71639521326273936 -0.29341754947539123 0.38783731384610576
-0.070511459370383278 -0.21714047692149485 -0.61343516445793256
-0.71344250025980571 -0.56401035189392523 -0.30564108569083004
-0.23356368777994696 0.75499398884046265 0.31931910334645863
0.25076742692641751 1.1048623863306881 -0.41983229360548791
-0.6406467116898007 -0.068891462817195048 0.55520310378315685
-0.62095101536319319 -0.96677910350533125 -0.38269841674109983
0.3338530420114374 1.1801138004580087 -0.4687341531956406
-0.678136747298554 -0.13930184653963096 0.53686401256595673
0.45077583115834585 1.195212012075082 -0.43000130904166411
-0.13011180847849957 -0.034596613676853849 0.74470827786598903
-0.58653914135044793 -0.24010430952919926 0.71306898268333896
-0.18891752692936237 0.3401639273964232 0.76738537908087778
0.049668810716623213 0.88584389715310152 0.58800326062781494
0.45930200063929405 -0.078969784216571526 0.24091047500290586
0.53924352196136027 -0.51306266480077056 0.70697088734296898
-0.44495616416665129 0.59553721458373232 0.67813672229218014
0.61960903481174157 -0.40790199145906136 0.73197625756046136
0.10338369756609112 -0.13658342791100253 0.80278917285863827
0.24018031748263269 0.0023348087052799116 0.74909054933440444
-0.43828205619973915 -0.086246395141976961 0.80475248051630643
-0.46920636503108426 -0.5430371634016069 -0.42545285860496307
-0.6099664874663695 -0.66849930028236848 -0.3130973509725905
-0.23988385230139464 0.48023357415174672 0.75791910659688
0.12427877274220123 -0.18760675584900355 0.80505962185993241
-0.19872745769529843 -0.40332749710767857 0.64261834603139789
-0.42477733901612602 0.80932539973881745 -0.40732034498467584
0.46456116169256134 0.83377525831798138 -0.33493930278245898
-0.62306441936714307 -0.85243023709263355 -0.46725087466646897
0.37674965388312742 0.32550490330574178 -0.17594878866870545
0.72108274490935642 -0.51321846579296881 0.68478154695510796
0.1326516282275918 1.134135957914034 -0.31818865269913488
0.10914145584269086 0.71329182623463261 -0.48602902324257258
0.19261510696378181 0.023629495264730238 0.75384068844847008
-0.17395815438641193 0.61677371674744208 0.73724253804110162
0.20751254459696611 1.2564000709017709 -0.40704636136283057
0.51767164373631758 -0.63521928230480107 0.43444883508709609
0.21325323735149126 0.2558654216221381 0.68687687224032601
-0.51563793955804726 0.1064416529924177 0.81258510930661032
-0.50879804855025057 -0.37234072511015626 -0.5403395668952129
0.40710153665662929 0.68311843766069202 -0.19341555155624945
-0.28288457550756618 -0.17517165702787274 0.79766848727149409
0.26266194285205913 0.77085166078658318 -0.25888168959065183
0.16865763098632058 -0.057435356990440667 0.80826168598355252
0.03231438317130042 0.42693938486402949 0.79490688413114441
0.64275760055000219 -0.47044117411252984 0.70869162820370946
-0.41133525295365558 0.024285957093878707 0.77573273919772134
-0.05370587341292854 0.93523511457986253 -0.31122719787176578
0.37158410971589007 -0.35832305833738687 0.3199181138430518
0.22381038379111473 0.92639431586469101 -0.31018728111624938
-0.41133998038884734 0.35613746471861241 0.69126617566156057
0.05710483002979494 0.36849725245271614 0.77782409472861502
0.14058663420129136 0.46777480111191139 0.68407255465407957
-0.67673785873635595 -0.96314568627972008 -0.40680523741814056
-0.45200078862495374 0.24008754949952227 0.588214860120857
-0.74359472278046823 -0.25341880515588144 0.62627031522288235
0.30672149377306823 0.4173509406916267 0.5709568086664305
0.30051355516252087 0.25508730016266412 0.51984297803463164
-0.70998179902906777 -0.48656721810070636 0.44294896772553471
0.16108261474870034 -0.090976263771061383 0.80752120576197228
0.20106748529511975 0.98630821105327371 -0.30819159767716542
0.28512524076484524 0.10573065634083179 0.51908038348638286
0.10872265889080168 0.83099274762250275 0.26574499577325383
-0.21975053742829687 0.44183248919394202 0.76633076952540335
0.41161256664745594 0.69946495523048569 -0.21510760883606395
0.14429458458191746 -0.085721361119313499 0.76110921350083771
0.9181320216366764 -0.23292615655079096 0.44468681304382329
-0.90795434385618989 -0.81300904103836835 -0.42029844219061374
-0.53416773320990529 -0.2588138263298152 0.70172014746390232
0.20234590428201749 1.0876887194204601 -0.45613709773630973
-0.21502928905394469 -0.58502629616312696 -0.23919251444056044
-0.93814719987046935 -0.69659084958870388 -0.39362779656107705
0.0073795170724704207 0.63438086223225376 0.6822132869494979
-0.074187663068016718 0.88373422049634343 0.21128142081301604
-0.62233815930265735 -0.61410582377378198 -0.21989434998435797
0.51551227232870644 -0.14650329051509559 0.72796534474680641
-0.20448499142008814 -0.33099096569219455 -0.56809351465160063
-0.30500591410732625 -0.22931747071412545 0.79651158766949948
0.40606946312727743 0.79904710704729531 -0.31336301828631719
-0.28164068029915157 0.57327707423969976 0.7747256606680395
-0.63678449189998076 -0.76010758573562143 -0.35595454098465495
0.25450980410264279 -0.1187733540982876 0.79285702501088196
-0.37867832913387645 0.63416906971863796 0.63795083529414853
0.50594979422669262 0.88289937088147674 -0.35418183457336028
-0.71823461621574403 -0.41045442611767591 0.3957884516779302
-0.12002080311536112 0.45676665982841413 0.80422090373104993
0.67989800917436582 -0.67577662069274247 0.48934482838664906
-0.47960989150967848 0.15857401600242937 0.68680727698460231
0.57007912284902318 -0.38372446927698434 0.73502300651944807
0.6443096129470689 -0.26619081531037203 0.73167239438175358
-0.26348580140880173 -0.27445045001725532 0.72776940587464622
-0.7548646385999529 -0.43303080867476496 0.56733004419217536
0.12441095591771045 0.48820278126986061 0.69865924335918095
-0.00094053881494104985 0.52590134969482349 0.76705182176115017
0.13128966303140288 0.40451440990241316 0.71999965244522457
-0.23694395006829083 0.32031451682774303 0.69971719613280925
-0.17079920385924652 0.72611134180395176 0.41075919690840124
0.12223046829967465 0.60543989579330315 0.57258018215485862
-0.46815713632890166 0.48381517259143791 0.69393349908377644
-0.34880606842322592 -0.6349096111234509 0.0046473376439379877
0.1352863650464613 -0.11448116955232379 0.80794274298164481
-0.95078395260506987 -0.7979884461589144 -0.3978123214682654
0.65946524293046949 -0.46574808058143624 0.65755601405570729
0.51343541613500498 0.6832346438184107 -0.27503621500514441
0.28542487414215678 1.2509113317765799 -0.40666739168056409
0.42968486850515575 -0.2212810993888219 0.25632734480466013
0.37116558533329425 1.0458992444975665 -0.41110675789252582
-0.61686310642112296 0.33529960646193757 0.42309200733158292
0.54981443668273755 -0.27830786252655848 0.73718920991569092
-0.47395778111381404 -0.58860190102198473 0.47606271590886706
0.35882865655045393 -0.22333606550215457 0.74253952689776526
-0.36667891840707867 0.69390431526689689 -0.5635725864294443
-0.27771300745504135 -0.29671627909093701 0.72052084544122863
-0.65215440210734243 -0.92551919916196823 -0.44205125731920702
0.93433310401389491 -0.17770124146959532 0.50344005325398911
0.32840925859910719 1.2810444310055784 -0.42812869580798463
0.53528550741980041 1.0542422458302942 -0.51298582643749313
0.67281459266212096 -0.66743528586175671 0.46257178642418495
-0.18449014663490004 0.34338813493323528 0.76243684864900985
-0.64578299792713167 -0.61514637773986536 -0.22179146465459354
-0.93324227694965955 -0.73212978226986714 -0.35731049702822304
0.41476365779215385 1.2511671751190185 -0.53408248088198462
0.50400010014838514 -0.38502280486120277 0.34985107084103362
-0.65426851332943059 0.087107147442949895 0.81151994707361297
-0.1933831404175077 0.52456882663193838 0.75186022492731297
-0.092460768465359777 0.27322050799472208 0.74895156768435101
0.41351415208753295 0.94111023412506967 -0.39273307672495861
0.2509247980666558 0.82496302052462234 -0.28828118743799536
-0.56649743139239916 -0.64297176054028959 -0.28081432492173519
0.28981312220526689 -0.050601766239815049 0.75167006247062318
-0.49006502186693979 -0.66069621993421279 -0.31224905884992182
0.62530145869327214 -0.4264253617790299 0.70695489346928042
-0.4723406217582351 -0.10849727813110732 0.79278763295189947
-0.40892089551868338 -0.36919299696686991 0.67052009217925956
-0.68950925140188346 -0.94978455447497367 -0.45723946972545804
-0.37216879767437128 0.27858559593780896 0.76909847411882737
0.59869457419140204 -0.44678783148499157 0.72886370530123656
0.75956310126838034 -0.58814192127346132 0.56464151590895995
0.31954220569486047 0.52830307306376589 -0.34959755073350607
-0.31117495568567577 0.21721904167180561 0.80431593347264396
-0.58455852384525819 0.092775305585561796 0.81177117805591337
-0.30097482971061496 -0.26058612613246801 0.764426650273478
0.8439847143385002 -0.158463946522307 0.42258112367172629
-0.57694702922083607 -0.32366116727760286 0.68299851930341049
0.2464692657053984 1.0781817767232678 -0.4081500746057003
0.62840791984558209 -0.68595873650938621 0.59510156333392672
0.26328764640937408 0.80409766214467204 -0.29808131576417907
0.17718204351186984 -0.20692030009280771 0.7851695154458298
0.67366122956127228 -0.53700032197635572 0.69241648407034972
0.03920982657463945 0.31911871487273302 0.76667865369102373
0.12035512823311478 -0.19447946267877114 0.7988280679026758
0.89326559013134954 -0.15057988371562203 0.4719993888305325
0.044127542451786184 -0.29451898210481531 0.57780308622137255
0.75335319252994282 -0.38136873445315977 0.39240514879228527
-0.39475575295626797 0.47573196598118273 0.81524049832410839
0.14773962510443539 0.80806406387874219 0.57524489342307561
0.33488968202109781 0.90255295254935852 -0.3475241505437765
-0.29538700964378961 -0.056987092792583738 0.75724339110009709
0.37094958656969901 0.5260949682256566 -0.27317897913270173
-0.37156788873965141 -0.54236981529597372 0.55199387491249041
-0.37183767320599515 -0.76799483588763096 -0.19305613181264647
-0.39136538375123209 0.20691474400474341 0.63336903988587068
0.4822644882524294 0.81361001955354162 -0.28383714824970241
-0.24904498937888597 0.71918543664401646 0.65144157730117769
0.1023148090461774 -0.19026716706142821 0.7716721552412622
-0.34548510242190389 0.12874722777312897 0.80144129708622813
-0.37262471578670642 -0.24276121219749136 0.79538909452109152
-0.19083755201349817 -0.18968088133640038 0.74144345151177049
0.06209951741850972 -0.3447371173168019 -0.40089209799888437
-0.11892452698614342 0.97145810277530131 -0.13368131164705233
-0.74677167175127224 -0.66219903414972237 -0.27608532330494029
0.77663359269052989 -0.27346013552745951 0.70081148349174782
0.87174782333922352 -0.37616915545225904 0.62409864145718785
-0.64051474343506243 -0.57079239015299521 -0.37033986229415916
-0.74573068825283784 -0.83923906186470631 -0.49013258506762725
-0.6473289028751914 0.62384950680378459 -0.36082596988543258
0.16024168171213482 0.83292161405577936 0.50023255397319843
-0.38589834261280842 0.39597811189077703 0.63598370346412736
0.51262344990614395 0.92072559479915306 -0.38439446937925226
-0.47064178149308589 -0.58463064587607505 0.38958988840962405
-0.090012754550926388 0.49973547910382976 0.79253025214388373
-0.80436780929130336 -1.0086674117662469 -0.43776606269750573
-0.43355446280004983 -0.43438621489911355 0.64667610387387242
-0.33723200393415453 0.31879580543450992 0.81343262388433146
-0.2086936820177776 -0.14021100453951441 0.73125568185160006
0.2059602801414453 0.77139992386656964 0.25966383859983466
0.78598470987667213 -0.31297652692638778 0.7030965987760851
0.16690546059626499 1.154183689398927 -0.32768815875841284
-0.10672327922604374 0.68685043313414873 0.72022041080292354
0.85488592890729009 -0.40763945016534286 0.62690449694982675
0.73276402898988735 -0.31892866715281443 0.66558400949169538
0.094867814647855653 0.84485309094134031 0.21655076441526688
0.12139836372584867 -0.39416470151514105 -0.14486806788097795
-0.27527455406186974 -0.71267798641198254 -0.19835220138143228
-0.28599603942764773 0.33797574915397455 0.79102882530735741
-0.21918225619559806 0.49325594949905849 0.75581646151364623
-0.26880965695833936 0.94936270816826074 -0.15166249573936597
-0.59499752151450203 -0.41072580529823277 0.64914895851534737
-0.67044011259693548 -0.29024382060336862 0.71508657977079082
0.058381290543898956 0.49695705921617339 0.74641868904854647
-0.80678494956520908 -0.75704805213810467 -0.40507542143630815
-0.44035055133532452 -0.27086166506439824 0.76791489067042562
-0.23539929758934086 0.36663696769809562 0.71656576906271852
-0.7331009933089021 -0.98862863807405787 -0.41718368781087634
-0.04636510195108734 0.46623082691308682 0.80193545083139384
0.82223101248812114 -0.10848203316226623 0.47473744543104601
-0.47600656797658303 -0.38809439748373187 0.6718286959351758
0.64719621027723306 -0.030396758995824058 0.60138071694819217
-0.71869675677723066 -0.35037955808078181 0.4556329497556888
0.20825626834784927 -0.088365534606982266 0.81249594402910219
0.055467544978784034 0.39360160240972242 0.79078096096544215
-0.05396664068100776 -0.46262271617258932 -0.20865660241955908
-0.34838450756858208 -0.63655886160843878 -0.083977809067270925
-0.3922368507105638 -0.016308238160391397 0.76841433149094485
-0.72798879955764839 -0.34633486901743638 0.67115154565951229
0.85523513337709289 -0.4024996941872363 0.46463725754588125
0.36036921171073288 0.43505636481368093 -0.23536878598770983
-0.68664823798231467 -0.71585737050033593 -0.34604723462848597
-0.26970804504392376 0.44748761232877499 0.66499170525958817
-0.61197142972313046 -0.2421324310290629 0.70890446991680989
0.54390730195514436 0.0082701767521164982 0.60370854042158584
0.184105205088823 0.70154708578690972 0.59982593408182794
0.29569455520589649 1.1207268197707014 -0.43965838792333045
0.44368541582717214 0.047143846103693932 0.49705136993330967
0.6110544479316431 -0.45640290057037625 0.72546374716613826
0.5196743227486742 -0.2348505541695225 0.73811610325015664
-0.71691938711280834 -0.55307153733467374 -0.15061785095826252
-0.61254257088771169 -0.65480785906520822 -0.29183116564725253
-0.090169353582247425 -0.43676697521758001 0.37519187192292236
-0.89194603267547734 -0.19232006141162294 0.13019689530686662
-0.54564350699445541 -0.051196918820973991 0.7573162873985666
0.084891018745620883 0.56032134168808057 0.67574609474485925
0.66602234817982975 -0.6062141781849224 0.4225207006725924
-0.11344253546835681 0.87260984836619748 0.21359143410812464
-0.9032062805382477 -0.74415849250386934 -0.36373668418333693
0.28812841997957506 0.66878243107405844 -0.38007715853916579
0.29002733275202885 0.13679974642326265 0.4952946352897527
-0.50606448018080386 -0.32512888223526026 0.67129864148704854
-0.42333928206721438 -0.40766783423123343 0.66604393689999597
0.39723141069227808 0.722879915075886 -0.27015648969257455
0.4683643945629683 0.00096921349929424139 0.38342991182838659
0.26762499780171822 1.1303335470957778 -0.4375984123713792
0.084527588411997812 -0.17705642779188757 0.7521750491245669
0.29495233439235591 -0.16500616252317535 0.74542559583208146
0.77324517992589037 -0.3713227898447542 0.69766718303335296
-0.11427112028677655 -0.06019926541286047 0.74795167734217216
-0.35805641095420349 0.47683099557038666 0.52604329061386323
-0.8832141242270275 -0.89594269386639347 -0.4517878497411516
-0.28811218855795317 -0.46371064353509261 0.61865708855339818
-0.66338480076787221 -0.85148027053334729 -0.40344170334027751
0.016877614769457594 0.67548075386657125 0.67334014509930284
0.19714183620356707 -0.37036088766866904 0.63040679939820166
-0.27248919809674632 -0.17607912562424843 0.78210425506440373
0.68635560455222588 -0.65111160207146668 0.59715841892008825
-0.74268420354544062 -0.46201403356544013 -0.36356761978970553
-0.33494457261224042 0.24813795685292916 0.80036371339076595
-0.43473189037673876 -0.78719420424940978 -0.25408786801649086
0.26211832369731169 -0.30474500686695372 0.72199108677352797
-0.82223050580099866 -0.78117057701762427 -0.41945917581659131
0.21757153712183808 0.18879799009557097 -0.56872127932298611
0.7230408702051605 -0.49653927268087905 0.41105446753862651
0.071550410470235803 0.60874692097256755 0.62282135753810053
0.6216033917726449 -0.45162659181072229 0.70479084784305002
-0.20101136297539135 0.33139506997488866 0.77375368040910786
-0.45991423919620544 -0.26249388851110034 0.7628715996908042
0.061100914388550365 0.39149157960588177 0.78593302624015848
-0.37289266796997467 -0.37068067666100823 0.67400252160189922
-0.73516861726454863 -0.46215998364555233 0.4925355587659368
0.16363713546283343 0.80134263226750413 0.28411395195283262
-0.072282114793541297 -0.34924964471402831 -0.50286892898864721
-0.22477531434981124 0.52966359559456322 0.67092705478383152
0.4215163436550462 -0.21518308018111476 0.22863981510813147
-0.7834117524473303 -0.50384967810826709 -0.0062548939524660341
-0.33902102980853677 0.026283320605713811 0.7728395786265807
0.48888241146599754 -0.54410969151503252 0.38998909722960917
-0.011309964804844697 0.93407506202918889 -0.21548008878021108
0.28463011305780839 0.46130349854010433 -0.39487315582540106
0.33303119757989386 1.1280053197113347 -0.44671906974382836
0.72376536574394734 -0.31788767005970797 0.66757866279377254
0.68711585181921109 -0.61052667714076136 0.64039605500745012
0.39062697167157623 0.54460997239066522 -0.090137918122138672
0.19702813828784826 -0.20394101511224427 0.77514324514944377
0.34870320091447837 0.22861614682820885 0.30968557675964803
-0.37354350476766385 0.77942872844166367 -0.47959461458390962
0.029069641689677184 0.40572815157915443 0.79969882619112553
-0.74251698658072662 0.5381078300830211 -0.16990714869081813
0.084781342746369504 0.58951567847366526 0.67675980811257119
-0.54154877968024095 -0.30014944492400275 0.68016156892665691
-0.77414277154278466 0.2862540473617301 0.28297920675539245
0.032914287099384154 0.66013550654329123 0.67527635501908634
0.30167400810968559 0.10611159650966862 0.49525381374988342
0.21900945396676619 0.0066019783654684971 0.75569766572268549
0.39100060786883084 1.1719332289784985 -0.47818066339728915
-0.80979503549072973 -0.69580132222099778 -0.32364371183693663
0.47029476642101287 -0.14571375226601369 0.28049800903635713
0.83400789454769608 -0.20003340453312202 0.65603761649256853
0.60466393369667415 -0.21271226727400716 0.35826993917441285
-0.54208040970234705 -0.40192757625085207 0.65477234883396562
-0.90955964739602813 -0.78161945077417982 -0.49159916473219312
0.56362609458978241 -0.48776638864312361 0.7177649328354434
-0.55058040462495939 -0.37893465413168315 0.66439914099488107
-0.55836457137445805 -0.56124490575800934 -0.40017317237361283
0.68770613901983069 -0.47058393085461248 0.67437840257772308
-0.62965268177770994 -0.35296952405572135 0.67500035955612248
-0.8770909182935771 -0.90299431343400904 -0.47124311749931991
0.62567773849587027 -0.40880810663493072 0.72922939824081112
-0.35508562185717452 -0.63425031220254091 -0.13900332621920342
-0.13219769230595269 0.75771967894618975 0.38718009063629921
-0.50090633152119679 0.40589901980561116 0.47380928184124826
0.28255698858392364 1.1552071538775746 -0.44539292229143967
0.46323973874813973 0.030473918719636117 0.60264581121445815
-0.33125018249914717 -0.083691381217507299 0.78858481010622938
0.11185544724603602 0.49441345779303525 0.70024384795742378
-0.10445695375986652 0.44838528290009805 0.80765655158886318
0.29579197160457227 1.0184450894581705 -0.38169505085002697
-0.18014432836816496 0.51706571738304419 0.75530364502330372
-0.31059594258240253 -0.6393019538559841 -0.1363262543838033
0.55944047429302302 -0.46498874948178504 0.36943410856973458
-0.13558482521808557 -0.30486436638434355 0.69640806950643963
0.70057492902098417 -0.34972154545001999 0.66986851158639382
0.041863640916659506 -0.32828831546505022 0.47048974992677017
-0.37007675780172278 -0.4048806381479011 0.62342574964808506
-0.58506663928350378 -0.92387103716940544 -0.37154805344464847
0.35792806016150536 0.012412043133132045 -0.33720695915227594
-0.80043642148639194 -0.7829635211983561 -0.40570857215072209
0.74986699934464696 -0.38341839398863442 0.65235729279175558
-0.16560403730922602 0.39243315826609937 0.77543252439554777
-0.019071661876187918 0.35533871395513117 -0.68830531625577152
0.13775571372266882 0.37192580815191967 0.72039685505981765
0.12442783094729393 -0.25988935343638886 0.69964398472676947
-0.33718476787442597 -0.80295811371908599 -0.26889998257225756
0.10630623033938491 -0.16209395093497747 0.80467338571703095
-0.52404174782993707 -0.11108235864023364 0.75130489294808456
-0.58969402640095403 -0.35795843432175012 0.66650022763884209
0.38342316957632683 0.7229786497128412 -0.25604897762208623
-0.021629905789406934 -0.3586000669542031 0.51307183908775755
-0.75078891379997614 -0.531530933014567 -0.082622817265509241
-0.71457415894269083 -0.5748323296463127 -0.20892547441016518
-0.41069530638870155 -0.022663295691826235 0.76384946953453436
-0.078865201171652188 0.26259356492981034 0.75490229885850368
0.29257833703876557 0.83397374361756249 -0.31957919660057144
0.051236543099079768 0.87599445748295679 0.61144477790931262
-0.44391588511102853 -0.45153848722356393 0.6358876540210403
-0.61952648181194903 -0.97764295656081757 -0.38761783047004172
-0.61020884695596145 -0.053103689006926302 0.76621815703413176
-0.0033205148638657533 0.51970059225780929 0.77287485052219296
0.44046664556304549 -0.6079424829848552 0.51375707420111638
0.25365742645443845 -0.0078867228985419757 0.76509829983257305
-0.55362690517831581 -0.25914612538532111 0.70479461859473957
-0.065653731006344529 0.54334461224343222 0.75245459189927999
-0.41686279187929998 -0.76635844429523736 -0.36807505556606657
0.0015211690524061794 0.53243679712993064 0.75441208824952355
-0.24714691563019286 -0.28328093448688563 0.73107966411587455
0.11416778176687181 0.40739482557257212 0.71259959543476015
-0.56318299742066458 -0.23454122332329064 0.72424054372661573
-0.50621558851169013 -0.61170384078054418 -0.13256912313865854
0.16771239513314029 0.27512771411077708 0.70965366010142361
0.023527758854067216 0.63147444800131325 0.67941173853768078
-0.7747243323505888 -0.61855172160084493 -0.23296162803161735
0.095750206835324647 0.53744067488298697 0.68064869194584787
0.40360272169819567 0.60398139850848054 -0.29334370491250183
-0.14904730794541088 0.76747564721650008 0.59279386222993935
0.32102510293062281 -0.51381289922453099 0.52172047372332031
-0.89373948113636992 -0.23317551940314019 -0.33781243545664807
-0.91700096409138077 -0.98329479323076363 -0.5241574705210752
0.28277716580591949 1.1866319267027485 -0.42214003909720788
0.25036430570131074 -0.028649393880526119 0.80392871377661379
-0.36914106954763426 -0.42034140743824011 0.59649819593558817
0.18276955243558035 -0.13162698897357217 0.81250923097606176
-0.6796662741949433 -0.99410483590878762 -0.40801692551661262
0.84696821747222018 -0.35183398331548332 0.43678374712541768
-0.44462883462351144 -0.35995095045506176 0.67210206174964782
0.48577791932934744 -0.19167796458427588 0.73814462735700204
-0.44568870996874921 -0.36702082574637629 0.67427883942118427
-0.39887413783120351 -0.066458296605706124 0.78813051334245188
-0.44831975292315107 -0.38208228132232414 0.67583128573485141
0.2955823626087728 0.21174953845313915 0.48020251397692704
-0.24711655637424279 0.69280484500163197 0.59449327429189225
0.12075822514035828 0.86292121738329897 0.54834748948964318
0.18883305372123971 0.78649599316477747 0.42466663230176493
-0.37380019792343688 0.25096744774952917 0.68531478516691635
-0.19855061151540454 -0.49576746666180682 0.52805064753680853
-0.17095270039187227 -0.34757140908232564 0.6763769326716087
-0.51849304443919308 -0.37253588494103163 0.67313721017817585
0.097238687253838663 0.60259453703420718 0.67546994214025347
-0.8919486167163555 -0.87624651170460766 -0.45896318749846898
0.026205438726801589 0.33932942657741449 0.79254201329487728
0.46757648233561966 -0.53627442409681692 0.6777670076097877
0.30383058944912911 0.74924336156023941 -0.28634881416792268
-0.48275267271947087 0.0027626970548375596 0.69131111294876746
0.26695672956839012 1.1616373531753998 -0.42022617682038543
0.51287679826423727 1.0411125874590939 -0.41587823018782899
0.11818332203689508 -0.29182094559881477 0.6377200824537681
-0.26660443259558342 0.44539300461514664 0.7666974824933277
-0.61420896002471892 -0.082036336427982803 0.75967409940744091
-0.58678693021021111 -0.16647926394777279 0.73344707165631462
-0.56728033360335672 -0.64722430648165741 -0.29292815583318799
0.57271084718042964 0.83695109795475187 -0.38956021835509347
-0.22519029657245326 -0.22543429417495986 -0.6331690730557753
-0.64651202478859915 -0.55600969421218238 0.45914243129994503
-0.82961879163272023 -0.67719603558541763 -0.29592500783374476
-0.85135984604971426 -0.7863539401546209 -0.4362297109081581
-0.37826645133362824 0.208913348972672 0.73942333126348103
0.01757284778106083 0.3058328865506148 0.77042916955839758
-0.14244000429048498 -0.31160006871515478 -0.57145439785030305
0.35812248269745339 0.74856202743137423 -0.35476705551952392
0.88084695368532095 -0.25072383483667959 0.64096589142992144
-0.24593198981456688 0.71375824254093168 0.70739526213385062
-0.20059202131119491 -0.36204029190371934 -0.53736193234340845
0.76175249494562181 -0.32446616348953938 0.71189287391131018
-0.41336150561877005 0.58081506904641245 0.63396788693528094
-0.19390316186732903 0.47764789609525593 0.73687273758479677
-0.26925882837372583 0.011191115317034317 0.76517503368155815
0.26415981471551575 0.05809047685404245 0.65817287165138794
-0.5925833356583059 -0.2032232833631209 0.72214158905487835
0.69638924310808292 -0.32203666971554412 0.69453910271428043
0.27172209971982397 -0.046085160208637177 0.78600848536163426
-0.61763552785882325 0.10391226364876971 -0.66408568470428975
-0.357036489458606 -0.083583210050898415 0.80869200090941007
-0.65950125165793594 -0.58744455650050753 -0.16233296051829882
-0.62327676237321583 -0.62792484148767969 -0.37950096996540594
-0.37301455183192544 -0.74302002153195623 -0.19471649596549412
0.36392592639251831 1.0978003296296741 -0.43300016979987532
0.27365567250160261 0.75662873813371689 -0.27296897784820828
-0.1696166537919126 -0.17429577143133912 0.68678825050169934
-0.30174816052073616 0.50053744859487992 0.77719684717821735
-0.68688220800090249 -0.50084118171306713 0.29642956024316902
-0.077013677915440226 0.59245422380297086 0.71674861734434359
0.57810598738166874 -0.12355633029822499 0.36955821019648738
-0.65159244694922158 -0.32917852440871087 0.69356556470365405
0.44318048742918137 -0.5427654318449413 0.40780435179907215
0.10977828260636535 1.0601866139737872 -0.2748362169618872
0.29396461128417961 0.761218209678173 -0.30198828718344828
-0.25304512089795494 -0.67129007724107836 -0.19345192949551659
0.49400903860407652 1.0013092386071563 -0.45522381858508254
0.17003221272704394 0.46442046935879766 0.68294094518094539
0.15922191417870124 0.94316685798962219 -0.23032837400020156
-0.61387540051677902 0.17226273875072451 0.72083086093864779
-0.49159985252974536 -0.6506183818277691 -0.30987516007639471
-0.70682889881929434 -0.23950064500671964 0.72340046032887528
-0.048955577148452889 0.24579716561018117 0.76336920723992563
0.23508057708477992 0.0016199691037268593 0.78295003589332879
0.28228797545615691 0.80902972793896311 -0.37127785702735139
-0.80049095303932916 0.4348290863644042 -0.17252408435718536
0.14734559246017653 -0.32008513132279681 0.6297042373225139
0.16880130879680699 1.0130775276101183 -0.2736812568652951
0.60432237562567792 -0.70596207460424587 0.5673967087766556
0.0071604394978912467 -0.30348968622894112 0.61025786483585875
-0.36627292022338764 -0.63220147499548318 -0.14935057461909196
0.86895950930604471 -0.23315404221439984 0.64535962663098445
-0.30888821075620321 -0.016312972532750436 0.77185789004251859
-0.32896399511797725 -0.63579308031929926 -0.060564143901366663
-0.46950556757780859 -0.58820412183938409 0.42254557869947007
0.748376619791987 -0.33079746740588334 0.67148059595477605
0.39313114244657577 0.87552932481576562 -0.34744598300728313
-0.23819157573768734 0.53565808396978198 0.64798646432809903
-0.34367660790692511 -0.23996631266399504 0.79726509167259252
0.10984503051924932 0.35313213224315199 0.7332012001210515
-0.41520464585750538 0.15385137764272905 0.80265537689550115
-0.8401370809971489 -0.62660705405072825 -0.27646298683795578
-0.13476636005146503 -0.40556872953973055 -0.43919302176110619
-0.38762436031075254 -0.24882902553226316 0.79156625624574417
-0.4297581167616471 -0.10216567637260709 0.8123188255383198
-0.3735756967061743 0.2917137446830651 0.6327758827988248
-0.80286875496419263 -0.949318108490532 -0.4553091002917995
-0.33857741289741661 0.19157185123323295 0.79678986897999238
-0.52640279542614721 -0.35209708792507932 0.62164242226699429
0.5097984160769542 -0.66249751330246909 0.50550537569213105
-0.60492257388431625 -0.7865514617846614 -0.35997179137339685
0.29714635972554859 -0.12907548267481062 -0.3645566626511112
0.11469281926732755 0.92250267849665057 -0.34353104950627511
0.14206370103705268 0.83241484182899939 0.17443808101480585
0.15587271526181112 0.96677547780199191 -0.23705839908701876
0.2879824503444226 -0.068310641897513236 0.7594235654014625
0.28388137195837615 0.091823915988324956 0.5562058949322477
-0.62484761375375086 -0.19671375928712465 0.72944584444075389
0.85113332522503882 -0.22690547257824889 0.41363153331462144
0.4008204757764986 0.54219688210169181 -0.12331836185207834
0.18331607025045571 0.4809424798049946 0.61260171488583381
0.7193694781420632 -0.16206001393168634 0.39151329447247463
0.027207312529501593 0.83849647608763789 0.33542329978237007
-0.53597276262522087 -0.60891438086378713 -0.19186531869370782
-0.53965831414981125 -0.14849626098120972 0.7498016036813766
-0.69462637693106366 0.12324006044270064 0.79057959733538752
0.81509647899732229 -0.47353103446573463 0.6300153351436677
-0.33638453791342826 -0.090375841593214545 0.80342916344667259
-0.49336495484899245 -0.035127378713246671 0.76842412222581657
-0.82331137639052443 -0.93193816742770252 -0.47473023550852389
-0.31590487500893616 -0.24573705258737455 0.79183136934015863
0.43244944170668909 0.79322518017874089 -0.30090965764839694
-0.69038017428721332 -0.93882628458915285 -0.45487449270959246
-0.064070492785544886 0.23415511390178168 0.76409425188693092
-0.085851556922898808 0.37701175129496889 0.81465819154626473
0.14190509609188595 0.2590123520164731 0.62725062318343561
-0.87341403461407907 -0.87765337897492302 -0.47081791537363671
0.25820011716282565 1.1033716341939588 -0.42562157292071134
0.55935432385014749 -0.050066839377777228 0.39624020114244729
0.674815571404217 -0.49789501910442979 0.70803143423372461
-0.18162294249803068 0.38646638627032637 0.76371810424637943
-0.57423015226156693 -0.60695015069524061 -0.19451197082519656
0.37531638533900136 0.58988480703038704 -0.064074530429586218
0.41440156891529156 -0.20852987950427782 0.18724474223424181
-0.39843199149058783 0.18634147882053398 0.65664583412184641
-0.67254309548106583 0.056416900702465966 0.62297326080688009
-0.0573539230603064 0.35980920248142567 0.81468664724056339
0.41514795797670345 -0.26486957339724349 0.27249131932465787
0.13115282675541451 -0.076018063444125872 0.75123927349778796
0.72117926384603948 -0.49548351184881412 0.69325027802947403
0.70664542115740403 -0.62975145633773799 0.60036925749795955
-0.5257872052788386 -0.77147264042417873 -0.41077583074434898
0.54908722998695936 -0.1913556543177144 0.73177470265417099
-0.61496393119801596 -0.75519591864590829 -0.35037764559099571
0.43872449789290435 0.74347402359229875 -0.24140942206697247
-0.1231857438886319 0.22479196306583127 0.76324249017261536
0.20203506593087006 0.83478582185986383 -0.21282697284637919
0.059777641932701187 -0.1548383607243089 0.75822758371386811
-0.30666344674270363 0.92479247157753086 -0.28597745858368739
0.36701181460261623 0.92338992818168109 -0.36466645084619387
0.40142877772072438 -0.44545060818195381 0.70306616116875631
0.38206053304878829 0.56095393300019758 -0.046511923808026268
-0.51111681818820998 -0.077217026134643874 0.73838252498698864
0.37931704645458275 0.83763200130759508 -0.32935523422329993
0.01609899809819737 -0.086392408739618176 0.754949051251252
-0.11190762142872401 0.099199043822437716 0.74877631960893609
0.67699274016492339 -0.4400199347155116 0.65340132993169675
-0.22107737114308001 0.42481685162972127 0.7683860584278932
-0.098069090187870245 -0.34108447939855324 0.65327224201233491
0.21425787394134232 -0.17883235116151397 -0.44260346161628661
-0.092804666000702696 0.26790186221188428 0.75556212358421249
-0.19848183741203407 0.7454553989615782 0.63731690548053166
0.46429190907927698 1.1072764189684694 -0.45828980342383829
0.39538174148897198 -0.18945718958311275 0.040380850354502229
-0.4866559433115647 -0.097140322524005285 0.76651044238531796
0.13240030611321174 -0.12753651872511718 0.81054530902304123
-0.79430837429467616 -0.86762093593722867 -0.4300316961320263
-0.36173170376485331 -0.71616361176866583 -0.19298144108153537
0.46458705302947578 0.66203995278894467 -0.29166016889220003
-0.29753966626635275 -0.54367697366799206 0.41787054576369087
-0.15028364216933454 -0.46395490077965285 0.45472588518529022
-0.014325928641714114 0.22688750554284809 0.75801653256050372
-0.18024945878180176 -0.5326157425569491 0.18466360880729837
-0.68278538226424956 -0.56089770294347829 0.077702243088388911
-0.54737708494207382 -0.2287147764182329 0.71448000399709599
-0.51413519025681786 -0.078605125961566102 0.75760471594454515
-0.041221434106166299 -0.31887664216555045 0.63761698326619864
-0.25417540180038323 0.94454136498091223 -0.28138952686737184
-0.49215529742851061 -0.41973824504433743 0.65224544196229317
-0.72661148514022855 -0.071718897311635388 0.75031681684654927
0.15967174708080023 -0.010159421146100911 0.79075184149141364
-0.41164474696928366 -0.72198149399900835 -0.28551570259782721
-0.79531348724284356 -0.99656203678288335 -0.4293318386991487
0.68832436963661081 -0.33862606904357584 0.69432487372537111
-0.067132625719439787 0.46834913277105628 0.80291522542879079
-0.25708024587367717 -0.36416752766403881 0.68248838677008195
-0.23063544411817105 0.49696656225890301 0.75447718940834108
-0.75186608014871226 -0.57603980460210735 -0.27708038062004192
0.44823576834967582 0.024978153768559608 0.41965151546718715
-0.45092505373564151 -0.61504420731240117 0.15027224249244142
-0.2023468287268777 -0.1563881524869899 0.75297483910831176
0.31248031740261339 -0.1007122676157568 0.74433374562710952
0.44633071257380763 0.77398052506530668 -0.2765982700362315
-0.9382383016058462 -0.7668957047207936 -0.379872229589715
-0.1630614579826748 0.31424037822186968 0.76133366045986151
-0.43478218327660656 -0.74441070308479773 -0.31080413341289415
0.7672197139310839 -0.41097500235623308 0.69157199972487859
-0.93690761627259889 -0.69497120688821923 -0.36711422702406082
-0.33384732421108687 0.42953207844039909 0.8007611694818948
0.13388607073647307 0.8377350066236211 -0.38409045026765654
-0.52009548078530798 -0.67271249621629536 -0.32020810655710363
-0.66554782992829331 -0.18630448273819766 0.7472024780271056
-0.13776279462854113 0.64223238692216356 0.72508885624243646
-0.84704252282710968 -0.30162905879075907 -0.38091787489395301
0.90252752768773092 -0.33841118112588653 0.48081694642804251
-0.24567309566422324 -0.03168075002683679 0.76139829208233323
-0.1791409598969409 0.47971378146709576 -0.70552221496450329
0.28614099540385851 -0.25909725312963872 0.73643942415078101
0.013272448460529773 -0.3276203230601098 0.49486418911697427
-0.32083998833586946 0.9287450160436439 -0.15208499167409428
-0.39128610082872939 -0.75110239050522409 -0.2112615603971193
0.13537173476807851 -0.3692179997544347 0.30684047570488104
-0.15270666355297458 0.21646029361615504 0.76430765016205271
0.12992622658408948 -0.33712782367628513 0.50062450917617696
0.42563226398742771 0.73832038261202371 -0.27093922975259233
