# XYZ point cloud file
0.64866060080470334 -0.3932162407796902 0.71649131994081472
-0.43373598351877085 0.033319628803008428 -0.72145020679064231
-0.67993932652229105 -0.42678676131819415 0.65041807759575931
0.14328735319980623 -0.089622076512746673 0.77381072009949037
0.43504152661888718 0.63011982591024207 -0.28630154010265585
-0.19924432423484006 0.37588018643827859 0.76306761231834486
-0.044870699883020393 0.59030547549169476 0.70013954251451338
-0.14686276049005542 0.77510820718155671 0.65127594548474121
-0.57226235133926373 -0.08099770801434758 0.75134819791182395
0.041190969364102159 0.46459181507913527 0.78232640293451539
-0.55547943292683755 0.4602814903477892 -0.63868239809706751
0.19178166527317586 0.92308077942476174 -0.25344536898360559
-0.37623448266577064 0.25463530559106928 0.6345341314077757
-0.21346280197883161 -0.095488448389097869 0.75935069010731837
0.43957630260005232 -0.16954831924072877 0.7399139436460942
0.14661902169782692 -0.067424076954656798 0.77241265961956174
0.0048933564362414472 0.33792039662210804 0.80524655807440126
0.15104383934997045 -0.08555366985846824 0.79272798137307632
0.2801941646199495 0.72019133328947937 0.11339954288217058
0.17968832636963938 -0.21033377119768382 0.77763228181265021
0.55209107245081057 0.78454231513614303 -0.27035251967267016
0.26167322348735844 1.0350593364289828 -0.38487230187849519
0.69576555866447265 -0.52564805823680061 0.40995904413385631
0.21174280171069704 1.2075552734945543 -0.4728856518304525
0.55242354615394618 -0.56160089897561072 0.68746972673891094
0.39703789809202661 0.2547612140122606 -0.097433714503026181
0.27978746835880841 0.066772776405034762 0.61876987439796238
-0.53669620483166902 -0.33716255898317726 0.67794101506181903
-0.80239577862944245 -0.95303842476474721 -0.47307530999731284
0.74001474247819843 -0.37214792741846381 0.65116570511994354
-0.73761962957919991 -0.4310926997427984 -0.40048015357544386
0.39479088755773084 1.2855253976977172 -0.4830521858840342
0.24929565449599522 -0.07070461020603247 0.80307182727946014
0.36775029394539871 1.0765088321333494 -0.42232233586915413
0.27366568419850701 0.66090480352510816 0.31398540021476151
0.68771938035362723 -0.11430698182505772 0.40075134135634727
0.36262974700652606 0.94449983402250481 -0.37247834014695513
0.82976477452276143 -0.48415161695396236 0.59552832830312497
-0.14345278763643066 0.27465793575781383 0.7713530046819983
-0.69921748380585846 -0.20322584975085434 0.51540923063959809
-0.72976196714864017 -0.41989130491041138 0.63939861957598509
-0.097863454794717697 0.38166164398808888 0.81405775161513105
-0.06347391087741272 0.81417981654387184 0.53288204574179332
0.32199094126013783 1.078925509282886 -0.41133503192720866
0.10705290035412496 0.8931066676415238 -0.073912565506347505
-0.24489311719468532 -0.5713476553196184 0.16571810473737258
-0.080093999174700059 0.61997601534706526 0.71626141263578091
0.28311527947156634 0.15847152389871511 0.50861463347582259
0.45732767711859523 0.014768254601120745 0.63584164906541218
-0.78444142905269132 -0.75599026582399631 -0.39202221947424931
0.1274716816372603 -0.14228878541200096 0.81140282778014239
-0.14898886124565891 0.03374562752070176 0.74807030281018427
0.10001155760154745 -0.1553208907318524 0.80193240940128163
0.11680033506743115 0.4017474278116655 -0.60602574442690837
-0.1214226644901153 -0.0026758012766467942 -0.71674465836863277
-0.56555588649577615 -0.63741262025805057 -0.26712349917704614
-0.10875942604259592 0.96254863668360002 -0.25272690821918786
0.33708426596021823 1.1494338980756851 -0.46271146846042654
0.72777794425961773 -0.30913779634242822 0.70063519431987942
-0.084599220265143771 0.21334384676089968 0.75868989840458312
0.32062827926581683 0.42708335552886467 0.361481193549956
-0.75455407621253023 -0.027161997188024145 0.71182197938391312
0.35738016472689438 0.067989907780678038 0.51015746419701458
-0.54894208166708047 -0.12068218537712916 0.75664667551399845
0.12288337296257446 0.43183058928447338 0.70973102904056873
0.66181653667068474 -0.69516685770874886 0.54165778476031079
-0.13606325816355991 0.29142842372877453 0.7590059786135015
-0.036358363317255282 -0.46845432775308637 -0.12720871881349183
-0.38897575746387147 -0.17819661548610632 0.81383730688448708
-0.70546461625823298 -0.1816467648364295 0.73964262818140725
0.42569995680596051 -0.058803368136505441 -0.045713109601223323
0.25871970532477917 0.80149424428678984 -0.2871890804234809
0.10926532210947393 0.43181339338318558 0.72783612040736756
0.32985704425467866 0.66370672628790217 -0.035598113462818048
-0.85151870361494275 -0.38022508615796724 0.10378569022596196
0.78096122988171857 -0.15783495061947228 0.40481726560410891
-0.23315162594814964 -0.12030592922204519 0.76154529261410886
0.78603802027742731 -0.35052153981275147 0.70209823494884205
0.74687367100724344 -0.33137282725021855 0.66518354125872747
-0.71480015042225276 -0.79405410264635812 -0.38138395707328954
-0.39027188791179235 0.47545487960514521 0.62391602030817239
-0.046197682782421978 0.6078709451026878 0.6785779559718037
-0.15070049668676333 -0.012440248010253896 0.74558825145744123
0.26666523997667113 0.77921612425291542 -0.28617575463280787
0.39478202073837032 0.73675639172273577 -0.28505706271634779
-0.48944019924282145 -0.68827515598557731 -0.31524956999864173
-0.2097258012308636 -0.22370880566671936 0.73880639131363779
0.17423104431050263 0.14247809240332998 0.73266765558075519
0.094340630644211387 -0.11224619902778521 0.76680538089635064
0.11168992520617493 0.51471821398252438 0.68909419971097918
-0.81630309920721089 -0.73279667823684669 -0.38584772000100287
0.85776112611325672 -0.3772291763274449 0.6405268387505032
-0.78405087808455853 -0.049597750659668094 0.34607060698989045
-0.34849518805049939 0.55026584170735759 0.79842999514977464
0.42338842157546885 0.69363526128913655 -0.18743928123906528
0.31271812602344085 0.67612411563751529 -0.090322979303067541
0.51544227974444823 -0.60534672509453813 0.40971140600734657
0.11409172248158406 0.89450200154114334 -0.34415859322511011
0.43648198094362201 0.063371997574220629 -0.025083297627723766
-0.50870483906755126 -0.030682124205643646 0.7070749591503116
0.1616296719334489 0.86510605966229015 -0.17902046716398701
-0.35163381727042164 0.24853546316789554 0.78633817461474109
-0.6267033708685581 -0.94922902362248429 -0.38711149544103307
0.21179158647431962 -0.36723956376382461 0.36029245479173966
-0.17141478570296798 0.33122257787717757 0.7564087671868478
0.11882720937537883 -0.20451860768468855 0.75548278932864577
-0.60045644863922121 -0.71442520946130372 -0.3345846897091036
-0.71228512947684308 -0.83581435698367557 -0.39941613696064593
0.1391613862449983 0.56594610661187694 0.67168754136383058
0.1351893658347727 -0.08948013494193674 0.76366221445281468
0.101569402228332 -0.27549430783981599 0.64657563381013006
0.11783717050333919 -0.32649970099366499 0.50685080118036296
-0.18955731650184759 -0.12904948611665468 0.75204508049333185
-0.49244031269071797 -0.059934428649166094 0.76065276004419502
0.79429444980019781 -0.28768527862411553 0.69583070791527746
-0.17164942089742397 0.51052891477642781 0.75177810212463214
-0.9056146029038068 -0.66485449246700412 -0.34010490359815293
0.20765375093940364 -0.18560536649288117 0.78736105989707283
-0.67432952752672648 -0.60464318681559526 -0.21141006501290605
-0.45204497497918794 -0.61653358395378355 -0.16373084135435079
0.052616934317027741 0.47002454389900628 0.7757506797443483
-0.40751393944116288 -0.34957638151188775 0.69379566110967517
-0.59676328729663908 -0.91995543318741824 -0.39519082802242167
0.040748040281211928 -0.41781812639987059 -0.22566839796009219
0.20718521452380401 0.66335379369848368 0.59947074895320185
0.44252715385389152 -0.47777541258048473 0.70037049022209885
-0.99052199273936914 -0.92332303252338654 -0.46356044546221398
-0.059059754039358481 0.27627050372207229 0.76438446023428952
0.31046086788426308 0.47857317817503464 0.40572427385870924
-0.40700007728473508 -0.58679834295211108 -0.39272820990965585
-0.56769835219259335 -0.65170676234514602 -0.30331718495688165
-0.58765334890122034 -0.60208905972554305 -0.167807559457259
0.37383055251169139 -0.32974253416168864 0.29337276264906365
-0.64933717156455195 -0.3609063497245657 0.67973802290276097
-0.32513310680185548 0.28392017597336583 0.81026073823989009
0.32798637717941581 1.183157495625311 -0.45853189608504152
0.079075699975238223 0.58403029798559558 0.67476538947791909
-0.38152088998056755 -0.30122673899415986 0.74839835758182716
-0.27846933152807374 -0.0051366916022779208 0.7663907246311723
-0.31659601028080431 0.25075958237359153 0.8069843408443802
-0.62158779011793008 -0.50716667539591143 0.58763354316496219
-0.36457487357487572 -0.0060467998967634884 0.73691948052794487
-0.56315454058595904 -0.0078047337166395891 0.76812865172502143
-0.53614981255134708 -0.035401428305908311 0.76048045241897455
-0.38366645048025205 -0.27862926522698039 0.77694026453821863
-0.58537646526294473 0.70996037124879052 -0.34069170719216402
0.037874359177784811 0.089905832124074436 0.75558881681557466
0.1782426508907875 -0.35087043942576024 0.62974531389527755
-0.72134114920802261 -0.761991889678308 -0.37217498575668628
-0.10721066732889284 0.42754501384640697 0.81095619557369503
-0.38365644544032662 0.29193788790871267 0.61474873942216846
0.216357858797668 1.2192731893011803 -0.37452864869394631
0.73241204694731366 -0.44550996201111204 0.66739811259608217
0.54895568209577306 -0.096891949811691802 0.70490549458487806
-0.10448163436520197 0.31102517417766862 0.77734311734661077
-0.078705655320840506 0.078973673512546583 -0.72698208183665258
0.66746071185312772 -0.55342933814079487 0.40796489490389121
0.54393092305265256 -0.10122122071249073 0.36023520424446787
-0.18432761010437915 -0.30448818384637555 0.63903964857671269
0.46623484129395543 0.90244325307100404 -0.3929785639336032
0.83779006928487476 -0.24652276005706852 0.66676985970116931
-0.4340899548188446 0.023266211453178087 0.77555104235079853
0.23760523846339154 0.62196295593063233 -0.42952766360850347
0.42680662753063814 0.5794751352030012 -0.24696235636012887
-0.099608621491393379 0.2318022354044853 0.76434005525359794
0.82520622273349886 -0.17943747910580221 0.40979560692710493
-0.75746282718870894 -0.47547513971205824 -0.31702518727511375
0.29961456880216986 0.49717207359084625 -0.37152213494925235
0.89810262893250936 -0.32152392896615467 0.61812878080958455
-0.22591604425375245 0.38646756112269642 0.77257865522557267
-0.47212258018861775 -0.65125840525701761 -0.28530163297515543
-0.43571956079731322 -0.010247258480559296 0.73422416264909174
0.13531993782462948 0.31849740533494675 0.68909256997954316
0.44465861294414744 1.2519642153940325 -0.51225129474939024
-0.76056118165873166 -0.64874440103138298 -0.40098209166993115
-0.23572421479738992 -0.38393433413260958 0.59278067433215398
0.33527005455354697 -0.11367649819214698 0.74145736269598217
0.14727754111579117 -0.048748179083919041 0.78760298761616099
-0.57094010143738672 -0.89352927385133185 -0.40029175663362793
0.31464801323336111 1.0374055716426618 -0.39065015779646473
0.75850559151313846 -0.51210954433145872 0.65865334747390136
0.15646752110499307 0.47216182145582408 0.66115757528209684
0.85754744930330062 -0.45277936324186285 0.52263099998184259
-0.093180874224110255 0.79942255419962294 0.66341685584408339
0.41345229993557453 -0.40959819097835748 0.3571028783257546
0.096202592627399497 -0.31691524067260701 0.49105365142333568
0.18268658486399758 -0.21265562769811019 0.76900790935179941
0.25759901389769269 -0.35787396778362357 0.27311681070799665
0.055082286218091525 0.61677175902861592 0.67608947016008614
0.0088557881883915002 0.93237613670274477 -0.0046750844804890335
0.30285305806638085 0.58468282397035054 0.51692533634229676
-0.34143547694234577 -0.097385043456275966 0.81256021005543033
-0.15528991987444485 -0.17315625849048644 0.66477306730554631
-0.19856868310359488 -0.49762645861778765 0.39737356221018416
-0.43144827481123826 -0.76899021883820495 -0.27615566287737892
-0.18016928811085187 0.71427679155148915 0.73324211004539563
-0.21274376565307485 0.44082017869989798 0.76494261149954212
-0.73823984253497699 -0.25727171517498704 0.5957871740156051
0.56336291564473839 0.91053147868596795 -0.45090276836988608
0.22176431338687408 -0.020099506213718143 0.80950540487361877
0.26952578368214475 -0.37668602530075468 0.68967187069367242
0.095583017155828287 -0.17137705477464316 0.79459286080563629
0.22004771045812532 0.90704001831062264 -0.39154752241576318
-0.07272565349308735 0.12523711202099364 0.74710506123609122
0.50962954200839761 -0.34403645277109618 0.73736003518990145
0.25988210821434166 0.9741778578952065 -0.35545197718249
0.44447016939619033 -0.58378855640117955 0.62588262022651975
0.019535054714401312 0.69017501084416821 0.66844367281431261
0.25209347282770089 0.75976016603936181 -0.013039687572195646
0.18896362438219327 1.2213030069240673 -0.44300978222969434
0.19166775996967189 -0.36154287404100671 0.35323787735591594
0.08211096405574736 -0.1442346145895943 0.78371742006594758
0.34007128917795626 0.65021205353072276 -0.0036876314889227046
-0.21080600344384237 -0.34141643128707244 0.62895150071387462
-0.01672410644147071 0.34485585607570712 0.81089135368479504
-0.53271796460751908 -0.16522731568257143 0.73699116758822925
0.5159265608742345 -0.23320409760730065 0.32520234876900389
0.52687464056049649 -0.66341275702028923 0.46724567720159627
-0.46646679610027775 -0.21749744369411061 0.78505289342768947
-0.61181022765222437 0.35927136424505157 -0.64509446587911867
-0.97353645184516147 -0.90902457113394952 -0.43465222780781687
-0.55949296527409054 -0.042316451276454004 0.65723243377423302
0.059680492012500252 -0.30022315296597135 0.50899837524866598
0.52472068425700513 -0.031756517860083378 0.39233488655248294
-0.62001775102961787 0.016893724258807197 0.79040258070691749
0.35821879490932496 0.96514972092404605 -0.37946224260891626
-0.95995859479040924 -0.72535938548035972 -0.37354886969396262
0.67185851306857458 -0.4705612544396125 0.66796539690890455
0.39065705344003732 0.73096910736701126 -0.27194659329000359
-0.20042260389622157 -0.3506689349655403 0.60327224955980085
-0.44304818976951843 0.1844158844038013 0.60871248530981603
0.27494463533525959 0.76094855888950796 -0.28528178049336361
0.31386508736320806 -0.17496087203838862 0.74311527507664721
0.39145696693812759 0.89800721710107112 -0.3593876715194213
0.39281838513040412 0.6780643645337161 -0.20128232327309092
0.42733255517637048 0.73313167679149771 -0.25856528411804192
0.76115598001990037 -0.39524983110162637 0.66775464670446638
0.12829663381277001 1.0322207382910342 -0.38261260190313351
0.041460638512335279 0.90346989293230706 0.085249690680427648
0.50705767151537273 -0.51720283825947178 0.37985683794858005
-0.15666157761606669 0.96609436364283674 -0.25848709808884962
0.74798426095464876 -0.31057264877428992 0.71595530325414103
-0.74390305679422219 -0.35568822238846209 0.5640580593417468
-0.61475724566968815 -0.20936772970534179 0.62324566048766172
-0.65074465178521557 -0.28781230896561638 0.70891071633453606
0.19531175757353125 0.014707450422621449 0.75217588601297791
-0.4796834459523609 -0.55975684793540381 0.53562578093590218
0.31101470150097654 0.072483672956071388 0.54940208528658729
-0.35693079640779857 0.20112975255043253 0.78295419374968134
-0.41085398042828558 0.18368878329862781 0.74120024028425746
0.77107572591196316 -0.39864409400672329 0.69270728294213768
0.13779597164821666 -0.33965969736263446 0.56117169814969969
0.85915624854991535 -0.45356344305221796 0.54899929703105954
0.49935544595672177 0.84049738295552956 -0.30298316099582223
-0.37873506473102481 -0.52276145763175563 0.57796859611416096
0.35963978330579138 -0.021672792431544963 0.70944957145511012
-0.80064481628734896 -0.95083195533698017 -0.47659667930525984
0.66444150223944476 -0.074296028159855254 0.41992152008116079
0.36257316266761386 0.64505101588090952 -0.15939756923421555
-0.71620448050335206 -0.2934732627877672 0.38828501678369776
-0.071630616920497658 -0.21540809008378226 -0.61449709906038663
-0.71424310606403374 -0.5626903442464517 -0.30523084161885095
-0.23359899411367557 0.75466690446221385 0.31945463401642371
0.2507560296448581 1.1047985721193267 -0.41971717828369037
-0.64064597850663496 -0.068969514911692897 0.55539524550454189
-0.62043511755858916 -0.96687433901667497 -0.38228355120669022
0.33387203107506913 1.1800359169592287 -0.46873113414836354
-0.67806238621241022 -0.13937733845416744 0.53708263797365419
0.45083516323423645 1.1952264592525248 -0.43025588950387572
-0.1302254071574076 -0.034546701463298746 0.74478744789055185
-0.58657535672383787 -0.24001151869700621 0.71303728045752734
-0.18891420352585442 0.3400794572126653 0.76738021264391421
0.050015701360221598 0.88611502263736597 0.58750954911868547
0.45941390342035149 -0.08023501376925779 0.24082549553160959
0.53915969534632779 -0.51267505128747892 0.70726014437083506
-0.44499405025396932 0.595213694175877 0.67831433333919477
0.61962630392157436 -0.40753044781956227 0.73204841937165099
0.10335521913885515 -0.1362398774904392 0.80290970265618711
0.24032112329386379 0.0025473262528823426 0.74902111152543682
-0.43851605756466228 -0.086086819389288749 0.80468935402321051
-0.470090336647079 -0.54173176134751699 -0.42575714752443616
-0.61033706420620071 -0.66779009351421337 -0.31297235419211944
-0.23985464923286592 0.48007951157235595 0.75793632264149124
0.12423412445638249 -0.18720314194463938 0.8052149431757627
-0.19892202709882056 -0.40300319407013419 0.64299826446551833
-0.42583090104791665 0.81016712796434476 -0.40500049580923303
0.46482452398578822 0.8336564114604581 -0.33480852740818534
-0.62329687692585622 -0.8518712565843245 -0.46741743601489816
0.37689608653052531 0.32476381154054934 -0.17616904342758488
0.72098076820495649 -0.51304357874581186 0.6849497956913595
0.13255391388403304 1.1339567043063408 -0.31827795941395465
0.10894239200810496 0.71386096637284346 -0.48521861547480682
0.19273846731077882 0.023821439526798827 0.7537861536740138
-0.17381998219173767 0.61666125442565445 0.73722671152283681
0.20742023704804069 1.2561472902436464 -0.40732094938402241
0.51743549620247009 -0.63561980317315125 0.43518226209909017
0.21348122415421145 0.25601348310818572 0.68661857953961203
-0.51582865362785846 0.10642315966071614 0.81244629129111701
-0.51051235342001355 -0.36966181850245761 -0.5404665640282289
0.40732194832943414 0.68278687375890001 -0.19349874486844953
-0.2831431170767118 -0.17487222017215664 0.79776112478990058
0.26274391531262964 0.77074368322341158 -0.25877426301954642
0.168726998183093 -0.057084667177724313 0.80829098045650483
0.032533656423442636 0.42718453608806861 0.79477287539624797
0.64271462462086149 -0.47014386646541517 0.70884155475351918
-0.41152800683351565 0.024300181408015931 0.77569306977332531
-0.054003331003974253 0.93525433853150908 -0.31058991547791237
0.3715607429912211 -0.35925210759416792 0.32021917763400864
0.22383066661521056 0.92635749266611711 -0.31005095702443697
-0.41143332207695238 0.35590510655640273 0.69133800910720566
0.05731034587850381 0.36871993774232337 0.77767767930320275
0.14085984110148786 0.46802256754545013 0.68374226817140027
-0.67631947232522371 -0.96320708787683174 -0.4064861661753767
-0.45211896923546391 0.2398705333221347 0.58837530067921051
-0.7433459055505427 -0.25353888765393151 0.62631929703183431
0.30699886021856315 0.41753001252590494 0.57045797802966547
0.30072720874180447 0.25486692183313053 0.51950527878663877
-0.70951202901548704 -0.48676292762060314 0.44335749483011
0.16112595711360456 -0.090619284039526349 0.80758046410121409
0.20105633401127854 0.98625187211839815 -0.30811974083349725
0.28528449752251817 0.10534012059001086 0.51888638338464688
0.10887705021638006 0.83096063295464795 0.26516962091871221
-0.21972451437485319 0.44170908236345063 0.76633740782783377
0.41183731921934452 0.69916269192101765 -0.21515886364890946
0.14432610072386964 -0.085517669862259282 0.76116901378859581
0.91807751054620468 -0.23414491239231339 0.44475024201391022
-0.90855941193268386 -0.81211314689542569 -0.41992634390972228
-0.53424307327228604 -0.25868481725119707 0.7017455901424654
0.20229053973428712 1.0876497637105924 -0.45580349288425737
-0.2151597438924604 -0.58499998064126402 -0.23922665223521733
-0.93923072993842815 -0.69497369507514861 -0.39292651849993376
0.0076414112782803301 0.63451184361343493 0.68196650672430792
-0.074153233535954044 0.88349064160532009 0.21106003958994535
-0.62260497060862185 -0.61352337855216277 -0.21957886444855745
0.51568054142516218 -0.146206223578913 0.72783780215424798
-0.20567017001908283 -0.32924777401458805 -0.56899291763986071
-0.30528464659312959 -0.22894165781765352 0.79662402822215483
0.40628715408195504 0.79891676933693923 -0.31324827823244306
-0.28160031350417114 0.5730843504844163 0.77477595503184205
-0.63700765483645938 -0.75955760757546287 -0.35586545511453949
0.25460085189730464 -0.11839442706460623 0.79288310061777878
-0.3786798048668949 0.63383353320675795 0.63812047786561976
0.50622988109401845 0.88281670864111739 -0.35404239737854937
-0.71787357772351612 -0.4106168749853758 0.39621889528862653
-0.11991159977090504 0.45679719857525392 0.80419604634464292
0.67958034664507139 -0.67620272704020579 0.4900109432334574
-0.4797390485159827 0.15842219321892337 0.68684025085801892
0.57011102196880969 -0.38335103254636849 0.73510645092380145
0.64442140592699459 -0.26584129246200483 0.73157259678526287
-0.26371351498751849 -0.27415643713432658 0.7279649013837286
-0.7544010590585426 -0.43320981257917879 0.56754119385571755
0.1246893541139098 0.48847228375184848 0.69834302534201953
-0.00070582888806569599 0.52608438979601502 0.76690367505451462
0.13154508199492554 0.40476234920479115 0.71973403742190811
-0.23697168861066942 0.32012690032415847 0.69972923390396602
-0.17074154444517298 0.72581877039178977 0.41071908719262495
0.12249501963123066 0.60559094215219744 0.57213971121090168
-0.46823468324556572 0.48354072517638969 0.69406362061248217
-0.34861829563369184 -0.63502393894702003 0.0051416913334634273
0.13529566666104742 -0.11412397053158685 0.8080331081404708
-0.95141689539784302 -0.79705631472545768 -0.39726746235354682
0.65939760327662356 -0.46571047408338728 0.65774853033889968
0.51376078222637389 0.68287520804586244 -0.27499985882072053
0.28538033085441583 1.2507495682556531 -0.40703982233579694
0.42973218437703053 -0.22250375260882649 0.25640870059049803
0.37127661109063581 1.0458977156665341 -0.41100081744180272
-0.61709051588448993 0.33530327528553627 0.42376719419848996
0.54991516256736261 -0.27796815442401623 0.73717101460037071
-0.47376805832236712 -0.58839586289257895 0.47662868454978735
0.35890195566584637 -0.22305060124043585 0.74260527634692863
-0.36790917243403065 0.69558373648353289 -0.56106039525951701
-0.27793952573508918 -0.29640343392902402 0.72073007185935722
-0.65200822764402133 -0.92533547485894374 -0.44196595347380452
0.9343068755010222 -0.17853728649643763 0.50339777427750221
0.32836971913598312 1.2808932637897952 -0.42857993556216911
0.53554047294818119 1.0542942449152033 -0.51260244263306021
0.6725027606039653 -0.66796802747582618 0.4632578764224462
-0.18448176893277513 0.34329984946538694 0.76242971033159534
-0.64607122519555027 -0.61452382014829787 -0.22144454966243643
-0.93396711108527697 -0.73098951131271939 -0.35664424503394798
0.414792108433792 1.2510688651092936 -0.53412349003535553
0.50395501593127534 -0.38605291454530466 0.35017614462920932
-0.65437772978999043 0.087065970064012177 0.81127385433014609
-0.19330080492440338 0.52444803524232064 0.75185739575896093
-0.092416766974462661 0.27318647583570055 0.74891789663794839
0.41370701128776233 0.94110050069509121 -0.39253486872223675
0.25098772134234615 0.82490422311960465 -0.28812886260267589
-0.56680665894369398 -0.64236307208532395 -0.2806788019834201
0.28995470614623997 -0.050349082834244996 0.75161223519047837
-0.49034310570214146 -0.66016382571112686 -0.31225236043027849
0.62529111914118118 -0.42616516489897727 0.70707083452808206
-0.47255438117207227 -0.10834627655284024 0.79271190209686893
-0.40905484790916802 -0.3689051605253546 0.67073786122921319
-0.68933141422629696 -0.94965014203541642 -0.45713891591140055
-0.37228864962376207 0.27844292650539515 0.76909596097231514
0.59868026822714526 -0.4464000742505938 0.72900007433523228
0.75932182062155107 -0.58852236922973944 0.56504069944097779
0.31964656581149242 0.52820626906236434 -0.34947976750284937
-0.31130550322514416 0.21716385104734215 0.80430487338386314
-0.5847200046706913 0.09275010788528526 0.81157891823108486
-0.30123151511590152 -0.26023427870910076 0.76457660605935018
0.84401578455547366 -0.15964241728384998 0.42256132636912724
-0.57694017941135378 -0.3235271742888699 0.68305400517448334
0.24646392402808459 1.0781335214705621 -0.40800909120130768
0.6281271564544646 -0.68584206373950174 0.59568494637611025
0.26336398550014728 0.80404092882681866 -0.29790568674809492
0.17716380424313272 -0.20654679852614777 0.78532060391557934
0.67355296654512742 -0.53673341030787469 0.69263801250961876
0.039375401804093713 0.31926775922510942 0.76655997317079994
0.12030360793400519 -0.19408942145421371 0.79899099417355757
0.89327816151283557 -0.15153180104478459 0.47194633373231198
0.044034050774509836 -0.29460881925255045 0.57809270036142379
0.75325804310528355 -0.38265742119822832 0.39267343733558135
-0.39483198242742823 0.47553552826899903 0.8152605520703915
0.1480856142026461 0.80851871816634358 0.57460826824005551
0.3350195977753927 0.90252321397028723 -0.34736487236571634
-0.29557702126019514 -0.056914118423431859 0.75728841892008347
0.37112757568361943 0.52574180747905253 -0.27318003061341045
-0.37159011222159677 -0.54200530475054975 0.55251061381551381
-0.37158760279132963 -0.76801773040176258 -0.19263373272532647
-0.39147526986668346 0.20669869891565718 0.63345243965503073
0.48253230735456398 0.813435487525485 -0.28381529172922626
-0.24893128343476079 0.71891589106028242 0.65148792763050523
0.10225579695752174 -0.18996784993010074 0.77183793954672808
-0.34565822406044155 0.12873202084449353 0.80141635623788687
-0.3728991230571399 -0.24238527061050341 0.79545879815979248
-0.19103733592161021 -0.18947884943121629 0.74160249036962966
0.061682120059661116 -0.34470931432178453 -0.40164851805399593
-0.11916570483939104 0.97124485972860164 -0.1333548891139813
-0.7471842416533967 -0.66138663411926046 -0.27566600488898274
0.77669657848711537 -0.27323099908113413 0.70066819184862084
0.87165736728698207 -0.37644696578277248 0.62412485024977116
-0.64142030202592437 -0.56937214249729706 -0.37021488081923337
-0.74628173069969073 -0.83836758836896053 -0.49027016091391573
-0.64886504434937109 0.62556120851438202 -0.35756050872583245
0.16055167345134436 0.83331185376350092 0.49951662347055503
-0.38597357880884253 0.39571049212602638 0.63610052949336193
0.51289985069556998 0.92068399510482379 -0.38421132822166726
-0.47039417491842883 -0.58457781824394672 0.3901729849610831
-0.089857803594547647 0.49979682914180401 0.79247893494925847
-0.80388610343555911 -1.008912365031378 -0.43739281083720982
-0.43363857490243518 -0.43405227022173598 0.64696162880385799
-0.33734059627101942 0.31869193135118579 0.81342389987475627
-0.20887346931285578 -0.14009332820520015 0.7313784445228606
0.20614031727163074 0.77141538745983773 0.25901537405923847
0.78602092938968937 -0.31275300692808194 0.70298643213304501
0.16682866069072233 1.1540127433667067 -0.32785884260379561
-0.10650427080939018 0.68683287107317526 0.72013001432597434
0.85478249203395151 -0.40789871665151978 0.62696505682085757
0.73279302774128041 -0.31892346303457586 0.66555268768721021
0.094991363141261331 0.84477206275774108 0.21602157050880066
0.1213039285936226 -0.39489278093492075 -0.14498919643656194
-0.27515313866306812 -0.71272589158441946 -0.1980567918295506
-0.28606150057925817 0.3378617504696404 0.79103561139559986
-0.21913272054457167 0.4931159276730277 0.7558257645492219
-0.26924662416101519 0.94920544409320051 -0.15079216779482607
-0.59489735666965871 -0.41057350319612596 0.64929900153872211
-0.67034593817195365 -0.29018775406391484 0.7150179518098625
0.058639491853323733 0.49720035423277764 0.74620270159053348
-0.80742773874820628 -0.75602105746837012 -0.40485017333939766
-0.44057055878335127 -0.27053281407189544 0.76796314369470053
-0.23541061326569057 0.36646046139025046 0.71657503249838328
-0.73261669849556021 -0.98879174892241117 -0.41681653202156355
-0.046189304213603677 0.46636830642778371 0.80186188272616477
0.82230027505024239 -0.1093258677725597 0.4746244240844959
-0.47608486155995244 -0.38781289284396614 0.67201799289281183
0.64737373171266555 -0.030511603299945733 0.60111828981266768
-0.71839038395552279 -0.35052285545622297 0.45597542497518617
0.20833737555055265 -0.087961867747349487 0.81252624346197422
0.055687417993631527 0.39386222394216119 0.79063453379827564
-0.054138034935206747 -0.46288153843567059 -0.20880402924489516
-0.3482666961743206 -0.63661647479360362 -0.083607069367353404
-0.39243286564093083 -0.01626774455959179 0.76839512139686406
-0.72772022683617976 -0.3463836852307125 0.6711506275676129
0.85508431403761165 -0.40362259868769712 0.46487574960733014
0.36051878913514912 0.43456726421867664 -0.23546975196497755
-0.68705343731794599 -0.71508702735662055 -0.3458864208261403
-0.2697107926136777 0.44724187144307237 0.66503138487119884
-0.61197304137600383 -0.24206386895591692 0.70886238069653018
0.54410599994914932 0.0081609145231791302 0.60345138043159352
0.18444104965916353 0.70200844316461541 0.59922835970930066
0.29571382961674075 1.1206740556794017 -0.43956393851542686
0.44386301560037467 0.046648527690846819 0.49683481374164273
0.61103171971355508 -0.45602614855506829 0.72560426004134371
0.51979674291714062 -0.23452179904501769 0.73807403755694168
-0.71722971727283813 -0.55237928638672784 -0.1500330415974247
-0.61289235194900016 -0.65412376104875136 -0.2916588727135192
-0.090217970643244882 -0.4369671199339713 0.37564417254736782
-0.8923261487775207 -0.19136118949352721 0.13162821905398658
-0.54578447445445732 -0.051175627688792247 0.75721516203768147
0.085166552309482668 0.5605382212716421 0.67542672673108228
0.66576667665718148 -0.6069967991899734 0.42314386136317239
-0.11343551451537692 0.87233409803206818 0.21346984430403637
-0.90386119419708422 -0.74311255188881375 -0.36318339221249119
0.28821932442310683 0.66883751824282989 -0.37976038943096313
0.29019461709429351 0.1363766181767474 0.49507151593523702
-0.50612356968231786 -0.32495843973747185 0.67141343343121207
-0.42345641879234819 -0.40733126615515403 0.66629460555042641
0.39744751009741286 0.72265724273021803 -0.27010522079488197
0.46851479573788168 7.9477560541718617e-05 0.38327170865989757
0.2676174423176878 1.1302599599857235 -0.43750425812481808
0.0844673795201345 -0.17682990323266523 0.75233422556841134
0.29502914681493309 -0.16475684186357142 0.74547367156624489
0.77324377040880421 -0.37114841992964642 0.69763126203337578
-0.11438886310611096 -0.0601191928796041 0.74804529989000912
-0.35812654828102097 0.4765263705147138 0.5262426714751598
-0.88349374600011821 -0.89548158502888064 -0.45156906853956968
-0.28826737859372997 -0.4633237147130842 0.61908061724408014
-0.66343432158535443 -0.85111641844030572 -0.40336628111377593
0.017160005541068557 0.67564526534563996 0.67305991185411074
0.19704434089926792 -0.37027706980612862 0.6307594040846638
-0.27273281631479307 -0.17581180218050108 0.78220839402796827
0.68609483718587683 -0.65114128519315173 0.59764490357967759
-0.74404651827185653 -0.45985490873124668 -0.36290887636368296
-0.3350727521444874 0.24805376323660155 0.80035002236450481
-0.43451966696722977 -0.78713613683448003 -0.25377409994263189
0.26208619153526413 -0.30447600127994257 0.72221284269775765
-0.82285379211008447 -0.78019091205299063 -0.41925195780079605
0.21718167521631671 0.18970404667501484 -0.56917159432790498
0.72286136952847002 -0.49762458375470864 0.4114882849957695
0.071814304942053653 0.60889224048354329 0.62246683189518137
0.62157301187197689 -0.45135643029045625 0.70494100640229362
-0.20102111467422468 0.33131204696674388 0.77375233071066418
-0.4601155283430387 -0.26219933398837902 0.76290108612275276
0.061322828979154309 0.39175073973058971 0.78577928813906084
-0.37305310075684517 -0.37036763906101555 0.67424347320312705
-0.73468927368491066 -0.46236146494383235 0.49287167646487262
0.16381760181639038 0.80137403581328037 0.28347154618204229
-0.073053417199226089 -0.3483751932976169 -0.50381077266359142
-0.22471972305397614 0.52944199786353074 0.67093767291147088
0.42156599988258847 -0.21644404048190502 0.22870396777549473
-0.78347325508448051 -0.50341656449214867 -0.0054566497879662279
-0.33920575146175658 0.02630256438959222 0.77283847570821251
0.48872732683434705 -0.54478287001237646 0.39058543582502381
-0.011497512135758114 0.9339739053378846 -0.21519036435271488
0.28464698214872719 0.46138275616529967 -0.39477291762866429
0.33307582289823578 1.1279648514689073 -0.44665270563655213
0.72379832931660459 -0.31787115742510075 0.66754889219266289
0.68691291512199371 -0.61042564661534549 0.64076775566262967
0.39083338440104498 0.5440563754862211 -0.090339049724555309
0.19702494243315982 -0.20359778873712564 0.77528269763553936
0.3488842064071811 0.22788988583567615 0.30938494730050081
-0.37461130601730375 0.78051886125136605 -0.47727659093244768
0.029276771849005456 0.40596694430375813 0.79957700507853247
-0.74385840102871548 0.53962813447335556 -0.16684363370846711
0.085069328844175729 0.58976122117418051 0.6764261526181059
-0.54158657630603457 -0.30001692864145113 0.68022805449717794
-0.77457613843862738 0.28680306639684616 0.2843804244523227
0.033200752119482146 0.66032662951875842 0.67498063947012099
0.30183495094104984 0.10566163982496235 0.49505156411721885
0.21914098313126829 0.0068190829757561744 0.75563964202825673
0.39106179057824697 1.1718950579320691 -0.47816435385772849
-0.81034477571028241 -0.69483037409114878 -0.32319554294481634
0.47038015757000551 -0.14694216324671672 0.2804907045111662
0.83406533378987646 -0.1999837099759727 0.65584867737572949
0.60471709549250718 -0.21392385578988637 0.35833305629953571
-0.54206244943309301 -0.4017175665140762 0.65494315228117728
-0.91070672812019993 -0.78006384873649637 -0.49135474038745741
0.56357085025375753 -0.48737625560878328 0.71799095049924233
-0.55056940162431189 -0.37874471455771186 0.6645341178234645
-0.5592661618871162 -0.55986856177480959 -0.40027147044774836
0.68763923920285919 -0.47047657515774688 0.6745364922062862
-0.62955326450738092 -0.35287465905643955 0.67505143114518518
-0.87741924304523167 -0.90248680736929288 -0.47109235904297009
0.62569289667571937 -0.40845003742376917 0.7293005967341557
-0.35503443845782812 -0.63423583927573368 -0.13872993827395419
-0.13211936945758218 0.75745387373971695 0.38706225499853275
-0.5010697151566923 0.40570718670140948 0.4742365855878532
0.28255065077408581 1.1551199754134522 -0.44535193154356278
0.46343814503731551 0.030341490539807836 0.60241066186827652
-0.33147650357859426 -0.083537746318988582 0.78860817205342926
0.11212971460850341 0.49466797614144475 0.69993986331539304
-0.10433877575639983 0.44844128691643803 0.80762542551003946
0.29585107252062492 1.018427357745237 -0.38157160233488696
-0.1800553835764962 0.51696311111389193 0.7552934851883748
-0.31053139120176709 -0.63934075676856317 -0.13604580968434732
0.55933210223711072 -0.46596537009137329 0.36987690195859813
-0.13578606698481011 -0.3045974479795408 0.69668912374619651
0.70059254752589339 -0.34969212947310702 0.66988528939631919
0.041792443177079974 -0.3285690816307838 0.47081526473856172
-0.37018698262651029 -0.40461850635070107 0.62372870008309178
-0.58468609307987407 -0.92386043410596486 -0.37122727929467203
0.35786839469994547 0.011730373486706469 -0.33784141866425443
-0.80095608887005554 -0.78209756252092788 -0.40551056807439778
0.74983971462859955 -0.3834899385715449 0.65240392403903513
-0.16556124040391929 0.39237311773918648 0.77541951390711006
-0.019976154638815302 0.35763331660405662 -0.6876471954711505
0.13800114741317415 0.37215612988660673 0.72014354117491308
0.12435145280740301 -0.25972587388427293 0.69987546903114861
-0.33696254060042108 -0.80294214236998585 -0.26856997599472265
0.10626409029196537 -0.16172151890782871 0.80481367819530192
-0.52418844933715647 -0.11101398486918512 0.75123212045251364
-0.58964148140717043 -0.35782852170768464 0.66659026529107734
0.38362510329226218 0.7227533973602398 -0.25601822334233049
-0.02173214274340296 -0.35870861376866969 0.51344038224561217
-0.7509787825517904 -0.53096431350643414 -0.081918069942517491
-0.71500381670471391 -0.57399268092352962 -0.20841463045140074
-0.4108879347995309 -0.022627042365543915 0.76382383690477695
-0.078816314429282386 0.26258054082289561 0.75486697569881755
0.29268053305281327 0.8339276868387806 -0.31939861659601831
0.051594583541671568 0.87629307757081598 0.61097329817137336
-0.44397567664810467 -0.45120527806973953 0.63619324465189919
-0.61897947528489183 -0.97775525924116202 -0.38718303873412907
-0.61030706638437593 -0.053094442563574873 0.76606129035100423
-0.0030890937962695375 0.51988576809951148 0.77273466446850136
0.44026043770812961 -0.60801544837832111 0.51442734612041363
0.25380496714800671 -0.0076118951169164006 0.76502914556719759
-0.55368593948888645 -0.25902448543601508 0.7048037680760828
-0.065464296932900012 0.54339865743293991 0.75235544627235384
-0.41693180594814194 -0.76604475611309297 -0.36813364396129344
0.0017573028391204559 0.53260708524515188 0.75425090511940596
-0.2473804028848221 -0.28296316513227282 0.73129021300776031
0.11441120439278407 0.40759941398910371 0.71234663574346513
-0.56325661525544923 -0.2344194269323161 0.72420909595977889
-0.50622431424451619 -0.61151134164798648 -0.13224397971440283
0.16793042135875424 0.275292998218859 0.70942838593960289
0.023797604386359694 0.63163182149083852 0.67914278383139504
-0.77516000519868555 -0.61768302000244546 -0.2323890100791175
0.096024748751741384 0.53766654379305479 0.6803303834300749
0.40382796440504976 0.60368168005556555 -0.29328405904236377
-0.14886650446417349 0.7672948637726158 0.59269245049844699
0.32088314918384953 -0.51390841036393375 0.52227739397460482
-0.89576104686322644 -0.22980983333076743 -0.33560433770097831
-0.91717460978986409 -0.98307249486044768 -0.52406541645595439
0.28275754085462346 1.1865173330788288 -0.42226336152116062
0.25050887038308645 -0.028248146216396819 0.80388161620279419
-0.36922471820203029 -0.4201094086327064 0.59683081429404439
0.18280479962067631 -0.13121926537963979 0.81258994337851931
-0.67911271677852802 -0.99426812632366612 -0.40760419710696993
0.84686041192084005 -0.3530766938723815 0.43698122165810105
-0.44473821264567803 -0.35969283394357987 0.67228610533127409
0.48591786707275375 -0.19136442364818684 0.73808290981312297
-0.44579908990721684 -0.36674764513370484 0.67446730304614277
-0.39909574023528904 -0.066338627070601675 0.78810443902593619
-0.44842861573506454 -0.3817829715106793 0.67603148835296878
0.29577198444302866 0.21137085528896904 0.47991164695496735
-0.24703055778919136 0.69251394160498414 0.5945377213422347
0.12109813023514882 0.8633160495287644 0.54770117518273054
0.18909274012264987 0.78676156091682259 0.42394498498060784
-0.37390516198122548 0.25076563026702026 0.68536136378353518
-0.19866433894556224 -0.49552335165211758 0.52857807211201191
-0.17115938467748038 -0.3472741138372939 0.67669536749222914
-0.51853122833029275 -0.37230847950685586 0.67328066273789489
0.097538577246915281 0.60287692507928092 0.67511184083545572
-0.89238631292346859 -0.87560525480616569 -0.45875506330657601
0.02637543872342718 0.33952164050405464 0.79243884766489714
0.46744963028066522 -0.53592222274055779 0.67817460203300328
0.30395339271020028 0.74913009675390541 -0.28621279950388612
-0.48288377617227773 0.002688587636164641 0.69131675381506597
0.26693660757247351 1.1615330451162684 -0.42026884905316564
0.51308105243835378 1.0411436055323326 -0.41578977167434061
0.11809875163028849 -0.29179214605946235 0.63799379978753734
-0.26660880958196209 0.44523420100375333 0.76671901832660438
-0.61429331995752356 -0.082018066632253195 0.75952478333447715
-0.586859297483727 -0.16641914218438103 0.73336492703028
-0.56761249023897165 -0.64658599882916157 -0.2928160919958458
0.57308258175315885 0.83682389062268037 -0.38928898237016796
-0.22669539370559022 -0.22295690115758582 -0.633925409310649
-0.64606851335260806 -0.55609219011936162 0.45960732920310221
-0.83015148396445326 -0.67622687584307783 -0.2953671843970298
-0.85208595448058411 -0.78527052316642276 -0.43600487027961776
-0.37839643302780601 0.20877321641052049 0.73942771046973377
0.017716082554319001 0.30595628258848073 0.77033271888697641
-0.14353168185306586 -0.3100328232867966 -0.57244818473440517
0.35830404963106588 0.74849689428076971 -0.35452812112299625
0.88084293298095417 -0.25081324652129311 0.64083844433268666
-0.24580597361750556 0.71352481260049672 0.70744444034588128
-0.20165041652127869 -0.36055824531775116 -0.53823222595001852
0.76179507721918682 -0.32420147965214063 0.71179697441122158
-0.41339819318463888 0.58049209018916947 0.63415683640579346
-0.19384250676676551 0.47751239716698457 0.73686522936716159
-0.26942539458490167 0.01122080100924272 0.76520717237556113
0.26431969242421616 0.058053515151184953 0.65803356246595968
-0.59263096926562042 -0.20315302763468068 0.72208069651058082
0.69643922485830245 -0.32187769736184713 0.69450114015587161
0.27186540992434516 -0.04572691052494271 0.78595942796835061
-0.62027305070021299 0.10851509519934055 -0.66162230734097704
-0.35728188433812136 -0.083396430020336254 0.80868882538751308
-0.65970882758904104 -0.58691613153970223 -0.16188104024191574
-0.62401639989268709 -0.62674586124660436 -0.37948834027295675
-0.37281985981968901 -0.74302118086571056 -0.19435622060726843
0.36400723948414893 1.097786310386784 -0.43293024600144037
0.27374788783726522 0.75652497950212805 -0.27283654610880603
-0.16977179606139359 -0.174231893401398 0.68694992636526564
-0.30175331707317277 0.50035059882196009 0.77723597619713303
-0.68647736356960642 -0.50101510724089238 0.29696688704182606
-0.076818154715322606 0.59245892440958592 0.71663298867838421
0.57820905355049135 -0.12466825010365312 0.36951486804732525
-0.65148876009507184 -0.32910142365460615 0.69356228432589262
0.44303151627036641 -0.54331268087459428 0.40840720250268703
0.10968447130866288 1.0600464774915146 -0.27484618257400939
0.29407561995737197 0.76113675833927275 -0.30181461945846166
-0.25298970802058918 -0.67134482289772279 -0.19323120742567568
0.49425100138442701 1.0013353604370794 -0.45493818899691263
0.17031934170524288 0.4647177887721945 0.68257788619573034
0.1591971197921751 0.94307656504402004 -0.23033470715638771
-0.61397481888989702 0.17214309004535089 0.72080618715560263
-0.4919003437657139 -0.65006209773781443 -0.30987764940780238
-0.70670726158578745 -0.23950794464057168 0.72327601447580037
-0.048892483328273784 0.24582456696752253 0.76332789745104179
0.23522626559964266 0.0019384827157917783 0.7828878577806293
0.28237947295453303 0.80906037739405079 -0.3709520926742087
-0.80197092484765342 0.43676500414034081 -0.1692524983595618
0.14725878178790452 -0.32005276108191438 0.63000604942592275
0.16876479322358762 1.0129874681679407 -0.27370441063033013
0.60401827928753704 -0.70587482376830479 0.56806646806020922
0.0070412903664802684 -0.30347296235587962 0.61055972371111267
-0.36624020995326845 -0.63215811657741128 -0.14909681223416271
0.86897475791980483 -0.23319856501023573 0.64521051174863686
-0.30907856515686483 -0.016254234476122065 0.77187954610484866
-0.32882908148842915 -0.6358848497674181 -0.060159084042766153
-0.46927792853528416 -0.58809346201725532 0.42312833870614952
0.74839632008608348 -0.33076322935202995 0.6714473759050037
0.39332208333809149 0.87547380259328555 -0.34729400622516948
-0.23814592530303891 0.53541096225653817 0.64801037324539124
-0.343957564138476 -0.23958113064014697 0.79735552001901766
0.11006850105950683 0.35333153848887378 0.73299123775190367
-0.41538616353058089 0.15380652886800483 0.80259690599153544
-0.84079393741066077 -0.62544482393330902 -0.27578270966323259
-0.13543028547846347 -0.40487247996872178 -0.43990728790674893
-0.38789177778199857 -0.24845766083247867 0.79162951040417795
-0.43000489447445212 -0.10197103278164299 0.81226154589968758
-0.37366814531304726 0.29146997766112293 0.63286745749007167
-0.80277988487212326 -0.94919327618961091 -0.45513918820928723
-0.33872499209507012 0.19151263982485389 0.7967715851796342
-0.52638721352475493 -0.3519938952936954 0.62180928231148869
0.50954040735452111 -0.66258099486182509 0.50623835969721398
-0.60503371135788342 -0.78612454174650281 -0.35989533072282853
0.29696542746930987 -0.12965358641220881 -0.36531701849884968
0.11458811449256601 0.9225285162972412 -0.34314386210472492
0.14218546653474107 0.83233969511109684 0.17388612623487631
0.15584076528647728 0.96668261191562443 -0.23707909501555235
0.28811526919733055 -0.068033223346436245 0.75938282538451318
0.284042060336688 0.091521360498571624 0.55602361972351844
-0.62486655416251935 -0.19666174664341796 0.72935139625068501
0.85111677919400108 -0.22820194145289285 0.41369481109833828
0.40103455390609533 0.54164385835603923 -0.12348693989648751
0.18358516603247388 0.48112420861574989 0.61218695608857132
0.71943707606518714 -0.16326093615104043 0.39150048322422748
0.027367812844950379 0.83841859339229075 0.33495384959433494
-0.53612382881322063 -0.60853199769747057 -0.19160889878767051
-0.53979004608311065 -0.14840324053846565 0.74972762255692516
-0.69468697562686543 0.12316120580378609 0.79036416146038135
0.81496228731826648 -0.47373632327294857 0.63015905170013298
-0.3366259241707894 -0.0901865605090304 0.80344514145991042
-0.49354195191439132 -0.035090188253139587 0.76834392136157703
-0.82342525476062178 -0.93162725084950182 -0.47463730642480328
-0.3161841777461305 -0.2453477539498703 0.79194931285439907
0.43268928885455793 0.79306465518467206 -0.30082890736412082
-0.69024620719861041 -0.93865276795008334 -0.45479190270277314
-0.064024193928986506 0.23417085243826286 0.76406314393998542
-0.085753555186494523 0.37709829311636511 0.81462683109155165
0.14207928551532589 0.25893721408856329 0.62703864579039248
-0.87387608893721946 -0.87697590877078646 -0.47067953418982711
0.25819540853608913 1.1033140163675359 -0.42549290117216998
0.55949315643425024 -0.051023673025941463 0.3961131569420715
0.67474827555960104 -0.49759037147097906 0.70818680066157924
-0.18159383666297302 0.38637744843674326 0.76370891166462229
-0.57441514840196817 -0.60650055744270759 -0.19421943958855792
0.37551281452404872 0.58940630305574793 -0.064309152603307496
0.41445345748187279 -0.20984495332686137 0.18728177971171789
-0.39854846994950499 0.18614653073260001 0.65670857071920352
-0.67256963195273478 0.056333189624995228 0.62309997319188426
-0.057240459308978586 0.35993134607227617 0.81464338982286222
0.41517385951458152 -0.26602659885391766 0.27263690775387062
0.13118074580701844 -0.075853316960024841 0.75129631986233392
0.72109682001030961 -0.49527880742178354 0.69338702075128822
0.70640016827911722 -0.62983133281504422 0.60080788703238852
-0.52603660260288976 -0.77091372809334402 -0.41092432134522028
0.54923793225134077 -0.19103526906341983 0.73166697666571423
-0.61516625749698584 -0.75467266486903384 -0.35029866131004184
0.43896831635352918 0.74322034646889534 -0.24143386865934957
-0.12318655367424469 0.22476376578849866 0.76323323759186934
0.20206235434534925 0.83468057666356721 -0.21280018147157165
0.059713173352196947 -0.15461959528939317 0.75837396309205474
-0.30730487506449755 0.92490531093628725 -0.28459016378384661
0.36716612007894511 0.92336757797866476 -0.36450414103330075
0.40135873911601294 -0.44510555466757573 0.70338255623074275
0.38226186259461237 0.56042572738180674 -0.046762265191112817
-0.51126204478777559 -0.0771900086981816 0.73832752728489481
0.3795034847401535 0.83755174445254355 -0.32921282878474756
0.016044279811250561 -0.086248938092900573 0.75505129065900434
