# XYZ point cloud file
-0.8888896838596736 -0.7483509743618959 -0.3931068196298142
0.28979523492573733 0.74916337809629496 -0.28136847940996645
0.30158905633181732 1.1325331756865982 -0.44541377661154513
0.15574997387899359 -0.0068907267295497121 0.76540602733173912
0.46630189841619263 1.2255650046245208 -0.52250138608755492
0.51638462289147924 1.0440834394924536 -0.41509150810569295
0.13198329244279527 1.0908886898907024 -0.2866675323442216
0.29818070638119032 0.7172882817459465 -0.22365106734177331
0.25323466722437971 1.2299363864981707 -0.39348257459431579
-0.30727948085634615 0.63563968171374885 0.77832805177337505
0.50809920780250906 -0.12267522155975108 0.32883777688760674
0.26401137207312964 0.63716087283120348 0.54487345544535515
0.16301079409351082 0.65763753126605629 0.62208026168176289
0.75136691438686576 -0.33773967075860423 0.65930683313993299
0.1454986910056153 0.8655034601494318 -0.036743120160615206
-0.58727611140353453 -0.19587994366999339 0.67070687574809895
-0.18778216776952839 0.50931815567461136 0.71574397882827157
-0.21201731172481431 -0.24128870884018383 0.71867567991162318
0.22155558703798839 1.0514198260451213 -0.35027899259381101
-0.70580312250856103 -0.59522408148055472 -0.220053610264074
0.40335929632637857 0.053366544175593056 0.52837077048767966
0.085616148518393942 -0.13499479823510718 0.76020158769745905
-0.8895151771383194 -0.61611159372257074 -0.32347019611941263
0.067773432120123545 0.36464324063318987 0.76522922361526113
0.30810100218162439 0.2302610666225231 0.4485808674819225
-0.40931907066391737 -0.23887138964765597 0.7912495186841717
0.67578712710355049 -0.34783441991081254 0.7164657484104211
-0.37787732952073405 0.4323771480882117 0.81979236628392371
0.75183366541159202 -0.49763847112782678 0.67420900984088661
0.35421011972121974 1.0381408373488235 -0.39767782225498394
0.19209922481258523 1.0077539424046567 -0.2834924905980678
0.20712742070960033 1.1675017412395103 -0.35016921681059188
-0.51265864718646625 -0.91112898774741957 -0.31183946198298429
0.93563146718945944 -0.28889512347363322 0.48930941420174179
-0.80868566875546222 -0.46297864534034261 -0.10553708926672911
0.59714512651681773 -0.68364648011744933 0.60846150786933961
-0.30953171692555159 -0.65039068126143373 -0.15249429860625341
-0.366573190443928 0.28666589721882296 0.6625884374387887
0.25148880991029898 0.19174761065906498 0.64011035008355677
0.82462971905351168 -0.22686602971933212 0.66778703658440719
-0.51185254529067947 -0.22552696907984959 -0.60506904247017701
0.40623111575023785 -0.059842315172524252 0.7194235278901786
-0.33822453389453599 -0.74487595259613038 -0.31329678811073691
-0.11095130546133625 0.33416697865713729 0.7871817464545714
0.39691993794361835 0.83042552354141908 -0.32532598434214677
-0.75808825712625882 0.034656912021497455 0.71906007446910891
0.21513021767751361 0.41203317096212455 0.66059446363545149
-0.48746976510534168 -0.70294134993994817 -0.31759707189320707
0.65545693525241333 -0.49051095134254652 0.71588927514667944
0.06904184563502902 0.71447111938827579 0.64857338961121513
-0.21540608285060792 -0.031575324620335188 0.75591295954751914
-0.71274614930675995 0.067961354063740487 0.63766889812827898
-0.81554186493156067 -0.19913942199146195 0.24619287162019887
0.6292109436881681 -0.45595726899964628 0.70499950493435293
0.43862874118867445 1.1219045702975192 -0.48104714695571715
-0.31554918727947268 -0.69724691650167703 -0.16122425009025321
-0.40254497287797619 0.4355743635729219 0.81461927766567044
0.64956844790050283 -0.38726835160817341 0.71759051617956615
-0.42927205511507438 0.1154461874949595 -0.71297822039376868
-0.68475185291160301 -0.41827489862080114 0.6513064719039896
0.14581993693173345 -0.083404863140344787 0.77380223534935411
0.43457345540135783 0.62586366729923792 -0.2881493764022629
-0.19266660243263445 0.3714487684062231 0.76444155091689936
-0.03870268807276922 0.58389506083764786 0.69915416457275725
-0.13843866017568907 0.76376433284606549 0.65538079117947845
-0.57305183297579099 -0.075882531278423926 0.74970363878279755
0.046236536760936531 0.46310207217532273 0.77856574780819798
-0.51515646749577115 0.57342089683749808 -0.58190432233423905
0.20139753016118433 0.92157942508836221 -0.24786813338017311
-0.36896333332518694 0.25572759518424615 0.63912023113856975
-0.21237289094711009 -0.092702884126893537 0.76083574507428509
0.4427622974960439 -0.16113743338246955 0.73822238206988544
0.14940892219745727 -0.061528005428897359 0.77202830910349363
0.010130953256785702 0.3374274044831953 0.80275515561814714
0.15387589957085268 -0.07848233663838311 0.79254920394676631
0.28198590994531259 0.71310163523356973 0.10597862682616466
0.18094752365111155 -0.20154144807336305 0.77944882597714127
0.54774069220173871 0.78138239595343517 -0.27524094907282048
0.26979691402974026 1.0339163683232329 -0.37890113564562711
0.6828464355399575 -0.53791232048891757 0.414854579578531
0.2227546509266034 1.2021300778050872 -0.4644606935261244
0.54752675903286274 -0.55434952442058982 0.69417534743943321
0.39214067657727725 0.23941807762236778 -0.10526209528800123
0.28241564768135952 0.066895223217628974 0.6147855683848249
-0.53978854191743864 -0.32978407267501453 0.67963276909248194
-0.79386875778264709 -0.96486147080175089 -0.46950430716543678
0.73958091253270553 -0.37199376153884245 0.65105682088768191
-0.75107338989741734 -0.38484698541311602 -0.4073064249950491
0.39116993901831698 1.2752989274703994 -0.48922339297336492
0.25317144885302589 -0.061730823693562087 0.80160475037606105
0.37033813909965296 1.0744347892080608 -0.42071313575180014
0.27500588111888113 0.65512154326972016 0.30392837999268352
0.68259117729628471 -0.1265345996478926 0.39515166463808882
0.3663773093010203 0.94426346594606869 -0.36974800916264172
0.82492211078147193 -0.49147533062702831 0.59739056829057091
-0.13800082786334045 0.27204567365560184 0.77150892834619
-0.70354147822701485 -0.18896952517701493 0.51512035888072916
-0.73543348430771438 -0.41139982502194439 0.63896786913720049
-0.092235486588760907 0.37839779398294127 0.813233356831919
-0.055737723322026866 0.8031813550765099 0.53461417798620303
0.32673886054550927 1.0765380278747996 -0.40824905625040131
0.11732674638047236 0.88826542110622153 -0.069952951597901603
-0.24921792697528744 -0.56908276874366859 0.1745785111829008
-0.073626721175182652 0.61247209652943901 0.71631558311405996
0.28511514009152705 0.15441547300745562 0.50333653469614603
0.46006774803331218 0.017735901123914211 0.63020657006033076
-0.79121036489794605 -0.75013975799724397 -0.39836631986302606
0.12966858057738762 -0.13382956601307949 0.81231069139745671
-0.14605468350794126 0.034267551511696581 0.7487532376571302
0.10176038231996998 -0.14735718412199894 0.80328248268862268
0.12346143016322841 0.42574029007611536 -0.59997736173111704
-0.12478833373615217 0.033724820922664378 -0.72637256560444641
-0.57099373550533272 -0.63216590938013884 -0.27039296239468058
-0.08173545858494613 0.97150102122058613 -0.22755450388057596
0.34095863218812283 1.1458492222373309 -0.46005214865816413
0.73052792835142455 -0.30446984683296741 0.69898894510609821
-0.079725798268356129 0.21200077961190544 0.75825363932584366
0.32216383921531033 0.42111398787998766 0.35273825176129847
-0.75729158058386403 -0.014502017254670818 0.70856568980893897
0.35824918915732695 0.063940785088823837 0.5050039904846777
-0.55005177048307097 -0.11581546774344709 0.75526386716074256
0.12764516671358095 0.43145485801602224 0.70435521549981317
0.64858717355599538 -0.69753126560100043 0.55161896768097307
-0.13042160404142322 0.28856686955821864 0.75921075319494591
-0.043521182522745505 -0.47657615450363089 -0.12737819339115575
-0.38970203299067308 -0.17325846058396444 0.8144241728227648
-0.70956322421364959 -0.17374987951998833 0.73565175306121589
0.41541993495733465 -0.081070357008188765 -0.054099499481480962
0.26605427563197459 0.80189810742070833 -0.28255153979666403
0.11410937663675114 0.43149811741080235 0.72275281807463543
0.33135312054989541 0.65693197559553695 -0.040639503439351188
-0.86425099472512557 -0.34711200027578037 0.1031113128413601
0.77491544103247634 -0.17159828268438115 0.39947115495203178
-0.23244894594697918 -0.11701672784533113 0.76318231852464535
0.78877360329583368 -0.34717206109312038 0.70083978226503163
0.74789809843275812 -0.32982390402910067 0.66399865402899039
-0.71680145995937572 -0.794442219088765 -0.38410841116413508
-0.37865852521313315 0.47540323937787576 0.63286739211866205
-0.039836102012838381 0.60105631508142832 0.6778387645334476
-0.14836194087586918 -0.011216938615502769 0.74653850439149849
0.27356581894512111 0.77956616612079532 -0.28189277448759142
0.39641354697109321 0.73445297652109431 -0.28525853511844446
-0.49209844359346278 -0.68804162165160498 -0.31689802636498499
-0.21032150958140505 -0.21832230208141024 0.74192210427490934
0.17856663537343209 0.14545061148157501 0.72914377313754386
0.096272989988259283 -0.10654976248526449 0.76757098933720158
0.11619565174903812 0.51291700054638589 0.6834142530191869
-0.82560242447113374 -0.72273737775918478 -0.39333833427038201
0.85775166162654415 -0.38031390035829649 0.63951713425734269
-0.78572359248135903 -0.013216369824174734 0.35257565386250889
-0.33980670105425403 0.54294460592453042 0.80317646367866402
0.42290513199028545 0.68827938086132168 -0.19140492308822843
0.31520190571668749 0.67032711514537979 -0.09350512250333054
0.50220365392988242 -0.60864654485152681 0.4195618019719376
0.12989898240129705 0.90012316162305517 -0.33038754061538
0.42826355919426717 0.042870542528949507 -0.033829291719431609
-0.50785461423523692 -0.026272529112755905 0.70718387269388217
0.17141729430257335 0.86300488605715842 -0.17415145902654317
-0.34621077262695188 0.24640576072520837 0.78777365728453219
-0.61518794224933337 -0.95671495808099127 -0.37521447065990898
0.20527559393081063 -0.37206357187640027 0.36473644660045323
-0.16528394436006266 0.32756754735386817 0.75724478918391469
0.11955061810580325 -0.19728702623484828 0.75768801808360919
-0.60386640609266351 -0.71235438331122758 -0.337567713851044
-0.71137271534476731 -0.83942067472362147 -0.40011740223505043
0.14299801349224595 0.56417989289199699 0.66468916263193734
0.13757269097968816 -0.083790188598545257 0.76374118120319778
0.10008145084261599 -0.27104980012323487 0.65042425363995093
0.11414497617820274 -0.32601783841191256 0.51153915930279581
-0.18885084691637566 -0.12560942076865622 0.75393972107017149
-0.49217341102437118 -0.056415090102461818 0.75998567381092386
0.79795949362860341 -0.28356806965856229 0.69309580269832338
-0.1643986191762643 0.50402650611003619 0.75355945870488483
-0.92166407980171883 -0.64076593100757684 -0.34858108001689914
0.20958957680338663 -0.17653885393106261 0.78843572404664286
-0.68275572886595981 -0.59282220938168972 -0.21533331707989234
-0.4562078398362921 -0.61462624041710345 -0.16304315321533025
0.057590579590737434 0.46869145495324371 0.7716947762568509
-0.40996729096551832 -0.34186403707069957 0.69766071932104978
-0.58722799815137527 -0.92680901069165955 -0.38574398450745306
0.032177983038359059 -0.42929515503094251 -0.23012344558312847
0.20898746916739697 0.66149104772292056 0.58900188524328101
0.43929572061325928 -0.46858467283214544 0.70617393042386922
-0.99252007171770273 -0.93196148069540286 -0.46683575830850899
-0.053788839598187366 0.2745506511169884 0.76343168901484404
0.31225817533305111 0.47417418219280982 0.39616340733899946
-0.41222119120989476 -0.58404013032455104 -0.40008514415359997
-0.57287066831055711 -0.6469057140140464 -0.30729096453066873
-0.59395198417774608 -0.59490428415378815 -0.16957397991007994
0.36531084948540027 -0.34086226867420333 0.29506178735866939
-0.65370036465008141 -0.35290420850513549 0.67963610126953711
-0.319543882454143 0.2807741444393308 0.81145125674172647
0.33135381599290525 1.1777084728898251 -0.45706740367313969
0.083591334218565905 0.58031045281964921 0.66971217137856698
-0.38345487987755256 -0.29393616345548157 0.7513731058732489
-0.27635039123092398 -0.0039939553887577972 0.76717341000298589
-0.31138172970676159 0.24810550437560686 0.80794534974045007
-0.62559003725294282 -0.49786624144952007 0.5923885092112755
-0.36263789643133038 -0.0044743390490804558 0.73770624501337778
-0.56277178970792541 -0.0034886141691545802 0.76660918403908695
-0.53589425041157135 -0.031353757604566823 0.75932741811611493
-0.38539835224090346 -0.27153142671671304 0.77930952928596042
-0.53328645914702655 0.7916502877035505 -0.27504547275635716
0.041706365750860286 0.091634894249081 0.75442867356465371
0.17539014538238362 -0.34536920505953095 0.63490728834957011
-0.72549844144463194 -0.75947328549436044 -0.37641743010831163
-0.10138766433644975 0.42333533844615889 0.81037127308393408
-0.3753880932360687 0.29354352747910717 0.62041096078915103
0.22321360617976183 1.2090683860371971 -0.37240375618258881
0.73101899041211205 -0.44482935871780871 0.66904207388451198
0.55299521215859926 -0.089453796454714407 0.70035087739750779
-0.098920205799172933 0.30836928610914249 0.77694000170220079
-0.079806022773819763 0.11712805707475038 -0.73320462788566942
0.65401083957483408 -0.56421487748929966 0.41407168033659403
0.53876325608152698 -0.11391448400168347 0.35551811287941248
-0.1861292101105132 -0.29919837724762655 0.64388821521545836
0.46622332623433138 0.90280700657382162 -0.39209743368280314
0.84122925544743055 -0.24396440220440407 0.66286196544366049
-0.43222454103458041 0.024990892201708803 0.77543118014319745
0.24547055264805628 0.63003988435764313 -0.42197954946579586
0.4258442543883838 0.57343907406745664 -0.25005912837900368
-0.094575023841409589 0.23013028130328816 0.76401517662708329
0.81883422974983944 -0.19391590177031137 0.40465514356333898
-0.77099854268071866 -0.43823987057314362 -0.32343687149614198
0.30182261403338728 0.49790550608425566 -0.37075573773674719
0.89843042995434708 -0.32563243180284918 0.61566905216357526
-0.21919552396851749 0.38177630900304749 0.77427655291457498
-0.4758290749407621 -0.64995374275746975 -0.28731240960001259
-0.43416535988650651 -0.0077332386306183665 0.73461191284781791
0.14009840584741795 0.31845091176891405 0.68452800374936729
0.44023848806801524 1.2452563055893249 -0.51721031414062324
-0.77177057100620239 -0.63058217445894815 -0.41030372109006308
-0.23848075753226361 -0.37732268766510302 0.59916380181638473
0.33830347093591229 -0.10636539177400195 0.73986259730800086
0.15043253577255022 -0.042449475240170287 0.78690187791207222
-0.56308327891439092 -0.8998013363726205 -0.39285902415279494
0.31997992413905685 1.0358055638790997 -0.38707062894201982
0.7553455337163264 -0.51330615182610728 0.661632407772764
0.16078826589354378 0.47127557047536861 0.65463342724279627
0.85023532406083291 -0.46526300287469624 0.52369230115548859
-0.086564288979847248 0.78770598779464862 0.66503995384594816
0.40424181825155259 -0.41745727217146111 0.3612826615478113
0.092603317854205613 -0.31702419094502154 0.49555024224689959
0.18381733154075519 -0.2041896730914754 0.77086378013425971
0.24972920837757329 -0.36668449009187576 0.27625128272637411
0.059712093783463871 0.61197640041168722 0.67168601648427639
0.022572068817838797 0.92661492077178575 0.0029457696836132641
0.30414909142895219 0.58400845714902516 0.50476730633595679
-0.34093136959167936 -0.094192922750758079 0.81295264733046935
-0.15527282806434428 -0.17047605678113165 0.66751017560683934
-0.20280637546111535 -0.49244021714697439 0.40650156495838985
-0.43030143127696263 -0.77141239077438772 -0.27057951249688728
-0.17228228254447941 0.70348463416895513 0.73695527211038225
-0.20561970232180649 0.43530183831843061 0.76692214088201993
-0.74397205918905307 -0.24568926510903211 0.59353169036084452
0.56043961434929379 0.91273116093851225 -0.44986879727937179
0.22597977264056368 -0.011767064707188801 0.80750725883104124
0.26725180056938669 -0.36829937319504591 0.69468831313393409
0.097025309715416341 -0.16343804267251549 0.796266315448797
0.23148844542645186 0.91111064048809798 -0.38128820953585318
-0.068673103509379274 0.12495350358796742 0.74688878222402977
0.5107179718132393 -0.33519522680721003 0.73882211747222826
0.26803260631692361 0.97390201703989021 -0.3495682662866102
0.43692706528647562 -0.57588278464867848 0.6351387321534645
0.024264569322250296 0.68315421511005781 0.66512295819418554
0.25585427418106299 0.7535702740028718 -0.01664661493141395
0.20018160027364829 1.21399459752997 -0.43523984282715844
0.18534618503559486 -0.36641506878143737 0.35758213562806773
0.083727841571953121 -0.13742520214701415 0.78504530108205373
0.34105298646146487 0.64300086273950985 -0.0097112413954256738
-0.21305639476146609 -0.33526944033360362 0.63447853808890997
-0.011442009458614066 0.34384354223095048 0.8087331822261028
-0.53419067614634486 -0.16000453003848314 0.73627702986668098
0.50813223011763498 -0.24712441112593986 0.32341175512601694
0.51330589607595556 -0.66304691855301456 0.47882469993616539
-0.46804283441808181 -0.21194049513957935 0.78529114476199879
-0.57717282155939564 0.4827993087566762 -0.59203712438416289
-0.97601318466957032 -0.91640393062540459 -0.43748971343270426
-0.559080402708652 -0.035427646233713972 0.65764152538702803
0.056651077233063063 -0.29983491021186826 0.51333555184634605
0.52136589712196368 -0.042195686547385591 0.38660565404020275
-0.62005498280088567 0.021959008958320148 0.78771362814497792
0.36209904589860642 0.96478228251721898 -0.37662166213495851
-0.97617756117459997 -0.70597963855802615 -0.38253295633144191
0.66938797792759175 -0.46838350264712414 0.67091186026433292
0.39226738799982641 0.72831935959221372 -0.27245630169472079
-0.20285286892862331 -0.34489031683555105 0.6090465894373267
-0.43681633952181365 0.18879291989067148 0.61329958355100089
0.28139857082045339 0.76115737192076249 -0.28138280815927175
0.31600476838893776 -0.16729799467665529 0.74298749075251891
0.39404446948938876 0.89775472919426846 -0.35757656695696483
0.39345976768990631 0.67317039176348104 -0.20400228759715233
0.42744744630268983 0.72964739607414231 -0.26055145146609249
0.76115301348261966 -0.39466657463059907 0.66791171809284577
0.14420068739347869 1.0340447396658972 -0.36904951510283013
0.051831376287246655 0.89553789208999568 0.088394721694335487
0.49525866782856554 -0.52398224620846889 0.38671436284482752
-0.12624591772371652 0.97835891016988619 -0.22907813626378726
0.75161500723267238 -0.30498685295297001 0.71408280803932556
-0.75043709861754593 -0.34536086631325968 0.56259760936202241
-0.61766755289030328 -0.20109999020470859 0.62276224849693662
-0.65479307696300637 -0.28033894105439483 0.70734106016301013
0.19896310396888062 0.01964727396203525 0.75004985952495673
-0.48290670386870893 -0.54907321336300008 0.5448847953792253
0.31267554723266677 0.069894465273537598 0.54487327526267748
-0.35214426113432218 0.19972459884904925 0.78405985732687711
-0.40598160857491195 0.18394472627439917 0.74298692946501177
0.77223452386589742 -0.3965697275297444 0.69273100196861748
0.1343893203888733 -0.3369867700302116 0.56623913027083361
0.85303358509594318 -0.46445106793532087 0.55000969577424286
0.49693351329858437 0.83839829521128273 -0.30606000605266104
-0.38209244531698872 -0.51179134243115598 0.58731425143982818
0.36316749543233939 -0.016025005949392934 0.70581127820209844
-0.7922999679806626 -0.96251215230569054 -0.47335111363137727
0.66053552263653614 -0.084617242864736042 0.41372809026371371
0.36377258012711522 0.63941943149234248 -0.16238036315188964
-0.72248793178814807 -0.2770203102292621 0.38844486846771531
-0.080331633270343872 -0.20581220451589832 -0.63219044347869868
-0.72549277677227231 -0.54103452762784965 -0.31234210302817189
-0.21580941438323009 0.75288039877438706 0.3341911736103178
0.25944170631581365 1.1022916301885077 -0.41321870269137762
-0.64134620903945105 -0.055744099722327967 0.55670356219541972
-0.60742416346959516 -0.97410553564603219 -0.36815064975798251
0.33731930173346925 1.1751301933727802 -0.46684265313993478
-0.68082930800615316 -0.12518023852056359 0.53738852282702254
0.44530289224094766 1.1891262732390775 -0.43738809101088805
-0.12813643292828658 -0.032866700075055988 0.74584188910002069
-0.58942058856514556 -0.23342007670688769 0.71219587616564439
-0.18272205380152151 0.33621850206774262 0.76836622355473239
0.052350875670606811 0.87492390274714005 0.58224102279980272
0.45287056584553653 -0.096575071765495402 0.23580854173480148
0.53601330475403941 -0.50462178910052202 0.7127146281026846
-0.43185593444636261 0.59377963702716752 0.68945538065525014
0.62050464110093806 -0.40016403718234095 0.73374629464036545
0.1053758321261995 -0.12856313171459632 0.80391592579147897
0.24405268506520983 0.0082059865217978256 0.74651414618275069
-0.43839128568688501 -0.082991904916019266 0.80409176079950484
-0.47724995287093464 -0.53174971800364279 -0.43570940606596054
-0.61583634503582374 -0.66227439104865216 -0.31730114567452361
-0.23212470074719072 0.47394698058832674 0.76084562683335122
0.12576243826060285 -0.17817969418436785 0.80695011385869009
-0.20182737779184379 -0.39447109061226193 0.6501117811826731
-0.37694023182876357 0.86890899308082759 -0.34798827425978729
0.46433659353110102 0.83242850666894697 -0.33557336681878169
-0.61915536263420634 -0.85755030562169132 -0.4677089055874859
0.37323507708581971 0.31259893571997033 -0.18276147848960278
0.71861317578569661 -0.51139905796393847 0.68823093869877638
0.14505484456254436 1.1276518594843221 -0.31031680896035141
0.12536707759981347 0.73190835504909835 -0.46796535810184636
0.19647632427562378 0.028717193446929912 0.75155663476102674
-0.16609156316830465 0.60814978821501597 0.73995667549416311
0.21513714984004473 1.2448502573982037 -0.4042573275576693
0.50397254585577755 -0.63701998867528253 0.44603662274931466
0.21790641749536377 0.25783698263644084 0.68106545331730572
-0.51345507161378379 0.10802313264847019 0.81138375776699689
-0.52006755348578793 -0.33412522978674541 -0.55217908382288527
0.40741683535802764 0.67759269657216148 -0.1968381359288216
-0.28332933561051021 -0.16988235853320965 0.79947458395836435
0.26934921167539727 0.7702540639496096 -0.25528466761068813
0.17216470780914861 -0.049427789461103266 0.80746285881751234
0.037687266723009927 0.42614331615155088 0.79134828905244703
0.64158212040828566 -0.46474675473290894 0.71189665556992665
-0.40952746942073404 0.025753992016826821 0.77574245913134376
-0.029096621960713165 0.9455010344660213 -0.2873224675081687
0.36301878393175002 -0.36874604811805867 0.32298817632971932
0.23309383675588968 0.92626707452849733 -0.30374786287404731
-0.40290194551125502 0.35581026994502896 0.69670525990411392
0.062475517291906257 0.36867416692841548 0.77410424994895166
0.14533917219164927 0.46728613155801924 0.67762525176384258
-0.66411695027472462 -0.97240018403228223 -0.39535493414286194
-0.44437697932814046 0.24521858758325532 0.5945172805496064
-0.74907834511258109 -0.2426436100881304 0.62352439514611646
0.30989702635846683 0.4178904396534735 0.5607568760256072
0.3033186670200898 0.25198706263540682 0.51259780650723386
-0.71566721049979876 -0.47781651463946595 0.44531407692984004
0.16413902787868651 -0.082673632927631857 0.80735919303140236
0.21102170269228004 0.98477102745608125 -0.30161361797581066
0.28693536743457848 0.10146125531490657 0.51427568542159463
0.11405087751444398 0.82185088590130206 0.26105548089791597
-0.21255468340835115 0.43615565946406498 0.76842495003798916
0.41200532237441756 0.69453648468912998 -0.21801581615212129
0.14677743971225077 -0.079873270056902257 0.76110644735702593
0.91196740862942249 -0.24903862913882602 0.44039823912133613
-0.91684359152921679 -0.80778413559988049 -0.42684018462125195
-0.53671391298941629 -0.25233442209287027 0.70213291893044172
0.21540741351710579 1.088466394839763 -0.44405511590179003
-0.21978173139888213 -0.58918476619604832 -0.23937204061982698
-0.95619562551150139 -0.67073573781029694 -0.40267274561799482
0.012902161688360891 0.62830464449059953 0.67920813848618167
-0.060518793621819 0.87562789772413119 0.21893087143258327
-0.62961814681054307 -0.60482156060157521 -0.22289665347921783
0.51954537318880156 -0.13792260451448524 0.72473573248289824
-0.21393607873563525 -0.3183456816732706 -0.58516710829406193
-0.30619824087525238 -0.22261264034175277 0.79889891832815607
0.40790672486993529 0.79751582703487145 -0.31291538213560344
-0.27307809930850979 0.56508520275968177 0.77915157697301041
-0.63898863794382521 -0.7593723599982436 -0.35800266351398591
0.25784588830008026 -0.10938953642774507 0.79222413095180855
-0.36515949863943753 0.63035876667623469 0.64948664459274852
0.50398197928207367 0.88206708895141883 -0.35574447348797733
-0.72487415983877845 -0.39888298951492818 0.39657107386956625
-0.11388231346472111 0.45182782010734535 0.80398293463702331
0.66517459579021221 -0.68200823397438093 0.49948536394328968
-0.47493187842025186 0.16196309371814177 0.68949582656748731
0.57102594455101574 -0.37509979347031397 0.73680105574414512
0.64816609768168476 -0.25786393806354813 0.7296819853040688
-0.26505230894363052 -0.26774420289873913 0.73165862432851014
-0.76094640900444688 -0.42415994898747655 0.56713052183348722
0.12919396323922427 0.48747859603175669 0.69244991863021355
0.0045430877293615168 0.52227934356167349 0.76412478559751307
0.13633435969779484 0.40506825294754112 0.71433590600214814
-0.23007960575683306 0.31690560592252925 0.70218867018787989
-0.15725637743140908 0.71993949244141042 0.41966013684299952
0.12666357994397792 0.60113627474138553 0.56596488342932361
-0.4570890588531924 0.48413950272873585 0.70266893460521374
-0.35184873257960092 -0.63367379745071784 0.012552172897162706
0.13785449906566427 -0.10618812605451833 0.80841937446744794
-0.96270124545138636 -0.78931877050303223 -0.40476578095258375
0.65654887830889663 -0.46381871621929704 0.66077757088311984
0.51095635113511939 0.67819944965609569 -0.27854934770219586
0.28767199869927929 1.239548780658323 -0.40916422126372964
0.42164028187486124 -0.23751736389595202 0.25458063948901355
0.373999023337662 1.0444402379695212 -0.40916304088468536
-0.60321658625412233 0.36103605750294232 0.44071436626355265
0.55257211805053963 -0.26943723867837832 0.7366159029690813
-0.47689466099793165 -0.57813043422235566 0.48690469581689655
0.36071005095220343 -0.21466718261901629 0.74299717038870483
-0.32416913426196636 0.76582025557056888 -0.5083190134986495
-0.27956611774328444 -0.28952785773911671 0.72475778689405956
-0.64260534322589891 -0.9339084298990219 -0.4355272419363132
0.93175927779234158 -0.18755323101168209 0.4978256636723053
0.32742942313584678 1.2686634931562653 -0.43378440372608296
0.53271818771671775 1.0565491651626076 -0.51133241640446059
0.65754892220137151 -0.67465762241294236 0.47274277358934924
-0.17824003770588881 0.33941244631820133 0.76343023838730062
-0.6536018679711546 -0.60474918894529672 -0.22507927462314115
-0.94834192276809226 -0.71501626027558984 -0.36478729213483163
0.4131778284234553 1.2448247676629913 -0.53605785820555951
0.49414881180902981 -0.39689937867086744 0.35275620624213033
-0.6538325194271799 0.092471914062208782 0.80819797512545577
-0.18574708568135634 0.51758587518291677 0.75423217912547358
-0.087010798407673562 0.27088606403829729 0.74858332353632306
0.41557428804680185 0.94125383460318091 -0.39066334291797489
0.25872413732432697 0.82527276922186221 -0.28318394012222825
-0.57217251262989777 -0.63723495218062087 -0.28422813897090293
0.29353067062312554 -0.043452124229552247 0.74937060050633164
-0.494037373970734 -0.65860240549728921 -0.31508347349816646
0.62489734355343352 -0.42049106447371543 0.70928047545987383
-0.47292333106940276 -0.10467904490389923 0.79191335995153267
-0.41167256125510399 -0.36104019499388595 0.67508363093691415
-0.67839643775199931 -0.95972824957942127 -0.45002784914650817
-0.36621929624069693 0.27646198575330594 0.7712594559861472
0.59837505473289987 -0.43885196065232446 0.73189987449771365
0.75008346862912845 -0.59544361903366383 0.5704435318343819
0.32179191780164196 0.52775702157437809 -0.34880504064636497
-0.30648435540716612 0.21501120184158307 0.80507250728906499
-0.58319637895440479 0.096055553189525078 0.80959052162586076
-0.30248384202424639 -0.25359340149959397 0.76757527300361872
0.83839105988180052 -0.17308040940093328 0.41691941483894013
-0.58031894972010356 -0.31616204271389492 0.68373513759113536
0.25549936294480169 1.0764147171759353 -0.40112757827990464
0.61701300560781647 -0.68425452816208665 0.60546192100263951
0.27068697349386461 0.80471250809778283 -0.29306892593618983
0.17856060686991881 -0.19749621804120565 0.78706658655002215
0.67045105307746411 -0.53317990135029802 0.69703226003232288
0.044562824882723007 0.31899580573889175 0.76370935112328908
0.12164525297508533 -0.18523141177378477 0.80089559832542179
0.88970887488579109 -0.16174124601658058 0.4659495701789389
0.041707947554773028 -0.29199272354351002 0.58256716812752884
0.74270595480378176 -0.3986707489722372 0.39287182154964739
-0.38683163508299501 0.46996415590232665 0.81903563886096009
0.14893628063122399 0.8021612366902513 0.56489846563824031
0.33987935761872201 0.90242186640203492 -0.34405359991889739
-0.29420690399196658 -0.054929364040143369 0.75827139972201607
0.3712449274963614 0.52076970517444465 -0.27522702290383805
-0.37499878124892305 -0.53092384889888145 0.56261021769977404
-0.37079253671637247 -0.76900409102781975 -0.1831547942507008
-0.38508745393317056 0.20854759226769737 0.63750626559020063
0.4806854712074351 0.81077567100082337 -0.28688216070125705
-0.23787978788037201 0.70966613904387543 0.65930840634761267
0.10326478706988773 -0.18250285212252493 0.77385128651703639
-0.34204330358294399 0.12805844065366223 0.80176198834766055
-0.37422878535128312 -0.23598076245807853 0.7972367706804171
-0.19114400391284825 -0.1848521966162302 0.74427530305717937
0.052017748958803622 -0.35570206706767049 -0.41359477722435756
-0.094744547539026058 0.97420670609554438 -0.11194959775257018
-0.75641149897840521 -0.64958765352634096 -0.28092737947228841
0.78061382599046603 -0.26828488358621527 0.6977367825526315
0.8709709837797277 -0.38102811444658169 0.62304915464519439
-0.65102183538920144 -0.5516345815463648 -0.37877698526876102
-0.74652206733292203 -0.8410369983509467 -0.49532124327819105
-0.59798056756133633 0.72287822267527702 -0.28981823645779059
0.16122131952496233 0.82593242854359339 0.48934952841461055
-0.37602530584790372 0.39598568261846534 0.64314291222298792
0.51047853526155329 0.92067233355737166 -0.38539826640803554
-0.47368369294289181 -0.57633354150862193 0.39967665586899059
-0.083919942041536189 0.49456456422495254 0.79182027000204158
-0.78938408433156049 -1.0231492570386269 -0.42631783486377017
-0.43669677090460901 -0.42478599169007758 0.65270260391515222
-0.33135587462261107 0.31504760754153516 0.8149179571440186
-0.20837627891184773 -0.13683817848382773 0.73344456331201613
0.20858400230546614 0.76386636138495057 0.25090730889147395
0.78949022454131956 -0.30856182757348627 0.70086587369183206
0.17698211347398818 1.1463990794176873 -0.32241115693544131
-0.099837548393795217 0.67750458748055298 0.72124161674441822
0.85342030647726119 -0.41256994490448573 0.62672039052115736
0.73393365790722065 -0.31697952895340542 0.66421172295797959
0.10125832257065426 0.83572950862405815 0.2134794271743452
0.11186927760851972 -0.40853054460090288 -0.14785254061675701
-0.27658648844491651 -0.71493744297862971 -0.19083826966508965
-0.27972554205656763 0.3338894863464823 0.79276722120123821
-0.2115007322397382 0.48675023947452178 0.75846823250235929
-0.23467267229969835 0.96471851500185046 -0.11584476260258825
-0.59877854275964992 -0.402159796141218 0.6516152155161663
-0.67468836955599443 -0.28260420825549026 0.71297918307675445
0.063567457156770146 0.49515461954662587 0.74197402826434455
-0.81516556177839128 -0.74885017479528049 -0.4120108789915129
-0.4424872509540041 -0.26390864044891771 0.76948250948382224
-0.22818303059038847 0.36249289333998114 0.71912487170996542
-0.7188490336275617 -1.0000731005331911 -0.4049937391817906
-0.040662122567498571 0.46274169142917376 0.8001017415641023
0.81943174518810125 -0.11768185180926238 0.46806389269340798
-0.47905819912774206 -0.37950776858464152 0.67584252421207225
0.64947173410882186 -0.028344593166625742 0.59411621332301934
-0.72491489338188408 -0.33820039923982037 0.45566192849694076
0.21181776008513786 -0.07905340615390255 0.81178527657993627
0.060812512186100065 0.39380855603674281 0.78688032261073104
-0.061340455895081192 -0.47110968286251964 -0.21153733205095548
-0.35149235626782627 -0.63658940613352488 -0.078331086951788365
-0.39090912771361808 -0.01442390329465848 0.76861809568957895
-0.73335697639112851 -0.3379245289996895 0.66903675403266405
0.84642034484604167 -0.41895376179529453 0.46480839549471753
0.35925233498355524 0.42690269359596389 -0.23944857113710327
-0.69259768548033662 -0.70989558102965322 -0.35070840259896841
-0.2606300461488722 0.44320582435625155 0.66989154457741762
-0.61515505675543203 -0.2351483202786806 0.70760283784077416
0.54625926087129706 0.010103274995616474 0.59682668380562021
0.18609714410106015 0.69895249110271074 0.58914559197762983
0.30200184352533732 1.1177707507778756 -0.43496642193310819
0.44398217734212864 0.042202363154348888 0.49082019771923413
0.61052229860808893 -0.44891330992334844 0.72860524294959106
0.5228298508664988 -0.22585319780470403 0.73687298821153391
-0.72744899637157268 -0.53499261956339517 -0.1537049661523362
-0.6188398508026971 -0.64776575600149755 -0.29580259383697438
-0.094830832417283517 -0.43519404977191378 0.38301208505050965
-0.90152558765949919 -0.13643034382190677 0.13781025106723632
-0.54585606809768805 -0.046802353969766841 0.75593500641974387
0.0897589326853101 0.55726840093087127 0.67032768704624957
0.65138189617505304 -0.6161383595040455 0.43094763168518924
-0.097966532231739123 0.86584494996637673 0.22393990353233306
-0.91613981952363233 -0.73054939240690864 -0.37082769409652627
0.29443170637946281 0.67254406821027679 -0.37430879110305426
0.29180656328169974 0.13175097790466062 0.4899711951717336
-0.50891558294620687 -0.31791296079565257 0.67343477964080023
-0.42635162336314636 -0.39847780198903582 0.6714109910295285
0.39876012975184238 0.71979067352331505 -0.27087983641462188
0.46574035827037008 -0.010173165524495431 0.3775827754880865
0.27534982090528715 1.127059059647495 -0.43180128707054166
0.085383531396502121 -0.17056661228010039 0.75426349368716927
0.29721073657798236 -0.15722870880290341 0.74534109453692565
0.77521804567162 -0.36830900294246849 0.69698210312072106
-0.11259436929593925 -0.057827229465933883 0.74926024977965966
-0.34517623456557267 0.4783323587281636 0.53678981699032491
-0.88356281736887254 -0.90203790986136845 -0.4540830525701125
-0.29155134025143425 -0.45328834336278501 0.62736246550312913
-0.66019980066548278 -0.85616234957979209 -0.40194907775041244
0.022018574935930957 0.6688705825883412 0.66985776996693502
0.1938806981192549 -0.36430024714610632 0.63629255012915209
-0.27288345300136818 -0.17101740501915685 0.78410874062920755
0.67616675440549301 -0.6527117241819127 0.60552417049128238
-0.75754048552323638 -0.41925332954320638 -0.36988083424649432
-0.32981534216485997 0.24561406483433146 0.80146848502701218
-0.43264870936636157 -0.78923372085367305 -0.24618750438230919
0.26157168077988402 -0.29612302202793384 0.72545237141937946
-0.82975293648360982 -0.77502915461752497 -0.42615654498670352
0.21265731615398664 0.19593267135821613 -0.57781965275212599
0.71048858968045536 -0.51119119222441878 0.41523042478353744
0.076588461270629793 0.60393820498321293 0.61784575282155885
0.6205082930731276 -0.44572784740665927 0.7078204424476553
-0.19490639303945123 0.32752904792522752 0.77477605961473017
-0.46206589761247585 -0.25583357996115907 0.76403522408262248
0.066438896530852887 0.39177498782854947 0.78193250225696787
-0.37559367004514321 -0.36236536123869811 0.67905945323154882
-0.74117492683107855 -0.4531584455111517 0.49373216705448897
0.16708790779487614 0.7930959612367392 0.27651517100114376
-0.081693646729128488 -0.35027897935237906 -0.51882377552818326
-0.21554089569871593 0.52345690956733737 0.67547575926242942
0.41318324539360418 -0.2323046821116046 0.22653800691209369
-0.79502004432305817 -0.48227399686537975 -0.0075878741196007127
-0.33685740771058725 0.027168976781474008 0.77332839721224289
0.47675018180415663 -0.54974539433734915 0.39862193569200954
0.0083088944422318178 0.93707450586556895 -0.19885490957493701
0.28652782895015605 0.46311164548865946 -0.39435809676038502
0.3371943483666584 1.1247897397589872 -0.44387434416104909
0.72495874015919171 -0.31565750379423552 0.66626494042954931
0.67983391536482074 -0.61010486037187572 0.64721729720106325
0.39019909841615785 0.53543668958371171 -0.095784369445862438
0.19846478935726353 -0.19489221140387336 0.7768261544508519
0.34858597495411203 0.21803458626540895 0.30240180296569008
-0.32842255309467028 0.84025718165848851 -0.42336793924866711
0.034465587840939449 0.40518803696514727 0.79630569576249499
-0.70048040141757539 0.63694883243213596 -0.1048322437841307
0.089442560616001643 0.58617080154493095 0.67110745649765846
-0.54447916771775517 -0.29312175513568128 0.68119913248870034
-0.75947343352439667 0.34183232341726644 0.30994273755209178
0.037863995735873957 0.65424946349331314 0.67119103827625892
0.30309868629315062 0.10093971693725923 0.49017568008314427
0.22288308699064352 0.012385521316795156 0.7533288273290708
0.39157012404801783 1.1678220158366805 -0.47829013490460426
-0.8208089444956137 -0.68211512884008485 -0.32978183044496134
0.46346545374535708 -0.16212721630598814 0.27689569889220067
0.83763353687336384 -0.19696129971851217 0.6509393967548931
0.59731547797364115 -0.22800695046174368 0.35547753477342425
-0.54548886152912779 -0.39337507323033094 0.65803470332746272
-0.92221660433496666 -0.76816698593001043 -0.50207041810993047
0.56158956238923352 -0.47954353386454152 0.7224111722786688
-0.55397834884182551 -0.37074116919216138 0.66689219205872874
-0.56741327994335933 -0.5461405641103303 -0.40950777125656046
0.68556606298772138 -0.46831663611143348 0.67725653505283034
-0.63366215690342642 -0.34499197651440383 0.67525151828272101
-0.87668126986892503 -0.90969335707575638 -0.47374801486622431
0.6265185145818144 -0.40135779650249059 0.73096317995752358
-0.35833294898746004 -0.63473395427635104 -0.13519444243678436
-0.11942301671832922 0.75044078479123133 0.39459355387256423
-0.48684299540504483 0.4186988592459171 0.48863972069714023
0.28905948517345514 1.1508334466609123 -0.44095020159682008
0.46558060281724956 0.031574865276650321 0.59640957090295288
-0.330683597334545 -0.08080230659816845 0.78923016934702162
0.11671865808125403 0.49328565342238484 0.69436645194891256
-0.098464996431101071 0.44390946803119036 0.80705026706005611
0.30224645797633976 1.0172994688383596 -0.37707146441303863
-0.17273191746080307 0.51027610214978836 0.75725842201909899
-0.3137596632246229 -0.6405966535019747 -0.13158344657670895
0.54786552413917633 -0.47603659255396735 0.37444410445898058
-0.13742064391666275 -0.29778436359119809 0.70162046976588499
0.70103815155362881 -0.34735438365429072 0.66957982209845923
0.03813996869163816 -0.32852454294262934 0.47572534130259569
-0.37302078152081641 -0.39657273758707312 0.62948903124814493
-0.57486991298195633 -0.93000886889371692 -0.36007551313265651
0.34686730037145352 -0.0057900100846621783 -0.35086678820718831
-0.80676870272063006 -0.77833913611551964 -0.41145014630009769
0.74930801605028918 -0.38357754402138688 0.65246019091128815
-0.15919999141220664 0.38785046120547495 0.77617260832317925
-0.0097412005729289319 0.39954615988708131 -0.67718707994658089
0.14282803472919881 0.37283567651161587 0.71489192357775266
0.12369141705735665 -0.2535333100671151 0.70322771664411476
-0.33451164320581839 -0.80507590590471079 -0.25840622424467696
0.10799978767337137 -0.15343691639315082 0.80622316520893733
-0.52490280573651305 -0.10650142225379788 0.7502907254024187
-0.59333412292287413 -0.35004072945543641 0.66775086364832958
0.385286486584004 0.71972207144470346 -0.25682937645681747
-0.025179633780069821 -0.35601287075345667 0.51944132771806295
-0.76191120484040198 -0.51168518445850353 -0.084762925365495789
-0.72524398536152823 -0.55698539216966214 -0.21313638367372079
-0.4095322291947916 -0.02051370359318927 0.76396387241117125
-0.073552551450642767 0.26063600755249894 0.7542992473486656
0.29913834887065072 0.8344369659008386 -0.31500202391214671
0.053743828802456761 0.86553228415661199 0.60553115981318939
-0.44712242125353008 -0.44165715378187809 0.6423012486826245
-0.60500511983432226 -0.9850223402788334 -0.37203392088474985
-0.61121023962996546 -0.047559255166316206 0.7636223173326897
0.0021659542097154372 0.51618570169099165 0.77000019132776387
0.42971794845940536 -0.60419651621070436 0.52509910680093697
0.25774895217641358 -0.00088988291338054637 0.76249502760738963
-0.55634530489144041 -0.25252688409797752 0.70483491962142253
-0.059428164838472242 0.53766598141904343 0.75150380732092614
-0.41557523070007818 -0.76980682543093426 -0.36594042504562552
0.0070449743615430549 0.52860921073451816 0.7514689674886128
-0.24878918052130317 -0.27618289696333775 0.73524103681707942
0.11929649905474093 0.40720909417791074 0.70739823635536325
-0.56578722482625565 -0.22816349932004876 0.72362203272088266
-0.51092126681928463 -0.60790341220413335 -0.13162547545370629
0.17261730494772998 0.27680107666374365 0.70453435558014021
0.028820657613168876 0.62583364062400015 0.67581139982155491
-0.78642995594844933 -0.6007374123888809 -0.23769356938913688
0.10060230104100221 0.53502552776518364 0.67501343451835893
0.40414447617185978 0.59986039974691163 -0.29451695532706523
-0.1393050952288597 0.75687578090727037 0.59772889185913769
0.31320530629440668 -0.50980311441692105 0.53110234285184887
-0.90667860170596981 -0.13480341861253908 -0.3253485961385536
-0.90939073216970279 -0.9984287470624067 -0.52297364327696982
0.28765799110841428 1.1796407307804291 -0.42045069122595535
0.25480963153717973 -0.019545770071313306 0.80167688585617469
-0.37218877722258448 -0.41213783735333731 0.60300840182255655
0.18557951488311097 -0.12212506011747326 0.81283958818071866
-0.66408333461994751 -1.0038433630108656 -0.39320497867713655
0.83818696043540797 -0.36921780938725757 0.43572837821606214
-0.44741667430853482 -0.35205097602425983 0.67593185605915451
0.48921238875949768 -0.18276414238609995 0.7363156781368474
-0.44852504933334103 -0.35890387160148851 0.67824831819351061
-0.39840230214575989 -0.063742078274582781 0.78808553556550365
-0.45125235362105443 -0.37353421929433761 0.68012108204369781
0.29775832090938614 0.20669000594101394 0.47377106385513557
-0.23498653374999456 0.68508788612065441 0.60314314745632203
0.12197178834402678 0.85457725682780694 0.53890247860610785
0.19038599699505809 0.78001872310793097 0.41385562134620812
-0.3672837517838019 0.25070736335018573 0.68889241792980727
-0.20263867384334944 -0.48678489616973053 0.53836150984614406
-0.1733849120016604 -0.33970741019483963 0.68249951996976677
-0.52166922374482283 -0.36436564302245955 0.67603378437956252
0.10161910460627155 0.59947960584248339 0.66924437642466827
-0.89479271765249813 -0.87953149908544326 -0.46317550502824645
0.031594659430073335 0.33929074784618418 0.78960135914446994
0.4624374166290437 -0.52725270159798132 0.68539078533915543
0.30917488785033775 0.74868975687510186 -0.2833896184039304
-0.48116778481436384 0.0066618876178097253 0.69210548153451157
0.27342529869325816 1.1560246472323517 -0.41662554539600194
0.50888761312314656 1.0405056648903876 -0.4189032349081252
0.11627833157499623 -0.28729985009886239 0.64210871986039209
-0.25903295119090686 0.43970104015742351 0.76961846037852055
-0.61566108605055447 -0.076217509049472554 0.75703726466239729
-0.5889359897505777 -0.16043659847635183 0.73180511578931373
-0.57290995923063193 -0.6415659919361163 -0.29662345805029844
0.56932878051666691 0.83696601238424861 -0.39032943378822083
-0.23429882494168197 -0.19849998536233304 -0.6492780622532095
-0.65041814446389168 -0.54771138230333527 0.46522549015068293
-0.84196472846139869 -0.66089478984418548 -0.30184985155702648
-0.85998823835712379 -0.7790790137215069 -0.44376721828579946
-0.37306310440062518 0.20819670403599488 0.74145406137063219
0.022918940905601204 0.30541043441258697 0.7679461697863772
-0.15204562988813919 -0.30265952696480447 -0.5892473555258313
0.36232446246403249 0.74929407338603404 -0.35124009897733188
0.88338321414100207 -0.25077610711154907 0.63683391943387591
-0.23600300932586116 0.70325670687062658 0.71391157553269835
-0.20975575935654689 -0.35328718455100638 -0.55361128847652452
0.76516949138913404 -0.31931552250592699 0.71012202686730674
-0.39992651981723704 0.57957186890898527 0.6455833070462198
-0.18631217853407733 0.47159261493416427 0.73915368041405927
-0.26705182954553131 0.012079402019483432 0.76598232031610181
0.26739302296867962 0.059721963608444284 0.65439343880712642
-0.5951861299588419 -0.1967857601514158 0.72074102819637531
0.69836496875080556 -0.31749407883116199 0.69349302480141262
0.27590835308209627 -0.037404688560780386 0.78381687362351116
-0.60662434711053415 0.22334745676672441 -0.63316371563254137
-0.35666480483897445 -0.080529485043459026 0.80889609711644894
-0.66784160575961593 -0.57549090791859037 -0.16475324492714449
-0.63167956572541684 -0.61574237416069888 -0.38738053226886393
-0.37291572055217515 -0.74427364495522585 -0.18665744472029289
0.36663170589613792 1.0953028198786257 -0.43131405134593237
0.28004397042075446 0.75633102465196078 -0.26931977258378126
-0.16973170714885022 -0.17106755413765917 0.68964113170758168
-0.29356609312990933 0.49390914050118973 0.78108887974756058
-0.69309849342501906 -0.49144072416661455 0.29903078411458139
-0.070339071029469125 0.58552968797877369 0.71652964077824066
0.57268567191514563 -0.13745643062136104 0.36498861084182366
-0.65576572045437764 -0.32133600692598385 0.69272788733421109
0.43189171096345547 -0.54613772634547075 0.41693389020721128
0.12333202185978642 1.0562268792732867 -0.26564835223397765
0.29998830814226451 0.76147228094202202 -0.29807280986435813
-0.2556558057275744 -0.67415994769884779 -0.18802357818877979
0.49296655749062346 1.0025230932377172 -0.45394359380636118
0.17455489818606651 0.46485681860801975 0.67562625023797196
0.16985134340241892 0.94086441535757626 -0.22419840236117139
-0.61010516759971978 0.17989633365583035 0.72248698894564711
-0.49595162802233617 -0.64795093081432231 -0.31306468581822955
-0.71135237098649107 -0.23156097604245574 0.71979086211529619
-0.043837827361588921 0.24461123279250074 0.76230835399710628
0.2393766541629887 0.009107782123274788 0.78041326142051304
0.29019195131616726 0.8121911910009274 -0.36411667116075108
-0.76422896408231722 0.54585288677317489 -0.1097970614820909
0.14490959977474205 -0.31523378420068315 0.63460468679187088
0.1793594625774162 1.0098339733170896 -0.26740832673223025
0.59144102727658066 -0.70391240592929094 0.57908674250445813
0.004903537905850186 -0.29940875154070934 0.6154096392193793
-0.36960443880344229 -0.63252158670150216 -0.14611468361371749
0.87189105747704687 -0.23217674611485783 0.64086550093596983
-0.30722810202495054 -0.01484463937759628 0.77253504956450669
-0.33209719298560003 -0.63580234956287374 -0.054038814919845635
-0.47248169186764244 -0.57905300692485273 0.43308160982221722
0.74971664969704754 -0.32877923404473819 0.67021133928425769
0.39575430843310855 0.87501930915436787 -0.34578979570914115
-0.22836173690977013 0.5298336240078374 0.65339107641864658
-0.34513788933145584 -0.23311157732557852 0.79940637919883528
0.11505106724029091 0.35371663438362688 0.72852875715830478
-0.41161903575597769 0.1534286662952189 0.80286877032435555
-0.85471165358733892 -0.60331170838408887 -0.28259292951099368
-0.14311706924326373 -0.40691329424278688 -0.451836462747643
-0.38934842671522674 -0.24199336206178046 0.79334459436919857
-0.43005521008080905 -0.098634194542213116 0.81174203023464742
-0.36568654013018609 0.29228168807037846 0.63801809425578071
-0.79463071090406778 -0.96065023509306613 -0.45114154914417171
-0.33418871796315308 0.189938130895837 0.79754720548218216
-0.52957467357776622 -0.34469775397325897 0.62419467799945139
