# XYZ point cloud file
-0.55287165930502979 -0.024699539397898818 0.6585633583465853
0.053251089060159629 -0.29408472788776141 0.51874403320329066
0.51530085838232598 -0.042450354879301599 0.38226642909659425
-0.61218354226156446 0.033585429678609557 0.7847560396610902
0.36285467257752568 0.95907114270254823 -0.37151132764507366
-0.97158343358966093 -0.68908255210681535 -0.39407799684435929
0.66693860688350437 -0.46046663782876296 0.67465374498183461
0.38907982200027291 0.72587510627026797 -0.26973458763783409
-0.20469235993996904 -0.33491320442522765 0.61542027638113161
-0.42632018873752831 0.19451287669573447 0.61726281646467207
0.2802905169733565 0.75984337545286351 -0.27606505217923072
0.31623231230222615 -0.15975605849874164 0.74014608601973553
0.39324933714355037 0.89291212661038877 -0.35348007220933475
0.38960653029947778 0.67153326214110898 -0.20209248943169111
0.42374618686901044 0.7269006010069099 -0.25870827718262479
0.76012015215686635 -0.38938384707976725 0.66870186532840226
0.14934540790654527 1.0302869038449938 -0.35953079238958896
0.056921641706142445 0.89211500550985123 0.09681079366557821
0.48409452994657176 -0.52377234599210842 0.39150784846686637
-0.11738167035485247 0.9801168004400227 -0.21657535418746843
0.75213734327942205 -0.29961524944180296 0.71169294735175104
-0.75443546340433265 -0.32695723741845817 0.55917147803519285
-0.61615328502898148 -0.18723361048210685 0.62288674933957999
-0.6562194565451076 -0.26321243198288236 0.70573067360617436
0.20184879172720471 0.023789804326659336 0.74580180665372708
-0.49086175234134721 -0.53413415300750477 0.55141855567023867
0.31148103054366594 0.07192826536769692 0.54184186836361192
-0.33974956586066796 0.20319362640715122 0.78505046954389179
-0.39413420793064002 0.18862382859688998 0.74478347417344715
0.77214303682438779 -0.39076507365541957 0.69369509597394519
0.13036985176387095 -0.32989900804859262 0.57083732694295364
0.84909025462460264 -0.46400267791043825 0.55207980830475289
0.49379967193021024 0.83339632978943579 -0.30495196225389609
-0.38860084734375455 -0.49787766928889421 0.59458284073401479
0.36367557763258596 -0.012075948138294823 0.70010008197884144
-0.78983675804407483 -0.95372163807280952 -0.47144323787034104
0.65408074199913635 -0.085687085301238586 0.40720732984967345
0.36005408476806622 0.63848991886906692 -0.16023686136479132
-0.72294137008029757 -0.26218715260176839 0.38623346980028117
-0.077716172731449262 -0.22491471836426835 -0.63066280243428352
-0.72069099193468666 -0.53526197836298262 -0.31555627978077538
-0.20390535330671966 0.75099549033938873 0.34464245735753352
0.26428491997476122 1.0945354674659253 -0.40550215908038556
-0.63647247308307531 -0.043453955880829565 0.55626398550060152
-0.61144239520371357 -0.97241017956695686 -0.36081206313084913
0.34307071373239229 1.1630664340106991 -0.46045429729227294
-0.67791603374309073 -0.11139153602165719 0.53575847213253525
0.44991708849461887 1.1742205093229863 -0.43393493066168443
-0.12264937681465682 -0.026395505015591514 0.74721432417124056
-0.58860125022648724 -0.21846277627190647 0.71216183989000115
-0.17018883359711268 0.33461598221833366 0.76844837853283465
0.063504422799382176 0.85646742945903043 0.58070181048560077
0.44492259450954386 -0.09940296533674875 0.23384077828225358
0.53298650142660886 -0.49280379735946234 0.71795821396231752
-0.41242234649036824 0.59061904701438683 0.69353964276393043
0.61975299152436225 -0.39076189706286391 0.73509556323996605
0.10824752489689793 -0.12017364533392128 0.80200043705664825
0.24635917111549865 0.012417085856642807 0.74168004500045637
-0.4320354327846605 -0.072208443354837115 0.80455116682016659
-0.47248599441203076 -0.53745280712495624 -0.43316559373458219
-0.61361546647222021 -0.66067377112432579 -0.31526312100853104
-0.21659184573368506 0.46915280239992008 0.76181452811929162
0.12786399960730321 -0.16859582078788904 0.80547249235086404
-0.20468593343724795 -0.38267002721808696 0.65645087448071848
-0.36571429593824778 0.87567327083542223 -0.34135879331260632
0.46161368296681626 0.82763571606754649 -0.33343788397219765
-0.61696669162173023 -0.85779100649639406 -0.46351650540198719
0.36697190611740993 0.30817802778721926 -0.18281140364591142
0.7171424419263257 -0.5030643725336561 0.69383221272692897
0.1516242492933495 1.1210803135064356 -0.30060872367399849
0.12744665524467536 0.72936875905471799 -0.46045480832430297
0.19949751178561126 0.032675237205177954 0.74719394107463
-0.15005728384985417 0.5986401245605566 0.74048785656182048
0.22366337327212626 1.2325620413389005 -0.39552224670949432
0.49222908971484447 -0.63355082730346979 0.45460019247886763
0.22127010138762415 0.25673796632996604 0.67526261835576218
-0.50241346598724235 0.11589060429082521 0.81031788228714952
-0.51085673606608495 -0.34019304938403216 -0.55324071653529572
0.40339681625296286 0.67585259904919393 -0.1952912452459703
-0.2791989616607653 -0.15882165961028694 0.80124589561589588
0.26846426256020628 0.7692681409643134 -0.24979822615567038
0.17559795787733101 -0.043150008370028026 0.80328204084734445
0.047693109819485713 0.41964526892394005 0.78548810159501592
0.64004928916773274 -0.455128550052462 0.71564058538604236
-0.40073766449318615 0.033647821623213225 0.77683688233322989
-0.022532344215418831 0.94634588680032627 -0.27600723897418611
0.35381546163888977 -0.3698445228952334 0.3259651111069406
0.23482649875102801 0.92363249768344824 -0.29654444894246001
-0.38834721490689894 0.35739812211668776 0.69986815650261835
0.071044357664215241 0.36416354290591224 0.76856897921138145
0.15142815342747973 0.46089647545566415 0.67197787968069189
-0.66626248919300579 -0.96857738645594882 -0.38944856727056809
-0.43303033144622827 0.25044563715846246 0.59881513789430407
-0.75045280594040165 -0.22490780465424376 0.61897161800280642
0.31090734894613181 0.41420356572837047 0.55390134897349874
0.30287393924497863 0.2519800258804028 0.50857966613687378
-0.72201244064366321 -0.46061153385535519 0.44502911409595569
0.16725250929442836 -0.075547518810259007 0.80382353408212293
0.21395472758677059 0.98126815684890856 -0.29376238800203147
0.28580047962066324 0.10319330820821637 0.51197209192983895
0.11826329324782492 0.81558189699098138 0.2650743306351071
-0.19787278793273622 0.43208895613981291 0.76887091233305682
0.4080991360979036 0.69251441272040815 -0.21632839983873886
0.1492564651963626 -0.073297020369752719 0.758874638578801
0.90605295647792605 -0.25329439709606882 0.43365854922240388
-0.91218652571892278 -0.79348209778208334 -0.43305948321503784
-0.535987032901863 -0.23816896204732685 0.70358487837152062
0.22086057884727861 1.0817230449645536 -0.43540565689371391
-0.22392632831855863 -0.59895190156678002 -0.23237991270056568
-0.95057673021096356 -0.65551742630410192 -0.41411351494459936
0.023631669850135317 0.61746331851867975 0.67673619837638466
-0.051937990747855878 0.87111676329978094 0.22865768253432961
-0.62824726842093348 -0.60109658738396909 -0.22140057527044554
0.51937017680078323 -0.13246321488433832 0.71895336550443201
-0.2096287377685826 -0.33411236060167082 -0.58285130647858807
-0.3033906107729063 -0.21016408135723141 0.8010126171395644
0.40539788912071906 0.79406178682673501 -0.30988164564239984
-0.25475554268868006 0.55774661936980641 0.78022419867928061
-0.63737619939454682 -0.7572600307588937 -0.35529565440127442
0.25981684402968508 -0.10214698406265033 0.7881016371553704
-0.34667818963228392 0.62579542097799212 0.65492814521141618
0.50159456340647246 0.87583414992157849 -0.35412851574662962
-0.72847159160509634 -0.38298876119169456 0.39519739695738565
-0.10014653028945286 0.44558946730669247 0.80142284482224291
0.6554934748662733 -0.67810209442829983 0.51000792994636779
-0.46394351277205015 0.16830429649681533 0.69163452846908413
0.57003417609259888 -0.3654735020673523 0.73738468838976168
0.64821212454605881 -0.2514611004027012 0.72610456455618522
-0.26396139710641453 -0.2559916307125305 0.73552306848080562
-0.76764639835991488 -0.40421445690599977 0.56397650186021764
0.13604399273650092 0.48022828697300124 0.68667848245638208
0.015853355404611413 0.51324285132045944 0.75956887092681047
0.142736910352947 0.39994976534440507 0.70834656268451823
-0.21825805799303932 0.31701233307479981 0.70466389945869512
-0.14581821639022774 0.71565582569362007 0.42790009824356101
0.13240301384589159 0.59330058452301593 0.5632674644165574
-0.43943526640270747 0.48385880307122875 0.70570827453475626
-0.35812397673741181 -0.63401487411936741 0.021427018606296144
0.14088247936655485 -0.098383338585359859 0.80561022489417855
-0.95846100614712704 -0.77253263257164706 -0.41351375967763282
0.65367579422595679 -0.45610991814075241 0.66432049513691194
0.50557908764030035 0.67425183594746518 -0.27876723360206324
0.29504636994907329 1.2258611386712706 -0.40217754009218076
0.41279221335871252 -0.24066249264267014 0.25462698182389776
0.37617641977380334 1.0363709726367751 -0.40394436827490576
-0.59117594593994838 0.36985096798514427 0.44309190485660643
0.55209445879830454 -0.26162515387237928 0.73395622031391738
-0.48544925786688609 -0.56438137305517211 0.49420612015470056
0.36039162544260606 -0.20638266484028822 0.74061140152228688
-0.31422594107523949 0.76853587381857402 -0.50404214899893951
-0.27906848387100514 -0.27737101087663918 0.72889136403911259
-0.64280051900177071 -0.93207102058188918 -0.43019647341390055
0.9279421893936286 -0.19071778838897924 0.48970098320742839
0.33520648039173384 1.2526860470116037 -0.42769827435961538
0.53426502359235073 1.0440001587794716 -0.5084248165735179
0.64706769247030049 -0.6719205894179141 0.4825417711886919
-0.16581887348079238 0.33773997676911938 0.76358449540902384
-0.65199840401591835 -0.60015422091415971 -0.22431760402991863
-0.94425890375623389 -0.69912501090064083 -0.37463585845643976
0.42046988131244323 1.2276612615497775 -0.53101926940603406
0.48420691642457925 -0.39824219309743469 0.35443156602223613
-0.64437002128432219 0.10356276399184594 0.80366893745348911
-0.17050145711539599 0.510992783692235 0.7546731210791604
-0.077380748003428756 0.27040773024027587 0.74780336623020549
0.41534108994700603 0.93502240325564845 -0.38662076804066725
0.25869201341435222 0.82377978260604912 -0.27705273262451069
-0.57070606888715503 -0.63673834980467481 -0.28122404251927691
0.29508233273979112 -0.038300947147198006 0.7444382518938939
-0.49339581020616308 -0.66156693973850356 -0.31044210896374835
0.62336949627261529 -0.4114988176178267 0.71137863830783132
-0.46734382686551079 -0.093098806474597229 0.79228600317084208
-0.41354518938603491 -0.34727032454394013 0.67963083086970499
-0.67822416904195215 -0.95626080456999629 -0.4450590614637342
-0.35235826072464249 0.27844215778840642 0.77260248645653462
0.59709037849326752 -0.4284761326754789 0.73469061338728725
0.74464285942425512 -0.59104702425610345 0.57835825713560585
0.31809667963902299 0.52367162563103697 -0.34589709230303356
-0.29385869896643957 0.21749244218611663 0.80541093246995654
-0.57287239886449903 0.10550335422728474 0.80710657867358115
-0.30073078914327844 -0.24110604779204792 0.7705748912500745
0.83173466189214373 -0.17647691593464288 0.40916548656545615
-0.58190090277734896 -0.30036467068706396 0.68479564911013391
0.25982498462273895 1.0695547094137579 -0.39343338185592991
0.60995459018363629 -0.67462292642882637 0.61748091685526152
0.27025885642619318 0.80316360214428917 -0.28723597167036274
0.17980025494558838 -0.18798644172303414 0.78570045702879199
0.66841745571684807 -0.52332079745035376 0.70351427497943853
0.052750219268276055 0.31623352685121464 0.75934040121127655
0.12356358970156744 -0.17557353571898648 0.79971513311052345
0.8846983001862565 -0.16483907819156052 0.45748291184043044
0.03929609727979777 -0.28466412788072493 0.58734865734880692
0.73355395880223462 -0.40180827825366938 0.39168060589322096
-0.36796455595082289 0.46674320285030602 0.81933349600753935
0.15616352047713367 0.78633849600584149 0.56029490486043176
0.33983494098505851 0.89841893790508975 -0.33889538101302819
-0.28779693249875038 -0.046769499753472221 0.76036703972461694
0.3664938141601608 0.51754880640606471 -0.27350820104758178
-0.38207750343047575 -0.51746647595523054 0.57037809874433876
-0.37744290183975338 -0.77338386129011671 -0.17428726246029314
-0.3742797445170627 0.21308099107104894 0.64157446264294116
0.47731612089180064 0.8065035895119772 -0.28568711470105868
-0.2201177289033609 0.70005584847643254 0.66380952564659701
0.10487831414892312 -0.17334521604417841 0.77342828784412543
-0.33095191921561362 0.13300453765733034 0.80234728235374231
-0.37189065232288865 -0.22263031823991009 0.79915606233788061
-0.18821677436805917 -0.17501909358096546 0.74715879062206447
0.047528501655534683 -0.37419946503125645 -0.41150251869658661
-0.08632488161965135 0.97449743177658643 -0.099279245727781351
-0.75372247574341422 -0.64164934403076579 -0.28333957727322279
0.78105379583963686 -0.26425379496260337 0.69394183282197641
0.87002967496706685 -0.37923824715814547 0.62271137692426226
-0.64547654846702152 -0.54992564745171824 -0.37972503015718928
-0.74144078421805126 -0.83591470118775768 -0.49477697142001098
-0.58666117788099292 0.73405005278762414 -0.29303047203410415
0.16721550060229173 0.81159020451064867 0.48636888986852256
-0.36187280234619212 0.39710505186417722 0.64767016160532886
0.50878053097598652 0.9133578260057813 -0.3835119928747428
-0.48149119047674382 -0.564920707360276 0.40729065398931041
-0.070431687702784629 0.48679906866421696 0.78884268211166653
-0.79009409985469858 -1.013188917023091 -0.42267762285395349
-0.44065060499504494 -0.41001811952490552 0.65774213185239816
-0.31634369016012354 0.31523653874268787 0.81503847035799826
-0.20443988998569562 -0.12800726977826926 0.73628602044207803
0.21011410850134649 0.75870803944225695 0.25214761960068977
0.79007832925240962 -0.30406461383349503 0.69848058764067034
0.18343460897132591 1.1386009757774007 -0.31330950162385385
-0.084676127966331727 0.66504065811008184 0.72073586626831787
0.85227687017797038 -0.41004753102420777 0.62769532455483024
0.73273276394607745 -0.31232570420435612 0.66230194851014623
0.10546891385351564 0.83045478970353592 0.21870816213222977
0.10357216645730105 -0.42144610129189053 -0.14369072606972644
-0.28333043068977304 -0.72238801602820446 -0.18214046221871882
-0.26534789444323881 0.33313036911841198 0.79325122691818883
-0.19617836982932246 0.48135139026750728 0.7592099420326166
-0.22364237695869349 0.96781534064411989 -0.10268984707680762
-0.60321767642255786 -0.38505758743369944 0.65320807250862067
-0.67650939802150312 -0.26487715197448147 0.71064925949375635
0.072811364434214099 0.48705062969152335 0.73655822522868419
-0.81038815851646184 -0.73983050607007073 -0.4153746586667193
-0.44136120684790203 -0.24970353154064595 0.77146344630417119
-0.21536495653652388 0.36130514704309391 0.72115862777374229
-0.72062366523138977 -0.99354544740036776 -0.39986130405801568
-0.028385097982450702 0.45548864023660096 0.79585415251359581
0.81423072729988455 -0.11966116948815486 0.45955084960339132
-0.48181510592158361 -0.36444046404175579 0.67956614407843396
0.64699091088939564 -0.027075156805316691 0.58558965346263392
-0.72744380516316465 -0.32206694841063022 0.45368958683106086
0.21472837518032417 -0.072132910996812072 0.80735792078342783
0.069917272309218959 0.38830232734512293 0.78077106996588075
-0.066737130207238593 -0.48308087553235113 -0.20571044516325721
-0.35663144326794871 -0.63908274476344562 -0.07009309987799206
-0.38315368992547594 -0.0059938268143437945 0.77007926487289957
-0.73771724412196082 -0.31843437217994042 0.66543857725942424
0.83985251935100802 -0.42142883302453527 0.46408950357421741
0.35398690174561231 0.42330892337465698 -0.23830116346505026
-0.68966381853879355 -0.7055836681082861 -0.35030072764131504
-0.2468402937065699 0.44123213900273495 0.67360063540210913
-0.61466719553812066 -0.21970738863953732 0.70693765072192605
0.54404446909931625 0.011819572778358101 0.58921931923356041
0.1917611096717371 0.68633317416575768 0.58304205683376242
0.30671806601748308 1.1086274998131069 -0.42799437161250431
0.440604498899269 0.043490556463343211 0.48611006404691182
0.60921246465393786 -0.43861062155903241 0.73176578228035627
0.52247429642383914 -0.21858311676491038 0.73320206705171831
-0.72574601589329113 -0.52650654578982681 -0.15602443378285535
-0.61680196626062411 -0.64568752096337634 -0.29390850666578849
-0.10056388970687458 -0.43075931917803922 0.39164076746287435
-0.8995129051232329 -0.11814765585035181 0.12357349805495765
-0.53933656123282869 -0.035542924159593037 0.75558814402621977
0.09770709880011097 0.54848296214910519 0.66601045682964344
0.64041263001332815 -0.61567012825095446 0.43788780850595721
-0.088574584249598409 0.86207292668484126 0.23438740714167849
-0.91203148432214398 -0.71618532444812821 -0.37875496836059774
0.29253625769677694 0.6695977843561538 -0.36957129685922308
0.29048105701088733 0.13314392726620516 0.48766851897745145
-0.50995387341003706 -0.30355694487938889 0.67621851752778106
-0.42943033949770815 -0.38389444533764472 0.67612830431092341
0.39538339202334605 0.71730713868330231 -0.26836098057276647
0.46017711378333459 -0.010119976134333353 0.37408737367732847
0.28059673283834385 1.1181303591940692 -0.42428772314853713
0.086977310114428441 -0.16195952129607383 0.75429547795152629
0.29764868206197193 -0.14977198312401008 0.74251035465978532
0.77537631996857304 -0.36283504454735027 0.69686272440877239
-0.10764134667289138 -0.050899093694145581 0.75056665707317372
-0.3317880589677964 0.47929344136888785 0.54360641411274457
-0.87971083748759149 -0.88884601859407031 -0.45665665505429409
-0.29608555284370297 -0.44031851254648036 0.63434953347971756
-0.65921151071221118 -0.8534068054282542 -0.39831512363991095
0.032844222238421317 0.6566638248559471 0.66724635053332548
0.19009697910558376 -0.35515762473266399 0.64006119924055493
-0.26894658023332596 -0.16026793613302948 0.78623036274715474
0.67031762995799138 -0.64465501793757563 0.61632743926241496
-0.75025219101051377 -0.41346536803437495 -0.37660517992550169
-0.31642169211028826 0.2476414653331287 0.80196413206776995
-0.43751245152746066 -0.79293096850710176 -0.2382682730860104
0.26014737443999092 -0.28611680534831541 0.72613829260916063
-0.82490444514292527 -0.76533280409014193 -0.4295686967633614
0.21005462596064994 0.18022684134418393 -0.57697965971401466
0.70069710776619853 -0.51287328664186482 0.41797613781775489
0.084366852957355576 0.59503250702544142 0.61528945989052719
0.61872851829475284 -0.43627631646515663 0.71084748350630633
-0.18220181399725899 0.32620405052240731 0.77485826974432648
-0.46082738090447339 -0.24165120210760249 0.76580633141271726
0.075317634639169739 0.38637656264746578 0.7758503707272526
-0.37739889373202917 -0.34890826978614253 0.68393953544018871
-0.74764543487813206 -0.43466497716330277 0.49203566573238433
0.16998224008253171 0.78676579921538226 0.2785484982930555
-0.081685281016707023 -0.36825566276228167 -0.51631318751114819
-0.20116284844979848 0.51873051553635108 0.67866219943747819
0.40415778117068957 -0.23610225689345876 0.22661507458287833
-0.79519484841341814 -0.46909927854490652 -0.012597297053012824
-0.32829679676809675 0.034175832511542215 0.7748041140442119
0.46541135260241262 -0.54870917441871381 0.40435967784676929
0.013960386401953073 0.93733191761937396 -0.18785339100055687
0.2831432634826383 0.45740082782818181 -0.39143800026186426
0.34166536722716323 1.1146875519016468 -0.43759442210150468
0.72372967182997971 -0.31083539689124917 0.66435567488622294
0.67577692617408047 -0.60103045200202754 0.65662804118370843
0.38532499643545393 0.53457457997558278 -0.09521847180989873
0.19947074664855968 -0.18570175949593004 0.7753769194008564
0.34482506397447032 0.21838362786793075 0.30062614981349878
-0.31802350578047101 0.84516637447212573 -0.41700412469014125
0.044399064002105249 0.39933842148814369 0.79051275166036739
-0.68954408237580012 0.65143106489504743 -0.11106105138391165
0.097702016006340209 0.57634644977017713 0.66660287758424275
-0.54502732498966999 -0.27845099167739451 0.68299772910944334
-0.74969451555183042 0.3560702700761183 0.30443179371192386
0.048131541001049882 0.64239087125347227 0.66806133542633361
0.30143835291663734 0.10252866285164641 0.48788947530683391
0.22553522272975535 0.016620745619464028 0.74866196026947218
0.39663208792051741 1.1548253253064202 -0.4729976534734881
-0.81719749626005012 -0.67197332487275174 -0.33439060502008466
0.45530174213215613 -0.16459044928411615 0.27533209613429399
0.83740861235991293 -0.19557837639558251 0.64444589184115841
0.58888468980196418 -0.23005979168586999 0.35242710651680742
-0.54914437478825384 -0.37733587581687211 0.66079193933931535
-0.91479098045690144 -0.75522613622722634 -0.50963490546072876
0.55932843790466169 -0.46820494451747718 0.72672630807028415
-0.55700129428412826 -0.35477580969930944 0.66917773312523288
-0.56206635561292551 -0.54814064545462227 -0.40845657146397762
0.68351276359420066 -0.46044882353002681 0.68101479392597675
-0.63674757955730588 -0.32771889659965336 0.67513835397317123
-0.87236494155063582 -0.89707738668062875 -0.47591792491641449
0.62574505118803092 -0.3920940795092922 0.73235020696207442
-0.3624913346732388 -0.63833435518051374 -0.12750832731977724
-0.10884025387169505 0.74548222573229017 0.40263050355593588
-0.47363237390043533 0.42382737663829517 0.4942704042945838
0.29468391824310292 1.140778768546002 -0.43366732249579343
0.46377596910814756 0.033550546388898095 0.5899341896112098
-0.32441138287211491 -0.071452709472068499 0.7906986901885702
0.12391433320729206 0.48588926710796443 0.68887694193310622
-0.08510040143577946 0.43772472102736115 0.80406130721062219
0.3046934952014535 1.0113547168406771 -0.37059161910326655
-0.15781212178087678 0.50368813867325368 0.75736013516132061
-0.31882916401199957 -0.64539393086412744 -0.12343225660734625
0.53712884242255488 -0.47708624979902492 0.37736056155567077
-0.13767627369499458 -0.2868760797856571 0.70606971838153676
0.69953767008873147 -0.34168116065897225 0.66885933220260974
0.034024898919889246 -0.3233450374087381 0.48191847097420215
-0.37592631007266064 -0.38369301608671247 0.6353096607328812
-0.57837414092133344 -0.92988499049529794 -0.35292903885924609
0.33877110031723312 -0.02104759006572976 -0.35305063369781919
-0.80251790843288973 -0.7694735761829492 -0.41387674608062497
0.7476842146425966 -0.37866539671341748 0.65279871592489158
-0.14611464165301769 0.38448196495612796 0.77555554469120658
-0.0056993531624378591 0.38761918533426415 -0.67345863070080902
0.14885428302535164 0.36863405076234423 0.70898577961806275
0.1230057908309572 -0.24438584478944714 0.70495501908598079
-0.34144543570503494 -0.81242625457549589 -0.24944967625483372
0.1105419314820093 -0.14441509151307264 0.80459274811699188
-0.51986729928248732 -0.094545992988386507 0.75061938721579935
-0.59607854741221633 -0.33367407902229318 0.66890185243909173
0.3820803516553033 0.71756064176213608 -0.25410834974187679
-0.02895536092754547 -0.34916079609375084 0.52613244161893391
-0.7611087788534423 -0.50084529054965943 -0.088364621983082259
-0.72271144426529688 -0.54951069820391218 -0.21544999800408959
-0.40193816657888792 -0.011766620322196886 0.76540313965943163
-0.064184889402173262 0.26027760111267639 0.75314780787887869
0.29868616093781242 0.83207544084213825 -0.3094735540307898
0.065160276256236216 0.84663246765307054 0.60323439423250136
-0.45165812545837536 -0.42668289767821044 0.64746403024220989
-0.60929068882951398 -0.98343814131729879 -0.36445349104866231
-0.60523428250872069 -0.034957216402114355 0.76150396274839771
0.013573595551452655 0.5072608821779756 0.76534368852769408
0.41995839095673215 -0.59688227969845986 0.53349473301964245
0.26015302015956809 0.0035663263373386656 0.75717833456893313
-0.55578186279360065 -0.23796534528035407 0.70581537660646276
-0.046701473021112605 0.52900437441853088 0.7491149816014504
-0.41766019215204686 -0.77671532776764141 -0.35918074726138549
0.018122034760676087 0.51960678478041578 0.74723653853717575
-0.24791094357140153 -0.26430061124216042 0.73912120399846515
0.12591756465894832 0.40225080605440411 0.70209375595378365
-0.5645774949052953 -0.21357719957713184 0.72398028907985079
-0.51248402792125347 -0.60668050573877497 -0.12649115667315236
0.17720191971435995 0.27520569239987802 0.69904490503275341
0.03906021575063523 0.61501050627509057 0.67294495297835333
-0.78388255812047092 -0.59103827134181608 -0.24189827877923165
0.1081787870460662 0.52679941105220562 0.67034421030376912
0.39955047347774197 0.59662958993996118 -0.29279858790610458
-0.12441133533532245 0.74580071388338842 0.6019818041782079
0.30500587960343406 -0.50260287944712045 0.53756038202031675
-0.89921784585413 -0.12281755201116007 -0.34451889419211845
-0.90484327799863173 -0.98378330317282181 -0.52412742332733764
0.29375698752605395 1.168573761425717 -0.41329087726364833
0.2578059318826611 -0.01436844173005225 0.79577570646584928
-0.37558068756082541 -0.39963949708051216 0.60926092478166716
0.18818943519664799 -0.11402426376280017 0.80950959228428676
-0.66723661036054871 -0.99974772111235621 -0.38660659924906682
0.83096714546951844 -0.37250593776726149 0.43314387042628777
-0.44915542637302242 -0.3379571698265913 0.67993673864338611
0.4890111021391359 -0.17605168983026465 0.73184282855913185
-0.45047596507269638 -0.3446162391948544 0.68225684575462608
-0.39164114161110586 -0.054044374223786829 0.78919782548204154
-0.45366713394641067 -0.35888875431453093 0.6841770429567795
0.2966030525055281 0.20739397519667069 0.47097389246444443
-0.21892034897859425 0.67780018369632877 0.60890799997274936
0.13011444863523192 0.83764519081880717 0.53591802766037677
0.19416951685641237 0.76980810609051176 0.41203235890341361
-0.35514932945537669 0.2539041010298142 0.69212946379623119
-0.20853248103805733 -0.4765832079119221 0.54687461250146363
-0.17468373963213413 -0.32826525404379181 0.6877885622276505
-0.52423979108511087 -0.3488979199127249 0.67885471214961512
0.10969571340961615 0.58911166391460901 0.66431212205976919
-0.89019367568075936 -0.8661415705590807 -0.46676387266794528
0.040719316050195964 0.33567825575033572 0.78458264034309799
0.45776119660777681 -0.51517421459270629 0.69149636250458357
0.30749802974164986 0.74706778278137387 -0.27870083516626121
-0.47353979111839895 0.015563739943722954 0.69403556034430736
0.27918363456409789 1.1461620257498533 -0.40915740006994383
0.50959065693199257 1.0300128852988522 -0.41660432273450532
0.11420535206989424 -0.27893695084800374 0.64532319929205073
-0.24346837242374075 0.43609955536952549 0.77063514246534837
-0.61054565570066277 -0.063046140603254308 0.75497746412597344
-0.58596726428188273 -0.14653773937297654 0.73116758670513526
-0.5712554685245177 -0.64126809829152442 -0.29366886311250795
0.56566765590399193 0.82979096948009068 -0.38990150122092793
-0.2278892260791423 -0.21415410355499498 -0.64777286663964517
-0.65865930841350639 -0.53102661640082705 0.46797505979563425
-0.83871527795080247 -0.64948368064662909 -0.30765837789281392
-0.85455902241853998 -0.76816641889621051 -0.4483291475821467
-0.36095079146140918 0.21194470232012552 0.74345941112777325
0.031421847805905401 0.30311665731268267 0.76406744353377043
-0.14897890273548064 -0.32002788188233966 -0.58704883352582726
0.3600436847725863 0.74609573880204616 -0.34727750265335722
0.88323909159362834 -0.2499562858110238 0.63181031429394885
-0.2172068169764616 0.69228800067963414 0.71681171029637269
-0.20629079750203161 -0.36874050121894986 -0.5509344996309391
0.76571178938801943 -0.31404341132753366 0.70821243799701517
-0.38202426511343024 0.57708128830506134 0.65077305550209275
-0.17210531849223631 0.46669469532352892 0.74005380735447002
-0.25930695000739323 0.018703270593577681 0.76761149030156073
0.2683102367412733 0.062460102326753919 0.65041213254171204
-0.59334326444008578 -0.18225164697619989 0.72025719822189771
0.69764682791418409 -0.31160227207171065 0.69175999949030498
0.27827039651154362 -0.032021268385366675 0.77830090190939671
-0.59480666827074025 0.22074187301286519 -0.64282223386614312
-0.35015171062945338 -0.07069990378871438 0.80982480041488003
-0.66684252124565191 -0.56937038519861494 -0.16443897523683759
-0.6269925196063344 -0.61486051276469955 -0.38691051169939605
-0.37876970142567856 -0.74868866297521397 -0.17819049136027765
0.3700377862929658 1.0856931617401355 -0.42575713988303754
0.27887576318486396 0.75517156518936779 -0.26405998249702467
-0.16719489933202247 -0.16248634114535854 0.69337172241624856
-0.27621213700271863 0.48904196579978798 0.78218349680687815
-0.69779767544207694 -0.47723680041936434 0.29977304357005607
-0.057397902265432954 0.57615577342808288 0.7154524834381899
0.56528317181475707 -0.13875385707638443 0.36097516707286736
-0.65846417819510883 -0.30367818593901319 0.69154734055499567
0.42097602363578801 -0.54392084537332019 0.42309366494155221
0.12880245000093549 1.0521209337369559 -0.25589699151337353
0.29863405201398319 0.75975235998567059 -0.29304798151768185
-0.26177975766139916 -0.68204926195636983 -0.17971887997595815
0.49333503177544369 0.99295362581522228 -0.4508294479028585
0.18001665666284872 0.45839834924923384 0.66916346765167756
0.17260078847779159 0.93885093326965219 -0.21604434915565918
-0.59868360158337186 0.18844078184430368 0.721025526546347
-0.49511684349642593 -0.65079995392113421 -0.30857501841054535
-0.71219724677670104 -0.21377025787551363 0.71571334325585667
-0.035029042559354906 0.24441325933090674 0.76042968922820542
0.24234454209241818 0.013508383220862452 0.77483544591043518
0.28981148482654806 0.80952994507469578 -0.35830439238042011
-0.75441329975411353 0.56135614667152245 -0.12091027839631252
0.14211639380029162 -0.30672447042337003 0.63803652017804158
0.18308383998345512 1.0061481554833038 -0.25898907973060492
0.58297287904561479 -0.69472222506496184 0.59157034026214195
0.0029683308155394883 -0.29107595866906077 0.62022215887154442
-0.37336843261590502 -0.63603293684592555 -0.13865785517569051
0.87173961860369253 -0.23122848509243932 0.63529196582142866
-0.29972939821823719 -0.0072650928080579824 0.7741674756703123
-0.33783265843170263 -0.63824850991975324 -0.045444442297924326
-0.48064999318777435 -0.56678739826592395 0.44067064010497425
0.7488282938290034 -0.32407623273355668 0.66864554138838628
0.3945568232309018 0.87058935758656397 -0.3419044506098512
-0.21405388682809612 0.52558363851835299 0.65733263757939309
-0.34264245484981704 -0.22006816540813334 0.80143657754577013
0.12166212892626493 0.35001838736007818 0.72313919550792516
-0.39962303284854173 0.15868704375187193 0.80318105112229166
-0.85113470025804716 -0.59138312856075781 -0.29003369585828231
-0.14313597634549424 -0.42226087535451007 -0.44821075202250782
-0.38724859743800977 -0.22842384011454087 0.79526863251487789
-0.42403159604549945 -0.087521049952584473 0.81217013661249915
-0.35355600791857622 0.29520118964832687 0.64235610109876085
-0.79283985728574358 -0.95140938273715525 -0.44926036143211157
-0.32193515397729033 0.19336790207194055 0.79818056793931724
-0.5314978652470197 -0.33046962075740782 0.62731331134959945
0.48653363634531654 -0.65286736026733072 0.52788378352358301
-0.60423171040608636 -0.7874156814282558 -0.35594480621733737
0.2768585334361795 -0.1659451169587296 -0.38095580747643609
0.13399118710875424 0.9258563204725756 -0.32038257229376121
0.14999427520259978 0.81952315990196345 0.17430252286555348
0.16981230057449359 0.9615781693971841 -0.22246750363058787
0.29320036545315631 -0.055059229309052604 0.75269973919558009
0.28537390607851609 0.091030402476130146 0.54884554704830535
-0.6261126844490823 -0.17479373918898777 0.72573345160955682
0.83677627938552845 -0.24774856462763317 0.40320701846170515
0.39502950294016248 0.53188960439131638 -0.1280949303175003
0.19170786769084991 0.47418566292481268 0.60005901199643663
0.70549136589393147 -0.17949300014426139 0.38084245878705225
0.041662495645271136 0.82083935975478362 0.33942071217387415
-0.54157111681590742 -0.60239226590444195 -0.18920183875818353
-0.53723937887629969 -0.13044925828232778 0.74880870242321151
-0.68405286830061662 0.14250332936087662 0.78228097975257604
0.81011100402622649 -0.47401282693392455 0.63552110823797037
-0.3297084065787752 -0.077497122167072607 0.80506449786526169
-0.48570205100713881 -0.021701871369344206 0.76796928876720827
-0.8145676159720292 -0.93206002640751429 -0.47305388188115671
-0.31497924925445187 -0.22585923925590023 0.79670276803947715
0.43013211427983133 0.78739786771289699 -0.29935889736963084
-0.67988599431762964 -0.94482283911356602 -0.44399557921325083
-0.050112680977107082 0.23308431648909655 0.76173010965445975
-0.068064407963789542 0.369950332690967 0.81023560179598419
0.14993397264586594 0.25715901367018734 0.62054506882814664
-0.87060568765626378 -0.86903537082691695 -0.47792053034081405
0.27139927974388556 1.0931527194892203 -0.41145286822365001
0.54942711654485699 -0.062175193588856814 0.38559632901423058
0.6719816878444238 -0.48348229889559979 0.71641004872521741
-0.16199235316723737 0.37897235741525748 0.76485316465366626
-0.58001232703320049 -0.59740592490526101 -0.19345172972239055
0.37129862146582848 0.58105823794625189 -0.068886704171493562
0.39624936887620343 -0.23178700853914513 0.18461331370945366
-0.38201357620242238 0.19261518544667222 0.66368356629894976
-0.66343186191294912 0.082406809871695019 0.6227568019300378
-0.040468189692442813 0.35392618664701558 0.80923353193739267
0.39784730413596492 -0.28249041224455684 0.27298913336145958
0.13611128028211716 -0.064593915927529277 0.74929191714119892
0.71843350293269648 -0.48470850085906436 0.7010743565634554
0.69200323622816118 -0.62490077553547252 0.61777143006784918
-0.52443448905142986 -0.77721629656498337 -0.40736206643797956
0.55278590380877723 -0.17647426131749366 0.72410800353954041
-0.61563857059617 -0.75343928243776248 -0.34885083986306853
0.43469432224496529 0.73655532745532226 -0.24283242750922085
-0.10847749207385871 0.22375926867455709 0.76273113662612424
0.21131888851435132 0.83266319040953141 -0.20172335457084323
0.06305449719691758 -0.14047777334846323 0.7599924304233916
-0.25545627338158461 0.95867788592118375 -0.22941051548204694
0.37065368684806455 0.91823163858670753 -0.35725237709574298
0.39527257357041634 -0.42415359947008335 0.71210411543768615
0.37738865716521985 0.55141263474861368 -0.052229297380988804
-0.50539824595191618 -0.061980332676811578 0.73848029970145213
0.38078099808843557 0.83329478771398757 -0.32375378298833191
0.021363852188551746 -0.075276827843610672 0.75579355754829614
-0.10072347159561268 0.10260332740330469 0.74932140845752748
0.67198841986548796 -0.43190000625742009 0.65832803282549257
-0.19956304744824571 0.41581592870639161 0.77075822643215197
-0.10216082323186093 -0.32376725848067256 0.66476562896254698
0.19624304294704409 -0.21275778584690527 -0.45986097423538652
-0.077745284617687815 0.26531181839302365 0.75421383625161553
-0.17150580632551016 0.72411580418291166 0.64772261495041938
0.46488914233417411 1.0936260085450287 -0.45613460996631616
0.37482384191600993 -0.2201125645448252 0.034872577845456831
-0.48141589359448655 -0.08200400161513266 0.76644066782607467
0.13774249558251395 -0.11076900656325472 0.80862850775319739
-0.79069098945470628 -0.86342576426931239 -0.43155537648018694
-0.36792849996953514 -0.72228964995000733 -0.17822886421650708
0.45878684861537344 0.65399288652256793 -0.29289174986125222
-0.30832275121848607 -0.52705158937178398 0.43792342344268853
-0.16012076439797429 -0.45132638094159772 0.47252498457659087
-0.0014352890195885593 0.22649275269094016 0.75424356708111606
-0.19219977993217263 -0.53108432833643437 0.20289916275374864
-0.69280062016378885 -0.54024562311661639 0.080112263843798104
-0.54825884474841224 -0.20845079638502195 0.71504577256910196
-0.50849959860985638 -0.063277835347847367 0.75693948846263126
-0.045111514727471658 -0.30386913221616618 0.64822949086666259
-0.20689310189600096 0.97081983928952642 -0.22924265675367295
-0.49921312315364119 -0.39519399305429692 0.66082139088816305
-0.7258665474329673 -0.047055422406501179 0.73980051207262676
0.16709043682349822 0.0013461726618069214 0.78508918134245675
-0.41515204329132871 -0.72918548898739166 -0.27591817234461047
-0.78221524461292091 -1.0006267528224086 -0.41502565053474783
0.68903249600445449 -0.32791405094925219 0.69265001846958452
-0.048537232164518329 0.45717887684565328 0.79778340704046791
-0.26117393631646291 -0.34319237976551786 0.69385366614961086
-0.20722015193421761 0.48505992750604632 0.75837345016072
-0.76037249371683124 -0.54490014066201842 -0.28748658345632805
0.44203521570887361 0.016522826942526159 0.41005524460931664
-0.46048413837167601 -0.60514003944675376 0.16687570601335899
-0.1984225746402597 -0.14276314646161659 0.75773327112118949
0.31656452141616676 -0.087321001628077877 0.73846805709630114
0.44272822050531868 0.76748002496677548 -0.27684925876758637
-0.94740638332905291 -0.73825661434110312 -0.39625426120913865
-0.14553508441281338 0.30971889737072189 0.76184954073568889
-0.43707297538938583 -0.75169224182451011 -0.30137754882631995
0.76778007579195506 -0.40291091871398566 0.69338840489798237
-0.94963320604861678 -0.65489633359282751 -0.38674342708655551
-0.30960419902729086 0.42137254698482485 0.80423901606053594
0.15146621145290329 0.84521161844672199 -0.3609923661338641
-0.52305666074804869 -0.67219493160946664 -0.31907051005322273
-0.66756388798723432 -0.16314529914628007 0.74066301636878862
-0.11496239638140704 0.62288000456898951 0.72708175008074782
-0.8538255827050456 -0.20833781832286924 -0.39127741105155067
0.89052871142045653 -0.35713556147537906 0.47599495358081345
-0.23729643149379243 -0.022788998628555657 0.76423220661407143
-0.14894846325724842 0.53861278780944744 -0.6710107413335713
0.28610366302919399 -0.24127914201438738 0.73782073216767419
0.0062456079408601539 -0.32088833369297154 0.50653637245127214
-0.27195581972977756 0.95425567651354171 -0.098818519709952923
-0.39627861299006284 -0.75675022120835012 -0.19530560420460574
0.12186666874733643 -0.37457195406030896 0.31790794746140882
-0.13772911789702658 0.21571922228192353 0.76454584686459448
0.12120732849154159 -0.3314058929366821 0.51101633546119452
0.42258425447331938 0.73209138005499552 -0.27045643829774857
-0.40449713334361714 -0.26759325979096804 0.76806832245374856
0.23937542211131646 -0.062864818965581826 0.80241078104827768
-0.17770317266509927 0.30363003858949345 0.77452174813900587
-0.10560806101344067 0.2791212828342613 0.75715716345833961
0.44121250585883676 0.90337499492562179 -0.38264836992501472
0.096428133245798797 0.66839916807873889 0.64237718015201573
0.058547189200815808 0.27603290345051512 0.74816222192708626
-0.061082153036930542 0.8344629434766615 0.28130304168920883
0.50466838961307214 0.87069018721119296 -0.33999482772531753
-0.92049719498286642 -0.15073095400328018 0.03949165172202207
-0.24803847421932002 0.71320710131513976 0.37869532938056949
-0.52915569701217979 -0.3053605894956426 0.67613861152983823
0.40437838634910772 1.166113208254864 -0.42963365408825727
0.57267948016586256 -0.37768774646679004 0.35061238721577848
0.13118425319335536 0.40176240929116913 0.70528562175789578
-0.11762133386873863 0.4518643379102123 0.79423788041846421
0.34363863722194132 -0.30834542619237748 0.73420375393938997
0.54083716485111566 -0.69413004884654095 0.52513534959071428
-0.39099440164174482 -0.85724254632655073 -0.31892221717493285
0.31396272083502907 0.30572838481843112 0.52010897342417373
-0.31859114972973579 0.51101423039990568 0.61627095328151427
-0.025461743152087379 0.51448057365701783 -0.6420434419392631
-0.52186398656114541 -0.87728714657435458 -0.33376343471630499
-0.24138217955239938 -0.20158887557180316 0.74948209480686856
-0.63933091672828368 -0.57836070629835745 -0.097610201816731745
-0.71925094351799768 0.099623867733517724 0.65228203969365062
-0.71891948974559661 0.061096040202861635 0.63377913407219566
0.065555014591731187 0.82967497265668699 0.62248042128290226
-0.28872885768071033 -0.12092855267379443 0.80464124748792898
-0.032948779223856306 0.15963106753551148 0.74720759131169423
-0.54608992773055753 -0.078498001195613565 0.75305810644525906
0.46122134099982492 0.78235108883649351 -0.27089426524351357
0.26794777463335606 0.039558281530327366 -0.49934172606894656
0.09221998506726603 -0.14184079687899542 0.79264611642055982
0.142535724303265 1.0851949003846741 -0.35252508688533535
0.24893148213039229 -0.046338593501662917 0.80049534132438449
-0.83577016781111624 -0.74721863597663019 -0.43189196431394627
0.027397254466658083 0.37173954915225371 0.79880637889255546
-0.25007074693221298 -0.30018125623980607 0.72018934987336358
0.13413157473771076 -0.27613228790437461 0.67209506267769825
0.04982965897811642 0.35551571251606751 0.79014831992553258
0.031966876952186141 0.67266457940369184 -0.54767890129917607
0.17709503304551966 0.91688221181060903 -0.21172988309553276
-0.33813629908635257 -0.48186254284979491 0.60507510760359651
0.25637696522554343 0.0040343630763630678 0.78376640642639561
0.50581886731584369 0.95729744145430895 -0.43549126586415454
-0.23538194119371969 0.34671137439678335 0.77864286904351054
0.29296467246010849 0.19791927848042556 0.53767503340107314
0.014184843632344624 0.82139281174930723 0.47994883195243609
0.81998839611358321 -0.14385465342131498 0.42853463912465894
0.058189925085303962 -0.35398613616389785 0.418911885086791
-0.35600462491629425 0.64285901790438027 0.70255763695471529
-0.29487973461379902 -0.72520995044526859 -0.1622148125974654
0.15866799641254214 -0.061871059166307862 0.7883893620814364
-0.94128999896423515 -0.77866474222163973 -0.41656189298975832
-0.54816429240044773 -0.345821123311705 0.67543501417846308
-0.94102106629389226 -0.8131771230593392 -0.42632289491041497
0.76319730445757905 -0.36362464690431295 0.67044617922353122
0.17910656336797892 -0.02358828789233991 0.80138817843915344
0.051419349903886413 0.65412327950640803 0.66237994249796728
-0.78705702485391171 -0.82112540919741095 -0.41346225307486684
-0.5388042897782972 -0.39984613145468084 0.65240987455102761
-0.7149019897046669 0.56450458871548403 -0.32660671900074156
0.62470827206357438 -0.58168665480439286 0.68352043141867558
0.023404006476783756 0.045319935705839143 0.74575965736778116
-0.3492450578910109 -0.640832451817822 -0.11276513093077511
0.43281679089587133 -0.13440949387695555 0.18735537425854609
0.41701798289831338 -0.027038071326548785 -0.045929939265304753
-0.44833954021102063 0.043604635023520633 0.77660231223263665
-0.44923976067782334 -0.7423869881517996 -0.31009184391002087
0.1791307867737153 -0.0071326717246438243 0.79678422418182038
0.5550428888950254 0.88745028599109843 -0.34417054926748047
-0.49865760391180292 -0.14879192877976544 0.77254578285498532
0.69088628033980815 -0.6070405444031266 0.46512941727927792
-0.89052621608546545 -0.18632881512217847 -0.34001711395253587
0.42081311017278988 0.702337995583866 -0.20990905651159331
0.086053794237119341 -0.12823620933878654 0.76744430515832729
-0.3944365982719642 0.14223829568602975 0.80977820069225181
-0.71666464774051875 -0.95153629163491704 -0.45461629825881289
-0.048982831157506013 -0.15098311540896603 0.76014753786424549
0.4988534879436477 1.0280712671623009 -0.46531728864648514
0.4996801496247647 -0.4264272142103227 0.72967459857314942
-0.015977127851474648 0.25316624298695478 0.74581718435465927
-0.93016411130758314 -0.17019818438461431 -0.2207178137363357
-0.52701573170215532 -0.11156680174629874 0.74849417336391433
-0.8670617196160979 -0.29739706743181826 -0.31548602200910558
0.59083859861063104 -0.43101294761315501 0.36506785588289503
0.066170023549556589 0.3679804559106179 0.7808277864495814
-0.39309592827467554 0.047875865523800076 0.68141477593690603
-0.3460960161166069 0.60516889954002151 0.64057908272058128
-0.26688003712246111 -0.49291067675098033 0.56616076041195207
-0.51073747584006757 0.017456366618316288 0.7678691876290813
-0.74133918713338964 -1.0402343593011965 -0.44300904426675913
-0.45810576138554904 0.85578827286054326 -0.26225821838191798
0.11958488736088402 0.39745129684009672 0.72257012793602726
-0.0045167537273638203 0.24745440983246869 0.75978900519827697
0.47121324979323642 -0.35288825123408563 0.33782489273228222
-0.44264547100456664 -0.12847109238553145 0.80764268520335492
-0.47692195226492373 -0.64145650697841827 -0.28099486564743437
-0.43545842833456572 0.1557752665411436 0.80544382900268019
0.55123481591471446 -0.66127878113132388 0.43965630485143148
0.053967465110598134 0.5806534075408657 -0.57908914485343121
0.27494404863249056 0.63724540719018963 0.35943811905600498
-0.17866661526172933 0.35041631680446628 0.76890111331382904
-0.22526900918123793 -0.14630537950278111 0.76343103553146108
0.1402216756854413 -0.09052446116459345 0.80081872488272232
-0.97039706320920871 -0.83118926096637447 -0.53295545938515154
-0.83934999760967877 -0.68888434548721511 -0.35557981257270832
0.10092545366802241 -0.24447338277017172 0.68786833337350739
-0.18764806347742535 0.75380802828525162 -0.54311729870601688
0.73283139370597361 -0.50889932444151453 0.6812065754741008
0.76394341508023356 -0.4024767831619136 0.68768920003227851
-0.69141090360450708 0.054718123381318984 0.61891731067988864
-0.547991395285651 -0.31984897407576929 0.68271018085163782
0.87038686989315384 -0.42892686467095098 0.54595036323425283
0.67523745273661628 -0.28291693853967148 0.36701484222932823
-0.75471403922312774 -0.96178233410021186 -0.46525411673232142
-0.61923990380995342 -0.36922299097449951 0.65898140095729119
-0.58240746009508015 -0.12368718367471265 -0.61333714037487574
0.87074043433536286 -0.14413413860449875 0.56352898655837791
0.20388398374057015 -0.14248191077841499 0.80115706899730466
0.080824645362095993 0.40604094588695538 0.77098101450681611
-0.27276903989285195 0.62548969505553353 0.61013227990176588
0.94343175404335256 -0.24667322934177571 0.55386866956295844
0.39272756057094149 0.78587951679624957 -0.31075203929015682
0.64381713784111483 -0.44511188478080488 0.66487632139460917
0.28539611066149195 0.15423343348931162 0.52437099068398485
0.36621360148216553 -0.2745571114267582 0.18235303790985125
-0.2855215002807574 -0.13951311249044274 0.80846586327658976
-0.70385492244914261 0.31642937573172325 0.37132829058733563
-0.46037918717572879 0.17819755679523408 0.7204364022789953
-0.24263870633310525 -0.64478232769745403 -0.17860425985843875
-0.39459372988831998 -0.37705066449695268 0.68255541410193743
-0.26742995846719708 -0.11491835323612243 0.78001001868167563
0.77381006462233248 -0.4825893055694106 0.66542696119199718
0.76873384895666153 -0.42415937747569998 0.41467475987635005
-0.42853334541814192 -0.36656404674918708 -0.55185078428317524
0.18971069742192448 0.75468113076574372 0.54246330998428949
-0.8841668051473679 -0.34431273575486498 -0.14287173170934508
0.16063657765476869 0.86480070602808135 -0.34920880706838453
0.20468717075574627 1.1707300534187119 -0.33922564565359181
0.70992398646886379 -0.30656326053419436 0.67788042911856561
-0.19287829628040054 0.52224527841950552 0.75213230200678272
0.705233832119041 -0.29682352800521095 0.70218026974216663
0.94773090231576784 -0.23694810682517398 0.49632086201974701
0.36034198777025495 -0.54665709126179962 0.57686042393910864
0.33778155282120448 0.74608581994465561 -0.26330028990629017
-0.061621825367360827 0.18548171098675059 0.67662709140117006
-0.43137552502611953 0.52592339435997459 -0.65548469426411238
0.064719250301362941 0.82310491360995819 0.41510210248895341
0.28554518791902961 -0.14295336149116267 0.7476420414153564
-0.28809574736980537 -0.37775987151656532 0.62315938837051554
0.020736726715225196 -0.21229873921339193 0.71605415989543086
-0.69730458727266154 -0.10327816271496248 0.56793541845177131
-0.33267375402193089 0.22360994932499345 0.78624484329439692
0.48028941281374316 -0.072841091744279662 0.3266277883138482
-0.17621640362640179 -0.26263119613433439 0.7197636665385243
0.13615164549881431 0.88336415737950036 -0.12222729921380893
-0.74188215538479518 -0.55481055804649393 -0.22931402952603364
0.25079663765149807 -0.096792116545215467 0.79352385174836915
-0.18677796971137273 -0.033910464229651271 0.66196920240614787
