# XYZ point cloud file
0.5644254646786715 1.0657330924074353 -0.43848256943521591
0.40428181470953284 0.1718616146233618 -0.20406193669021633
-0.26589762727905075 -0.67891183847483916 -0.17220499074622353
-0.64793198638730232 -0.93596034221732793 -0.44271527799160282
-0.44909336472041339 -0.3768515416383913 0.64493079820859123
-0.23777083970387025 0.44609988729399852 0.70723958290618327
0.19480900147077929 0.96531737199491729 -0.28186602428051089
0.31623835933964628 0.75407923515162345 -0.28682577758706174
0.20887129198986365 0.35889878804503361 -0.5516939334123947
-0.64418434954858483 -0.81667635042412456 -0.38235103443044238
-0.11321456881791647 0.70611148403667734 0.7264623313047025
-0.58377449323755215 -0.6895529505310769 -0.32583188723499745
0.12677785161337951 -0.38557192118736694 0.2392640566430444
-0.24883923706793354 -0.21649632613633685 0.7391820280271304
0.67524988504185401 -0.28401721319936613 0.73054348935301761
-0.38894639841215195 0.022561139231591198 0.77508763250824586
-0.38201213654517474 0.27838442178794054 0.71631843274064266
-0.33094732322427589 -0.13398636197458558 0.81584110231746365
-0.14294269281954541 0.89874739377515667 0.15865991249902578
0.37415785760077647 -0.0044606539661433686 0.6902545939199598
0.94723063132009599 -0.2213040104946149 0.48093581451484368
-0.47367535105359337 -0.67515473231985013 -0.28945743181515837
0.73454741362365894 -0.1395567364575907 0.40175475423295381
-0.214651289522509 0.28292620059028373 0.70098587563981596
0.44374434182493161 1.1820239601675055 -0.42723376041110583
-0.72180861355465975 0.39051206105834346 0.28882299590291183
-0.70151873702160117 -0.65549885336670854 -0.27336812536557176
0.38602109371441529 0.57446231425466365 -0.096899381392496764
0.020803681892182624 -0.17121414757906983 -0.60493150111344818
0.049083627394015394 0.78198546976811478 0.65994554870385258
0.95338570230703468 -0.23213895287624453 0.53647119555507317
0.085104043882557434 -0.15745860744064188 0.75427418880450148
-0.29290061410618051 -0.076375388448003179 0.76653626350145743
-0.24343370311567902 0.42148506875109781 -0.7319422092236465
-0.35773559420613665 -0.12310293610737943 0.81700719644268105
-0.18897090881407941 -0.15524410174987935 0.74861350792343728
-0.60078987236065906 0.035457865286794288 0.53036722312952378
-0.65743558127857682 -0.64913401669020487 -0.3927465526633469
-0.28814808126637992 -0.40037326465634138 0.66375544327972591
0.70345519558394898 -0.43452131365750724 0.65070664827503322
0.30399075159062949 1.2052027971013501 -0.42290901543825044
0.81206856377312953 -0.096851765288143099 0.513318274874905
0.54789925080839552 -0.59637253362386211 0.66753487064654138
-0.34881047024089007 -0.062413568195786695 0.77878100863106425
-0.73710889349119313 -0.3001519667553687 0.6655054441515702
-0.71431925451156886 -0.49946220054368595 -0.33334811069512682
0.67441937104866057 -0.47343788757421201 0.69031204763059151
-0.15502682274524737 0.52197637349337178 0.74670450054956916
0.28851550541851623 1.1516254078350343 -0.4529530435100142
-0.24314090015006684 -0.20390676712221989 0.75476828895756398
0.060197995454855047 0.20987944718743989 0.66316940571800842
0.7575158649964493 -0.4063570629822344 0.66724264842699199
-0.23943168730943398 0.403334525100977 0.77105983012393864
-0.77682347968817389 -0.97593359265735202 -0.42339227222597486
0.12210701826668924 -0.15625459682738985 0.81073351369003888
0.93454862743490352 -0.1996411584134048 0.56485303481234439
0.38935627791843075 0.92044253606927029 -0.37049183441919098
0.15045922970581671 0.91927905723297343 -0.21477766891872108
0.89836934962233883 -0.34701815713804685 0.60198591971691684
0.16244980642404627 1.1079902899723599 -0.30768548255708339
0.37362942397317944 -0.49600200271279959 0.66127212397266533
-0.44770177685454371 0.55484742580996382 0.65928981456453783
0.37268882314478802 -0.51841269977975735 0.44311379534612882
-0.15643203199997657 -0.29014317422874925 0.70661401581711658
-0.56754263605708388 -0.61317348912175262 0.015568536486071594
-0.51686239457915129 -0.70116349041970238 -0.32510414789682329
-0.2074362474831517 0.42405401891249639 0.76386407104731546
0.032135635712105426 0.33056829214720906 0.77695395261039124
-0.42841325909579808 -0.18734029751611914 0.80361197090930858
0.19225961845082651 0.03818189849447684 0.75274802214386227
0.73909672702122364 -0.53475797711353046 0.6591055288483787
0.32316595623717248 -0.15570582634568453 0.74330485743397645
-0.4578499556891158 0.56396478711401876 0.76795848990722959
0.029541176270610592 0.85511386645037391 0.46586578517505473
-0.45289258722701575 0.0066411061345661437 0.77411775409496641
0.74707421925608486 -0.34174484709261854 0.6531680086461904
0.35945610595489796 0.69364018834290597 -0.21674163846533645
0.021778058264812827 0.62369574108769044 0.675957616902366
0.22520429429905775 0.83818244342232262 -0.2470226244403122
-0.40336819035945126 0.14992220550677793 -0.74634934042050816
0.095440729869984864 0.76149725499644916 0.63682215772600159
-0.28689809537114819 0.42319316729237499 0.77595265479666864
-0.49175628017200346 -0.26198684020127416 0.73441897930975841
-0.0021703257820995248 0.40580159948558503 0.80754069873790968
-0.74090012069925493 -0.074366249251863081 0.72676162961065671
0.65521986949027422 -0.20954097772184532 0.37278602184467502
-0.56395512165817507 0.17782915688557921 0.74797806007457268
0.22420368161022886 -0.041038027060634974 0.81250455003998212
-0.19806035165993485 0.45211229330811342 0.75866703097916854
0.14324717448946878 0.23196007406574815 0.72632357016799176
0.37780775267841626 0.6012741064416538 -0.10974744616287779
-0.096205694331622738 0.78211661542572841 0.36968511061434128
0.40117746017180167 -0.57766498981557746 0.5197970940512846
0.46681001633001529 0.69804267998430269 -0.16524350414641731
-0.74690081151632626 -0.46782190252108435 0.55352724622033378
-0.0678488258326162 0.21715622788738287 0.71611658964302194
-0.55818896682366415 -0.040002313319519089 0.75822658579409818
-0.63914493989132914 -0.63560480652223816 -0.25039954862354818
0.28865281484801564 0.17788701531573459 0.49323288940582444
-0.49705683584461369 0.062326380183172603 0.79039974229513632
-0.61876588067152127 -0.99922737173172749 -0.41239692946431461
-0.010231651741686498 0.89774633653335023 -0.37312313503373673
0.24618551842932668 -0.41862365890869313 0.63371483642133342
0.32060150833827628 0.41617738753270395 0.5197403634526907
-0.69280217935302169 -0.20109730527747516 0.48068576249200134
0.11762511461467717 -0.19762937371575973 0.79175914789747992
-0.58103591507712515 0.14650934335414334 0.80989461313355093
0.27809776336721725 0.76554064304707836 -0.29452419028248755
-0.24743119195002272 0.26058507048134061 0.78427857720041061
-0.42733624247509105 -0.73559914867897191 -0.31044821614323581
-0.24545956670785074 0.32898287659249981 0.77629798602119138
-0.56874875713701201 -0.34120255737698812 0.67743128384712037
-0.7155242677518423 -0.62380698976065219 -0.23012417554234332
-0.45879403449075085 -0.74288041165067753 -0.32158081938356986
-0.48287415389431487 -0.25352707440798028 0.74810510667375496
-0.69103671500612052 -0.3749806566697238 0.68126685210773985
0.28261003950593988 0.24732644614679877 0.59581963191690335
-0.62611989549149438 0.49947553821974999 -0.55383452603369676
0.66749818616859713 -0.4681715277395444 0.66104243650059402
-0.30621038849203153 -0.043401605374658203 0.76457130428877207
0.16668535948711316 0.50275837672795554 0.6747497317376272
0.38803585630448012 -0.10421216840027547 -0.16240042215927986
0.58862224357321047 0.88990522646308001 -0.39210823988122456
0.45985334982500081 1.0978696338227465 -0.47846559396587196
0.26931158392191534 -0.1247300516102392 0.78081610197721574
0.28134255059682367 0.71308142828640442 -0.083825893526842776
-0.20075485235416579 0.43831234390983198 0.76044418536119451
0.89458879087455401 -0.38296562543375146 0.51408410119238113
-0.13918932833393249 0.37842047329587558 0.79493184409197681
0.033731824922806908 0.12469178248635515 -0.6928820000765441
-0.24857558276042013 0.71878980502933487 0.68034163861110386
-0.67833481709369892 -0.95426677290571149 -0.4225725820057491
0.6745989662568519 -0.3811246161023103 0.68054763040157695
0.11899681468513101 -0.095189603765366115 0.76993120827079053
-0.88033611664746303 -0.75586119414659692 -0.38480442729955655
0.28424062595798461 0.74878582653643555 -0.28451363241824623
0.29573047040903244 1.135509828650445 -0.44994794613158717
0.15262723997849648 -0.011671497092669014 0.76659499626773453
0.47130720908609014 1.2306552917297084 -0.51799600894086595
0.5213649089261736 1.0447909206507244 -0.41099829258646992
0.11947553661662447 1.0953914723903608 -0.29587051069387371
0.29398202700214071 0.718838866590918 -0.22473048843876597
0.24909264592605496 1.2407583399339135 -0.39458778455994548
-0.31650419001545771 0.64408109403329661 0.77240496097736866
0.51384450305691232 -0.11249805631226728 0.33302882013224888
0.26337218633240767 0.63946623985187223 0.55536265544025554
0.16112433044087027 0.66168552205139264 0.62963065294647436
0.75063886524296208 -0.33863862943233514 0.66021818943236354
0.13789871595842129 0.87090588889224207 -0.03883562840708521
-0.5848239322052784 -0.20250700764861662 0.67138380521907948
-0.19551230122833019 0.51513545515759063 0.71277163656880305
-0.21154083674544921 -0.24608261939625109 0.71559429674642416
0.21221504927194967 1.0533809844438533 -0.35707089839930006
-0.69778592482736457 -0.6062991854904638 -0.21482124399380353
0.40269083596913191 0.055046837150202421 0.53341558376617115
0.084116781838046606 -0.14043358199437073 0.75913200979572792
-0.87678134059390622 -0.63715201572939861 -0.31411997041403339
0.063090542587060483 0.36499579090029499 0.76852959280661537
0.30676000344858423 0.23437167008545856 0.45443720233038931
-0.4084195254234757 -0.24395587541988561 0.78994160250407219
0.6739562457624686 -0.35270457159799129 0.71647507309005931
-0.38549779116849869 0.43693449170517518 0.81673318957212615
0.75383931890308276 -0.49706330517287789 0.67200453673414984
0.35101837520727752 1.0395624879844725 -0.39973866855665818
0.18241010908669519 1.0101242811430016 -0.28990704189959615
0.19935507490700743 1.1754261265661547 -0.35479672628578385
-0.51971112627106031 -0.9079310960911684 -0.32356643071602065
0.93983727332876654 -0.27891339039718055 0.49272954884663989
-0.79700162039712907 -0.48896514309094741 -0.10019799356710024
0.60740467049340552 -0.68588956620414976 0.60008363175928281
-0.30626500815412072 -0.64872671213739608 -0.15613774008351555
-0.37413191166552728 0.28580003814278143 0.65814530973480601
0.24816010350098772 0.19078801943345702 0.64480139820715721
0.82093516417462808 -0.22973694033233727 0.67135396799611868
-0.50988478622094213 -0.26179511592010307 -0.59669058923258689
0.40299686005878499 -0.066263113122088768 0.72237122782117069
-0.33830653561851953 -0.74055629668056255 -0.31713955795286353
-0.11646919073547046 0.33700207896619538 0.78746970387143023
0.39520377610384649 0.83089540022037944 -0.32594001680653406
-0.7560795563184719 0.021262856129826702 0.7215639033781045
0.21156823207431508 0.41165398746338511 0.6671407345951863
-0.48576691377355985 -0.70095243316996303 -0.31671967023608261
0.65682460996717751 -0.49462132317518304 0.71284269290659807
0.066236928069752565 0.7217571929122748 0.65309657621241257
-0.21764591967495051 -0.032993592910070646 0.75498118727381325
-0.71313880140117725 0.051683004120210541 0.63668870609264161
-0.80769936851715407 -0.23279589259680122 0.24615073142509658
0.63047198222587042 -0.46033729267266743 0.70235933691720476
0.43959458344052926 1.1235028559026734 -0.48069013998828325
-0.31327363282353105 -0.69583329677532291 -0.16681577321740093
-0.41042638870584369 0.43959245916804335 0.8111629422087816
0.64875655305253588 -0.39223163055205568 0.71656579005465915
-0.44095659397023468 0.049989004563860462 -0.72017218405790828
-0.67923589984567556 -0.4264881167757828 0.65085198631846453
0.14340261390743869 -0.089211732141436073 0.77388731885341144
0.43554103452896875 0.62920859337364554 -0.28624037159312365
-0.1991128953731387 0.37540663119353646 0.7631020702884328
-0.044276370017101385 0.5902730886455263 0.69983315557705339
-0.14610436026900686 0.77479374204629714 0.65107307915268819
-0.57252502994476906 -0.080660724435372089 0.75111190150376927
0.041723235766705002 0.464981565529758 0.78201641579128989
-0.56020939250602808 0.47027814325375772 -0.6321242707692889
0.1923635908618575 0.92273262512863852 -0.25341657308395327
-0.37621297751879723 0.25402957243314361 0.63469158102413559
-0.2138510124610562 -0.095170153268313129 0.75955706228116782
0.43993261606942724 -0.16876903144081368 0.73968038365285338
0.14676734326378238 -0.067048363790345178 0.77244589567401789
0.0052522058660482429 0.33805773656957427 0.80509772397510915
0.15118255282405713 -0.085009862251663293 0.7927824906638179
0.28074201635203444 0.71972037070744221 0.11227306491134925
0.17970241728595227 -0.20960580726577938 0.77790562028521038
0.55254645491260845 0.7836053136343839 -0.27025221267105337
0.26220435093392425 1.0348454172804402 -0.38458375404034228
0.69498727420871376 -0.5288253126428426 0.41123281063860873
0.21235854061429649 1.2070656097486996 -0.47299396412005024
0.55213280678651699 -0.56052443049352974 0.68843027790359201
0.39729226018410735 0.25215348384213776 -0.098310005089622621
0.28016395622129586 0.066298149389549366 0.61836309860267136
-0.53671886821774173 -0.33638308552829699 0.67826919296815191
-0.80173441285701763 -0.95352761661523644 -0.47292601154428127
0.73993524253108234 -0.37216988177299726 0.6512033185011461
-0.74246561131580791 -0.42290414322833669 -0.39938133726376179
0.39489828694305285 1.2855811553099681 -0.48395560301410256
0.24962317792520494 -0.069871515908522142 0.80293773279029068
0.36814080000985516 1.0763899400989061 -0.42207264296028768
0.2742261204602503 0.66105109556425035 0.31256216857207875
0.68771827437021216 -0.1176199506477964 0.40040798837635094
0.36310613993093277 0.94428792119262539 -0.37200984131513337
0.82925599828972807 -0.48515309983338639 0.59603242901905418
-0.14336537409985972 0.27432661469386233 0.7713583018566581
-0.69875538776861745 -0.20370008274056772 0.5160744083312494
-0.72879738561017149 -0.4200175723202122 0.63980869039887267
-0.097634328653843028 0.38149311399315167 0.81405802178068853
-0.06258219796026232 0.81419612251142048 0.5321699160631681
0.32244152433917428 1.0787627109184008 -0.41115154879762628
0.10775898368457071 0.89266393642531838 -0.074507752100245739
-0.24451281650289403 -0.57181593013536158 0.16731230988696666
-0.079511553401811597 0.61985268460857057 0.71605928301723765
0.28352984193116804 0.15739554027607561 0.50804839752252207
0.45772920815383777 0.014705357224690019 0.63521823074070483
-0.78594117053314072 -0.75356781769028203 -0.39175680444960648
0.12749819126972817 -0.14154571243095049 0.81158139843341814
-0.1491493921457181 0.03363791016664841 0.74818023545527268
0.09996749152346851 -0.15463518864914505 0.80216771852095548
0.11521322073961926 0.40808755211828718 -0.60579289977226125
-0.12639511473740228 0.010721026483833995 -0.7191864159237582
-0.56630532798991062 -0.63554131199412112 -0.2668311940685939
-0.10804610741552878 0.96202773389931906 -0.25198503686655016
0.33747987947801938 1.149266482205217 -0.4625890004047335
0.72791535527716178 -0.30831051123023911 0.70033751159516555
-0.084479867089203964 0.21308601263726423 0.75866367648320221
0.32114192232517347 0.42622879792243928 0.36043455993709728
-0.75432551994167873 -0.027390790353045702 0.71156469054385951
0.35773384231595529 0.066711583116465079 0.50965783490514127
-0.54925393746485973 -0.12019601232165655 0.75644892027978017
0.12346986759020062 0.43231948366549311 0.70912815082467517
0.66084451433719948 -0.69564765129775452 0.54352764296398703
-0.13593243789702392 0.29106605429319998 0.75899627788460577
-0.036665212007360282 -0.4692186745043827 -0.12722708304186625
-0.3896400857884661 -0.17716302242723359 0.81384718780439158
-0.70528627806856292 -0.18146180443357451 0.73930313493398359
0.42568700717783159 -0.062761842853381822 -0.046694197655881453
0.25920858389677548 0.80117422546538641 -0.28679858114531243
0.1098433394248417 0.43230760977163385 0.72729169539031346
0.3303731812057471 0.66259769529560408 -0.036199785786394045
-0.85180265671282029 -0.38012361483568213 0.10627484083799033
0.780808777403454 -0.16150540172852601 0.40454464116371014
-0.23358532165828727 -0.11987596756907948 0.76176461080244451
0.78608206099414701 -0.34960111425283991 0.70183315498036336
0.74688080665461598 -0.33114637815328685 0.66503059357027894
-0.71533266161260478 -0.79263835928535897 -0.38121386568163018
-0.39001198717873997 0.47467415106731892 0.62413745261302012
-0.045575308704965067 0.60781948618265424 0.67822919986620178
-0.15091120835509741 -0.012456232973704573 0.745738648708695
0.26714270831067743 0.77888446659096822 -0.28578254781349699
0.39528879232008585 0.73609519918403699 -0.28483002367644872
-0.4899168458024441 -0.68658449251120857 -0.31533175550138282
-0.21020160770444996 -0.22300153513429777 0.73921873779487868
0.17463635874579353 0.14267592393231965 0.73232353060787148
0.094346348741460417 -0.11189258225683218 0.76697986655295836
0.11232438554404922 0.51530634992226254 0.6884050117064433
-0.81821999517270072 -0.72997629907032291 -0.38536970596956621
0.85751743058390417 -0.37745290120030894 0.6404562325918377
-0.78413805829985073 -0.049604494275673261 0.34786786707329753
-0.34842106452538957 0.54957760752641249 0.79859575186312526
0.4238942940704451 0.69252610166397233 -0.18763110457314269
0.3132326743090843 0.67507826920720504 -0.090727345466987686
0.51465490123437618 -0.6071678323068781 0.41159173701321095
0.1145868731127937 0.89445371611632396 -0.34332553867132276
0.43662767576866734 0.059634175161233927 -0.026048873876035827
-0.50894168465365297 -0.030596612325410888 0.70703897174642094
0.16222548770922884 0.86465315318030811 -0.17913980971827215
-0.35186099386559988 0.24820705187948988 0.78632703718093921
-0.62494960081095208 -0.95022328354561481 -0.38609249925710998
0.21161270278040156 -0.36906295208663487 0.36119220058341028
-0.1712861859265562 0.33079054218358017 0.75641921973386417
0.11874642609222086 -0.20399554132830211 0.75582389672887729
-0.60112518759379974 -0.712539736511971 -0.33452974099333233
-0.7124094363647604 -0.83489656701793535 -0.39927005484707934
0.13983240702416566 0.56681234031942296 0.67082876672469638
0.13528991300211679 -0.089148252847026654 0.76375121362107024
0.1013905011924674 -0.27547866947648991 0.6471756007352667
0.1176615643807537 -0.32725781230040774 0.50766115531134659
-0.18994629787307993 -0.12866853739683393 0.75231155822816476
-0.4928298936806641 -0.059574591738872584 0.76050550479366308
0.79438522526724498 -0.28678702462830685 0.69537113739674794
-0.17131808121214398 0.51006665384005245 0.75179671648303525
-0.9083457401092474 -0.66150744339028478 -0.33858971650797542
0.2077547797978756 -0.18483344230310905 0.78753504515656658
-0.67520553858137689 -0.60293305061061275 -0.21047196051678441
-0.45206621613986897 -0.61587915345277366 -0.16308061994449474
0.053168156461838478 0.47046720884343962 0.77539826792723687
-0.40785787380239036 -0.34845100262844042 0.69430501012625001
-0.59544764752969037 -0.92035635628653978 -0.39452116732952902
0.040128330181747884 -0.41832551481516234 -0.22655939663427915
0.20785975236885434 0.6648054261639107 0.59813340219192668
0.44236178258428183 -0.47681572923404225 0.70116976764762029
-0.99105037413677621 -0.92400006962116521 -0.46285426638652893
-0.058838466783607046 0.27606270065313332 0.76430786618107049
0.31099292684626789 0.47828573151575782 0.40454160475248102
-0.4086982906755825 -0.58309648351493237 -0.39390186684893536
-0.56862806722726411 -0.64948840889901049 -0.30324502209253978
-0.58798886509335624 -0.60103551145462575 -0.166948726494482
0.37364813066163016 -0.33279648085759028 0.29398384165237701
-0.64896539853419988 -0.36043011250866286 0.6799518310263224
-0.32534873169137413 0.28357684363297686 0.81026763211983166
0.32837144461319756 1.1829813451353637 -0.45868938688464311
0.079744101621596286 0.5845845194622612 0.67407719506530839
-0.38205390065648359 -0.29998917836982031 0.74873615609125466
-0.27883604165889508 -0.0050183555654044198 0.7664698254498461
-0.31682943287882104 0.25046208564162598 0.80698598109499642
-0.62081266794162637 -0.50671733005873421 0.5885753468231556
-0.36492065942939789 -0.0059746814796604042 0.73695783846838481
-0.56347932761781117 -0.0075637919649658159 0.76783817412817257
-0.53648962245040899 -0.035115100181560166 0.76025903614515045
-0.38427753610317517 -0.27732913262714476 0.77717714600644427
-0.58666148482535796 0.71213646557072074 -0.33561621931998786
0.038040808899035383 0.089879417981935106 0.75553324818018552
0.17802000032301457 -0.35079723311805466 0.63053684709804969
-0.7222369702593241 -0.76012286372849758 -0.37198213951015191
-0.10694521579576133 0.42734407707222211 0.81096709471375306
-0.38358129288441845 0.29127913976829944 0.61494438305115295
0.21696945104660248 1.2189921869535372 -0.37550880892282379
0.7322614459602157 -0.44520074869319259 0.66765976917280767
0.54936453689969689 -0.096129266452393836 0.70430727607592303
-0.10430222990876814 0.31075834714835615 0.77731532722143015
-0.083306661894154033 0.092102921353358624 -0.72892945467892645
0.66664370137517892 -0.55637036541934748 0.40941219151999775
0.54402422693864416 -0.10450071135574035 0.35997877061274153
-0.18467651178409561 -0.30399925993122423 0.63973472088160577
0.46669777276718527 0.90215753538961962 -0.39232324680213537
0.83779601446090979 -0.24600533651248035 0.66620974005800804
-0.43451190066575407 0.023441915247399692 0.77543509373399644
0.23765513548471695 0.62323563393959169 -0.42871296841515516
0.42728382598267878 0.57830060041931297 -0.24709938437939627
-0.099496260449475571 0.23153266827217678 0.76432131763854017
0.8249695067848215 -0.18324903750287547 0.40956503755207052
-0.76102435602552809 -0.46974745113302063 -0.31571069051152278
0.29965586738876659 0.49778599439005866 -0.37149973351158394
0.89782137403195961 -0.32212361125113453 0.61789756344124669
-0.22582284888002313 0.38597453856341346 0.77263402976649331
-0.47266434682535596 -0.64958059405291735 -0.28530311458912649
-0.4360574272141875 -0.010132272639769013 0.73419582038982867
0.13582969207045892 0.3186405986837979 0.68857328361759329
0.44468504046189228 1.2520188074081755 -0.51259093531521316
-0.76348343427731713 -0.64398532595176761 -0.40077915593856517
-0.2360107514069103 -0.38327968218892394 0.59370930309396641
0.33559703207394165 -0.11313866489436109 0.74128842725365729
0.14745415219417346 -0.048291866681006823 0.78760142637990782
-0.56998052086422568 -0.89344731055621907 -0.39990140870450119
0.31512420396680163 1.0372287763993686 -0.39038978776810751
0.75819059550600443 -0.51184455987029231 0.65915131168668495
0.15708850021462872 0.47273718956649802 0.66036058452430524
0.85690144781870359 -0.45518751758556952 0.52319175688119657
-0.092383051623620815 0.79941193848181413 0.66308377273098529
0.41312959673270555 -0.41220942751281164 0.35807450261952312
0.096043224316852971 -0.31774727530137348 0.49184318258109982
0.18269850874098026 -0.21198409390134465 0.76928912837723828
0.2574289446719753 -0.36039321545352898 0.27388196848382051
0.055765640479283007 0.61727893385966048 0.67544466270445724
0.0097249783875472673 0.93190675280442115 -0.0054217067101092198
0.30341237138601151 0.58582380883354368 0.51542525240284931
-0.34203111262439734 -0.096721449185896091 0.81257651997750457
-0.1555578551084178 -0.17307954998904052 0.66517844249435143
-0.19855564178974383 -0.49755132710771832 0.39884603728374657
-0.43089026483272796 -0.76868574689268598 -0.2755234462822358
-0.17959837462025519 0.71383169885656805 0.73328805245009931
-0.2125608492279909 0.44030443302090205 0.76499935306047462
-0.73755821753441886 -0.25776784178972889 0.59615054744423901
0.56381402924902879 0.91027792113633943 -0.44987052673258887
0.22211025816837449 -0.019317179744069435 0.80933191226311862
0.26936023731854242 -0.376125370844969 0.69039161783597791
0.095508702140000068 -0.1706975380375173 0.79486580440911325
0.22054232029349308 0.90704856142649959 -0.39067843720491169
-0.072677731437529758 0.12501223222702862 0.7471182224662698
0.50980718835492489 -0.34301589206885907 0.73749292434646208
0.26041364345773843 0.97396142678099906 -0.35509185599626392
0.443974568880801 -0.58312459355074431 0.62730167729558417
0.020265378940111489 0.69063644557800785 0.66783196520040633
0.25265770899790319 0.75910650668828694 -0.013783990796021328
0.18963232475185698 1.2207778033026031 -0.44343702212798775
0.19150340526708121 -0.3633410240578776 0.35411905633440455
0.082051335998178487 -0.14370721105344764 0.78395593150034415
0.34058414926274594 0.64906977588344006 -0.0043886851554901796
-0.2111575681221769 -0.34078258862084354 0.62973805204675415
-0.016395922260942442 0.34493360723157807 0.81078323687187037
-0.53299423447435501 -0.16468984191143221 0.73691092542885173
0.51583568857366657 -0.23681171843281668 0.32537290724189916
0.52597822922863102 -0.66433317256650248 0.46934164915560217
-0.46699748274294528 -0.21645554379290743 0.78502122780850669
-0.61766092300186504 0.37123096790151955 -0.63836819916155463
-0.97383019950048322 -0.90986195283530336 -0.43376846286305693
-0.55957565370693629 -0.042373720295174166 0.65730838042139084
0.059523796084063108 -0.30091483427671761 0.50974569182621821
0.52491154544842722 -0.034518296607961574 0.39190753519166321
-0.62031890079013685 0.017130409803232993 0.78993786474286054
0.35868904742745755 0.9649569464428378 -0.37901090266224458
-0.96262145911267361 -0.7226280939977876 -0.37203353794131289
0.67169467199883925 -0.47017376600075345 0.66841934068015973
0.39116266703291203 0.73026117527813739 -0.27177225767421476
-0.20073348169869298 -0.35014996006295362 0.60411427764990577
-0.44307340973366927 0.18391503300400203 0.60893744127354665
0.27541358114126169 0.76060097298623219 -0.28489610522235864
0.31409528234267725 -0.17441725446514056 0.74313006896273492
0.39193970642093845 0.89772436410323309 -0.35890304767361414
0.39332247317830493 0.67702137169660759 -0.20139587632561984
0.42784476388175285 0.73228661169137332 -0.25847832000583537
0.76106627006536343 -0.39497776491339387 0.66779051439611692
0.12892648865807654 1.0319184979989 -0.3820970936046777
0.042315238781689857 0.90316943887576429 0.084210607210131627
0.50646547892642602 -0.51970404214202048 0.38129003984685994
-0.15595313709929393 0.96554385644888008 -0.25752790096685629
0.74814640408772703 -0.30943739771603873 0.71558121458379986
-0.74291761524569111 -0.3563505922080985 0.56465704328203969
-0.61456687956281186 -0.20936604265491354 0.62348256498061261
-0.65055022559427655 -0.28735963944174259 0.70888646438293534
0.19562103803816555 0.015000080779364211 0.75199614934414427
-0.47924904422090187 -0.55880996136772154 0.53704447341282702
0.3113792332891645 0.071510186364374562 0.54895132430240068
-0.35720109189843363 0.20087948548666645 0.78292778064962221
-0.41108150635351315 0.18340367825575044 0.74118177430054999
0.77104143061748687 -0.39792479310878193 0.69265787952765834
0.13758433531090652 -0.3400564633064036 0.56199854199163468
0.85856001341820587 -0.45550896421134368 0.54949065982550138
0.49980182259705686 0.83987483941170638 -0.30276548225847932
-0.37876860259610545 -0.52146386219667917 0.57927743527667985
0.36004973041467636 -0.021314079838328226 0.70904612886145912
-0.80006277030498829 -0.95120005971797994 -0.47650576847838266
0.66451462272653394 -0.077186618194147627 0.41946859971974249
0.36306898033317125 0.64390197533397675 -0.15962358211713479
-0.71561303496728534 -0.29413129102137248 0.3894697324926355
-0.075340599939147879 -0.20648680654754337 -0.61833314288052321
-0.71664998365882759 -0.55866318689801631 -0.30450704283342844
-0.23273596487220694 0.75382752068170156 0.31939284713253357
0.25129773372477349 1.1045379599083596 -0.41955199066045168
-0.64049688644455216 -0.069255141379173324 0.55584690198276832
-0.61840817087119326 -0.96813280731676699 -0.38102861439335101
0.33425174332804097 1.1798553014001651 -0.4687844128066132
-0.67775815070639922 -0.13974260965006025 0.53763375318531814
0.45086724380385501 1.1954558980990946 -0.43080083984924755
-0.13043532844762851 -0.034520245715034648 0.7449612251613118
-0.58663493635475739 -0.23946678118396392 0.71302783386684609
-0.1888142982075891 0.33964553121809971 0.76740764699862041
0.050910146426261349 0.88718224169357462 0.58638588159215033
0.45952771778907753 -0.084003828883057352 0.24051916239616133
0.53900664221430716 -0.5115435537095756 0.70799446187337622
-0.44469723039723696 0.59439893620238671 0.67856219306403176
0.61974228524087138 -0.40632683929698565 0.73218098351345873
0.10334348026297313 -0.13559381473590548 0.80310679988162548
0.24067341659827335 0.0029311055786820361 0.74878326136447271
-0.43907980207572805 -0.085453805310411468 0.80454531770302395
-0.47272228547450545 -0.53638313009156136 -0.4270251000227745
-0.61133210184383913 -0.66552954381890927 -0.31282249761679282
-0.23965182434553256 0.47950058206479973 0.75801748518881595
0.12419106810716585 -0.18638707029369606 0.80548527581917995
-0.19935453124430502 -0.40197280618371067 0.64396339418046722
-0.42645983816625765 0.81162510134527643 -0.40098256009046906
0.4653154549402263 0.83313534070034301 -0.33440612236641698
-0.623625283776164 -0.8501312868909281 -0.4680544627630141
0.37711972265501004 0.32292766453450028 -0.17694464910204033
0.72076703584967916 -0.51231087937847875 0.68541998285957817
0.13330300962855635 1.133525259905424 -0.31883915279108521
0.10882427243766735 0.71582246667331972 -0.48351806698665456
0.19305495033321307 0.02412060287646689 0.75359546731038307
-0.1733562304810512 0.61620414424915992 0.73724598795695329
0.20806342467428784 1.2557529581933711 -0.40836074327066285
0.51658924286338248 -0.63701059413803662 0.43719392497405352
0.21399945680137478 0.25629484083138543 0.68600666443406055
-0.51628400563789256 0.10655768698197221 0.81212270688205734
-0.51583206300528772 -0.35900072879910638 -0.54168897455767251
0.4078287233785467 0.68169785640050939 -0.19365401309938335
-0.28374381626191969 -0.17400403729764591 0.79795952097883571
0.26322991064751733 0.77031463732654615 -0.25849782386072917
0.16893854030930022 -0.056435262845727863 0.80826876361247457
0.033019716064320193 0.42750749541283461 0.79452041163662557
0.64266735205302439 -0.46913698619960265 0.70921681213400944
-0.41195021123557929 0.024461063481581391 0.77560740922184124
-0.053435734193993056 0.93501367155968218 -0.30958992419608222
0.37133757142240142 -0.36206185072206587 0.32097676578737122
0.22437723583856162 0.92608928245087263 -0.30975230125197584
-0.41141357554980651 0.35529900945117099 0.69145180943607443
0.057781323189171729 0.36901885013184987 0.77737486730261907
0.14147663136064104 0.4686043972986571 0.68301807054699992
-0.67454878235848525 -0.96439557560969291 -0.40556226425902508
-0.45208719097160532 0.23930324680170756 0.58866236862203891
-0.74268382726440052 -0.25395789263983204 0.62653837969612169
0.30755990423885748 0.41808427653782232 0.56931094414368744
0.30121064617704896 0.25423122620498795 0.51871724612905723
-0.70817033909936811 -0.48769997684401289 0.4446042497622571
0.16128178814087768 -0.089948421679858725 0.80762595373064272
0.20164256613417564 0.98595952178814095 -0.3080294492361304
0.2856596376510776 0.1041968017606969 0.5184181327011288
0.10965673502738049 0.83115230054379197 0.2637755736426115
-0.21955190621764231 0.44118493568107553 0.76640004567752129
0.41234568977318808 0.69815776282744046 -0.21523638952640312
0.14444552575691105 -0.085196787051074807 0.76123996476042066
0.91763800504821802 -0.23787398450696173 0.4446205117190658
-0.91018342201570768 -0.81043555988765448 -0.41928250947780299
-0.53438617061705429 -0.25803790150517258 0.70187270262506019
0.20287623350586337 1.0873832079456012 -0.45518864285291727
-0.21550899371760934 -0.58437332496026073 -0.23939684482049017
-0.94254820044576881 -0.69100953327341941 -0.39155620591633777
0.0083173936041252006 0.63479793800546958 0.68146033876309531
-0.073166860986048299 0.8830399399374258 0.21022732946507006
-0.62332628643436472 -0.61189224228469286 -0.21886477043881314
0.5160809342540631 -0.14533744511230218 0.72740371978868268
-0.20943792520717253 -0.32082478284523219 -0.57224348910454381
-0.30593985828587478 -0.22780966553169435 0.79687115567883637
0.40679409129673516 0.79839818335596568 -0.31290584739360128
-0.28137169645897764 0.57242195572090537 0.77493752517816716
-0.63746751751115127 -0.75799598222276288 -0.3557692576345417
0.25487046588457751 -0.1175961194555164 0.79283718835163342
-0.37823025908441821 0.63297468040470939 0.63834756089644884
0.50666171516862768 0.88236965205210893 -0.35359231677464464
-0.7168344769112025 -0.41157565551452535 0.39746128023698901
-0.11962814105623032 0.45654855767047309 0.80421643201935922
0.67853875299612554 -0.67757982579377618 0.49191793000232309
-0.47988742215563818 0.15811088861611822 0.68688620272674683
0.57025755432333725 -0.3822093773916766 0.73524987474345238
0.64471984254806181 -0.2646635078146975 0.73121017772428587
-0.26422483785484907 -0.27322671309990199 0.72843702720355452
-0.75313272531920816 -0.43393058405570883 0.56825928887844412
0.12531350891852355 0.4890928546547233 0.69765821917575011
-0.00016354233136084417 0.52631032607190242 0.76664081807588502
0.13211988859209356 0.40526726761939358 0.71914947707499266
-0.2368607179295239 0.31953053126530051 0.69976927246302978
-0.16991390522667871 0.72512506003301525 0.41041637333395187
0.12317912871837677 0.60608424958937235 0.57116396045345397
-0.46811045093528669 0.48284713247024591 0.69424284163141436
-0.34799015036687386 -0.63543794136916887 0.0066059443773838211
0.13537373385378615 -0.11345369318751075 0.80815353508526044
-0.95318787075789757 -0.7955879400812762 -0.39617475064058283
0.65922029373649949 -0.46548072641097527 0.6582367985766453
0.51430729180274071 0.68171596578351412 -0.2749322314304834
0.28581312487801913 1.2506408051225861 -0.40814616305939211
0.42967409129396827 -0.22616361636633187 0.25654572234397932
0.371685826684514 1.045765569975238 -0.41067495578877811
-0.61701929075368511 0.33497271955122443 0.42494013588708412
0.55020169484719972 -0.27694548883100012 0.73702212605383721
-0.47314887375884318 -0.58771479047802799 0.47827254137082775
0.35912095305744707 -0.22238153745032463 0.74266400093182483
-0.36971450233179404 0.70010285321720289 -0.55623940458087873
-0.27844873839857165 -0.29539519354661792 0.72124318747321325
-0.65109283287891628 -0.92535364783948282 -0.44177768782326865
0.93396018765465882 -0.18099222981043894 0.5029817278277946
0.32866490098025647 1.2809130006693428 -0.42984468815971866
0.53579388992389632 1.0542734053887948 -0.51153299812838782
0.67144594644825162 -0.6697047234925968 0.46520329503381674
-0.18436548599820668 0.34285906901114416 0.76245203507377823
-0.64686366363983794 -0.61283943762615678 -0.22065949430191267
-0.93612823032165871 -0.72877657717164013 -0.3552418053284967
0.41493099395393429 1.2509692473161973 -0.5342538914161139
0.50361891950175774 -0.38922976541576482 0.35097601254400956
-0.65468038141204588 0.087220559353308857 0.81068006841984186
-0.19298121462382767 0.52393658391615361 0.75190411037898741
-0.092234163230880739 0.272867528433272 0.74886801024427285
0.41416197188361004 0.94089271462832791 -0.39195377728092495
0.25148879078473385 0.8245924262272819 -0.28775240299255245
-0.56762718267306767 -0.64035850930552485 -0.28046573423202403
0.29031210926136808 -0.049827649495609805 0.75138377244437748
-0.49105091856690919 -0.65817226874307622 -0.31240297416202623
0.62531162206523305 -0.4252891984067908 0.70732974890050571
-0.47306990994965226 -0.10768879486732175 0.79254463059080393
-0.40932707757561104 -0.36783377141082951 0.6713374979761042
-0.68826356848584602 -0.9499810806050597 -0.45691760774387546
-0.3724669676542014 0.27804023360241814 0.76909754883303094
0.59872261224557022 -0.44518116281548892 0.72931467960970764
0.75858672482215184 -0.58957157515119185 0.56617526646967775
0.31982176387774963 0.52840236239991256 -0.34940417250155775
-0.31156208221596771 0.2169175441694744 0.80430179455260031
-0.58512513043861603 0.092924534054805719 0.81112218836681649
-0.30182466205588554 -0.25913398503059426 0.76492833581143316
0.84378677814589054 -0.16324665751202438 0.4222484854374855
-0.57687393414394528 -0.32287179706747793 0.68328331677584941
0.24701084492600778 1.0778883339772918 -0.40776507561729147
0.62732652965869207 -0.68550517888358442 0.59737352388116705
0.26385004262058764 0.80375250501900553 -0.29747149850662424
0.17718246105828861 -0.20577359723022681 0.78558307548028949
0.67333475884072058 -0.53578707848902063 0.69325583537332847
0.039779884938957011 0.31938338699023028 0.7663115309321995
0.12024254663372247 -0.19329846021384611 0.79928280051553457
0.89301107183817052 -0.15438519068481149 0.47152094558997959
0.043831666270618186 -0.29487616584177623 0.57880988956816992
0.75272774098893791 -0.38665311880324715 0.39325036377025668
-0.39493098462213716 0.47494214034062487 0.81533688481059841
0.14885158861062564 0.81008435121233724 0.57317922668949706
0.3355185611110798 0.9022703836556456 -0.34691780515935733
-0.2959825190422567 -0.056667386652822671 0.75739656013368517
0.3714782816307487 0.52495324993544479 -0.27332780104879362
-0.37155848759485011 -0.54076938569919264 0.55394608905323395
-0.37070388247740382 -0.76827881821692046 -0.19135597100797241
-0.39149999402162372 0.20615579672892537 0.63361282207019798
0.48300224026351302 0.81273204571257018 -0.28366762798677314
-0.24830252768408911 0.7182240377444522 0.65152538380154112
0.10216828874440154 -0.18938119888186655 0.77215360876406436
-0.34602897547667411 0.12867501436112505 0.80136999560959765
-0.37355374962210774 -0.2411579788730478 0.79561861828025116
-0.19147223475463093 -0.18891943343602335 0.74196611705380633
0.06025284568156053 -0.34292387579979433 -0.40419398805268969
-0.11826766439586933 0.97052384585751206 -0.13324926095079803
-0.74836150890761388 -0.65940835778318174 -0.27475999927251848
0.77683289717598214 -0.27225380155407741 0.7001758538288243
0.8713536386693157 -0.37699689098001699 0.62408918933363111
-0.64412525101013429 -0.56445500659588177 -0.37029994062593374
-0.74760427644662286 -0.83576313735341401 -0.49097196887522898
-0.65092470959822446 0.62897369420025129 -0.35164979628878967
0.16130002367990315 0.83479652569580587 0.49787831487890344
-0.38581769562333434 0.39499230260247309 0.63628694853420598
0.51329854350915127 0.92035537523681477 -0.38364375825417341
-0.46960740634109399 -0.58443802677686563 0.39188642595872381
-0.089472673813048686 0.49964414510413491 0.79244440398334604
-0.80178517709841657 -1.0112044119292634 -0.43638056450527074
-0.43377877518930852 -0.43283792966939316 0.64775940228125961
-0.33754066971183505 0.31830252788463831 0.81343725106325593
-0.209251366165768 -0.13975595175516986 0.73166420750083461
0.20677995972668128 0.77168113277117634 0.257532324018797
0.78611215527479672 -0.31177688426547512 0.70259668225052252
0.16752810901954795 1.1536580906506373 -0.32857017363168239
-0.10588058898321506 0.68666854611281103 0.71998929782912313
0.85446033464087279 -0.40839888195132801 0.62705057028555444
0.73282847376244931 -0.31869550686668546 0.66537895070527497
0.095785003055279816 0.84479683328182276 0.21470762105755625
0.120897610185148 -0.39655765024565071 -0.14547730528308733
-0.27470446552335659 -0.71281824320747944 -0.1971782882667128
-0.28613285365091379 0.33740683307151897 0.79108657225998513
-0.21888607898030088 0.49256207553214715 0.75589375967169303
-0.26842177775678522 0.9484114462132105 -0.14981360846718417
-0.59457455385487989 -0.40989922216624919 0.64980030345707007
-0.67009479526935678 -0.28977323690522994 0.71494479949994627
0.059223461425967017 0.49763959027101023 0.74576628820433655
-0.80921290962751868 -0.75330941684775254 -0.40458176802543733
-0.44109083673013849 -0.26934063910002237 0.76810068118772534
-0.23526944361596591 0.36587155341172028 0.7166146357964891
-0.7305823904332609 -0.99055663754358392 -0.41577124700902601
-0.045781561291697415 0.46638624920650429 0.80177011735499093
0.82219042928898567 -0.1118289378038746 0.4741003576685543
-0.47621855932027479 -0.3867287222653033 0.67256856867265213
0.64763849653657957 -0.030736619535641552 0.60033233387419216
-0.71751041844559715 -0.35131078372493008 0.45696348925185504
0.20858393657966445 -0.087154543392500727 0.81249254761100786
0.056176109212524139 0.39423865027998062 0.79033962840900074
-0.054688617863758893 -0.46295467689505543 -0.20935015298418591
-0.34783628878186335 -0.63677363864700709 -0.082519057613659186
-0.39286240145629847 -0.016033036899582243 0.7683580553964191
-0.72701013648185153 -0.34642261080646364 0.67128208243143206
0.85445147268186616 -0.40702518751055372 0.46536632347741858
0.36078457502568995 0.43346346942801617 -0.23591123867640817
-0.68812710107140695 -0.71287148815854096 -0.34567035946918878
-0.26944580687902153 0.44652412180192869 0.6651020602207609
-0.61194905601946736 -0.24160141719377748 0.70883321384015119
0.54445638530533991 0.007895976562862117 0.60272370329526126
0.18514256895497461 0.70347503250230936 0.59789883504991082
0.29618956652966411 1.12046347971331 -0.43939678958447814
0.44419070327280785 0.045207950593127322 0.49626259773047821
0.61105195960804437 -0.45482324716575384 0.72593806007234463
0.52012446694360648 -0.23356585449704248 0.73785799296228305
-0.71813955480398484 -0.55084371653468622 -0.14864310333431519
-0.61383621582776371 -0.65199500693618262 -0.29136995212220285
-0.090305974359392138 -0.43744560964261581 0.37688592987348812
-0.89336905727967419 -0.19024435308585552 0.13485434001628249
-0.5461046531616045 -0.05086757090448657 0.75699221991491328
0.085820962601390605 0.56105969367449759 0.67474591324373989
0.66482874699196159 -0.60951367644902099 0.42485368399811563
-0.11243977333595279 0.87175634268946212 0.21281943773198009
-0.90576674718649208 -0.7410132459217067 -0.36205271634693048
0.28851935844244991 0.66920959509253031 -0.37909448457423167
0.29058939907726078 0.13514613196266012 0.49454049828234048
-0.5062109355015405 -0.32420060010229079 0.67177639924398846
-0.42368567872762775 -0.40610897475998087 0.66698796226018686
0.39795436985889232 0.72191271959928471 -0.26994762741489353
0.46875243784407949 -0.0025522382983638181 0.38282578974619952
0.26813330414346925 1.1300010601222592 -0.43738805643786804
0.084372706174333345 -0.17641335950281878 0.752647348388507
0.29525174487217676 -0.16423430213810519 0.74549400562146673
0.77326013703910945 -0.37033773433308603 0.69746944305229874
-0.11461289166456723 -0.060018603360312284 0.74824734101762402
-0.35776024202975698 0.47568101943502583 0.5265329156681986
-0.88392704287437951 -0.89522517244142108 -0.45124849254348476
-0.28859463412881858 -0.46203914164029314 0.62020070895960799
-0.66323819010093388 -0.85039021380288915 -0.40326508241033565
0.017876541003301938 0.67606577379822852 0.67247685258638512
0.19680539595459834 -0.37014516722089752 0.63160108336371223
-0.27329071786140702 -0.17502848850721975 0.78243895796154561
0.68535347125403945 -0.65117098821361985 0.59906454357563632
-0.74823056825114875 -0.45292940783115299 -0.36178931748476373
-0.33531478173187956 0.24775112480033989 0.80034087193162406
-0.43369744825072942 -0.78715774377795711 -0.25283162166751083
0.2620496273694517 -0.30388796622121994 0.72267498286629461
-0.82454594395758285 -0.77770538859711991 -0.41903346532276231
0.21552819566432646 0.19517293776912581 -0.5712411695754227
0.72212117894529726 -0.50101758244652395 0.41259543541890054
0.072502402556041901 0.60930438318675151 0.62169595701571723
0.6215463211718415 -0.45045850440111934 0.7053017461885247
-0.2009567759419042 0.33088383819091938 0.77378812349103043
-0.46058999689893376 -0.26108894973921082 0.76299983475910693
0.06181772432220356 0.3921349130316365 0.78546549385433906
-0.37339283030306802 -0.36924567844639711 0.67488890209106955
-0.73334586858504736 -0.46327747116892581 0.49392269264487965
0.16452046425189337 0.80173619614120284 0.28197319754966088
-0.075545824544654749 -0.34322339221242792 -0.50702161268450396
-0.22432527507524291 0.52877397561716144 0.67095427953654507
0.42151225255104308 -0.2202097065908859 0.22878991221705292
-0.78368016576985156 -0.50318590481875347 -0.0034433094249450846
-0.33959793836447361 0.0264005535519658 0.77284195218739171
0.48809430301198375 -0.54696071496771381 0.39217383705166498
-0.010800674751943795 0.93350520285359551 -0.21489257787649763
0.28453279633428608 0.4624612352877886 -0.39486276430501022
0.33348854390396543 1.127804936562649 -0.44650882882103105
0.72384629027426683 -0.31761724870827912 0.66738028264921923
0.68638520909503242 -0.6100082540193501 0.64184725650665797
0.39131810791917765 0.54236906166716103 -0.090820399617868475
0.19707604498834641 -0.2028896279074015 0.77552012209378063
0.34929997852548311 0.22576567285035409 0.30867251644784233
-0.37556793535008559 0.78292503988652129 -0.4730458487064837
0.029738149955477411 0.40625987122638207 0.79934786686035864
-0.7455927267811262 0.54220267731239957 -0.16134361941052333
0.085743389107404866 0.59037592102777658 0.67571635749236236
-0.54162748970707142 -0.29936739434363702 0.68047211041919553
-0.77495670262033922 0.28726920273276946 0.28697731222261069
0.033909816902793821 0.66081306834709608 0.67436346883625475
0.30220686356044801 0.10435202019936618 0.49456311808479825
0.21947513504139238 0.0071966214990215605 0.75543160863075087
0.39133198911067346 1.1718137019854211 -0.47810683160994216
-0.81193744952286906 -0.69252809585109532 -0.32228141123616894
0.47041788791496053 -0.1506199136914752 0.280388544503829
0.83409313952859421 -0.19953779060789678 0.65518125438025265
0.60461860558121927 -0.21761076653027267 0.35837819876381616
-0.54194848349943925 -0.40084872116274539 0.65547706554660579
-0.91404699739812934 -0.77574265674033072 -0.49124421838535426
0.56350185250625628 -0.48620284500951705 0.71855253176993017
-0.55047891392269932 -0.37792943292561887 0.66497238114060764
-0.56194766571558574 -0.55467050845452093 -0.40096726697920815
0.687487597028138 -0.469994768432624 0.67494198724486409
-0.6292544312684889 -0.35236432229145009 0.67529186422355991
-0.87797421255591779 -0.90197912944469749 -0.47097637463163977
0.62580072340881898 -0.40727800058627395 0.72943237944911488
-0.35479536390133504 -0.63408571840609795 -0.1379452599373181
-0.13124762839430915 0.75686944742539808 0.38658717598318759
-0.50085036569561581 0.40506343486441487 0.47493179420759191
0.2830364336911444 1.1548683306801628 -0.44536419217764234
0.46382019372265049 0.029967920985177088 0.60176766713021834
-0.3319939957097926 -0.083041875006831134 0.78866000154481242
0.11275175321809883 0.49524060842098372 0.69928622402014895
-0.10404333780318709 0.4482459123183542 0.80763072236214839
0.2963518306419779 1.0182354403649914 -0.38126591388212461
-0.17973207447370143 0.51648601584776266 0.75532764625892668
-0.31026337498061629 -0.63933466898775038 -0.13523202371218446
0.55880166632657335 -0.4690326282594981 0.37101021095843123
-0.13623062716498957 -0.30383427916206074 0.69735932590515404
0.70061670444895796 -0.34942405484161831 0.66985449117018447
0.041630131504827972 -0.32933319042532005 0.47166415762860936
-0.37038993496685002 -0.40364472306943711 0.62455757385298227
-0.58313646358817195 -0.9245327494670299 -0.37026319914575367
0.35730103625778575 0.011024153831765915 -0.34012865381727408
-0.80232163616579477 -0.77995637648670524 -0.40527349073606445
0.74973810489042947 -0.38348762506122114 0.65246291961728531
-0.16538119691155195 0.39196811145501798 0.77544112933586007
-0.022844282334254729 0.36732594602165491 -0.68693288320732648
0.13855769403864571 0.37260730551783716 0.71957927464026739
0.12420381452778884 -0.25941651680315303 0.70038186829631144
-0.33613493554947738 -0.80303491672382421 -0.26756185068098404
0.10622291944817164 -0.16099455138043695 0.80505347690448303
-0.52452264027337492 -0.11056116585099574 0.75108513925267317
