# XYZ point cloud file
0.46203936159806602 -0.030562446536313015 0.34179022221419686
-0.41410511941079697 0.43689754892371369 0.80164821594061841
0.1626016436540425 0.87967464387492944 -0.17952887262675077
-0.92091863274679753 -0.23268026479510584 -0.20845833529256907
-0.76198213309768015 -0.63326239829135655 -0.26784143116472237
-0.32318928267505598 -0.25600183527565701 0.7741111630754105
0.09218018267177186 0.90731630988710865 -0.23042615668063782
0.22617217167876902 0.78261748079209159 -0.14606603740558377
-0.47509455601932338 -0.35562765211277014 0.67953061608815446
-0.92647986859084419 -0.11111347689934181 -0.27692848536121062
-0.45475199271260713 0.5249254345948402 0.75587117452503882
-0.39756502732859644 -0.12933490138915316 0.81697255566544413
0.47900734201343731 1.2122254601545528 -0.5077601093827333
-0.1686213978316875 0.43636317624114929 0.75860621477072243
-0.40435017201612133 -0.63170003910447048 -0.080098093911942669
-0.19241394311327653 0.33371359721695804 0.73901387966239973
-0.40975929076201112 -0.73203476075921248 -0.27385680847520888
0.21281593776540397 0.13995093059596542 0.69440656205384599
-0.96289552254824962 0.016109087936393429 -0.10741497775457276
0.35152534074493502 0.78427591720221468 -0.30850387375685351
0.69326369631186857 -0.64190302937351973 0.59139673296482087
0.43475690932702626 1.1374381290455311 -0.44102702230512847
0.27622169047180911 -0.34603716634671855 0.1293041850609491
0.6731332752452257 -0.47718127148069645 0.71537533795743968
-0.1431698049990775 0.6609082897193379 0.74426876931362784
0.25806397048902419 -0.12829737557981868 0.78488630869258991
0.36529100565327965 0.76971800796052881 -0.30292141228572689
0.096029767992867221 -0.10686870913397506 0.78387399863975027
0.2243219825522722 1.0743512740752768 -0.35030748664568812
0.30684899493684092 0.25239518904058444 -0.43609553391895872
-0.13460229452132744 0.54142935277501447 0.75247675720272511
-0.08615727263975792 0.56814231338087939 0.73362227070896147
-0.32984344982693159 -0.39825772846406116 0.61297839558000078
-0.38514739390575947 -0.66196196260007301 -0.20362422257609936
0.87143880637894533 -0.35228930456041851 0.63627705125845324
-0.05759432681286647 0.32947737921419762 0.80745568353856356
-0.015218345037808945 0.63060625315869112 0.69304067377488465
-0.020896297351585602 0.32547648989118994 0.80515085321066593
0.41509258882004119 -0.35960487767347482 0.33067697665756945
0.28537318002645051 0.15677104427867805 0.51126917508327807
0.027832666801383965 0.27036546984461518 0.7539253834402313
-0.11038791487617061 0.4170456155267277 0.80807681280620258
-0.75608750076237285 -0.96584840454460563 -0.43419038479419214
0.73409819049796887 -0.44283762766283719 0.68088135204765621
-0.28165735779211154 -0.39626529951697531 0.59412674065706383
-0.51748837473674136 -0.47108667129630799 0.617643185940846
-0.35862718310256803 0.023294571159644839 0.77533782331073553
0.5529964821934108 -0.40160758790080475 0.35496600712342463
-0.25662612500883419 -0.38076342193429058 0.67126532385186266
0.057194169968932229 -0.3035488226201028 -0.49689578577256555
-0.42592433378564643 0.016980094677077062 0.77566199551953119
0.69060638912679728 -0.65561174746623685 0.53960685307438006
0.27978771370748845 -0.050792486202926312 0.77882523925339342
-0.36091294111775873 -0.54927609769744068 0.42094778935222266
0.22914210266214141 0.66878505891945128 0.5610737382745139
0.5974023569767084 -0.6502217645846855 0.64167623341831792
0.3514943477128174 0.62415538175738394 -0.061527835309558299
0.11967007032671262 -0.1899530553019213 0.76634158795190821
0.0038066792529178883 0.62885489457121979 0.68502316090950011
0.22809285599903717 -0.055684605510418095 0.80827692133043527
0.22490954404083219 -0.37096675259181522 0.25384813313419841
0.73082807274884942 -0.30423021640977854 0.68574160633324333
0.20297431082032169 -0.39513900350225617 0.60605001852517759
0.26871029377226385 0.68857105007960717 0.47876785471692429
-0.1428441050702336 -0.18505481389641165 0.74348906116594904
0.55182784759752579 -0.51025387351937912 0.71361656763773951
0.25921994487481825 1.2655245397111701 -0.44251144877605419
-0.03581892266004516 0.34784343438256116 0.81030120901840696
-0.078545026887189451 0.19326350263431502 0.75443369789615922
0.64160063593057259 -0.4588793863916738 0.69143300645819927
-0.4077992813990825 -0.71866709953231311 -0.26297105407129706
0.49747546177539093 -0.6238267623401299 0.63276766358852399
0.53820408545851883 -0.61296169975307535 0.41281876995239664
0.68959045193864377 -0.4765286476989985 0.71094965480021166
-0.42211121184669587 -0.023549869499506215 0.76018998580097374
-0.41965238911861036 -0.050206543040021145 0.7773258552706146
-0.73975262682816023 -0.5691353666629928 -0.22142285536348538
-0.71072552583766857 -0.868398011263535 -0.41404699352347762
-0.44249607346695363 -0.32675332036298332 0.6977205254018557
-0.37291256687677787 0.89130555152840474 0.072405846827805931
0.21359773378623181 1.0034495223117568 -0.31087687872970982
-0.56633519292553025 -0.84128726996767589 -0.3683847155472364
-0.47651845668752379 -0.62101937828141041 -0.23445428067035934
-0.49687460860900856 -0.92663027264519338 -0.30755672075651574
0.069324921697308639 0.44683712501386186 0.77153090379836797
0.42820356294672912 -0.19009157875478877 0.2263380029193911
-0.37923953766144969 0.92442127571409149 -0.13439590251576838
-0.25203770660764668 0.41607678914834301 0.77343330878029448
0.37525394028955894 -0.042532860836852926 0.71643804593356819
-0.77378407633228008 -0.26588035397767606 0.27060638922669611
-0.34076392776948872 0.0054701093822853153 0.77509528261363414
0.092914273999928909 -0.33987625311245573 0.44838071537881063
0.58456905037982843 -0.57137428521311495 0.68984778792726864
0.60181638368068668 -0.031966865244144493 0.44216507671821148
0.69170280589487909 -0.074516962820640575 0.43687228824614088
0.36993330058156992 -0.041885594567506068 -0.26253103815085055
0.3362161963738135 0.79917819702508819 -0.31159588905387636
0.73720832482111476 -0.19959372649856633 0.6956055780399506
-0.73028136923321441 -0.84187899550425493 -0.40372751692418873
-0.42369484443086058 -0.26460425043398494 0.77145039936557325
0.21456540920765121 1.0493344823009614 -0.33016783937848793
0.0091257416154828519 0.79778731169101347 0.6707691681895831
0.36365176336426863 0.76139106387323219 -0.29441212144739737
0.027814209854582828 0.85456101559509978 0.5975999467299804
-0.24351999889205977 -0.58341387086121155 0.097465306560717835
-0.23246095602960182 -0.27906230509290531 0.72661468207051882
-0.57679204484300506 -0.72586125544461444 -0.33589211150124498
-0.36567014717076951 -0.55434294470732626 0.3733340471173392
-0.16677235069205665 0.90158061205877926 -0.40809382156313134
0.66231669276701055 -0.15501166825024004 0.38021448348196785
0.2788895251888448 -0.0078995526850658138 0.74013651743919695
0.31530797514050057 -0.02956304150258493 0.72805731696354492
-0.61629383635580837 -0.65238272953386767 -0.30696808044848822
0.11711337890614537 -0.10695627287854936 0.80145429986570171
-0.78480948390092031 -0.67925640567973211 -0.34504434296808029
0.75407950298476223 -0.32324067698530534 0.69074440295493389
0.0090402685497359414 0.93812862545367226 -0.085725559283895691
-0.44359587062409389 0.65843820245925722 -0.56029481816597659
-0.14093835721329562 0.4349144483106957 0.779757739996354
0.19069626952222585 -0.14196931366417154 0.80760867806494652
0.35207895572238002 0.72467882934101224 -0.24469428390922587
0.0080095940888771366 0.65910179215992803 0.6752028135670205
0.42712780643145187 1.1691993328183745 -0.53484569355909173
-0.040995807509309756 0.63499968251292405 0.69674739150777221
0.5958955218101778 -0.35034112607643886 0.34858269432012179
-0.81606927325148604 -0.39983773240139536 0.14112233925613182
-0.69979565599789062 0.63755383041948055 -0.012040240016020221
0.32543771713913472 0.034604204299178321 0.66154401158732057
0.59251697354464561 -0.022120285852817112 0.62362244268167011
0.30092375405921423 0.73481186928588915 -0.25574487241307153
0.50022495271353939 0.88647951353131171 -0.38081410190694065
-0.44471635174561897 -0.59236574454147561 0.23414437005382993
-0.048142238619918842 -0.11386687252865224 0.76193712572176331
0.23160607511120901 1.0481009496668734 -0.3593754325351366
-0.70288310147693167 0.12032092734920097 0.6584849781515949
-0.82336803333117281 -0.87194136860971838 -0.44883085804850253
-0.75068316247595135 -0.22930054780240838 0.64887087520196829
-0.51800714314354401 -0.75653300613753327 -0.33036428984663146
-0.42674392941404982 0.18080930909925952 0.74539629172720723
-0.88232778775803311 0.19552430106201107 0.19677862263572266
0.0033461893219168815 0.85179506700597329 0.25361672770041288
0.087856064424657987 0.83346410363242907 0.60556975668364821
0.14947546552730628 -0.041076133340523846 0.7770689829977826
-0.75883707039676906 -0.68344793166839857 -0.35419602955399654
-0.59184379290867106 0.005116326855178599 0.7728973333434439
0.7778140603000594 -0.39295078634723435 0.69597476989341622
-0.020354383433216938 0.31574887555373099 0.79620322151264844
0.69261597938871411 -0.38931172559285354 0.66081741632264723
0.21993560610488139 0.0062021553218309933 0.79783488966688054
-0.5466736766088296 -0.96858744023205767 -0.35036348232950587
-0.56062041901535764 -0.13008629257890769 0.74799050365577457
-0.53707261366970727 -0.61537267811429852 -0.23605951807995496
-0.41099700090179248 -0.62723155822601528 -0.10646524642778488
0.21172864211721354 -0.3179929072350598 0.6949584533123474
0.34707953648193168 1.1734717125225185 -0.51764397837558995
0.36749363585421513 0.81790056145160284 -0.319830143512851
0.30444906374283143 0.25074888804959228 0.5307804260255562
-0.84415558453091677 -0.30426651133507809 0.15315476751201729
0.31101076416337925 0.53872973114934375 0.32187855417289235
0.18987387572675374 0.28424487316420455 -0.58576021338071982
-0.0031799755188508527 0.48496594250342806 0.7833023106887218
0.0049764739606938946 0.81588032137275768 0.65562721454112527
0.18240511107859447 -0.37314954726088168 0.60423055651250301
-0.43749136481313045 -0.63260310367510508 -0.0057060449286545634
-0.25976594175758727 -0.26318598877026655 0.73726022898457799
0.55906668697280892 1.0600522680640596 -0.44364185116802979
0.3918254655628548 0.1522887687221095 -0.21349987716447316
-0.27251247583807015 -0.68547453055369678 -0.1627429639533382
-0.63897335780362674 -0.94456450136909331 -0.4323826166283915
-0.45354840604820446 -0.36228131877389691 0.65101739844379836
-0.22185134017354891 0.43981487880722714 0.71207510325200474
0.20543584139667281 0.96205964483178574 -0.2713420254559491
0.31977715634288906 0.75323181953306673 -0.28224970166113117
0.21052750842360624 0.36128169782306452 -0.54963727054859568
-0.64220450679532171 -0.82025488684300529 -0.38054188233560993
-0.098200146036363734 0.68863750876150087 0.72804296145455361
-0.58583988436290646 -0.68859459983300586 -0.32818536384717234
0.11484912978582784 -0.39137324684353025 0.24579302534243652
-0.24750265179105213 -0.20592049131970436 0.74371058852911531
0.67941573865117633 -0.27379963439432498 0.72751406668003504
-0.38144378894590858 0.027892193292397227 0.77610782301979953
-0.36772191442810609 0.27939512873232797 0.72097471214321729
-0.32708738123356795 -0.1245292979013124 0.8174392188114652
-0.12114972462251039 0.89234363395542138 0.18017502912882399
0.37769634043173284 0.0024169543209318078 0.68325777700043666
0.94140170896224618 -0.23249579713062385 0.47219105669823058
-0.47627149658263512 -0.67839723161034882 -0.2881847799471835
0.72476888960218666 -0.1503571431325863 0.39257225831778086
-0.20203400690431828 0.28077169497765198 0.70415111677455933
0.44173900317220394 1.1683998886649851 -0.4318359977420787
-0.6957053242456599 0.44876572106892088 0.31338712366165922
-0.70697678379120532 -0.64400317738498991 -0.27995446253672185
0.38297355150259271 0.56774863550769483 -0.10138637282622298
0.015017075980177097 -0.18622234214918093 -0.61879396015979538
0.057897046710387201 0.76329039143473487 0.65406958213212363
0.95128763599933031 -0.23981962380777588 0.52845354921050713
0.087604157527676918 -0.14694186202605275 0.75565626418717002
-0.28779097593580438 -0.069436512689779573 0.76870755217176523
-0.21055926201155373 0.48357627225851074 -0.70454902890032933
-0.35373632207671335 -0.11395228350183428 0.818186001135075
-0.18598894990951109 -0.14638937751051895 0.7521388021255575
-0.59462004292107018 0.055743801052673625 0.53367868312714606
-0.65962284177637009 -0.64102185390696453 -0.40122649688286671
-0.29222034013806919 -0.38517692124156966 0.67294832806321381
0.70004242272802486 -0.43075711505096237 0.65363049876977009
0.30983344020011572 1.1901229469077341 -0.41904787756250528
0.80915081950253942 -0.10045504536215422 0.50192305576573482
0.5383569182715835 -0.58390612717891521 0.67926608855140813
-0.34340663655514447 -0.055441331916251002 0.78028171097146171
-0.7465139119061579 -0.28080619276755892 0.65988671560969081
-0.71915404065529209 -0.4706541959783308 -0.34505290992450099
0.67177359893429234 -0.46602707922967745 0.69523298755712482
-0.13990306363786686 0.51177660773025302 0.7484376465108209
0.29749251887083261 1.1422700882620855 -0.44442714255191618
-0.24132881041601806 -0.19335780143458159 0.75890766913414609
0.067559453773005984 0.20918185982014714 0.66065641068212599
0.75684503881733178 -0.4031778382721436 0.66848253266718594
-0.2241312516867513 0.39718629996425392 0.77355667420976992
-0.76770784907558642 -0.98254537227237204 -0.41353114193003293
0.125848929274337 -0.14293128437106972 0.81085544007826371
0.9347459014821915 -0.20382722310797519 0.555904205291883
0.39180273236970287 0.91819908902856229 -0.36675965895689977
0.16202379374166753 0.91659379912192174 -0.20360454286310059
0.89753122813713659 -0.35195218857640675 0.59931168145625158
0.17499025376553945 1.0982067571543355 -0.2958083945875849
0.36560915457929433 -0.48120595414339196 0.67066556902994279
-0.4251337070324368 0.55478112692094017 0.67233623930271769
0.357246684051157 -0.51536576887992291 0.45341344843613918
-0.15734649847543203 -0.27789965934006533 0.71320735517790013
-0.57552163557865121 -0.60455635363164772 0.019314835859223223
-0.51837874976643405 -0.70416503330636693 -0.32474443487315341
-0.19237007965360142 0.4171383629534775 0.76601514959971695
0.042442861722136627 0.32838168832867698 0.77198167971873133
-0.4268269610263502 -0.17607298228374413 0.80477569655200654
0.19802890352336178 0.044965738142437317 0.74811327693639917
0.73405698645323803 -0.53203236307600044 0.66613377741933455
0.32582008907733062 -0.14428564352266537 0.74099280451506999
-0.43599878106561718 0.55871497015673155 0.77633519688641428
0.038688090151087096 0.83574271328836502 0.46594585302777425
-0.44626351239985418 0.013397965195510064 0.7743672172393623
0.74683731472084425 -0.33867706112128637 0.65179077103084282
0.35948685889647969 0.69017180048019755 -0.21658622445559672
0.032329242705813499 0.61145748279395873 0.67205118899719807
0.23318281399149576 0.83726689317125746 -0.2389942741675295
-0.37838799371754916 0.22036694306928828 -0.73398594674735662
0.10266337615081689 0.74486449840679247 0.62867934984288176
-0.27051446048952066 0.41686284290762554 0.7793779093643014
-0.49338088764759114 -0.24881859926863692 0.73635952734350241
0.0094122695500811204 0.40097304150396607 0.80239422626403645
-0.74360797781660182 -0.055128028825826458 0.71903599120457073
0.64295323292458662 -0.2214914558743919 0.36685649814148036
-0.55321357505865443 0.18652037738071137 0.74870141299617288
0.23031498659678284 -0.029481819026971223 0.80810177151272455
-0.18278904700273735 0.44430496028142352 0.76092420883746037
0.15086914222167991 0.23323079193948182 0.72004991353975356
0.37540296378038995 0.59514834409800743 -0.11352832697625637
-0.080340447953901162 0.77065528613227086 0.38085208597276221
0.38597894031959967 -0.56901989176601875 0.53256813365914901
0.46206505254141739 0.69246611016643334 -0.17113376727545493
-0.76031767475919487 -0.44763745791640286 0.55184734142191516
-0.058187789494775544 0.21616886125146051 0.71585729911040197
-0.55444321976941602 -0.029610281468928523 0.75654357255073279
-0.64407746784978137 -0.62695797894447691 -0.25489285516166404
0.28986550210948536 0.175008538792635 0.48656531332286157
-0.48921324371508135 0.068821165704232357 0.78971105964145139
-0.60762217840879451 -1.0060236190423646 -0.3929663394192886
0.015766584099598191 0.91137433394770562 -0.3452336732441168
0.23940423859602511 -0.406028797970031 0.64175926895368285
0.32326412754892253 0.41313827692821015 0.50758245603822516
-0.69741200620964605 -0.17725616555123125 0.47832352091636565
0.12006752737201154 -0.18393474135537424 0.79323354346129449
-0.57181695526462306 0.15393367179904516 0.80754904414671813
0.28374611781108783 0.76588132531500452 -0.28779592353719607
-0.23456048889902092 0.25852256281596464 0.78562860800444057
-0.42881132221967277 -0.74249265954062516 -0.30508037975447166
-0.23134386230168857 0.32504870408400022 0.77821975670967625
-0.57404278382231944 -0.32565703604368812 0.67925872719389346
-0.72243621097975463 -0.60854703233375806 -0.23731405600869593
-0.45970984549717997 -0.74921056391151997 -0.31692956055944776
-0.48407260018860576 -0.240538459475097 0.74995156416333231
-0.70042800785973292 -0.35669836218517537 0.67925105146193232
0.28658702543921777 0.24703527698078354 0.58692374614042997
-0.56993567989876759 0.61812174528886821 -0.50094686488685625
0.66318299420893467 -0.46242274831212704 0.66578903023286529
-0.30028520338697717 -0.037299422371374291 0.76650251740854358
0.17397557195291213 0.49731537814698168 0.66483514634344587
0.37020846099931681 -0.13139979034405336 -0.17248011746092828
0.5825462632503271 0.88787412382950226 -0.39538813963510222
0.46053287245124963 1.0913757354087346 -0.47724740114029274
0.27338901649709335 -0.11232561248373685 0.77816264391804602
0.28358560719592774 0.70834422817476828 -0.08389389424991478
-0.18561612945356565 0.43094791323549275 0.76262658181228282
0.88665016152842036 -0.39470776276932984 0.51220723532154544
-0.12575634264750413 0.37274021741278451 0.79428672071730588
0.036522335075463985 0.13153615076025715 -0.69742646138895559
-0.22863078015807048 0.70349480606259363 0.68991627921574938
-0.6693151574253271 -0.96176668609966165 -0.41083547474615401
0.67376547991948321 -0.37448502516327231 0.68155269748428537
0.12304691553874747 -0.085475558440628596 0.76924052563575707
-0.8865450310643439 -0.74044749713252989 -0.39721998930987823
0.28923590275068811 0.74876306526937819 -0.27851769152975869
0.30435374018178685 1.1270847867432185 -0.44158143423692131
0.15803079720707736 -0.0037950798696684274 0.76360579408402884
0.47013444420944772 1.2162345911431669 -0.52135291706064102
0.51751796048707277 1.0390142006387975 -0.41482848415876816
0.1346922875689387 1.0872405910380345 -0.28084826642148641
0.29730754288843819 0.7170343094069227 -0.22124456343508925
0.25682479922819823 1.2220818737697523 -0.38921308075241079
-0.29592569545729575 0.63049780707988301 0.77954426873416871
0.50344165370552929 -0.12373006481051263 0.32686429670960848
0.26634264045072342 0.63156222114506821 0.54077506256238372
0.16716929448479156 0.65074628629082909 0.61879954140645488
0.75097316264407965 -0.33515011815017459 0.65868608185496669
0.14657985545310837 0.86390530620029793 -0.032670434944890303
-0.5867527781846622 -0.18843685782044162 0.67075525306886163
-0.17953422960429499 0.50598879570003952 0.71685811837156344
-0.21117720801929707 -0.23515676595694135 0.72106737224745743
0.22363228285067471 1.0481463030967557 -0.34562471419283547
-0.70465630954093861 -0.59101488015881554 -0.22153025880779609
0.40225913238806221 0.05438647520315687 0.52564280446406286
0.087072846669260073 -0.13021745735284185 0.7600857716589946
-0.88713757668629434 -0.60733775505197585 -0.32949297214136664
0.0730848961839623 0.36229857678237121 0.76240210447216228
0.30757670487390065 0.2303933023917768 0.44676086632554224
-0.4082230924207142 -0.23110191234236765 0.79257793359019146
0.67584150649618735 -0.34361366118808245 0.71627464175171163
-0.36765669983167371 0.43102399352796983 0.82003187785834442
0.7510195333063745 -0.49403021805481018 0.67724843458374195
0.35568802274676337 1.0342329366999659 -0.39483005088323964
0.19384330945574035 1.0052611120540087 -0.278719341615842
0.21018722988085869 1.1616449899177415 -0.34524112837545395
-0.51591773372134142 -0.91278686565486666 -0.307398979548136
0.93348527999719089 -0.29091790095294634 0.48622679449432482
-0.80786760106949984 -0.45490077238009718 -0.11045430136718437
0.59209085088981084 -0.67844683917741122 0.61543367941074401
-0.31255367268967049 -0.65388799444694845 -0.14856201988128248
-0.35961140840269046 0.28807975509500672 0.66459531998270904
0.25301863811347047 0.19209981280748067 0.63731389445144515
0.82557656857040485 -0.2252461172055531 0.66474499721315361
-0.50432584198299146 -0.22603190479910973 -0.60682489472321066
0.40685737410996126 -0.056807716268413522 0.71615192152096085
-0.34053783160875639 -0.75024679920986337 -0.30961540546596211
-0.10392951433169095 0.33279169591256652 0.78644817398701861
0.39623513441119762 0.82893399589189798 -0.32358873314123926
-0.75590883628139771 0.042710136952031963 0.71433813535606561
0.21815456000715017 0.40935001818804739 0.65679962371587308
-0.48744299450635609 -0.70513781355769023 -0.31521923798936058
0.65456116803823505 -0.48502589458388812 0.71884816097803217
0.074870532223984654 0.70627253829355841 0.64670627090834998
-0.21158294505327113 -0.02756940481281811 0.75707938432191924
-0.70957499686624637 0.075238154272211588 0.63451831297370731
-0.81565255579620732 -0.18905303325582606 0.24045031197266908
0.62805265346983852 -0.4507042140763291 0.70713521121659539
0.44104630358017261 1.1156264952430988 -0.47921759606056469
-0.31916243814611356 -0.70083438909767892 -0.15699057645832681
-0.39227212812973811 0.43446205451890396 0.81489151247038905
0.64922267889618723 -0.38250999542131137 0.71825768215695973
-0.42097210901513549 0.11567250189913314 -0.71450689582892579
-0.68938051874858886 -0.4077925229581274 0.65097113253981576
0.14764447011900828 -0.079237429226616918 0.77261471039636653
0.43208830097498918 0.62464470131170424 -0.28767489970080717
-0.18491107606766732 0.36998561352352954 0.76479532424146868
-0.031746790336985242 0.57843903760270754 0.69861930480096035
-0.12954092994047883 0.75593394538880032 0.65726680719772901
-0.57033876313581366 -0.069226470614341729 0.74912990586928174
0.052528932509806836 0.45885865251068747 0.775479810190701
-0.50749997113336498 0.58144272936075059 -0.58430939371933022
0.2024541248538938 0.92024093003714524 -0.24352092703913186
-0.36249844408883725 0.25758082648404557 0.64128688723479854
-0.2092577016800643 -0.087925203052240164 0.76215374433768446
0.44308321464593092 -0.15698141794826359 0.73577973467068425
0.15137578220970127 -0.057665883351143421 0.7706464645019242
0.016275042037744214 0.33551508704239641 0.80024110915795177
0.15592975411279753 -0.074229793955584711 0.79102718986125176
0.28161339679789243 0.71163040381640297 0.10658266139814465
0.18170284361208822 -0.19580674260865472 0.77903245344597316
0.54583961895885835 0.77962142068028317 -0.276224995084009
0.27157487222926413 1.0306710174143827 -0.37484972914059078
0.67592283873310244 -0.53917783065330571 0.41692911887018269
0.22658593000808125 1.1957151550486937 -0.45937332649303464
0.54480853299295973 -0.54769217408667448 0.69844014400653087
0.38799344355796173 0.23682439698817692 -0.10612398072480822
0.28284039686003304 0.06836810271900573 0.61269042263583096
-0.54126562794147581 -0.32139780723653288 0.68096542397705306
-0.79278959815604999 -0.96071369675310869 -0.46830177786073079
0.73874565945499704 -0.36928004292098393 0.65114509009227106
-0.74545113346834846 -0.37908475820745635 -0.41243876029641413
0.39542758270551204 1.265016911659071 -0.48716657178805356
0.25514116298899481 -0.057773255771328635 0.7989034301057405
0.37218252891650039 1.0697128692348965 -0.41803579287903503
0.2753789688450059 0.65238651130342484 0.30280461477481246
0.67841972146581853 -0.12753031419098093 0.39136881903944243
0.3668871537857612 0.9417587469480222 -0.36720820050966019
0.82318852352507754 -0.49038014977615596 0.59974901360137167
-0.13145747098787552 0.27181467245078572 0.77137744035241873
-0.70376264374386288 -0.1807963259194767 0.5131287274612788
-0.74055878086337579 -0.4004945043692385 0.63750923926363257
-0.084695487549288018 0.37604717125773712 0.8117730606087612
-0.049201663646199378 0.79570442828345955 0.53698331888730699
0.32871984210031435 1.0720791131317968 -0.40494608917120622
0.11872401778581931 0.88681293968729324 -0.065217379097356698
-0.25382288085565463 -0.56848122750318053 0.17968781199683548
-0.065831768376444444 0.60643419261132792 0.71604351408335987
0.28486449958695381 0.15500800545008886 0.50170995050581091
0.45986491571012955 0.019398960903560081 0.62633184710097467
-0.78874351668184595 -0.74526081845155256 -0.4002326389386468
0.13156578404687913 -0.12857746728106001 0.81125705275633564
-0.14189105378759947 0.037235968853622126 0.74951089638430268
0.1035168755934599 -0.14197246148701304 0.80267126833063962
0.12428317608540951 0.42197725802682373 -0.59720814287175905
-0.12041209355931493 0.026607189442557133 -0.72536293299481969
-0.57006787749191545 -0.6317646357548049 -0.26940577849801883
-0.078139126127890535 0.97201830690310409 -0.21998435093133217
0.34378174695474151 1.1397664824305136 -0.45680352302526828
0.73091057860598418 -0.30126247259825067 0.69779371788195377
-0.074291083201300623 0.21248129693269435 0.75789502113135399
0.32159515167135666 0.42038327447596124 0.35089755916073706
-0.75584724243376655 -0.0061182889906399307 0.70406391224157261
0.35714584309715214 0.064873125221797334 0.50292733863525996
-0.54778723905364046 -0.10892928574004745 0.75508905743301824
0.13202139165149696 0.42822998071921603 0.70128517272443425
0.64271266402595195 -0.69439175133224751 0.55854544558318509
-0.12394413923674819 0.2881013660136964 0.75916948019868435
-0.047566595015577917 -0.48281662824326377 -0.12439896168252673
-0.3873361872866532 -0.16622445124019514 0.81533401176639231
-0.71005002305343545 -0.16466652112304825 0.73291214105535829
0.40915775224814688 -0.086926045521760198 -0.05577334155090341
0.26599262584375083 0.80139157784190873 -0.27922673634482642
0.11883624887707889 0.42814720577468446 0.719609200079244
0.3299985598156514 0.65660990579142187 -0.039806392317862205
-0.86517190227078977 -0.33650798287281919 0.096209143794780516
0.77069331836806043 -0.17324316828232744 0.39531889459768266
-0.22957328741480332 -0.11185670364796785 0.76460960640603304
0.78961974242264077 -0.34425786926079294 0.7004719269682731
0.74760609546653356 -0.32716363928883219 0.66323428203188151
-0.7153570841925827 -0.79171673200959414 -0.38394832493948172
-0.37022565041623601 0.4751461660651759 0.63559259779161792
-0.033031747875897466 0.595530529460361 0.6776602017741844
-0.14467978990733066 -0.0077032462201245266 0.74748175900659852
0.27331337419702173 0.77913745597728834 -0.27873325910363711
0.39496929967635452 0.73350684383157949 -0.28391843563806773
-0.49183570663131526 -0.69008106545460368 -0.31469443888148874
-0.20900986900988272 -0.21218848632873133 0.74399140739936698
0.1813033294879034 0.14641745728150646 0.72646966250533929
0.098029723263866941 -0.10207761754865974 0.76706639865832571
0.12084338404506312 0.50841026995613081 0.68057078933917836
-0.82290204067550121 -0.71670662904082394 -0.39632792627354618
0.8578662383011455 -0.37903180549713689 0.63956344224419226
-0.78412284067326077 -0.0034559091718359136 0.34742809801586461
-0.32881361852656887 0.53953782963002794 0.8038659606993015
0.42095230991383659 0.68755687368174945 -0.19107851663881448
0.31396130637764585 0.67012276767194789 -0.092089679625143361
0.49418925828296523 -0.60780308949546358 0.4236573849755576
0.13158282745779637 0.89978853729632302 -0.32495980506197952
0.42280006647520629 0.038663455170555139 -0.035569914257314039
-0.50417914081961612 -0.020868537940557541 0.70768353943138251
0.17226711840665665 0.86229274769707409 -0.1698086106885075
-0.33849963053602039 0.24761378878744722 0.7883438272262886
-0.61715349528455121 -0.95660559942022028 -0.37143786984441363
0.20036035640784888 -0.37145394332549708 0.36745416248084517
-0.15821704139106529 0.32667690004305827 0.75749994438888102
0.12025962828749748 -0.19178879001842475 0.75787586680853813
-0.60274322090916321 -0.71202175996057671 -0.33650451167046214
-0.71026746581410016 -0.8370458148367288 -0.39930914131053541
0.14740798489424023 0.55879013245813791 0.66145585149511277
0.13931200020171808 -0.079694631793183923 0.76274476397425772
0.099014486060921669 -0.26613459678299867 0.65224382951646831
0.111264459848881 -0.3228037931096468 0.51435235583574013
-0.18627079028175153 -0.12055133934610307 0.75540502779716334
-0.48862714875212454 -0.050625249046508891 0.76029683405698734
0.79896894937037466 -0.28115663969143956 0.69131666226099675
-0.15592770200164985 0.50025497576230249 0.75384626079164541
-0.91920749407444369 -0.63119517947486936 -0.35520764513961112
0.21061402054045253 -0.1710770402437225 0.78745704047180531
-0.68168736819604625 -0.58915231823453329 -0.2163548840218823
-0.45723374940281225 -0.61556172271739307 -0.16039069165904962
0.06370897792974084 0.46435804636207134 0.76852065706020944
-0.41096754613730901 -0.33399763109999325 0.70021615430023942
-0.58868895449059799 -0.92756791170421349 -0.38213409043927626
0.028082897998602974 -0.43781275098039618 -0.22831077693946256
0.21234793705587052 0.65485664601834781 0.58526094818783214
0.43685382464368949 -0.46173097534957819 0.70875628668668789
-0.99099139624406973 -0.92144846579523287 -0.47023353393684886
-0.048017204604400732 0.27402226483065872 0.76256455557394531
0.31229610336520608 0.47272074076498161 0.39387092534966683
-0.41040601163031631 -0.58821749862148065 -0.39838316931476214
-0.57158575599118855 -0.64683706219386683 -0.30634198607805629
-0.59381353606407927 -0.59299053393975065 -0.16883094630430762
0.35923860711756284 -0.34229711421335951 0.29611516784394709
-0.65671294575667005 -0.34316273208098114 0.67933049660955191
-0.31130369511296507 0.28125391504583863 0.81168965418178196
0.3345077382467263 1.1708810927690658 -0.4537513759895262
0.088764437720376677 0.574726500936384 0.66749493059479903
-0.38337166887656338 -0.28607147973263425 0.75345480740402238
-0.2719130819671598 -3.7054053991347757e-05 0.76824800701582774
-0.30356806249713308 0.2490103166529205 0.80822537874051292
-0.6309404522598534 -0.48794236278496772 0.59391207278752134
-0.35827734193149574 -0.00022745854501504681 0.73898174216149215
-0.55880817490129431 0.0024012234639609886 0.76589722778282976
-0.53220372761357559 -0.025459794474389508 0.75909325352302659
-0.38482711012022364 -0.26358087614095949 0.78103664002041739
-0.52704894641115274 0.80184081922704487 -0.27388366947125498
0.045264609290388336 0.093522259637089711 0.75333303708152677
0.17312429209952818 -0.34012771876625747 0.63705860728730279
-0.7237094233189616 -0.75636665211304788 -0.37684405713980951
-0.09343837544785849 0.42021748829879302 0.80899905386993254
-0.36871177462121452 0.29522018496798852 0.62278360253741738
0.22664250110856443 1.2020204389716405 -0.36766815831992616
0.73012448998546731 -0.44135679119267746 0.67079478730347653
0.553338384623693 -0.086715542406985868 0.6963616528169112
-0.092336343455608372 0.30741069733281012 0.77628571321336715
-0.075910664405300921 0.11023846614947813 -0.73188218409869066
0.64672985899500901 -0.56515677467727121 0.41674985996851888
0.53434447386333161 -0.11471915281604783 0.35313503935425317
-0.18659626306673438 -0.2934805144970154 0.64710406932112363
0.46594243595715312 0.90015767172767935 -0.39092590494564305
0.84218467265833041 -0.24249659471254326 0.66010430251460406
-0.42724697029346714 0.029497294959048403 0.77594892079514111
0.24496937060961876 0.62903132383513283 -0.41879193988957475
0.4230853977626321 0.57229698137378993 -0.24981370265355629
-0.088811091596486591 0.23038498830667509 0.76367310005073819
0.8147186064792038 -0.1958877656527851 0.40041798559901132
-0.76686978558838348 -0.43192209298328654 -0.32834555242282448
0.29991839110058471 0.49600703556129333 -0.36898834612106768
0.89866654631839538 -0.32526799413238905 0.61429241306286464
-0.21101304534804477 0.38024673149087684 0.77467681868996685
-0.47561464782842044 -0.65191482745062879 -0.28515030146000697
-0.42989163730490709 -0.0030047989487980153 0.73555130187711626
0.14355313327643238 0.31717563709465679 0.68206760092287944
0.4442866530580023 1.2355458541300544 -0.51573260819728972
-0.76788006156887967 -0.62585671611524996 -0.41333644533305147
-0.24021590467442167 -0.37128677112989195 0.60307132996616275
0.33899602139876706 -0.10251438390955858 0.73754432433484496
0.15272060239496632 -0.038730747100230722 0.78517300765490283
-0.56416368901840208 -0.90126326871458806 -0.38939490597347159
0.32155009887504704 1.0321702081110757 -0.3837437862321238
0.75420722504729198 -0.50991829571906688 0.66498327714977457
0.16447006354633054 0.46773009245824682 0.6516099687491419
0.84718273626886464 -0.46604718428245384 0.52475137105125746
-0.078009877063752953 0.7786652863041148 0.66597638375136192
0.39778779539539322 -0.41780946170233646 0.36293225596668321
0.089823782404817365 -0.31405140113626251 0.49847281383939368
0.18443978535888306 -0.19853350108422863 0.77053754387597628
0.24403068544523343 -0.36788693842982934 0.27845286683339943
0.065350083137554194 0.60580151813622063 0.66981607663896625
0.025101200740612839 0.92446524020048582 0.0088763076602660362
0.30559465903586336 0.57990922336876594 0.50072814540936683
-0.33727975112596198 -0.088488462878781871 0.81373719750416384
-0.15399379439808669 -0.16584052620145462 0.66985293969426607
-0.20685103451904929 -0.48872036512939809 0.41160349542864338
-0.43255249703552856 -0.77441574768421284 -0.26687559864869215
-0.16228342146143682 0.69607196098562385 0.73784453563459529
-0.19716738784884313 0.43287147189372233 0.76735165602020672
-0.74584367870224177 -0.23635077061339227 0.59072648810629147
0.56003785807474671 0.90921389754752813 -0.44969708724094026
0.22844878199483887 -0.0084350737238425566 0.80449669031422033
0.26527369377535059 -0.362016614825456 0.6963285494012883
0.098562808218961351 -0.15789965802333228 0.79591173120990177
0.2326251215047801 0.90986914490445847 -0.37687827956829345
-0.064165586736592672 0.12658734521131798 0.7468327373936301
0.51015988303663207 -0.32955907419743014 0.73875169053537881
0.26926115500030612 0.97161824436578614 -0.34566258358218249
0.43231178600868247 -0.56945587743492698 0.63972274053258182
0.030659713463142779 0.67568735206475328 0.6639380706223097
0.25556134899775174 0.75269650001524901 -0.014651811016392458
0.20406307643190758 1.207393094802689 -0.4298891833491485
0.18057772233578007 -0.3658581338263498 0.3603942952823509
0.085438166878089916 -0.13235318338359292 0.78469239051056938
0.33962079769981024 0.64262276947867081 -0.0092448987675268768
-0.21404356961692805 -0.32922804635776215 0.63797274431141204
-0.0049774698235225401 0.34184992445584328 0.80639252137526007
-0.53258976199033192 -0.15292266797075982 0.73658669884348171
0.50247341467594353 -0.24862980061791173 0.32239038956944555
0.50558663830928019 -0.66046994172106466 0.48434427241166489
-0.46677874064666369 -0.20427022188447141 0.7861281386559078
-0.5690883342540527 0.49143409415383577 -0.59657366218706898
-0.97492582012819184 -0.90627733022907719 -0.44079390717559264
-0.55595907750090312 -0.029575922199776894 0.65777647797849426
0.054379048566705279 -0.29659372149881102 0.51629811276105286
0.51780635898215444 -0.042420072114852658 0.38385349680701886
-0.61610837193468448 0.028260832958173943 0.78584676048597757
0.36282479631985609 0.96202206259473089 -0.37397632224800326
-0.97398292757359606 -0.6950363246654101 -0.38973631553957944
0.66781662898996252 -0.46409259800947389 0.67321571207249598
0.39079957735989801 0.7274497215830249 -0.27113705807151334
-0.20411583837077352 -0.33915627722767416 0.61272815082894994
-0.43103194860879412 0.19191092125599196 0.61517100487649046
0.2809760091808009 0.76076352282653747 -0.27838375548780725
0.31634777990201002 -0.16267813256326047 0.74152485276337998
0.39398723005555425 0.89564197996653405 -0.35554086210396996
0.3916031582214643 0.67257370985497289 -0.2031867457126264
0.42574749893366892 0.72864309041238595 -0.2598164376137575
0.76078016938928883 -0.39177944138347431 0.66851642168318826
0.1467167556935447 1.0318222631307066 -0.36331037263572874
0.054172052840272045 0.89259499865802772 0.093328755059701507
0.48774499700682306 -0.52418380128528286 0.38925432397267379
-0.12222489362422984 0.9793853508316972 -0.22126028203910053
0.75251362749991912 -0.30174828419781008 0.71286793185221597
-0.75401734074177895 -0.3354890003235167 0.56030282204140036
-0.6174751806953207 -0.19358554126341843 0.62248904175440245
-0.65647144360231735 -0.27107102058901655 0.70645092742022797
0.20104422873862404 0.022269784255970038 0.74777637144648068
-0.48814624944679075 -0.54064334546503501 0.54882312070149553
0.31223006753472049 0.071041881966880105 0.54301614626891137
-0.34497333775014738 0.20159060303780851 0.7846704939875373
-0.39926554199941933 0.18645696612515605 0.74391162151888679
0.77252085951257854 -0.39336670344040048 0.69346635180447613
0.13172213736276817 -0.3328679933020795 0.56884077158912305
0.85062378299883079 -0.46472273372272177 0.55129025965225331
0.49577983798820568 0.83640492787295617 -0.30599020311517755
-0.38630525880669708 -0.50377770786203913 0.59169125892575991
0.36391682955507676 -0.013452569694573313 0.70261247161440821
-0.7911056262580427 -0.9584415139479312 -0.4721690398503533
0.65687326390743905 -0.08516410491117643 0.40975776484114057
0.36194721042938838 0.63906940502213683 -0.16140910663625263
-0.72363381209159527 -0.26871487411411876 0.38629154147351841
-0.078227992784139389 -0.2157000923688005 -0.63161011999608263
-0.72238714814752569 -0.53658693367220978 -0.31510760278029792
-0.20985345724645654 0.75130430563751105 0.34027806472219346
0.26197366477783213 1.097828026693934 -0.40885635293856204
-0.63921122263312036 -0.048883543480985558 0.55572698019771138
-0.60993423312109307 -0.97406559168172802 -0.36401501281876492
0.34048154806047926 1.1683377591446908 -0.46356570193816005
-0.67995926634208104 -0.11751959710879945 0.53570781228899378
0.44825436326148349 1.1809606479937487 -0.43633416717209705
-0.12478953833048578 -0.02914606913810136 0.7467675651881347
-0.58954561310043196 -0.22527395657594118 0.71216990383072698
-0.17530632132084456 0.33522700263387062 0.76859277549958982
0.058564705706197984 0.86388785931532341 0.58170790551896623
0.44783650792041918 -0.098537190959010701 0.23430567149792836
0.5339424149134544 -0.49795352085176781 0.71592433407339406
-0.42140546702292347 0.59202611241238445 0.69170855646163254
0.62016644933239817 -0.39477423716934545 0.73472113582005427
0.10730395494264222 -0.12344301487247833 0.80310447520268546
0.24582088861503415 0.010901304259181899 0.74389338578033914
-0.4348120060754308 -0.076987486013810891 0.80451123791582191
-0.47378538952921012 -0.5344306471724386 -0.4350214400010799
-0.61432849766909747 -0.66130204373582835 -0.31685059489394618
-0.22318026377726419 0.47110984566295855 0.76160016801947528
0.1271953482855821 -0.1723449257222498 0.8064064873284007
-0.20369268754179615 -0.38756613165714393 0.65391489573111983
-0.37110802089937422 0.87567335075900132 -0.34330059184601858
0.46331196842445976 0.83055326116735539 -0.33478480097381791
-0.61764865289217141 -0.85830220994049444 -0.46562034585717882
0.36954163308895005 0.31015538973700574 -0.18304619026428526
0.71767069770950442 -0.50702693585705561 0.69164898011224452
0.14801198244110125 1.1231747151291636 -0.30455756523630306
0.12676018730342697 0.73186601754847458 -0.46318975724471301
0.19864773749912601 0.031234407441584011 0.74921927683527478
-0.15693259044594932 0.60258664710333898 0.74057110954189831
0.21906934790240307 1.2370168230794611 -0.39926277019817746
0.49601933358309402 -0.63536895236273283 0.45082983110165564
0.22043383724433419 0.25733145715735084 0.67780576908593737
-0.50734034118699434 0.11231066074543561 0.81072874906790915
-0.51347329283678178 -0.33506252272765757 -0.55344494703652813
0.40549371255333355 0.67694472083356239 -0.19626255192290465
-0.28086424054925452 -0.16349697778485117 0.80077962805597025
0.26903471511144517 0.76992141279034687 -0.25220074352148281
0.17455939024173261 -0.045485333993489085 0.80533036984175865
0.044004470836453535 0.42255678913143946 0.7883013928370346
0.64062012890328113 -0.45940760835951 0.71424326253678316
-0.40450905293439199 0.030097931456307681 0.77638916208546149
-0.025969919431446442 0.9460735759738097 -0.28029642648450448
0.35690673693426866 -0.36965962223552662 0.32437235131572706
0.23408582004647549 0.92481265932269885 -0.29960938506551571
-0.39480221278675387 0.35660316653913027 0.69835195960596863
0.067972632283879619 0.3662161755283746 0.77119110091019394
0.14941092311204685 0.46362066943850344 0.67452787645144241
-0.66555819413659378 -0.97121939971711324 -0.3919903523305841
-0.43816353296885602 0.24810407306113635 0.5965475511350995
-0.75108661398417809 -0.23309497936715617 0.62052602522434697
0.31120849123505856 0.41581579158324899 0.55672910661877317
0.3035078441013237 0.25191475228374172 0.51014597237520398
-0.72050797726123328 -0.46861251535570569 0.44485978752399902
0.16629989116856159 -0.07824758761177808 0.80560414874259756
0.21253885009700468 0.98261007221658803 -0.29707710459360293
0.28650069268867995 0.10236067141086558 0.51280527043059543
0.11626414066214785 0.81737566344926371 0.26336029383281634
-0.20401562575665011 0.43374548896849952 0.7688861904376143
0.41015729207335916 0.69379258806027533 -0.21735833852663511
0.14848080274396658 -0.075861063422909325 0.76002556865855553
0.90875887402433264 -0.25147210230985628 0.43643902599381157
-0.9145292804906564 -0.79932968630217482 -0.43069498593918354
-0.53675912968698647 -0.24456049826770787 0.7029923206137525
0.2182011544175797 1.0847261801745554 -0.43895352801368404
-0.22216395235379416 -0.5951676609553973 -0.23615018548139233
-0.95316857395345345 -0.66037938485439529 -0.40989431605035165
0.019276454533361687 0.6219082683872883 0.67806688480729349
-0.056461834523846122 0.87210808770391868 0.22471707843949673
-0.62873671185013436 -0.60254741314511562 -0.22286444057372989
0.51993999637290322 -0.13440698236961079 0.7215215618564379
-0.21064780767015634 -0.32640227968241686 -0.58434261474274862
-0.30454939069418607 -0.21541444515754149 0.80044503568452541
0.4068811747432477 0.79619515586029888 -0.31146213922819577
-0.26269072275399097 0.56084540976338193 0.78001698485220317
-0.63793382912797902 -0.75844911789367009 -0.35698332659936938
0.25934592268248124 -0.10487020325541074 0.79009598457379049
-0.35522238683445195 0.62768677582359134 0.65261015152276869
0.50327420844161885 0.87953642770906404 -0.35541946843395245
-0.72799808401968846 -0.39026296695369411 0.39516312393866926
-0.10566595445573057 0.44828405851332098 0.80284382588069647
0.65850188999196391 -0.68055688681119442 0.50551209431584709
-0.46888574982538955 0.16541682951121839 0.69041412921270506
0.57052462499378542 -0.3694988301901212 0.73732953106615362
0.64868422594082631 -0.25392384553426872 0.72777319852420419
-0.26447386987952548 -0.2609580225704784 0.73409280734870563
-0.76622662527678642 -0.41351021499535445 0.56521816092433852
0.13369500459594796 0.48332918077055265 0.6893156153330029
0.011465756878951794 0.5171304082837942 0.76183687793950661
0.14061775188935499 0.40221103998451557 0.71107209966812945
-0.22322611387962787 0.31678744699241834 0.70363136962650863
-0.15132371402615163 0.71690097956931531 0.4244926936331499
0.13029842286836946 0.59633948601510056 0.56449841097747466
-0.44750224231609437 0.48399704862833248 0.70422555591206759
-0.35575238343225735 -0.63419877731759577 0.017023293182010235
0.13992287837378825 -0.10138299310712107 0.80709238054233801
-0.96081532716911511 -0.77920701939260306 -0.41011642048313135
0.65468819606986273 -0.45963065354389876 0.66295112373366116
0.50833271132869484 0.67678897868507049 -0.27908265832740931
0.29131190726110567 1.2311328115821158 -0.40547584978954276
0.4158512492888633 -0.2396990909831076 0.25423039405341896
0.37549877374203966 1.0402836728264164 -0.40656744681097656
-0.5970446309727393 0.36680178511268879 0.4412100556663141
0.5525780694302167 -0.26470950281001127 0.73524852407520491
-0.48250094955045952 -0.57039868408167371 0.49119876280426311
0.36068870629651606 -0.20962493999820531 0.74180105295208065
-0.31817572509032388 0.77142145370625603 -0.50484373454261089
-0.27936240410808821 -0.2825118405592919 0.72735078806146092
-0.64271629314312584 -0.93375602990045437 -0.43261093476353096
0.93025554595956805 -0.18904338224995776 0.49307710452394282
0.33138590448726113 1.2590237849279085 -0.43080430522282498
0.53432606238404112 1.0508936072112851 -0.51055670140054765
0.65035374953467162 -0.67384664943821182 0.47831667876337924
-0.17089216513951655 0.33837424258235727 0.76369345990894644
-0.65260711774316604 -0.60191348821823909 -0.22547371341240208
-0.94643074105279901 -0.70496013371591371 -0.37100660698580157
0.41735697833723862 1.2354002916748965 -0.53394230328061454
0.48752784867709664 -0.39798995014068428 0.35345558002516597
-0.64909822771082837 0.098489383823270771 0.80537297446677769
-0.17694144023472447 0.51371320581055224 0.75473639694453531
-0.081159415872722462 0.27056304020575794 0.74830463351061383
0.415879021584729 0.93846545386961644 -0.38873923006218369
0.2588583498663386 0.82465319167547957 -0.27969709219362926
-0.5711057695219921 -0.63694549594413985 -0.28326708140323831
0.29484116649058656 -0.040176854936174955 0.74669572109441162
-0.49339604056307174 -0.66047540241034286 -0.31314763561409009
0.62399905529918342 -0.41540379807041816 0.7106633333209107
-0.46988268624008356 -0.098268589734778811 0.79224888833445561
-0.41306432951323124 -0.35325206708537893 0.67786435461987793
-0.67835361157301932 -0.95872795872650762 -0.44721966666933
-0.35828743934229124 0.27747695731725708 0.77203320370983164
0.59759434945971002 -0.43296179865910389 0.7337102294243163
0.74634891594930153 -0.59368283795834476 0.57508599821657214
0.31979423779606364 0.5261755079263577 -0.34713239014892139
-0.29908215811150107 0.21635705056276144 0.80539752097379314
-0.5777039265087609 0.10118892088934262 0.80803733999294991
-0.30149953305945587 -0.24638671212636343 0.76958258099128329
0.83471024636069302 -0.1749230222204976 0.41229875786931203
-0.58186737566816404 -0.30751811912601301 0.68441175020333134
0.25778358337776908 1.0725047023895318 -0.39675589618225615
0.61207668757949207 -0.67937734873398981 0.61246991534433981
0.27062645437812627 0.80415181585577944 -0.28975663660585838
0.17944937986692011 -0.19171616313637063 0.78654947335298431
0.66905981508521783 -0.52791324834606534 0.70095853709503508
0.049782825840253508 0.31750008471723845 0.7614335012865272
0.12295107327185484 -0.17936401042528605 0.80051503089763543
0.88733522501886064 -0.16323161985340828 0.46095589020504413
0.04008496934046768 -0.28776162820775664 0.58527694154698473
0.73672443977930335 -0.40092117285608175 0.39204643009368567
-0.37617449993254226 0.46812193339272001 0.81933421477750201
0.15333019025890415 0.79274047934348069 0.56243665864397663
0.34012957226187979 0.90059086379366615 -0.34128815566807091
-0.29043678601358813 -0.050339754002074688 0.75957679498815978
0.3686523204767429 0.51943848968512518 -0.27437299467983323
-0.37956191155813102 -0.5231624115593716 0.5672465841289025
-0.37479675126329681 -0.77196332469941997 -0.17863797815589422
-0.37903664512405477 0.21095359967193028 0.63955347393462958
0.47934505683736539 0.80909691109287074 -0.28670028551436211
-0.22821455880791142 0.70394931213225576 0.66213518277660022
0.10434694195937944 -0.17697699744088524 0.77386027156453885
-0.33556198390038894 0.13078804647170816 0.80219881609610511
-0.37293780992858672 -0.22834299882221565 0.79867165962630082
-0.18939698052466802 -0.17915722551204372 0.74611875249249948
