# XYZ point cloud file
0.38814551338804654 0.8814047853428828 -0.34554750493744635
0.37988368069458933 0.66279040171478343 -0.19690146595888924
0.41361450482722772 0.71561931760594111 -0.25306184504924367
0.7565737477170702 -0.38240935640864393 0.6651624195207928
0.1612587144774289 1.0301212817487109 -0.35280691457609814
0.066599742674515183 0.89343762026746365 0.097755917120056601
0.4732052715416234 -0.51933050515488333 0.4045362666902137
-0.094196070267607013 0.99296438454178015 -0.21576901806098991
0.74837110126720452 -0.29452830224124593 0.70385324517396786
-0.74904107628199756 -0.29891580147457963 0.55596461424871713
-0.60941009321698791 -0.16520849532488446 0.62379900425719681
-0.65070169017154711 -0.23726671578038783 0.7035809123176695
0.20006820583859386 0.026854015596524228 0.74043796356709768
-0.49787347797577619 -0.50896311462657851 0.55789438740289299
0.30475106774947669 0.073030928746701917 0.53946268432795241
-0.32581210043944725 0.21013295997130355 0.78520883313695444
-0.37977301568913024 0.19793582571174362 0.74590083142338104
0.7693320386473983 -0.38328632765795501 0.68940249435063983
0.12294639584051548 -0.31887588173175985 0.57811559615860775
0.84389101280266354 -0.46110089691429312 0.55219679303877545
0.48234027872835894 0.81767406319710156 -0.29910050244728348
-0.39589177675688109 -0.47474297361317186 0.60210012377722544
0.35891102955415133 -0.0099408597923575925 0.69321564886579701
-0.78523953458097928 -0.93999310881671838 -0.47067921064455076
0.64176649815667042 -0.091136604739777471 0.4026410886239713
0.35093634058677114 0.63169315574753737 -0.15521963837342456
-0.71658050674983775 -0.23910302535833461 0.38637499629740102
-0.08130137078736388 -0.26065190151329665 -0.61227866997363467
-0.71553122395242263 -0.52925597617985809 -0.31347771783672673
-0.18427330874204162 0.75640489698883595 0.34483782420871112
0.27296564685920871 1.086334512023811 -0.397249798901675
-0.62519086644422195 -0.023258396417218385 0.5572403408215556
-0.61663933256860215 -0.96470475534153155 -0.34762232898769563
0.35100647956878628 1.1473982426211742 -0.45068116866471009
-0.66780335340056385 -0.089417325241199386 0.53578920500897986
0.4515446864317284 1.1511937345948424 -0.42378837684135862
-0.12008353276909012 -0.017288555697584584 0.74796731136661476
-0.58296816843447696 -0.19548195589511952 0.71190977673814171
-0.1579787100085821 0.33416657065240418 0.76675982591935199
0.076641291157520497 0.83536896835258379 0.57416788290970411
0.43251701131755893 -0.10592817746564664 0.23898138607709773
0.52988628593936959 -0.4763752460054187 0.72065531231802549
-0.38410965614271447 0.59193628840113899 0.69302392457406548
0.6172356030181918 -0.3792523972256765 0.73234484614694351
0.10733640112972609 -0.11140202000134014 0.79854492366813101
0.24384083866380379 0.015252516508981628 0.73565266475002122
-0.42400323300524523 -0.056087020233998697 0.80451538141470058
-0.47289745888665519 -0.54810615068423818 -0.41965459673464434
-0.6135491396858358 -0.65876859031323098 -0.30619426391314075
-0.19908872544133493 0.46560609132427855 0.76014687851197582
0.12635814946327484 -0.15834931302227773 0.80227167375102582
-0.21022035449698107 -0.36424114523095863 0.66329196669017243
-0.33434331121470184 0.89861551196700828 -0.3469209047935311
0.45184241101717904 0.81295841929400003 -0.32665981211396344
-0.61740379172163373 -0.85749043779008871 -0.45322777916731205
0.35531863917018353 0.29351449356570614 -0.1755255255490531
0.71544312817588462 -0.49012889323289688 0.69528155097948741
0.16677629555698287 1.118130314307594 -0.29590445870411397
0.13184771424229186 0.72631540131334238 -0.45011355000804931
0.19783648228811201 0.035484781664971266 0.74170617404524597
-0.13163362486288643 0.58905360928834405 0.73739046305618849
0.24142253390084822 1.2211596644061991 -0.38952099812873886
0.48231077540041833 -0.62264156973335361 0.47033457542070467
0.21933187453078196 0.25354055105485651 0.66850451601076877
-0.48648404015653013 0.12882538253055476 0.80943730470637387
-0.50596296144530561 -0.35316932196234019 -0.54426124804014542
0.39312658451433213 0.66667740719405844 -0.19044623016415008
-0.27644512139460597 -0.14331818664506812 0.80198037463436922
0.2656474527361794 0.76589206100449836 -0.24274525997645657
0.17480416908988516 -0.037890099924398513 0.79746614949979122
0.05493088689030734 0.41027388709237123 0.77820817710820345
0.63774779360490053 -0.44195390609607443 0.71560344345326499
-0.39048091326158935 0.04636614941626549 0.77763577590282562
-0.0056020169680788268 0.95571579984584232 -0.2718698218749811
0.34222129547037039 -0.36948529950626963 0.33764643531707206
0.23775977598259934 0.92101778397599521 -0.28936459182625285
-0.36947614444746468 0.36379513142214792 0.7009546722032538
0.07624128974241573 0.35722808595617517 0.76165639049455169
0.15352905932025851 0.45205391067530432 0.66480226875116877
-0.66865131781020926 -0.95897047594731122 -0.37979860251958053
-0.41780753636156698 0.26221045801102738 0.6017359995557805
-0.74171248039457216 -0.19813190599985431 0.61507850705437317
0.30543060191571114 0.40759721156453033 0.54635311075190085
0.2963220683100507 0.25037631208879141 0.50456689449396652
-0.72142805563815959 -0.43333166216210905 0.44499629028013699
0.16629108200501275 -0.069048160104498102 0.79862244433672025
0.21977542950732998 0.97893485161419536 -0.28707701949003761
0.2791567860095111 0.10422550801258135 0.51051266981941357
0.12331754906088532 0.81131604201310381 0.26377818694935495
-0.18203269188881532 0.42905875248299497 0.76700826545747303
0.39793816038930974 0.68276343862228384 -0.21120295551469903
0.14759925694012221 -0.066597748427622783 0.7555449847689677
0.89451280615774831 -0.26228899931664396 0.42575781643805488
-0.9018309961890244 -0.77582493812518871 -0.44231531201486352
-0.53214089446549595 -0.21619900342511844 0.70477329772090869
0.23193118566181425 1.0761109755842848 -0.42704673259036419
-0.23399845242271997 -0.61098359550247716 -0.20944993239391696
-0.93804099450965506 -0.63835426022011643 -0.42710801602781912
0.033753306421342 0.60495792421568373 0.67116795517963013
-0.036560096849312052 0.87244308918688285 0.22823455869915366
-0.62808102941081823 -0.59571857192406164 -0.21325284857603677
0.51426672398085049 -0.12882216231150778 0.71062768762157846
-0.21201905339539945 -0.36291853581287281 -0.5648291350651653
-0.30170400031905231 -0.19265298087481986 0.80190164493761262
0.39742607383260253 0.78284763660433376 -0.30301237363695366
-0.23243771490107701 0.55130849183172126 0.77824396322710587
-0.63749005310671314 -0.75399400523781424 -0.34666915161067147
0.25760524352486147 -0.095845354837327257 0.78211918728889618
-0.32045880488724743 0.62554931628250499 0.65454318865911265
0.49094206779770055 0.85834053408731492 -0.34713272897034919
-0.72531075496988717 -0.35809199008172632 0.39535224909427269
-0.086813549787433386 0.43818555461913178 0.79698696745486108
0.64924602450821789 -0.66531290291672374 0.52477349996405431
-0.44905563050253561 0.18054647199374996 0.6933925056701824
0.56705917949587015 -0.35411062339688559 0.73441863908076144
0.64411344419624927 -0.24579083632388077 0.71831240045425071
-0.26480097766664257 -0.23865509130907947 0.73883802565952639
-0.76445546208129955 -0.37380298666185041 0.55997307361222415
0.13923343440848257 0.47033909434852594 0.67931146616203542
0.025564476391326085 0.50166462470495787 0.75306159784730653
0.14500382153742652 0.3922809881053948 0.7010007270984322
-0.20615430585402017 0.32005358045187249 0.70515460639626859
-0.12920440286548696 0.71660810609974179 0.42782583917925532
0.13542990881866857 0.58433010176851496 0.55797116437430816
-0.41407649747346253 0.48848268345870505 0.70571099756694089
-0.36833223437409357 -0.62964090420229013 0.040488693853363067
0.13999085959530166 -0.090760031382975725 0.80115933026353225
-0.94660329642620844 -0.75189225068154064 -0.42623209762359959
0.6501262451648846 -0.444765514290407 0.66545052651411396
0.49169660762084516 0.65768819931388078 -0.27419740392102998
0.3080049939703598 1.2103372963914183 -0.39468834562411637
0.40068190757563982 -0.24550967706396776 0.26337998095875959
0.37644100171863504 1.0231319977070727 -0.39483485344417435
-0.56890182092717978 0.38772865350208141 0.44259105879077421
0.54821007686309198 -0.25390395642573083 0.72805979205932836
-0.49346857913550413 -0.54031673493546917 0.5022857378315857
0.35647780536924079 -0.19797808121104321 0.73648554443128322
-0.28884736475537431 0.7846251725782003 -0.50421191279464228
-0.28036244586196879 -0.25928590478987612 0.73248708252386185
-0.64438662272084068 -0.92672333286395525 -0.420020577299133
0.91618013017277811 -0.19941989378490499 0.47802353401441344
0.34750192668300905 1.233118922485807 -0.41931690586323733
0.52795467596966916 1.0186508417390434 -0.49698689468823565
0.63995866452826755 -0.6606986230716112 0.49768418351416477
-0.1537630159747021 0.33723795280669755 0.76192702373012988
-0.65107391394272296 -0.59376374893266837 -0.2174176643463519
-0.93293118575837908 -0.68012160031558122 -0.38653926234008606
0.42820173117431404 1.2033651249914941 -0.51905894770710903
0.47296282935117862 -0.39826655192881955 0.36403980578505424
-0.62524726958268428 0.12094500564788424 0.80035796301873896
-0.1536530328197685 0.50489571332273986 0.752204987679856
-0.069876035556455163 0.27054157187571581 0.74552142855683412
0.41050296926399293 0.92133391250957808 -0.37806083213156194
0.25769088785248578 0.82061251153161141 -0.26973363133625838
-0.57202217251945175 -0.63593268603314068 -0.27011379868076624
0.29188369974699668 -0.034534204374053523 0.73810135652511066
-0.49696282334471037 -0.66529980844572245 -0.29564303833802796
0.62043399683072886 -0.39986743567333782 0.709995408296622
-0.45939739355406239 -0.075634508982908688 0.79225897206274842
-0.4154502085881161 -0.32570154104839233 0.68377767067503115
-0.67861877734924381 -0.94853658033082477 -0.43676034232277461
-0.33594005427436813 0.28395952181958162 0.77279004723189271
0.59470679875061161 -0.41511815610527325 0.73368458342035181
0.74090466273093769 -0.58002493882029693 0.58607636909753458
0.31036629625471346 0.51023566151217903 -0.3370245902119442
-0.2804361935424724 0.22254970267244323 0.80479001218092705
-0.55550934944971375 0.12068436494468271 0.80527472726355365
-0.30029936806344693 -0.22308032994684268 0.7725904822653078
0.81902600416029836 -0.18540241421236203 0.40163908014563043
-0.57929531189796846 -0.27593740726106253 0.68530146037899842
0.26757061135234594 1.0623585180118147 -0.38527788643091698
0.60588619457805226 -0.6556796949769117 0.6300890201185485
0.26835724157961482 0.79919790643391231 -0.27971295077456615
0.17744933758240133 -0.17777246682356473 0.78270472629457277
0.66668604506584006 -0.50827625189698544 0.70629768474897636
0.057560487936529681 0.31183575548109754 0.75357652169495193
0.1218934140058443 -0.16506739877154519 0.79689339016395389
0.87221697163681822 -0.17376955928837345 0.44698513405770468
0.033142906302788488 -0.27324860702138487 0.59426990922074197
0.72355964438400511 -0.40502345041862231 0.3951242881593009
-0.34368354894062797 0.46564219062162326 0.81800659932505448
0.1621168961894135 0.76726120695858224 0.55273003888383121
0.33730166747190571 0.89003305195491134 -0.33098474263833966
-0.28247858912825086 -0.034344643791643481 0.76197219255769966
0.35655896403586917 0.50471191186336517 -0.26634543406831623
-0.39012809637040624 -0.49463981574996874 0.57878052107345379
-0.38847608288604618 -0.77450721299347203 -0.15293825710318387
-0.36135307163745711 0.223227437298406 0.64453383078476767
0.46606218215361028 0.79215479887695661 -0.28011905973414608
-0.19653217278650559 0.69245423736967338 0.66206651928065785
0.10283683584425618 -0.16288666190237588 0.77179535589447124
-0.31904658737768266 0.14134513940785354 0.80227279869381496
-0.36961304341214429 -0.20346197749244377 0.79982713294259034
-0.18787487547932624 -0.16097403821567191 0.74951383929333693
0.037313813501489324 -0.40534905691647705 -0.38935561350794812
-0.065587994978966724 0.98439600420929763 -0.09858550369323682
-0.74947676401765162 -0.63165371681725246 -0.28214023090660589
0.77624586586270694 -0.2613946738923083 0.68464459497219066
0.86532928694137623 -0.37679589090195176 0.6173084717202908
-0.6418811894363412 -0.54989339026929862 -0.37378818026462568
-0.73651153902428912 -0.82992378806096845 -0.49248032041823819
-0.55331025266521772 0.76216689614632616 -0.3065545108637111
0.17210801068330894 0.79495584284937593 0.47994644128891029
-0.34350234374232136 0.40346395101503818 0.64924014515708262
0.49879879463170196 0.89449480259497971 -0.37572898929697995
-0.4893890473194647 -0.54383722401590973 0.4172510574117827
-0.05742160811594077 0.47740038800122031 0.78382474487883247
-0.78767826931694829 -0.99535107853999838 -0.42064822298899918
-0.44422817277537563 -0.38661593655714999 0.66221251791313263
-0.29910843724443914 0.31768621893785332 0.81400148117842974
-0.20292443525131476 -0.11502987715109558 0.73875354013995631
0.20932734013913468 0.75380015067558626 0.25046364177970304
0.78604726223790333 -0.29995219806889395 0.69032505487304752
0.19765212577530722 1.1333162687710658 -0.30814800157123434
-0.067484367584973337 0.65136297571647539 0.71631124780225663
0.84822918829614458 -0.40595707287311811 0.62392696159591088
0.72787972556163849 -0.30753218457725584 0.65653057398808556
0.11125957488809091 0.82788843274709878 0.21819969614283474
0.090573213932090724 -0.43958492355339329 -0.12126543264091394
-0.2952927761619154 -0.72845064249448077 -0.15857640830062314
-0.24962169925234312 0.33431161241802476 0.79220343506109003
-0.17913271590924118 0.47689845611385762 0.75723254621764369
-0.19567042112360045 0.98355145395076593 -0.10523818721915523
-0.60314187723894042 -0.35841484941515267 0.65378929684983378
-0.6705879814939113 -0.23818787237238626 0.70769840690122177
0.079378790070392724 0.47622088155185249 0.72942124392422603
-0.80338624814879145 -0.72928666841818091 -0.41784309080536719
-0.43910764311436556 -0.22865461002779464 0.77235435822169141
-0.20184928087649179 0.36259360386449568 0.72096829378502125
-0.72118657049401258 -0.98009091724475184 -0.39330827370927457
-0.01753488599510844 0.44601926943233483 0.7898969827474791
0.80171020068175824 -0.12718710372944475 0.44994424848574877
-0.48318740063111587 -0.34090288089243481 0.68255279752758913
0.63719727861076758 -0.02977077354619162 0.5754305886355171
-0.72261434035171535 -0.29696904300928351 0.45313560652740659
0.21343518958268892 -0.066359191301169851 0.80106879666031805
0.075785820742705345 0.37994224354978723 0.77332112678799358
-0.077890825236967803 -0.49945823409072876 -0.18238058133499635
-0.36619203122648836 -0.63857537931179342 -0.050432777611955082
-0.37457901789138948 0.0073309893193536091 0.77121037951804716
-0.73238662992148784 -0.2891564955224406 0.66101525996445742
0.8318413353382883 -0.42346601352024837 0.46416999473129694
0.34356601499008538 0.40994563973022169 -0.23091593202701199
-0.68735267187673543 -0.70030723420588803 -0.34513607203284513
-0.23076503374003787 0.44267762570310643 0.67403439653433184
-0.60854798278571276 -0.19604376950240887 0.70610828099328948
0.53508353173939782 0.010269014141817578 0.58079940854705558
0.19425663866276821 0.67035158852419219 0.57497337679153482
0.31388437993131335 1.0973555800995474 -0.41898021429157506
0.43113057977017721 0.042474279730950748 0.48257383553702349
0.60693412869555008 -0.42511783329235886 0.73106444717126795
0.51826223485231893 -0.21195220795781111 0.72663909596730303
-0.72224354128860513 -0.51501915859886926 -0.1535041478710526
-0.61671365134913181 -0.64301532305827425 -0.28504931901701136
-0.11026088433367964 -0.4205281332869264 0.4064202565399877
-0.88487417864410212 -0.093036748585419993 0.1130773058941501
-0.52831538039729586 -0.017801334097666821 0.75547763630751508
0.10308500069173077 0.53756425072526604 0.65950918234149869
0.63197657089740389 -0.60875867470242007 0.45136539608929249
-0.071559841786111855 0.86482266506619521 0.23401535418813735
-0.90190834150487076 -0.6988658420510625 -0.38819317974604939
0.2879225371198334 0.66034353359355835 -0.36052508477238776
0.28352003919146518 0.13368919066214779 0.48627569782839597
-0.50888296425593271 -0.28104640861293229 0.67867255233949253
-0.4322590783206417 -0.36104126051199081 0.68021204321501827
0.38639922231397039 0.70707003087717868 -0.26214577449823606
0.44906283989639073 -0.012840725974168521 0.37391292963811917
0.28962012512511859 1.1081463850071942 -0.41567062705630331
0.084841167362082026 -0.15179739602391251 0.75343620831365765
0.29408545300059208 -0.14247862507596132 0.7382646896681555
0.77223492720373454 -0.35635168104421933 0.69130991142366138
-0.10576119094565195 -0.041383474275773935 0.75124129393052952
-0.31351243446932175 0.4865838021920923 0.54560080995251781
-0.87107419384735429 -0.87101457121792847 -0.46285837970207044
-0.30251074430623576 -0.41941513571759614 0.64169988226458941
-0.65941597217836589 -0.84824679986760421 -0.39002934311062676
0.043349266643294415 0.64250605483113432 0.66134748851562497
0.18344640889918296 -0.3422579708956146 0.64503798494346176
-0.26658188007270711 -0.14501594865372036 0.78745843150355466
0.66706629382199822 -0.62816467125931386 0.62689387663915008
-0.74187633113730655 -0.40845861641087411 -0.37772993370593255
-0.30151597225245264 0.25244073034934544 0.80146385894938676
-0.44645735261524794 -0.79397181157646113 -0.21897742893025374
0.25573095656001832 -0.27416174985426078 0.72589179166600415
-0.81743305570704283 -0.75378503003009834 -0.43289582545536964
0.20367749733135557 0.14665811783005367 -0.56294570149046086
0.69193317570522139 -0.5113567025310175 0.42618611833578246
0.090272708508934207 0.58486945535601276 0.60988341364760679
0.61595151481581811 -0.42362765819756376 0.71049360546102935
-0.16970218716065044 0.3261125443011621 0.77324430914333675
-0.4580372593536588 -0.22048891265475712 0.76660481049517371
0.08088055452382048 0.37816558106964404 0.768422582680099
-0.37984651225640492 -0.32792357363114144 0.68845241120774459
-0.74575860128123039 -0.40590813718687047 0.49011472353090069
0.17187967411442351 0.78126525662576718 0.27663777867226447
-0.088254998296542791 -0.39985033723062147 -0.49545324593327367
-0.18436799436955509 0.51643611518516197 0.67794252684182776
0.39181394524949331 -0.24201328563869096 0.235994374490621
-0.79004893536848086 -0.45062562132262096 -0.014134084700179184
-0.31971906961359042 0.045318733410506074 0.77576861491971805
0.45452815901549692 -0.54267454472934418 0.41825724463398917
0.027993504014353743 0.94488303643372351 -0.18397445369988752
0.27619172988094998 0.44137582918997564 -0.3812763149358771
0.34722165047117109 1.1010236377471219 -0.42810437446875271
0.7188976381026595 -0.30585144950654275 0.65866940327779266
0.67345615466108466 -0.58469221173170105 0.66405595350588653
0.37417229903885074 0.52697494808133305 -0.091283553264812856
0.19684331652195852 -0.1758644902548685 0.77239138772475213
0.33490947241407676 0.21636435044298619 0.30117223617488609
-0.28980066347710065 0.86505070860889899 -0.41937826686157642
0.051487981474716116 0.39071521031842327 0.78333542841574211
-0.65663836714476098 0.68125770599834556 -0.12685342330224358
0.10361876169864603 0.56415092742968609 0.65983583273294455
-0.54243679014218249 -0.2555779000425642 0.68449280510997257
-0.72440241156494489 0.3803998268079849 0.29701043051188813
0.057616207681687959 0.62842042509255025 0.66190211818974154
0.29418519019780476 0.10326108966221792 0.48671714708943759
0.22344639890726103 0.019560674758864138 0.74279388161341275
0.40127580532663498 1.1359157600507743 -0.46239902218440809
-0.8105159401346731 -0.65971611695184751 -0.33728632792738766
0.44323568448569373 -0.16970093670894393 0.28085612476640032
0.8299338518623478 -0.1972607759630014 0.6325700819029425
0.57720241475898693 -0.23444763490872678 0.35469168435560183
-0.54983040952092077 -0.35220495619108094 0.66272896599082243
-0.90262816760613396 -0.74096262771754506 -0.52002393419437043
0.55663525097487998 -0.4528907850252164 0.72793425399566258
-0.55676110558502701 -0.32987598555936515 0.67069974331188531
-0.56046411362779569 -0.55337859093956809 -0.3985798006474699
0.68069740111259858 -0.4489382515146314 0.68144199024887397
-0.63397511233260018 -0.30120503575377366 0.67421094753312971
-0.86369588125058283 -0.88009235317811418 -0.48166114791878467
0.6232065421305335 -0.38069986698946501 0.72963359331333821
-0.3713271981500707 -0.64010187266079166 -0.10787529367411119
-0.093308713029287671 0.74543947323606607 0.402233008110636
-0.45277658186003211 0.43707704405345682 0.4958157892298205
0.30402771067572953 1.1291279331691033 -0.42485908655252391
0.4556835684778493 0.032946581696979393 0.58311294069912867
-0.31864434392653296 -0.057664632659706783 0.79151364068847974
0.12766714969873982 0.4759599521161566 0.68170888507524019
-0.072452239962190079 0.43014107368253951 0.79928784262640695
0.3075457830014291 1.0031172241225317 -0.3622967624577722
-0.14162490415652351 0.49739378914524313 0.7546702604316704
-0.32886600764358664 -0.64849666410311713 -0.10237172610298595
0.52639496280992426 -0.47534212833299705 0.38816362350465861
-0.1409537565607748 -0.27098743651066481 0.71045439712171188
0.69516450525048934 -0.33507419976516939 0.66466802999684882
0.026010627881574488 -0.31377982709454288 0.49246289661480258
-0.37973990306321059 -0.36289769060694743 0.64136728932113085
-0.58392767803932388 -0.92515586085728518 -0.33858574213222647
0.32640226213267559 -0.053236040570055376 -0.33975495480883522
-0.79616291254908678 -0.75864003371821043 -0.4155497766414995
0.74352870865310328 -0.37226352126418405 0.64944821168265277
-0.13327151352084021 0.38154427513968647 0.77299652871774249
-0.0015395087242335848 0.36770515791479741 -0.66012901360074983
0.15055689697477326 0.36201063110559684 0.7017871772038462
0.11879846539473815 -0.23269632331240686 0.70653635515383106
-0.35329536084206703 -0.81768998389075964 -0.22603931642562136
0.10939363685057668 -0.13482350798163178 0.80134433536385252
-0.51128863481348064 -0.075954983978384849 0.75096006640625035
-0.59436476000103189 -0.30829076034799696 0.66936776631786854
0.37355284775927633 0.70834141943048512 -0.2479668836711304
-0.036481629077911082 -0.33714326186395693 0.53626235152294743
-0.75684036171537883 -0.48583424978425049 -0.0878481643904645
-0.71896918715075608 -0.53991253324832655 -0.2128200862318681
-0.39318198679715988 0.0021213781770539342 0.76658529860114122
-0.057158621213656224 0.26031720348952847 0.75055344666643764
0.29630165165854566 0.82640865793528517 -0.30180342417226891
0.078294297720566508 0.82465239541837887 0.59634116385739055
-0.45564474425539669 -0.40281667871477955 0.65204937470310842
-0.61475389021760396 -0.97560273110030904 -0.35094960336141412
-0.5925674770509437 -0.015436324147848346 0.7599005420046927
0.023362694630350789 0.49574717030646553 0.75879086523856065
0.41098312498748246 -0.58239841703739881 0.54640258676521691
0.25773376478272958 0.0063905096590977095 0.75046906160844351
-0.55151760301487451 -0.21546353893038583 0.70650389674369363
-0.034385777777064197 0.5189235900232001 0.74422294735035388
-0.4248631226764209 -0.78438205130192351 -0.33970953970015483
0.027628352376532828 0.50825568100940677 0.74093424557950938
-0.24911900772230489 -0.24692803990792855 0.74238870462347073
0.12863517143169223 0.39509535504085314 0.69533075111981413
-0.55920787570416453 -0.19120646239697336 0.72402620107858739
-0.516866216550389 -0.60284866145751792 -0.11275489776054659
0.17694713530431061 0.2716187339141074 0.69245740180978954
0.048383204926544354 0.60236176376303119 0.66711966014041568
-0.77854529783588922 -0.57880551859029361 -0.24272553127286711
0.11284254140141781 0.51634859270165112 0.66367309211275938
0.38924602435654387 0.58340267289979941 -0.2861294573646207
-0.10494949967890954 0.7362034500122081 0.59940297533273723
0.29562755270302721 -0.48987041188578306 0.54819246348718487
-0.88292610708829156 -0.10791223117867133 -0.35844798232256059
-0.89478081061127679 -0.96285215244956268 -0.53164816945368099
0.30410676709075402 1.1559475089451645 -0.40508513018069836
0.25613861556468365 -0.011169248705551027 0.78808511642758106
-0.38001211014256914 -0.37907349662332157 0.61610694910079999
0.18686696607750353 -0.10641903516484508 0.804307339670018
-0.67035917367218378 -0.98880213174961051 -0.3764429729065415
0.82159086821894545 -0.37689427478130266 0.43202828756695055
-0.4502141624421574 -0.3158783553154727 0.6834885331241729
0.48456840825176384 -0.17041304884165864 0.72484216239625399
-0.45170997804302693 -0.32227904841949506 0.68573159044711574
-0.38406628916413643 -0.039336478162963484 0.78984960729799258
-0.45529268282219626 -0.33604278894268402 0.6875630931389356
0.2895474592912618 0.20690742306843113 0.46874759332507177
-0.19728955907764212 0.6737783423027226 0.60792057205809069
0.13836591233150064 0.81791570639998001 0.52900078982236121
0.19580467093579912 0.75836458453482658 0.40708305864089978
-0.34078363278413054 0.26188598178397982 0.69399783550132366
-0.21733120325640276 -0.45867352334616474 0.55783149469669491
-0.17881130018263069 -0.31107044272943618 0.69320707830353445
-0.52437412564700681 -0.32478997896338502 0.6809331681941555
0.11532516824428529 0.57610690321410019 0.65718736110412612
-0.88070229997146809 -0.84873129291847338 -0.4740353267926527
0.046705730084584784 0.32995632820316567 0.77819456374561513
0.45313629708803016 -0.49775717171639311 0.69655660744722292
0.30278466394245435 0.74109654122929181 -0.27138464152369846
-0.46316803626954739 0.030721961897123951 0.69619017159373042
0.28930137531788935 1.1353389629375301 -0.40104186277457732
0.50267812184507343 1.0085555934683783 -0.40729370437431944
0.10861408222443913 -0.26725295930480009 0.64955735292550809
-0.22581139522104299 0.43410562030600808 0.76931860889102222
-0.59879294375833447 -0.042750964348782894 0.75336145395029197
-0.57783696738998658 -0.12513873531340769 0.73060547782240448
-0.57245472157031607 -0.64086437897297932 -0.28259060123710134
0.55173051854996547 0.80755688952548565 -0.38328899067487843
-0.22746235598570808 -0.24332029457787807 -0.63190384400731592
-0.66194361711568672 -0.50359417895755731 0.47043824285425018
-0.83146084107590146 -0.63555362431844964 -0.31197967845481189
-0.84573489433056515 -0.75535400517692941 -0.45381116776878017
-0.34684236157380305 0.21995014478377373 0.74454457164832455
0.036730350569929682 0.29948021534612046 0.75878334213055831
-0.15259149596579791 -0.35171886948638376 -0.56814447092183773
0.35364731111714998 0.73568123045479306 -0.3393078980050257
0.8762632834866364 -0.25155130426311345 0.62086274703700939
-0.19296712421684037 0.6821652476453206 0.71449107592512506
-0.2096064924958051 -0.3965110601405788 -0.5322084667267637
0.76208982372846723 -0.30881328016242549 0.70071091236980143
-0.35632766688926093 0.57957197447760134 0.65078217974327179
-0.15679448447800093 0.46286927427874724 0.73818514140383806
-0.25275883755431072 0.028910775519422671 0.76861911493092983
0.2639948375378125 0.064169746214933987 0.64601500167782389
-0.58633613000588769 -0.15991654320541393 0.71973292947088119
0.69347282391006337 -0.305415971767248 0.68594214352377891
0.2759559132995244 -0.028369850142924591 0.77106801489449506
-0.57687664794012306 0.22162011765682088 -0.64555288945368661
-0.34361849096067404 -0.056385666560695213 0.81002405601989036
-0.66570982046107685 -0.56051342138561711 -0.1583839405324059
-0.62474531525782218 -0.61551951179700204 -0.37943083708847025
-0.38911789578424139 -0.75042529135104985 -0.15731038458531987
0.37267137217693241 1.0712976816084216 -0.41625009095209009
0.27543798393691982 0.75093917031079838 -0.2567863902576053
-0.16758663111465322 -0.14954085473729251 0.69721713255242745
-0.25537031700755297 0.48572602934455578 0.78074431258301225
-0.69770273455479703 -0.4542235227056568 0.30255176753111801
-0.044108261451404895 0.56593863070356587 0.71118887952958731
0.55341682925234736 -0.14317168434014649 0.36123563677435833
-0.65435480024863235 -0.27684397382869808 0.68956172275732097
0.41010022711641769 -0.53646163089984 0.43691146843308282
0.1417080140760516 1.0523126699730279 -0.25128625645617753
0.29465091556752565 0.75399094611868644 -0.28546005971011557
-0.27331861457331863 -0.68937505526977505 -0.15629934063869966
0.48683984059275248 0.97252911761667571 -0.4409684052835976
0.18105055025479411 0.44910623456393806 0.66134931621749615
0.17851228562537608 0.93934157933816254 -0.21049519479595213
-0.57881343732943402 0.20350077893901419 0.7200837895928931
-0.49846896309696798 -0.65449670992627373 -0.2939778746276116
-0.70363922255339351 -0.1871911790783849 0.71152184207337621
-0.02897056296748568 0.24419030850680112 0.75719164642586989
0.24054797794332039 0.016110611237636796 0.76776265373972841
0.28783016523506422 0.80307558629718412 -0.34972627866735051
-0.72336726966354226 0.5911361662890473 -0.13831168702446828
0.13599133039926736 -0.29475075574088905 0.64267046841858466
0.19112619620156596 1.0048614867798293 -0.25329192803091338
0.57775292271358292 -0.67570422770045724 0.6060053471028275
-0.0026033774250663333 -0.27840728123393266 0.62656192361668639
-0.38177766138702152 -0.63789905064519692 -0.11938950201569876
0.86453672349417943 -0.23297169165814058 0.62391710204954132
-0.29292064056188571 0.0043563717473444896 0.77524487055992086
-0.34801751941699521 -0.63733690798653297 -0.025342356295800172
-0.4887120857058922 -0.5445653143663014 0.4500269805126198
0.74431930853209738 -0.31907723741853378 0.66281281481922605
0.38879164811075595 0.85932484239331086 -0.33423546132898663
-0.19693044238820445 0.52431404274581439 0.65703747092161624
-0.34068882174696269 -0.20151828878161249 0.80219910230505809
0.12422170745092587 0.34416388646543572 0.71641376987563055
-0.38511251545146596 0.16795464874332655 0.80307071389051643
-0.84302135593356509 -0.57714405922744549 -0.29550480077494212
-0.149807713394883 -0.44807252302476019 -0.42707291631010547
-0.3849573997827096 -0.20881915886757607 0.7959584871468679
-0.41654981617942277 -0.071131092426671483 0.81197383966736814
-0.33879107071535652 0.30346659828939382 0.64478058098873925
-0.78859783935475147 -0.93677784996926161 -0.44855094620280234
-0.3085630565879578 0.19990980948949311 0.79798777980272506
-0.53109817745945564 -0.30769821092735716 0.6305080138030692
0.47811937136406324 -0.63736770843855606 0.54267594090472038
-0.60593778670306064 -0.78530505731744427 -0.3451579458772942
0.26467434602845774 -0.20088920442646163 -0.36413171435889957
0.14237261291997594 0.92793555431364827 -0.31333166230365972
0.15303516139514917 0.81725801528186581 0.17429725158370735
0.17667823979135888 0.96180057520307316 -0.21703525115126387
0.29014430429575322 -0.050746297070733526 0.74642194242734883
0.27923212825901655 0.092244787893331015 0.5465749015433885
-0.61809358084477517 -0.15166064795576473 0.72421364436666291
0.82500075653246219 -0.2559914563147081 0.39790272451753239
0.38360152358489286 0.52300505910025485 -0.12377651257213529
0.19133540070874 0.46674092380167975 0.59364440378363659
0.69326810875880951 -0.18602377820159166 0.37785383475147993
0.051406906870261393 0.81582018979814874 0.33763871458729167
-0.54432662569694279 -0.59975321703483697 -0.17682732690838332
-0.52948382520781723 -0.11057467598401738 0.74887110298156356
-0.6626698318822476 0.16039739849339352 0.77827060407619886
0.80712236287431138 -0.46637028025571947 0.63533585120028979
-0.32381770332665183 -0.06341113630545081 0.80544935254620675
-0.47532951477705954 -0.0056311490714349155 0.76835998696120766
-0.80864477765622977 -0.91755789223488526 -0.47428896801072717
-0.31362980316097055 -0.20770018604134899 0.79775088824994134
0.42085645835030655 0.77514043828440427 -0.29297778283396436
-0.68002241340283398 -0.93735332977305852 -0.43597484187711011
-0.043838527985906817 0.23348138025806442 0.75884424717567622
-0.057468256995389932 0.36443456946583197 0.80535461589542523
0.14884056001318213 0.25647386745404921 0.61709617083276314
-0.86165625468080265 -0.85319466915990128 -0.48384520726672564
0.27970228802780733 1.0845411262169857 -0.40300921191879091
0.53764763232359913 -0.066113272169997295 0.38389836065865079
0.67027073242879487 -0.46971116385498934 0.7170895585652084
-0.14896633248117408 0.3769843668886752 0.76284646970056791
-0.58153875003745625 -0.5932656582719491 -0.18289309738584336
0.3609322050902195 0.57506836728993083 -0.065410415921924425
0.38356304119029705 -0.23943504895982226 0.19484734057970332
-0.36913786728441078 0.20290510573167975 0.66636669421543138
-0.64670231226024644 0.10185655451686726 0.62162529663497024
-0.031127511719046042 0.34843042057019558 0.8038822013113065
0.38589350337545003 -0.2860379926308565 0.28272744017361129
0.13449266436391949 -0.057992132451012424 0.74640714729879365
0.7167399003385011 -0.47228657150521958 0.70151763421489077
0.68898066375660805 -0.60959675392332624 0.62706686024925151
-0.52758927367250874 -0.78161644487561976 -0.39295493578345786
0.54800895001134542 -0.17184179224446439 0.7160702700972581
-0.6165047978951026 -0.75116315735878048 -0.33904933713152863
0.42409626969677183 0.72520136063788221 -0.23763368694568721
-0.100810041691616 0.22556491454643846 0.76094114889690667
0.21218111489836361 0.83252887705696255 -0.19555962399733717
0.061491811977448241 -0.1306609234579339 0.75900126254490852
-0.22586693849694331 0.97757002428757511 -0.23251203385484098
0.36728392798885101 0.90774213621260103 -0.34911203119065304
0.39060333336261577 -0.40897715625277353 0.71414365553008885
0.36655404375571776 0.54523191133863991 -0.048997848657927445
-0.49621016973686616 -0.044531416744182373 0.73934105887872859
0.37474590659978779 0.82316084257712663 -0.31636064390532059
0.021075508396701914 -0.066893984622050873 0.75478518691891239
-0.095974928556513683 0.1079406456051295 0.74871083854237375
0.66819794126413012 -0.42196363141647897 0.65834446656201262
-0.18409610097864759 0.4133243092284431 0.76897293061995109
-0.10703959590943002 -0.3081138633802869 0.67074122245554202
0.18546999888658816 -0.25036205226092179 -0.44115439004243084
-0.070214617365291998 0.26544043262830508 0.75180438993227083
-0.14965563793203918 0.71464846813830407 0.64540434102128463
0.46299632895910436 1.072623788255425 -0.44559514350105855
0.36125581714252508 -0.23462477084988675 0.047690177605272499
-0.47309943452344938 -0.064590893906497193 0.76694744812254756
0.13681827115170142 -0.10267146849448938 0.80430232446884142
-0.78562146787077913 -0.85130458464604342 -0.43163979246378226
-0.37792971237964235 -0.72492833690959468 -0.15740124982106174
0.44671704429312264 0.63899366209470898 -0.2872572096510968
-0.31789299212088173 -0.50982754922888196 0.45092662254715909
-0.1692130392736928 -0.4371256620039583 0.48544230696129675
0.0033052708181631196 0.22635483420733582 0.75065616250485867
-0.20361767279895415 -0.52495915531546666 0.22200791033411527
-0.69288149835551505 -0.52271900689496986 0.084679672354034619
-0.54311443173176843 -0.1867417644982976 0.71569017251739764
-0.49908570271055075 -0.045680049365354858 0.75730427718048832
-0.050210111202452112 -0.28976022982928029 0.65421548980169852
-0.17924682003325623 0.98764959785259743 -0.23087732525700977
-0.50137284715099573 -0.37080666367564374 0.66397896517441302
-0.71087090300511124 -0.02368332259462802 0.73500599971095593
0.16638602383154688 0.005305156221332652 0.77945082157201462
-0.42273093485911017 -0.73408744450563557 -0.25682258983397022
-0.78007010456193893 -0.98353940924023187 -0.41259615570553798
0.68506492565308341 -0.32097717994841979 0.68755813705405044
-0.036874609099486255 0.44808008783466491 0.79223528702228752
-0.26478943673838418 -0.32418291717646275 0.69900377691645543
-0.18965387824230373 0.48081898602626039 0.75655042442533471
-0.75451485796762774 -0.53586974389347497 -0.28749575070035371
0.43155689453231516 0.014717110832267899 0.40895033299335193
-0.46880408232518134 -0.59224141186412593 0.18118905611203484
-0.1970411475109316 -0.12936584692491415 0.75958683320630849
0.31294986875265951 -0.082271596887278697 0.73277523881865747
0.43242712977594921 0.75504918616594408 -0.2710891160797293
-0.93595379665723832 -0.7187402046935587 -0.40826794437765912
-0.13485239764642909 0.30969283763141453 0.76009638762472687
-0.44412748103096422 -0.75634152819206868 -0.28288914029041878
0.76512300172307013 -0.3948997158470231 0.68968472220549071
-0.9375464565095053 -0.63694853426990417 -0.3994574317881483
-0.2893554688836848 0.42055147975217189 0.80299190072122917
0.15685154172876681 0.845765552099905 -0.3525713874654044
-0.52583044494537912 -0.67474158876808898 -0.30549466213570353
-0.65810900735956657 -0.13891475299617317 0.73758276926016153
-0.097589775783689992 0.61179518704320657 0.72342404334688171
-0.83967914389505394 -0.19780375494817592 -0.40125335262571404
0.88178996329707005 -0.36166004318953959 0.47177102366287738
-0.23228655336339143 -0.011907342996511971 0.76542062318864845
-0.13627632853335606 0.53244089870786526 -0.66130844083503604
0.28214768331022944 -0.2309068193211381 0.73581808367003632
-0.0012585257446835474 -0.31034627208140497 0.51657572683010144
-0.24210808283252599 0.97202734352739273 -0.10261421082796751
-0.40613291846744948 -0.75839030586821554 -0.17493471934253435
0.11092617522760295 -0.37103865346456155 0.3326907067627336
-0.12941638186292082 0.21830827423202326 0.76323029309284696
0.11295768278574836 -0.3219068926417803 0.52014788011965596
0.41265381048309396 0.72060101512064323 -0.26457738790004859
-0.40341299401484454 -0.246843959948432 0.7695130134502981
0.23781156727104658 -0.057722100049522496 0.79565913186174431
-0.16593562109661442 0.30415976152773538 0.77298381384121351
-0.096924422905886209 0.27931771673070882 0.75506633498528242
0.43433935569666993 0.88850267521939807 -0.3744179086358308
0.10387745382042546 0.65304478408329869 0.63540983189746658
0.062366320911590334 0.2732846262891897 0.74297012068136548
-0.046147751636191003 0.83517903911649016 0.28083507626994741
0.49362562455618703 0.85339257285994496 -0.33335493576552944
-0.9059240412843973 -0.12632864109600095 0.027457995515290268
-0.22734672345417578 0.71955918484455372 0.37908851744257488
-0.52778365049244624 -0.28233396899527907 0.67817295416249967
0.40827732242205006 1.1465209407810621 -0.41992028410641757
0.56150563889248739 -0.37984719708564363 0.35784206118866457
0.13378632601263263 0.39439073763877186 0.69830417208507489
-0.10363853772057374 0.44496279162630836 0.79029582294727918
0.33942728111197984 -0.29634192067501353 0.73299715346150318
0.53313266713699181 -0.67788589454129156 0.54145338762886652
-0.40147549771699931 -0.86254423080344589 -0.29669482794191904
0.30747379853310663 0.30267288615472232 0.5147690874329709
-0.29852923653483765 0.51469826500566018 0.61724432508218152
-0.018238367747153511 0.50285980836421817 -0.62998453096305296
-0.52851181522455715 -0.87633931846831636 -0.31725056281096942
-0.24094639572281229 -0.18595939519898774 0.75207037490305018
-0.63994519035019393 -0.56837223655040203 -0.089929423652117535
-0.70005300214270938 0.12031067642396653 0.64884593185636907
-0.7012815529398716 0.082388734061878299 0.63066899479837923
0.078485032770622798 0.80750577541609303 0.61535595645976793
-0.28475969136065304 -0.10636600543863173 0.80514643934039398
-0.028709333486963029 0.16223533667072187 0.74504801010546595
-0.53637272682278025 -0.05960255949518567 0.75287529147480647
0.45024623032195854 0.76916906235332538 -0.26547026364082749
0.2582187063855228 0.0030688247258967571 -0.48501818700673383
0.091006273492646894 -0.13217056294898022 0.79007973656184216
0.15714145362739668 1.0841567205857154 -0.34666395468962463
0.24731759003910203 -0.041904633458130114 0.79334583584996565
-0.82768228120796938 -0.73553400564899829 -0.43613004711568681
0.03471486288643455 0.36434866442293101 0.79203100083532796
-0.25239925668677565 -0.28205897478401942 0.72427477036599663
0.12895006832946487 -0.2642092187931544 0.67516909240431078
0.055983975870267377 0.34860876685288655 0.78320616043133828
0.039880120140761824 0.66907140612082161 -0.53682755001590232
0.18204527408499216 0.91750057906994931 -0.20604337424734798
-0.34549749912003058 -0.45985522483211394 0.61303195204372862
0.25454996969775556 0.0066952810663751805 0.7762279795155127
0.49759941783720496 0.93691506517224354 -0.42626986565418612
-0.22052106215842016 0.34714642095512982 0.77753141588231189
0.28686604438361596 0.19719317499427902 0.53389338604765912
0.027144171522366367 0.81008520212083956 0.47630194421047545
0.80722977670552587 -0.15219320078594434 0.4200513977691358
0.048881156268981707 -0.34618791765442936 0.43142329871992402
-0.32774425418163045 0.64021846542759731 0.70168738619996551
-0.30687636348416092 -0.72984731769707301 -0.13898105382622905
0.15759495560513592 -0.055699166944055634 0.78369587441834243
-0.93005021955996081 -0.75904509340586013 -0.42796267367538787
-0.5477703799836221 -0.3212629675134151 0.67702563213451183
-0.92991628350629973 -0.79283374023687725 -0.43749936712055071
0.7593368681623498 -0.3575575262132844 0.66578147124328613
0.17838698010485277 -0.019049109268055808 0.79528703362970887
0.060932555369009656 0.63978115514469724 0.65617009333297194
-0.78191110250214713 -0.80984502867929775 -0.41361564877032198
-0.54045302640046222 -0.37454587162444497 0.65483416520213433
-0.68464294220626909 0.59141521564587785 -0.34348094818680863
0.62229654735335505 -0.56414595651416288 0.68993352517201689
0.024650482590845679 0.050284675712656046 0.74372169192717674
-0.35859614689613273 -0.64241743694739695 -0.092714165178372721
0.42007262285004354 -0.1426061383839512 0.19445428120124708
0.40325456180680563 -0.044638852236599025 -0.036995816343234456
-0.4366420505147583 0.057196361419039388 0.77709823199360306
-0.45561876961798281 -0.74701391596190225 -0.29228679756643894
0.17844294775065972 -0.0031354650058803557 0.7906096763235082
0.5418851500649976 0.86702927382336537 -0.33789120635097891
-0.49208947191438368 -0.12922847532146964 0.77262694672853538
0.68366498047295843 -0.59997073491065134 0.47683265546040499
-0.87551126231156917 -0.17238956606828171 -0.35239546335789029
0.41019590958731356 0.69221693867426071 -0.20510717453005789
0.084578584206103202 -0.11903905090261713 0.76567849928009757
-0.38047970753421334 0.15172445655543543 0.80954707872390008
-0.71527612404132601 -0.94196041213633652 -0.44889686048889654
-0.049609010817142529 -0.1394625019383442 0.76074873960397049
0.49323607633840072 1.0063716501674154 -0.4549136673316494
0.4963131488812671 -0.41189988378489417 0.72999965185128524
-0.010551657163296202 0.25267103585465289 0.74253600211862203
-0.91467212803627196 -0.15114857700898887 -0.23515079926807037
-0.51886021616251021 -0.092405650728011324 0.74876093105568042
-0.85450393639430011 -0.2845716397786493 -0.32471581526669491
0.58007968445139302 -0.43184790222376579 0.37344500975406891
0.071829504106305508 0.36054633587571638 0.77364581662208876
-0.38390190926607082 0.060693682246711234 0.68444983811117233
-0.32099128454307535 0.60615725961252842 0.64048283887279123
-0.27548644475665951 -0.47302825631101397 0.57620373251941226
-0.49849227848136646 0.033243407918476464 0.76791107008248272
-0.74098169609949649 -1.025204246485208 -0.43732588756302748
-0.42397603787934801 0.88198350463356534 -0.27192293745816354
0.12283146289947067 0.38984900509279141 0.71543939132031475
0.00076648281368019155 0.24655953628408334 0.75591676836809407
0.45976838068032289 -0.35415020990521873 0.3466635839777803
-0.43615361716276718 -0.11051713357177162 0.80741839826935857
-0.48100162679398573 -0.6449548872808113 -0.26564086805316789
-0.42003845599120304 0.16598900353073986 0.80516769064513882
0.54170038546863175 -0.65110611312466293 0.45634553447601922
0.059076610688183345 0.57112444896781778 -0.56711258730547476
0.27025383713409257 0.63070695268394861 0.35532987505184854
-0.16575920409432532 0.34964429467158809 0.76723358559911103
-0.22350264431881484 -0.13234536204760516 0.76523493319433156
0.13931498843293033 -0.083164757845310078 0.79643836824908742
-0.956300906031743 -0.81168908933252859 -0.54708025195814347
-0.83179450170715397 -0.67573486161965324 -0.35996562825067935
0.096520403789697728 -0.23281468515097536 0.69030812814835318
-0.16789129125318156 0.76306882617024963 -0.5380248577026423
0.73099068183242988 -0.49650240215346297 0.68297775424389462
0.76110818680490344 -0.39456115844109885 0.68417121792653246
-0.67489535325742489 0.075332440533176559 0.61698782419154474
-0.5467085880866287 -0.29584608926443723 0.68412703493913929
0.86453976465715199 -0.4279344342895488 0.54408589873084523
0.6638365963139905 -0.28795414518983398 0.36830096944642587
-0.75177494461418448 -0.94981289963369342 -0.46195595841665771
-0.61828956303259486 -0.34243093586830664 0.65893779146223874
-0.57186714835895736 -0.13228691773160195 -0.61028096301361723
0.86017659518403233 -0.14990000996165698 0.55079954783980289
0.20207875877791404 -0.13405948646311039 0.79643967845930908
0.086424438603541209 0.39706678235906612 0.76338211390070354
-0.25062600295117698 0.62489803546449574 0.60996487810625366
0.93411765098633048 -0.25245153285589605 0.54250513336747597
0.3851993979398754 0.77524578925700482 -0.30373968342355662
0.6401073578280676 -0.43397802656343476 0.66570559202480029
0.27911211943578296 0.1544846663081727 0.52179010780290325
0.35352529991906412 -0.28164392638399871 0.19427245028986828
-0.28205455397983958 -0.12443102620188107 0.80890062159862053
-0.68072322003770003 0.33853409056259842 0.36717250703809601
-0.44484488050638094 0.18974738012817571 0.72168516261929039
-0.25377910582290686 -0.6531740609685186 -0.15537033169109726
-0.3976666956241518 -0.35495980434871166 0.68697202207229058
-0.26398660912187766 -0.10102438329330976 0.7812530297247724
0.77153677682733912 -0.47267091167226472 0.6656823424514533
0.75950440231051064 -0.42662810104669946 0.41765781380425038
-0.42619056376369008 -0.38376801988883757 -0.5393801028253149
0.19301012073571544 0.73730221752230163 0.53480392581879466
-0.87326370897728212 -0.32592144185906502 -0.15157649358644631
0.16603658560389944 0.86525083280593273 -0.34105393480159618
0.21951496240403534 1.1630582018049624 -0.33370500957073812
0.70535546233179325 -0.30111144434232706 0.6719904203004532
-0.17484631984852073 0.51648065738771498 0.74999636396319636
0.70114218134059381 -0.29106820960095448 0.69542423103165119
0.93687021402726822 -0.24512138427029884 0.48543325876783872
0.35188748706028039 -0.53140292497609298 0.58725847471183767
0.33162407661965621 0.73901994571824403 -0.25652599097155226
-0.057455163406607612 0.18919802194172641 0.67670781709287819
-0.40930352922539986 0.53214541188244713 -0.65583071087344535
0.074217217038740735 0.81340837616926098 0.41175283765363213
0.28217198001231059 -0.13570688533611008 0.74331660258475063
-0.29295212550970751 -0.35899402609931697 0.63048619683597318
0.017739145832451508 -0.20026825173337759 0.71806024529534618
-0.68623144450249429 -0.080624096775520293 0.56683828282896265
-0.31830040680634542 0.22980973837179031 0.78627814942900942
0.46850103577224822 -0.0769660976657498 0.32834049355948691
-0.17840574135654197 -0.24667366068345142 0.72360415931524003
0.14164322537873075 0.88597487029111566 -0.1177462287854687
-0.73747030104556888 -0.54468714695985332 -0.22781824642344972
0.24878831488278164 -0.090567755783921733 0.78743208852798263
-0.18447219049617014 -0.02347521345707948 0.66581068001317423
0.14253960746033889 -0.0035518381145198674 0.74112002503928665
-0.046649512498599943 0.31875577029526214 0.79752733075131266
-0.43501581560235358 -0.22228753329779893 0.77819438936419161
0.26573832318492796 -0.032427911514869123 0.78274343716478834
0.18731049089747165 -0.21600530011497021 0.73426840129981752
-0.64260591339225992 0.010093849377883712 -0.59638840277564675
0.65569710382978674 -0.59366845294151727 0.66624939129953287
0.25761354337962872 0.74526615420873066 -0.18812787616419246
0.67555926570946312 -0.3927077473252707 0.66085729872714927
-0.42022523551072621 -0.74708297373220622 -0.24134920742854238
-0.63845404463905686 -0.94098696570743967 -0.4129818554642064
-0.41071266839913945 0.19064043200515979 0.72076750613499563
