# XYZ point cloud file
0.34052637853756806 1.146745504426379 -0.46054448928352798
0.73027431963278744 -0.30497008101138334 0.69917443625416098
-0.080639703512535021 0.21197841306644705 0.75826907382633379
0.32217968358937732 0.4213758041774156 0.35320637013731826
-0.75722447540304927 -0.015718821435585895 0.70949872561045879
0.35837629750849942 0.063965654415386375 0.50533210027687758
-0.55025330618427759 -0.11679798453907431 0.75530544129073718
0.12679366249217239 0.43191668472200551 0.70491165927339949
0.6500822518955367 -0.69782193208568621 0.55042914120931741
-0.13147943725627087 0.28872580176239726 0.75917444317503424
-0.042612374878991943 -0.47528025483992664 -0.12771279569892258
-0.39002384423894476 -0.17446618981328044 0.81419958643939339
-0.70922070932892822 -0.1749561543115572 0.7361699780837192
0.41678755102124754 -0.079412614477626597 -0.053611867281940562
0.26585585549061186 0.80194316831175527 -0.28316506374606121
0.1131967755285519 0.43196826971456037 0.72331337964804732
0.33150991625661952 0.6571125069510888 -0.040585046723968787
-0.86368760424217328 -0.3498710095297568 0.10507768486392166
0.77564666476012434 -0.17106202954312799 0.40026098723064152
-0.23284501995315843 -0.11789100843163069 0.76287737220987495
0.7884546464051656 -0.34757520946891685 0.70091461833217039
0.74782938455514802 -0.33016560535050843 0.66411518488592591
-0.71685581471129112 -0.79481841073719384 -0.38389661592866275
-0.37987952296188254 0.47556543362412462 0.63237293007860629
-0.040862221764273343 0.60205859413923335 0.67788492473114559
-0.14891657355521914 -0.011760528721434405 0.74632228537420531
0.27339828286272372 0.77960318012343688 -0.28247745212247821
0.39651099988875949 0.73458958996439438 -0.28543815892802726
-0.49201995040404434 -0.68764454344422887 -0.31699033282365718
-0.21043993144959927 -0.2194248956316196 0.74148409698453221
0.1779529140353997 0.14524420071154598 0.72955314047494824
0.095944204403185296 -0.10738107778984762 0.76756208790400393
0.11534666458648601 0.51359756765635378 0.68396100226082268
-0.82566661555674337 -0.72428423794532204 -0.39231981311747788
0.85764713588962671 -0.38033838387867647 0.63956219895617394
-0.78577914853196695 -0.015730302362980453 0.35403030009941716
-0.34148581751266605 0.54361188160624874 0.80292590186031632
0.42313403644954661 0.68843225053137314 -0.19129950589173106
0.31531974537373486 0.67048033806510521 -0.093593440308865183
0.50398208979395065 -0.60871008054696141 0.41874291655389584
0.12929456873743739 0.90004168866179324 -0.33153983554994682
0.4294206831994849 0.044203977033546948 -0.03333856941008051
-0.50827294929655764 -0.027020878252640657 0.70715453273892237
0.17116912971039255 0.86319132327718862 -0.1748489729030176
-0.34739905574916641 0.24632070928022998 0.7876347164309685
-0.61515115698958134 -0.95612862171275825 -0.37616860871476376
0.20637369867353428 -0.3719875869286895 0.36415375417848495
-0.16641536604410057 0.32781408550480329 0.7571565376084628
0.11943771430883743 -0.19832339993194736 0.75754668683816107
-0.60388020791925889 -0.71243630841149752 -0.33742220300264592
-0.71144613417154545 -0.83956089244810705 -0.4001355439588572
0.14219495289700745 0.56496974734544825 0.66534022067044063
0.1372181532835075 -0.084551680841711274 0.76381789695829738
0.10038358393167179 -0.27190621562475847 0.64998461281583531
0.11483913930913481 -0.32648809485232277 0.51092654103642587
-0.18920055999978302 -0.12647569605434761 0.75362149203047579
-0.49260788459713112 -0.057242822228836587 0.75994085648920162
0.79752669798916642 -0.28397391480213674 0.69341652871872839
-0.16571650432622498 0.50474670642180364 0.75345379639431087
-0.9215674267170737 -0.64362404581500687 -0.34669661021914422
0.20934248204719097 -0.17759920184228228 0.7885018793874039
-0.68263086369367265 -0.59385607904679727 -0.21461944507531427
-0.45586857758171284 -0.6144339397027494 -0.16322055434733329
0.056464476377010797 0.4692966017311333 0.77223971943292824
-0.40966448324732418 -0.34321469158453688 0.6971290520947413
-0.58722008791933611 -0.92614950105568106 -0.38657521688399754
0.033132213676065447 -0.42751963944892246 -0.23017070106758553
0.20839428999424747 0.66242594397622234 0.58985334115033439
0.43986069483409906 -0.46978302124547433 0.7056326566633615
-0.992383954041264 -0.93341959919069994 -0.46625611609354678
-0.054781038912970814 0.2746757600929115 0.76353757855334337
0.31215831723619125 0.47447745046166112 0.39673245163833215
-0.41233645132759555 -0.58348940666549076 -0.39992750970269597
-0.57287707237166607 -0.64707863152453449 -0.30704072494192403
-0.5937279442838026 -0.59539431880226434 -0.16927783019488984
0.36662377817235736 -0.34029223378641582 0.29480305798636408
-0.65298342416800814 -0.35426924031341045 0.67964128564245385
-0.32084389569745042 0.28078843629492134 0.81135136183526768
0.33094214286074752 1.1787769403217423 -0.45751561872598856
0.082725315052213588 0.58120212768340718 0.67016421115409841
-0.38336310912662697 -0.29532192665423906 0.75092315851045655
-0.27700351717721539 -0.0045931364012492537 0.76695247209421069
-0.31261442564124664 0.24804724959796687 0.80784455099295016
-0.62452434965359416 -0.49932162354967069 0.59198897809727313
-0.3632319544111855 -0.0050707276969301773 0.73748246497960324
-0.56325296509484524 -0.0042981500222030178 0.7667626063706976
-0.53633596833655517 -0.032174769111256829 0.75939301490961952
-0.3854060518310547 -0.27294211908459243 0.77892070885275189
-0.53596443450749831 0.78691384218855909 -0.27598239813295677
0.041050368835461981 0.091319026422127081 0.75455327966510666
0.17592397235086921 -0.34631452641672933 0.63439258270260979
-0.72555677636743532 -0.76007312669217075 -0.37601331206671063
-0.10273093275107037 0.42384203974700085 0.81055002218714023
-0.37633738007620821 0.29339757394521548 0.62004277509918282
0.22291869802932851 1.2104342102035561 -0.3730223666980983
0.7312141790685871 -0.4451999303875338 0.66873000972570296
0.55264054853828348 -0.090034662118723574 0.70097841221432233
-0.10002733844539868 0.3085720277151367 0.77700530508100485
-0.080523051538767376 0.11685749888574204 -0.73331002847680793
0.65565843888036213 -0.56374899322670746 0.41357381703650375
0.53960325251046015 -0.11342137075100212 0.3559199374610742
-0.18589022419619283 -0.300203550323066 0.64324350261490082
0.46613968448276921 0.90300659424184015 -0.39224657121044615
0.84076296368815839 -0.24426097430933247 0.66338008256343173
-0.43292554518702886 0.024358923616752293 0.77533676268504337
0.24525464836686872 0.63001662841438311 -0.42275089904118701
0.42623804737511151 0.5737740058054186 -0.25000368023074415
-0.095540039111950747 0.23014577245807466 0.76402771383602541
0.81954763849778089 -0.19333049239283895 0.40548445243684128
-0.7714090889318399 -0.44109279912728105 -0.32172137396337419
0.30202732015602152 0.49827150895933414 -0.37110172059387381
0.89823490739415845 -0.32557525070126747 0.61598895049553448
-0.22048749149730718 0.38213099984930832 0.77414956273029389
-0.47571450918483471 -0.6496209167800302 -0.28736018568876887
-0.43472190124037979 -0.0083894384724620963 0.73446686023478946
0.13940193905022014 0.31865699127768732 0.68495137244413939
0.43984223812343792 1.2466240547902459 -0.51714147759150464
-0.77205245076311613 -0.63233406413850091 -0.40912345949440976
-0.23801389129225825 -0.37840849318967784 0.59838721013560559
0.33803238878669717 -0.10709337764751226 0.74016494337714533
0.14993576052888358 -0.04317751207913112 0.78711162311429561
-0.56309202016172399 -0.8990851805264013 -0.39358754040106092
0.31963962979050464 1.0362995121201708 -0.38761636951527478
0.75567698172515207 -0.51357990102028062 0.66107368568039249
0.16006674265794274 0.47180282984495481 0.65521983378697257
0.85094137113523161 -0.46473721371661192 0.52357809070595707
-0.087688405317029705 0.78932466857590011 0.6648831112420055
0.40563581977722762 -0.41717065628029903 0.3608828928619161
0.093284817856634561 -0.31743340836664835 0.49492800223874411
0.18368421976236604 -0.20527011737917 0.77081144814158975
0.25098209316674058 -0.36621168398093484 0.27579158493833944
0.058807464623255257 0.61298202363999099 0.6720755937231182
0.022290904703531567 0.92722976639472066 0.0020518726051008684
0.30378504260489159 0.58452572198283193 0.50569616397355333
-0.34147145691288117 -0.095152629478442385 0.81276373870273488
-0.15535040952885382 -0.17121193091612064 0.66704446039775078
-0.20192231249314574 -0.49311742800721525 0.40550995736367668
-0.42996069687720251 -0.77067799896130307 -0.27116792026965086
-0.17372037246306604 0.7048164419284495 0.73672115746625266
-0.20694505320243017 0.43580731293886021 0.76678712899154888
-0.74330357653921908 -0.24699363698989973 0.59419807739423547
0.56040187576998868 0.91293532786590159 -0.44983297948300915
0.22535932495204136 -0.012489553743302295 0.80794511548143433
0.26769743469741947 -0.36946508901501929 0.69427233070931038
0.09673207257363714 -0.16451779188235793 0.79622838466924151
0.23101002997129072 0.91117446875886632 -0.38224202019059916
-0.069421663915449017 0.1247401423209471 0.74684728406147372
0.51075962435989197 -0.3361612975733923 0.73874948595797818
0.26767662359360145 0.97420833793007944 -0.35027896087278165
0.43801469675470983 -0.57703065121083341 0.63424442670764236
0.023319775020311795 0.684405665116536 0.66539606910156124
0.25587778363908242 0.75384380196281864 -0.016773947851483229
0.19967631696097854 1.2152539445108488 -0.43615205851169137
0.18641815256067318 -0.36632509392188695 0.35698940982019423
0.083410199788636064 -0.13839563808112487 0.78500870323081529
0.34122986380078046 0.64319342766877341 -0.0095753571930146109
-0.21272627614220951 -0.33635244310521628 0.63377839181429607
-0.012619754617221091 0.34410649716364183 0.80909176569919339
-0.5342788680306505 -0.16103331469587268 0.73622964230788313
0.50930605209396163 -0.24647184496302366 0.32354843387734533
0.51507022993833473 -0.66346063740211481 0.47777594089506081
-0.46814399859007771 -0.2131834680925957 0.78508615830392969
-0.58054486211281642 0.47600137848727631 -0.59189046307893634
-0.97581373017948536 -0.91780868198385601 -0.43689068719616841
-0.55936782216236303 -0.036261802302145263 0.65773423224606375
0.05723789104882826 -0.30029488889839495 0.51271412577509068
0.52198783766676016 -0.041860973023109871 0.38707668629783143
-0.62052298215511215 0.021107058447858762 0.78806543700047982
0.36184703780104499 0.96508503714259586 -0.37706008530132706
-0.97596918468214433 -0.70891488127619695 -0.38063403089071102
0.66975823365572751 -0.46891681858534895 0.67048148420926879
0.39237268579847928 0.72845487145540133 -0.2726220520923448
-0.20246507332422325 -0.34590814830239136 0.60831498614406243
-0.43760048151434994 0.1883760074889409 0.61306398900982018
0.28126156746340314 0.76119473947651617 -0.28193713958280497
0.31584981843083604 -0.16815166948083693 0.74313307254775296
0.39390506535185921 0.89794968385655949 -0.35789995027322163
0.39366120713885699 0.67332979200956178 -0.20402220765856072
0.42761244826779787 0.72979278132762104 -0.26057031742532999
0.76117343127548232 -0.39497607191052087 0.66780461851902828
0.14357674996084135 1.0343738753526406 -0.37022278058568858
0.05164737256952634 0.89631523420227222 0.087747833779847184
0.4968990665368942 -0.52377312424753875 0.38616502833371413
-0.12728117966868169 0.9779396692260498 -0.23075535291281568
0.75123634650943316 -0.30551189402554346 0.71428404389369149
-0.74948294090942724 -0.34667956403592637 0.56312287637803493
-0.61742547825491378 -0.20215968584265909 0.62292670217854251
-0.65428956702791119 -0.28162153959354974 0.7074840206307087
0.19847426978462579 0.019143140879362086 0.75036202197556534
-0.4819091451332973 -0.55051613992200465 0.54402253280963464
0.3126867313499222 0.069855994221257767 0.54515318099174337
-0.35324061838118226 0.19953018044949289 0.78392296913281356
-0.40696130444833223 0.18366493965805475 0.74282855192097585
0.77210540967061192 -0.396949371144248 0.69261123677181757
0.13502672951366179 -0.33767202268287022 0.56565057187944845
0.85359812472717067 -0.46403010217244844 0.54985541248832703
0.49703123431743812 0.83852556040233317 -0.30589083324715105
-0.38126311819177872 -0.51328770234391996 0.5863837339342588
0.36283981523667741 -0.01652532377685656 0.70628419471373149
-0.79252692758546317 -0.96253176067186441 -0.47375282596426871
0.66112102026167108 -0.084303950333718625 0.41443907231974819
0.36397618791247233 0.63958660863074623 -0.16242182772817415
-0.72192376080798937 -0.27846555738393342 0.38920646595166986
-0.080373118394110321 -0.20453218506762028 -0.63175814712787925
-0.72568542145340409 -0.54279424555877487 -0.31115341423130616
-0.21659333717337326 0.75333780854434362 0.33315352069839221
0.25897571133947928 1.1030018840459483 -0.41399549270100877
-0.6414200137330397 -0.056876011975044882 0.55712308551996514
-0.60735956163981264 -0.97349370695068593 -0.369231649099941
0.33688726617470621 1.1761739995091771 -0.46730478681011078
-0.68065675799144287 -0.12642911664667444 0.53795720883796605
0.4450540398540177 1.1902029209223262 -0.43716586019902692
-0.12863879504869047 -0.033459499004729665 0.74562275266555389
-0.58919630727530858 -0.23458570591594441 0.71220307534341032
-0.1839088598140215 0.33647663171447562 0.76827798714113271
0.05166374558254816 0.87679444774568349 0.58252093268932015
0.45390286940846991 -0.095761044054817113 0.23609653630584404
0.53652512388278772 -0.50569618267393945 0.71210262129343249
-0.433372597913392 0.59415771117038396 0.68894963711117541
0.62053010425052513 -0.40100088277234214 0.73353109067609878
0.10498956676353899 -0.1295678630237056 0.80396089964758488
0.24359122325187244 0.0076756950149725611 0.74688496424866102
-0.43888468019020088 -0.083924155799827815 0.80398512421752599
-0.47759644185071082 -0.5318148485810168 -0.43525407602779964
-0.61586188939275033 -0.66263438467131319 -0.31695383521486775
-0.23350315432977453 0.47453326322903688 0.76064653389466486
0.12547114003955784 -0.1793328981459128 0.8069449970444893
-0.20136424859929214 -0.39580204504273375 0.64932473908939414
-0.37928530341873845 0.8657274979341647 -0.34961494837243379
0.46438323893765343 0.83257596591715899 -0.33561520777790221
-0.6194195397339719 -0.85708193151847922 -0.46800787647642039
0.37393835220535188 0.31341929544400848 -0.18254886441270557
0.71889583565668858 -0.51188432808506512 0.68764793004793745
0.1446692575888715 1.1285788236280681 -0.31125541646857258
0.12458114048742175 0.73139312879576757 -0.46923742531707902
0.19596836610613622 0.028228626480345298 0.75188152729358748
-0.16746206111943174 0.60917456742128628 0.73978707979549085
0.21480059085396164 1.2463940898883497 -0.40494007941331844
0.50575793447126571 -0.63725702784589977 0.44510105645256104
0.21730529579383884 0.25787205210373632 0.68161928470987476
-0.514342292385356 0.10745217612194491 0.81148480071140483
-0.52101381067193309 -0.33574147523933462 -0.551229275373462
0.40763566230723036 0.67775191170113658 -0.19679741972383624
-0.28367430615006839 -0.17102774368052653 0.79917758609018819
0.26920986583863105 0.77030054196750974 -0.25582690712570511
0.17161747238145431 -0.050232583645691165 0.80774323916730495
0.03651843138833577 0.42663017235014333 0.79185257951719734
0.64181309796442676 -0.46550588157976502 0.71145902371109671
-0.41024268226441407 0.025140642258081769 0.77562072884540001
-0.030007113833322663 0.9451854071785224 -0.28884242082499512
0.36434125159927078 -0.36831091571914953 0.32265305100463593
0.23275886948418822 0.92646890669525295 -0.30449801372557062
-0.40408910337901816 0.35580782958411294 0.696408372847241
0.061429585546214582 0.36899576495943798 0.77458518905427454
0.14454922496382139 0.46782128902016762 0.67821143808739137
-0.66414850355003452 -0.97191241488303071 -0.3962627238962817
-0.44523929439533205 0.24480736567772077 0.59425522421266663
-0.74839616829720157 -0.24394470827744286 0.62419091162318097
0.30948716739142768 0.41813782968028157 0.56156397377671041
0.30317304437160786 0.25210696150657697 0.51305554155069899
-0.71453323858036732 -0.47903016929088515 0.44547743205430024
0.16365391417553177 -0.083561760707031141 0.80757084053998796
0.21065995750709021 0.98513182877131555 -0.30240231069102919
0.28696792047055908 0.10150485089668848 0.51450452867787888
0.1139114386732043 0.82282626899792355 0.26093724224714521
-0.21389177151548822 0.43665880814014013 0.76828278003507222
0.4122053340265257 0.69468942260917466 -0.21800054492840104
0.14642427086569221 -0.080617657897331441 0.76119777583417658
0.91250604443535366 -0.24840747506605432 0.44123361887107038
-0.91678929247199825 -0.80951750372805797 -0.42581793385742728
-0.53651989504459507 -0.25348988376759429 0.70197122801227607
0.21477135399248226 1.0890197104805601 -0.44512371946993667
-0.21924481524713713 -0.58802377023667418 -0.23970008052729952
-0.95615170907577784 -0.67384340881468496 -0.40069672607485529
0.011922079820866571 0.62938904709289289 0.67944930428017614
-0.060902854136193341 0.87654063241344637 0.21806539038349371
-0.6295012342971642 -0.60548313929928366 -0.22242573612379601
0.51922724400950848 -0.13861340199713368 0.72521334524293124
-0.21421598847378576 -0.31751430789515034 -0.584724142211968
-0.30640523546752974 -0.22393024459707522 0.79854833531120661
0.40792941303029906 0.7976493570907639 -0.31311662812476371
-0.27465305150987795 0.56589580355041491 0.77889289585510468
-0.63901475102762006 -0.7594558281638033 -0.35791813396896544
0.25744150638168861 -0.11028998669989676 0.79249642238409024
-0.36656963501645912 0.630935524277211 0.64884849507432563
0.50400129025343254 0.88222579540666057 -0.35565444647302513
-0.72397460395077395 -0.40015019422179154 0.39707362406849356
-0.11524753104733243 0.45242008275211631 0.80412003402355481
0.66681024582950243 -0.68198459462810401 0.4984445120166292
-0.47576022644929949 0.16151229748502605 0.68939335808962454
0.5710724878446598 -0.37601492529672775 0.73664434021440783
0.64784985362795844 -0.25856379500140747 0.7299616440384078
-0.26503543051284773 -0.26897173240560335 0.73115186244206143
-0.75973761802422146 -0.42552137954286895 0.56748765668417533
0.12834141305250135 0.48808173354592821 0.69304010614426659
0.0033581705409044815 0.52307411793141689 0.76451060444879104
0.13547781578180462 0.40545602745075815 0.71491718813526361
-0.23111518293997868 0.31708633880588977 0.70191801231645101
-0.15799370870222518 0.72071186783058394 0.41886965590686742
0.12608521340006007 0.60196917312465636 0.56634902435220624
-0.4584974092916756 0.48424499147729705 0.70233337522197914
-0.35107277899115097 -0.63348579428571927 0.011827825336297337
0.13741188361196954 -0.10714260965142586 0.80855530706300627
-0.9624947990797974 -0.79151724007906576 -0.40341146123039451
0.65697823780117837 -0.46434093703410184 0.66036063761489316
0.51131836172002387 0.67841923992845921 -0.27830913136258317
0.28741405697008204 1.2410680478821101 -0.40950020937300735
0.42287287122025319 -0.23670704484854888 0.25461834443240505
0.37369022300045351 1.0449502647896027 -0.40954264680527785
-0.6042112366919099 0.3595065433856135 0.44080928247239726
0.55241962268117462 -0.27026637835252121 0.73677410625985473
-0.4758335155908977 -0.57944175503741935 0.48598222689529536
0.36062672051278 -0.21559150176071906 0.74309599598298348
-0.32678016348597083 0.76226360378588165 -0.5098756206284456
-0.27948250761544102 -0.29080212390540261 0.72421893772569135
-0.64276455079161465 -0.93335528378004717 -0.43620858335801671
0.93183591825143353 -0.18728483696532816 0.49880470407144273
0.32719563825760289 1.2703393482725209 -0.43391035709018411
0.53239656977147654 1.0570188698273721 -0.51139154538474685
0.65927375912730213 -0.67453744641130342 0.47176986236344831
-0.17941399252726242 0.33968189269861604 0.76333736070535352
-0.65348829263051478 -0.60555517600449971 -0.2245125659798255
-0.94812486065062807 -0.71757485251024988 -0.36311111954997344
0.41270766076220511 1.2462016265303379 -0.53620837455166281
0.4955679673871316 -0.39641242836023771 0.35254886965636345
-0.65443026783137981 0.091668677199617576 0.80870494524643988
-0.18710392675793308 0.5183312717689601 0.75408172423504993
-0.087983145239361349 0.27101410990265862 0.74859081582418696
0.41538959599213854 0.94150830348089798 -0.39096395662852146
0.25849724619947523 0.82533419610551384 -0.28382367853938462
-0.57213776439976982 -0.63744542063763987 -0.28397837889436772
0.29313520025103301 -0.044095573328844395 0.74974310774455688
-0.49399070841145942 -0.65830660056679768 -0.31507613375433507
0.62506997280774179 -0.42124313622591991 0.70899221939153279
-0.47330833360138236 -0.10565405615306656 0.79182862529831155
-0.41129502403845208 -0.36237192293303444 0.67451216020096538
-0.67860211964751294 -0.95923586293517538 -0.45075474857238973
-0.36742491930898602 0.27642159041553249 0.77108995446992168
0.59854050690453597 -0.43976458399418217 0.73154036229481534
0.75106323054039592 -0.59535927119189047 0.56967158778071436
0.32200775449599028 0.52809119197104337 -0.34912531305435834
-0.30765053366024375 0.21487712369285017 0.80496896587586519
-0.58395243112427586 0.09537159321248545 0.80986177045229724
-0.30255699874022923 -0.25490373872767691 0.7671423772250705
0.83898432932340583 -0.17257078365979694 0.41783021043726265
-0.57986550598876896 -0.31743224899761202 0.68358550034792032
0.25504019405686051 1.0770205942115263 -0.40192219778492344
0.61830352918117981 -0.68489086197208504 0.60425132154422201
0.27048258384687607 0.80475681785062925 -0.2936903425786106
0.17836605708752984 -0.19861770613801433 0.78705105576010936
0.67085291560683835 -0.53385201474744459 0.69634973320989957
0.043587127869555431 0.31920516880956207 0.76407098561700337
0.12138650416732055 -0.18638493184070004 0.80086063903041804
0.88997375230420062 -0.16142415852640379 0.46695108322361989
0.042155333369493064 -0.29268405025259447 0.58198114531198541
0.74398206059014527 -0.39788523947965615 0.39303458412782888
-0.38847778122362797 0.47037113368039929 0.81886457766772125
0.14837651202487834 0.80363026397544779 0.56557758653713108
0.3396712160176012 0.90261222813427366 -0.34453646136593008
-0.29473498689636379 -0.05564253571546196 0.75801116279847847
0.37161152619871451 0.52116384395978521 -0.27531895213803637
-0.3741105266799174 -0.5323854272846722 0.56162715749172065
-0.37018157882773828 -0.76833317647239596 -0.18397005463922156
-0.38592903550951974 0.20828838793307991 0.63720519929624686
0.48080864494414932 0.81090127553191937 -0.28674315275658202
-0.23920084135109043 0.7108032563230724 0.65873964204895685
0.10307455883718397 -0.18355846905257955 0.77374522023435688
-0.34304301683654259 0.1276944143695502 0.80165164443061698
-0.37436716232133094 -0.23733560236607687 0.79690578314022531
-0.19134181236503345 -0.18585950520444161 0.74388150690862176
0.052797922579436829 -0.35350069662208927 -0.41325637732693821
-0.095432446815070904 0.97432585341047506 -0.11340057018971805
-0.75632170371480889 -0.65089747532446829 -0.28001601631121176
0.78017102957520734 -0.26873688425808862 0.69809601864117354
0.87092311072484918 -0.38096321889870133 0.62312198488285375
-0.65136170540122684 -0.55284109389683422 -0.37787665034333884
-0.74686212441449307 -0.84138736584173479 -0.49514221438759876
-0.60087691876112714 0.71714578300747789 -0.29024629942532343
0.16084247600328005 0.82735563756617481 0.48993510200581625
-0.37715960674507976 0.39603151590873065 0.64272848150367068
0.51043388726113292 0.92086778115886236 -0.38533235917250863
-0.47266585154167373 -0.57733282729905966 0.39882669829350803
-0.085258437542560017 0.49529037562627032 0.79200707546823423
-0.78947124409440228 -1.0229632799075672 -0.42718675787882887
-0.43611058375147849 -0.42623862568834436 0.65204099409663741
-0.33272607945515986 0.31513552016581592 0.81481533154311947
-0.20866535394819685 -0.13768117943487468 0.73308139884900925
0.20852871171501342 0.76460127896068819 0.2511254557114988
0.78908968320116912 -0.30898783629439208 0.70108567391503485
0.17664958614598802 1.1474437644469866 -0.32321474364501768
-0.10110628686597956 0.6787847712416788 0.72119842142079804
0.85346526592764071 -0.4125166276354495 0.62665184198659318
0.73386739129922773 -0.31734683823215537 0.6643597096410474
0.10112914500742676 0.83664193514751695 0.21322757448536578
0.1130566039920744 -0.40679872226307712 -0.14794290793083675
-0.27590902409011875 -0.71400579096384309 -0.19155088665238296
-0.28104338162881248 0.33407441693679196 0.79263304524851819
-0.21286585443332484 0.48738934467453809 0.7582906526379638
-0.23580312964659456 0.96407407202267681 -0.11756279775351075
-0.59803710880681926 -0.40354927444862732 0.65135108778214246
-0.67412838151923182 -0.28391176345259517 0.71318721666745688
0.062519813327034157 0.49583516364312707 0.74247750735453621
-0.81526820774841369 -0.75017367441900173 -0.41115362864424299
-0.44245380777510235 -0.2652582972143982 0.7691594927842651
-0.22931573504416747 0.36278218316261501 0.71887724846230228
-0.71890228753121832 -0.99970745883796397 -0.40592654671161554
-0.041956052844078329 0.46336498746040178 0.80042203619222363
0.81970899312845802 -0.11748084074747567 0.46903032312774329
-0.4785728403793108 -0.38090006923293629 0.6753440795062069
0.6492969786228393 -0.028640242516116743 0.59497504134411017
-0.72412038270806711 -0.33949588279377885 0.45622094749333186
0.21130570443826358 -0.079944929286993371 0.81208717242185458
0.059702193992940522 0.3941921414347771 0.78741437944328396
-0.060560458560317443 -0.46963517976337776 -0.21172347160631944
-0.35085286629170653 -0.63617438148327299 -0.078914394082389094
-0.39152935920744092 -0.015103821537017836 0.76845265609626168
-0.73245222939820209 -0.33929072513579062 0.6693878319269011
0.84731707099457765 -0.41823742384632201 0.46495728284563853
0.35974754387438956 0.42746383272692157 -0.23943057941742296
-0.69264943386368749 -0.71052143723123606 -0.35023476183924984
-0.26177593610843708 0.44360382204838267 0.66949551121162187
-0.61487032624889792 -0.23632679409875124 0.70768694301101931
0.5461281384510368 0.0098313053042264897 0.59756848307976895
0.18549115890076706 0.70003734573427323 0.58994403048813027
0.30155929824101868 1.1185487582001929 -0.43560444881109106
0.4441817698207462 0.042230379901868176 0.49129616961048228
0.61070269323240112 -0.44979634949420166 0.72821430237288709
0.52263021130645271 -0.22666529989944006 0.73712737559447916
-0.72725621674497454 -0.53652128013020217 -0.15268074680173171
-0.61883263026748558 -0.64820319596775011 -0.29542039240859808
-0.093967852625723935 -0.43557894209072678 0.38211764625448907
-0.90140363475052254 -0.14043918765862884 0.1403811929279577
-0.54624067894664208 -0.047657655765998896 0.75601535462877223
0.088905822179642158 0.55808846326044392 0.67078546985104026
0.65310609691740851 -0.61579644219292629 0.43024824555170937
-0.098434570783155095 0.86665562199056989 0.22296284848405179
-0.91598684637388317 -0.73272904701167185 -0.3694098129535881
0.29433041964621331 0.67259708023430509 -0.3749352062244391
0.29185460196619673 0.1318465072797288 0.49022034955956428
-0.50856054334396816 -0.31913761227205573 0.67310557769723189
-0.42585932584259467 -0.39991463171274688 0.67079055902827989
0.39888754865687659 0.71993346414542359 -0.27101910506164728
0.46631961395967636 -0.009842224565267621 0.37797242880606774
0.27488070972444234 1.127874902276278 -0.43252709343842
0.085217288055645213 -0.17152619656375823 0.75411877066619581
0.29703591870748802 -0.15807590660648785 0.74548541560216819
0.77499901489292178 -0.36871052939000126 0.69696941375428167
-0.11304880552395424 -0.058489889194939693 0.74903795201440815
-0.34621975687382367 0.4783726272753217 0.53617167302427049
-0.88360984304373247 -0.90292399616167796 -0.45377860523429803
-0.29092116096750864 -0.45474305488875277 0.62648643790877045
-0.66028132023088837 -0.85596631481598617 -0.40220892597191948
0.021061670552441569 0.67007850844868599 0.67012763244311557
0.19446138094802912 -0.36528663589450261 0.63575912042104932
-0.27319678830307659 -0.17211666364907874 0.78378530534669366
0.67727197842975428 -0.65307789002714856 0.60444906681103916
-0.75811511140379828 -0.42224060696861621 -0.36815765253200539
-0.33103216890806664 0.24553793401428692 0.80135353884286786
-0.43223487213369438 -0.78854982922354377 -0.24688279306877448
0.26176158607489697 -0.29722968280490569 0.72522943323140154
-0.82985696737975445 -0.77631296911623693 -0.42535753732236259
0.21307974220479764 0.19716373146748456 -0.577773308048247
0.71196628617434854 -0.51054789692497238 0.41497262169757576
0.075843978972523374 0.60486366822050996 0.61816177730156951
0.62075418648921854 -0.44650503918490259 0.70744233256811384
-0.19610866003560368 0.32775749932539444 0.77468575531025863
-0.4620264725924752 -0.25714166537216343 0.76374756404060307
0.065349573178531628 0.39215218101662774 0.78246752460849223
-0.37523655063656669 -0.36371391592169644 0.67844395456361539
-0.73999760797689262 -0.45444520580334125 0.49401405668842813
0.16698543837530799 0.79399173277510116 0.27663447514101946
-0.081446749950526254 -0.3485418331364496 -0.51844860025915906
-0.21672948670938119 0.52411759571616123 0.67510194110723631
0.41444576903568375 -0.23140399292810265 0.22659171586184002
-0.79450986004516899 -0.48422002401651643 -0.0062566587931627282
-0.33758995582209295 0.026607626670214657 0.77314626141668796
0.47842126708459176 -0.54967353860343771 0.39796631529191018
0.0076939232909722932 0.93711131414979221 -0.20012537506162431
0.28674108767805606 0.46353681025416371 -0.39469929732762665
0.33678401720254492 1.125598544663216 -0.44437369459473786
0.72489899839574079 -0.31604529004571091 0.66640864540059042
0.68063636075137879 -0.61059828077894718 0.6462686472643
0.39056550270046309 0.53571159472400431 -0.095621798033015182
0.19829291006006677 -0.19596376019417061 0.77682059709575668
0.34891603615103151 0.21836417350970905 0.30270855724809209
-0.33081737075781525 0.83714182223965405 -0.42504818499630659
0.033297367612203033 0.40561376686495088 0.79679821735782141
-0.7029413203106909 0.63100458262164683 -0.10445000165416474
0.088575283496618695 0.58707666125256441 0.6715899871539186
-0.54414719167524161 -0.29432205571019754 0.68099395077269875
-0.76048649530836165 0.33842734176427136 0.31105099512239676
0.036925088993534416 0.6554031921661041 0.67151970757130997
0.30319275615114449 0.10102012898777879 0.49041359954460972
0.22239567807702443 0.011852523793187686 0.75368114346066051
0.39116686511517251 1.1688052126681132 -0.47855939325638275
-0.82074452555574062 -0.6837802821471568 -0.32865127204639322
0.46454665017119012 -0.16138676514587935 0.27710349654635635
0.83714683178224014 -0.19727817582354312 0.65162277797204382
0.59838931117958438 -0.22739053828287847 0.355804067537413
-0.5448673988980115 -0.39475346089815666 0.6576483405280058
-0.92242980151249832 -0.77041624744312109 -0.50076088046234091
0.56195859315914731 -0.48055492599029481 0.72189544609901191
-0.5534104709124481 -0.3720882323283945 0.66657173471198305
-0.56778525051515771 -0.54676928232683419 -0.40886027631067634
0.68587428788945815 -0.46883449088322404 0.67683136440833991
-0.6330141407406078 -0.34632401505215604 0.67520915865411268
-0.87680397695814882 -0.91050319145207581 -0.4735072140450427
0.62654728685372518 -0.40217336637192869 0.73074598785407119
-0.35780197952320592 -0.63421238083443576 -0.13566649322700641
-0.12006314977896082 0.75131359028405242 0.39384545133998117
-0.48789979499887259 0.41799163336747203 0.48825950842944721
0.28860739288766979 1.151767139204102 -0.44159918764842132
0.46547663978939724 0.03134392755618709 0.59702390584285325
-0.3312105579129021 -0.081662617386770719 0.78901045942783199
0.11584976426057381 0.4939154651951112 0.69492399445512021
-0.099816902260439377 0.44447873878209432 0.80723136825977804
0.30189666643731528 1.0177332309266696 -0.37768349615248553
-0.17407585054109376 0.51101104553154464 0.7571431466770342
-0.31314910370721449 -0.63994756305191558 -0.13214028881674267
0.54943223357264515 -0.4756004857789673 0.37410895649607667
-0.13725867070964171 -0.29898326942455089 0.70103995461574797
0.70107978287404826 -0.34778670978516679 0.66959394227672675
0.038824149728640123 -0.32892304236423442 0.47503827112296193
-0.37252943701840735 -0.39784968601622239 0.62879279645933295
-0.57477800126741485 -0.92936074118614531 -0.36098701999696203
0.34812382612607706 -0.0036597959521884604 -0.3502409992786788
-0.80685053865791367 -0.77941377087379049 -0.41077956602779153
0.74940777522525082 -0.38385512761737228 0.65239274319809226
-0.16045280198392575 0.38825272270233846 0.77614036487340954
-0.01075775318266281 0.39867113135350252 -0.67803387842726792
0.1419986774668498 0.37314155193859389 0.71545822138431348
0.12384130279126992 -0.25452610556995658 0.70290792694305182
-0.33396482030143204 -0.80409232925843988 -0.25926350491061712
0.10765809001257587 -0.15451974799369772 0.80623621575178817
-0.52515903441328504 -0.10743996489904539 0.75027603285579048
-0.59275421096405978 -0.35135141316026797 0.66757734932130219
0.38539889296951202 0.71985637446442485 -0.25698534433387721
-0.024545800156484887 -0.35666518254626745 0.51868292948434913
-0.76156655292901121 -0.51343605530889924 -0.083588251021598836
-0.72515718911514604 -0.55848103366407109 -0.21211397624085748
-0.41012199935880922 -0.021211870159186574 0.76381043598563991
-0.074516767259154904 0.26073520204016543 0.75433953369494233
0.2989401922560031 0.83452445050415314 -0.31557909058178879
0.052995160454042178 0.86740020988503108 0.60586955585005953
-0.44647494971104074 -0.44312534167785245 0.64161913702422879
-0.60495030669987493 -0.9843862331531712 -0.37317750645055625
-0.61148778545982196 -0.048495050984122656 0.76389697752544095
0.00096455235571468734 0.51696303661928233 0.77039139139279555
0.43120870382658794 -0.60493584619971585 0.52413881357779957
0.2572496422560846 -0.0014806823435975502 0.76290917461388474
-0.55612234046811615 -0.25369790430587269 0.70472276579217663
-0.060650571552677945 0.53851799593019933 0.75166071842453519
-0.41543912681830442 -0.7688103222789584 -0.36639246483768417
0.005897583229009129 0.52942055511897301 0.75183153981341633
-0.24875719736140844 -0.27744953813718265 0.73472352249281769
0.11844963504517736 0.40761788745147687 0.70791044158649541
-0.56563041440577067 -0.229326192593307 0.72357113152672881
-0.51056964138443206 -0.60798142408525813 -0.13169168645735141
0.17191845834551067 0.27688469733469834 0.7050448548903141
0.027868390540806587 0.62690177215164056 0.67610225703935711
-0.78627658765277353 -0.60247327791421146 -0.23649416422606606
0.099754789070971128 0.53577665216749626 0.67550341752531651
0.40444854420336007 0.60015900644357956 -0.29461684001618949
-0.14033125220693066 0.75821398979508103 0.59725625141777527
0.31441870632725966 -0.51057519693041797 0.5303050541844101
-0.9078684394762444 -0.14149842602124529 -0.32221259031440042
-0.9096479187893145 -0.99893913705693649 -0.52318860616234986
0.28728712804105427 1.1807634529960378 -0.42097362309657171
0.25421403905204443 -0.020275481710504195 0.80213831789611234
-0.37163772681797802 -0.41336731928990389 0.60227807820136547
0.18515114253766995 -0.12313080475819316 0.81302595656592658
-0.66410859809914413 -1.0033109549410355 -0.394309018073983
0.83912013186525769 -0.36845694680778518 0.43607313271986925
-0.44703689564370386 -0.35336136689997222 0.67542891796449211
0.48897251533108843 -0.18354788553440926 0.73664730341112161
-0.44812780742651803 -0.36024192772659269 0.6777358345205684
-0.39894109191886074 -0.064576973098157353 0.78792549208765195
-0.45081453700634277 -0.3749227205421537 0.67958718042235589
0.29774935372991074 0.20683249220580358 0.47410316067274749
-0.2361549069129012 0.68604169101988699 0.6024965413276604
0.12146390611042612 0.85624350694522722 0.539429942058959
0.19014435462969281 0.78110892225707484 0.41435756200061391
-0.3682758970066935 0.25058185420271784 0.68861244115367981
-0.20182811474019857 -0.48796809742203706 0.53735525643875803
-0.17309883107920321 -0.34097687536097787 0.68182898422506
-0.52117281566489027 -0.3657182240143948 0.67564961617475916
0.10076205945268057 0.6004150174788947 0.66978062822224516
-0.89485733151693125 -0.88065120318395973 -0.46267309354877639
0.030510688601582459 0.33953907214260859 0.790014787956693
0.46320386785005141 -0.52844068385487741 0.68467007008550596
0.30910109340441494 0.74875471155276419 -0.28385627883818643
-0.48166587371915348 0.0060006738355813383 0.69201938042818512
0.27301853840834589 1.1570144326889462 -0.41725362549663814
0.50869989609442889 1.0409227632289042 -0.41874248067370345
0.11664145965135475 -0.288159367003189 0.64164899393047747
-0.26041938736469561 0.44017302289279758 0.76941866989469077
-0.61584694572835197 -0.077197620120154298 0.7573040030517646
-0.58892651929354933 -0.16150060902187846 0.73190380192088966
-0.57289848906059504 -0.64176186347222508 -0.29636924099724382
0.56946766707935481 0.83711340224576691 -0.390131929804447
-0.23489766095501707 -0.19841617595009087 -0.6488240722089138
-0.64922696440966909 -0.54893721052546418 0.4648819030644411
-0.84182307400602951 -0.66280779077967988 -0.30054290336048695
-0.86010451057380344 -0.78059678027488122 -0.44284152485890615
-0.37408475527199059 0.20800521138040828 0.74126009760894718
0.021931545313632839 0.3055912387108215 0.76825343965721515
-0.15215809905561883 -0.30146604189673454 -0.58881588905858706
0.36229201304387892 0.74940397784715351 -0.35167901808247137
0.88295848116842812 -0.2509354644638897 0.6373920633113741
-0.23746642712596611 0.70446990014490574 0.71346701618244168
-0.20993830373766542 -0.35228816295747301 -0.55320355577407199
0.76480614941831249 -0.31980228660481913 0.71028154105392005
-0.40131128821862916 0.5799129923032984 0.64500693281449273
-0.18758106872265046 0.47219971919662385 0.73897915596332453
-0.26773402085198761 0.011524888852657789 0.76576736330028794
0.26712356701474427 0.059472216971108161 0.65472110160152397
-0.59505696892830962 -0.19790256803870054 0.7208147348359617
0.69823632540132863 -0.31801747070802033 0.69360592185815761
0.27539563939222234 -0.03812721102936667 0.78424136787833021
-0.60941052724797196 0.21701799444126468 -0.63223978794007252
-0.35722339447301366 -0.081442758529113313 0.80871978311137482
-0.6676312347616058 -0.57646617306967229 -0.16411550069290115
-0.63194097836745655 -0.61645835000017879 -0.38673961380929356
-0.3723473067535501 -0.74359963229523807 -0.18737338657286884
0.36627539827794209 1.0959897388692328 -0.43170252046132873
0.27992098499470153 0.75637255632731826 -0.26985296435310602
-0.16985270940803865 -0.17187000797240426 0.68919592757240977
-0.29508183665816645 0.49449280283075581 0.78085461560310776
-0.69214648946290858 -0.49253495270805914 0.2992827183775546
-0.07150264257629324 0.58651108460406221 0.71657147129123899
0.57354884166291598 -0.13695887645324767 0.36542215115373367
-0.65513744282641184 -0.32266748607259732 0.69280088926622341
0.43349511753448411 -0.54624602314732051 0.41621619187325365
0.1229281110895073 1.0568517159702164 -0.26663432698373057
0.29987006781403203 0.76152276302227584 -0.29860240274793171
-0.25499062087868296 -0.67318475450651327 -0.1886341871869881
0.49273932781523833 1.0028724862393767 -0.45406159461803597
0.17378564687689924 0.46535662124935939 0.67630564618976408
0.16954100055399479 0.94117433190544553 -0.22498148455776246
-0.61088825302501348 0.1791909197563939 0.72278232936501752
-0.49591517501965754 -0.64770102689579634 -0.31302163635116997
-0.71083274848029987 -0.23282823786716644 0.72023199067322352
-0.044781598466606454 0.24466207333371592 0.76241470418852231
0.23880713614416571 0.0084971469684109735 0.7808502937574282
0.28992785413868916 0.81221814705738637 -0.36483523461300749
-0.7666721643586385 0.53908730102703295 -0.10870080039326169
0.14536373194914454 -0.31612033513741178 0.63411662357857068
0.17902082605077929 1.0103203239286058 -0.26821274024997521
0.59292559292013536 -0.70456811423607224 0.5778222079956663
0.0052871967626728633 -0.30025211432799814 0.61480986286143491
-0.36911104160030028 -0.63201533678057142 -0.14654408654557827
0.87143803739400383 -0.23238837999171391 0.64147356649929677
-0.30787121355958469 -0.015491770109731462 0.77232202822857943
-0.33139493885183313 -0.63539771333579775 -0.054688752452225486
-0.47144057069009371 -0.58017020623934812 0.43219004708265629
0.74961118618771039 -0.32914137115908559 0.67033146635228746
0.3956499434758296 0.87519077802605771 -0.34608923677027548
-0.22952026713723939 0.53046417754329855 0.6529540859815377
-0.34530361026117617 -0.23446561705305147 0.79906176195600764
0.11418541809512739 0.3539925477625081 0.72902612034967262
-0.41266050677214849 0.15306598364549284 0.80280503369051459
-0.85459479276052797 -0.60567079707681604 -0.28098752757256662
-0.1429141521768571 -0.40542283702816118 -0.451586045158205
-0.38945437469438815 -0.2433541015262124 0.7930141718546011
-0.43053060924549058 -0.09962231837010016 0.81162276158772428
-0.36665626802173712 0.29217717891778694 0.63765998529432011
-0.79478111090417158 -0.96069855098761092 -0.45154534219141951
-0.33529651177297737 0.18972908207026684 0.79743012875212571
-0.52909218641107536 -0.34586773769604928 0.62387207911715237
0.49865208512926174 -0.66056481864199679 0.51675860039091859
-0.60483832931305415 -0.78796058661338986 -0.36008503330628017
0.28609901300141516 -0.14519315400484167 -0.37865080602631451
0.1298296444199547 0.92718526339254836 -0.33067372405673368
0.14719130559874394 0.82463609593770748 0.16964888057376726
0.16634660307716587 0.96442293815817415 -0.23160811785866287
0.29123720129091524 -0.061361390588428932 0.75782467164481915
0.28600892801202704 0.08903539185410736 0.55187842806077825
-0.62760982940224785 -0.19110637989706802 0.72745524799028516
0.84474093166058495 -0.24317389659926469 0.41023286621244637
0.40052067118516099 0.53346593565895795 -0.12846237575264041
0.1869815225610818 0.48018066779853807 0.60554370305824889
0.71396595827532039 -0.17652541951175582 0.38732582206725397
0.034367799242582819 0.82969134775300546 0.33390013054220447
-0.54133777526938864 -0.60367031132245152 -0.19302787905208874
-0.54128371155579558 -0.14437636497051987 0.74865490049934635
-0.69440166425279948 0.13031807103276805 0.78858756008371955
0.8121722224880763 -0.47819298441092606 0.6314150378916672
-0.33652225532961566 -0.088126230743531764 0.80372226073431108
-0.49344931451454066 -0.032664960478110849 0.7675582172159956
-0.81796846776813048 -0.94221551443594986 -0.47387765792723613
-0.31747509874735336 -0.24004007768107449 0.79403677658381966
0.43317684643451138 0.79114585109056268 -0.301795606634915
-0.68054339796411512 -0.94787469248904355 -0.44934765398531695
-0.059970761157936536 0.23292072235860495 0.76335375359217039
-0.081472986060040498 0.37450414158346934 0.81381375830061486
0.14594727039228061 0.25755172259011694 0.62333764188635143
-0.87559334270412492 -0.88224487202591817 -0.47467539588284779
0.26617335979336332 1.1017280302299106 -0.41981938939849428
0.55641717129861235 -0.061338658121773193 0.39091229491999968
0.67350450966383235 -0.49378866229816776 0.71097808757303227
-0.17628267810771447 0.38223244609652074 0.76476413890219774
-0.58033991228417037 -0.6002055586000612 -0.19613452266106179
0.37584279694883094 0.58174683350091705 -0.069655587433466337
0.40688408619615046 -0.22591119254102399 0.1846666767674634
-0.3936253003337491 0.18750791212286622 0.6598375448447058
-0.67147385841411023 0.069512873381517792 0.6255823893317789
-0.053065513554413357 0.35813930152413498 0.8134146717886388
0.40812031188795572 -0.27900044534973922 0.27205271878913706
0.1332352177028131 -0.071604006121444463 0.75128424570658225
0.71973731374554717 -0.49351422141879286 0.69567628363351375
0.69827762438334773 -0.63263175236991742 0.60680010059707712
-0.52550594990279009 -0.7730607393800728 -0.41252519025683654
0.55269560405799645 -0.18326341431364668 0.72955764348133911
-0.61693171065077657 -0.75469601769847117 -0.35203701243206353
0.43864315001364673 0.73945450458068596 -0.24426959170022045
-0.1191394985872325 0.2229381542317963 0.7631702849526647
0.2104232962653434 0.83345833720509166 -0.20912981411510145
0.060641165583927403 -0.14971382450574033 0.75993412450502262
-0.26798750399813009 0.95255553910648061 -0.24280622307873045
0.37054117880935777 0.92340149157707518 -0.362361730800842
0.39916109439729119 -0.43695489704994905 0.70831710019196237
0.38224392534252694 0.55211727358771689 -0.052556976963835211
-0.51166434594070154 -0.073825981038704747 0.73772315867070404
0.38231172264871027 0.83704942063502852 -0.32795154672329829
0.01752235302277505 -0.082994491490484101 0.75588838801400726
-0.10893305477145709 0.098680456288397167 0.74890028484226789
0.67500731855592377 -0.43926196790025607 0.65544317761359849
-0.21534954036050635 0.41987116084172005 0.77021057659912984
-0.10019158371706105 -0.33530539314396179 0.65877097219346226
0.203327003906832 -0.19016655431437268 -0.45847078020271681
-0.08840853254024239 0.26582458807389031 0.75517197484275655
-0.18943482099490616 0.73628825819076482 0.64312436088406955
0.46177232659882961 1.1063303343380468 -0.45987377696549103
0.38636085705832812 -0.20992860629511156 0.035543606033350272
-0.48743803307420563 -0.094173875703909005 0.7657064046327875
0.13438327620045598 -0.11993598695641872 0.81138224920596969
-0.79384446664336039 -0.87259305600886883 -0.43141022905103554
-0.36206216335878416 -0.71685899210199278 -0.18707329085660973
0.46403916461962602 0.65787904736300895 -0.29367165897927805
-0.30036886060617185 -0.53678461226102669 0.42765569517280611
-0.15370633311993664 -0.45943969787305594 0.46287009099545529
-0.010240772523832931 0.22638711603377182 0.75669347093849382
-0.1841184882789797 -0.53183705688933713 0.19237046058880836
-0.68919688888965602 -0.55214340258880057 0.079771332407272411
-0.54964370523430084 -0.22362246652248352 0.71411666096947002
-0.51483567951184384 -0.07539865841032789 0.75660374934607688
-0.043148074852648932 -0.31426695497053725 0.64262075990296808
-0.21861446433833187 0.96618396068146417 -0.24322683988783567
-0.49477724282076707 -0.41209308559258417 0.65636494454051331
-0.72956704976820497 -0.063752186498328811 0.74652711763171453
0.16283980305116152 -0.0043368642175192207 0.78963794246596564
-0.41208220193088607 -0.72317916045320096 -0.2832583573861136
-0.78155211929296264 -1.0100090149425656 -0.4194275944952679
0.68981560695447186 -0.33471854576578597 0.69382585454921752
-0.062625829145149581 0.46494899061953188 0.80182340588022782
-0.25936321617369629 -0.35701966956343334 0.68783541554994798
-0.22417563475367075 0.49104008863509296 0.75722493186730233
-0.76462550831103115 -0.55471280957296276 -0.28179619081743112
0.44719373262611484 0.016110739017889841 0.41409670435811563
-0.45315932073600251 -0.61108095161715958 0.15815223206719153
-0.202527001438078 -0.15312132547492396 0.75492337596641335
0.31538378165969583 -0.094068868956283858 0.74302217416974514
0.4463091636286336 0.7710049824859011 -0.27859736423867432
-0.95141139451984458 -0.75670250409274509 -0.38568490931427135
-0.15825191952959194 0.31101781377068427 0.76185802079946896
-0.43444004986190166 -0.74593324543591066 -0.30854207903714936
0.76790517528978697 -0.40932331660362475 0.69176770238233232
-0.95439356857235502 -0.67348469714735071 -0.37350171632509443
-0.32802914799588656 0.42445462482496144 0.80353941550739449
0.14846890043499528 0.84608576520402501 -0.37050883816114677
-0.52407338906223089 -0.66998937449532114 -0.32319554797866701
-0.66873599812329942 -0.18043901857362243 0.74416211630918738
-0.13159631808054151 0.63456999532844893 0.72685080857519679
-0.86323996952501325 -0.22341355019980291 -0.37318296949488428
0.8964371919794587 -0.35346841848792732 0.4794723574324351
-0.24457000644205884 -0.0307173544467787 0.76219773937538093
-0.1582864375829427 0.54364563745903638 -0.67597036979995195
0.28680634334678068 -0.25158639403103056 0.7384625182121809
0.010497652718830963 -0.32730292286386664 0.49958392593982381
-0.28494164091655172 0.9489607071631232 -0.11326530589562367
-0.39030722959581432 -0.75185787795724934 -0.20424613920793888
0.13008219225710604 -0.37481916485798195 0.31099314932444599
-0.1487335214838339 0.21446271453102561 0.7645050548629797
