# XYZ point cloud file
-0.34089006033742919 0.24719694006339488 0.78818896654534498
-0.61652350464363792 -0.95706536779543705 -0.37248613892139204
0.20159201359064483 -0.37174510460429566 0.36663245277213719
-0.16036419450687944 0.32690302885221545 0.75746274286682436
0.12004734576319542 -0.19338674745909668 0.75790214009638035
-0.60309540455181576 -0.71216802731481266 -0.33706727919475554
-0.71064457350313504 -0.83798822450496446 -0.39967280094356639
0.14619299458002644 0.5604725833239721 0.66245253681573502
0.13884741704686299 -0.080890303947160014 0.76313182642770272
0.099234741741341281 -0.26760152317915953 0.65174696092782725
0.11194876092197958 -0.32381632848175368 0.5135228207948046
-0.18708075806775604 -0.12207414521969717 0.7550097673278735
-0.48980922846835639 -0.052498988866526375 0.76019908255895174
0.79890854721398163 -0.28185091360443248 0.69186617241905424
-0.15854927266378915 0.50137535685154333 0.75381152006210073
-0.92012289813729708 -0.63326578574738779 -0.35369701626463623
0.21036517091104479 -0.172649661854825 0.78784855178230373
-0.68208819805160914 -0.5900756580020019 -0.21641958811705564
-0.45698027198028512 -0.61538428259008437 -0.16142282375058059
0.061989794486033034 0.46575282634225079 0.76957130530022511
-0.41078756955046636 -0.33637858316823666 0.69949964056738878
-0.58820206672093889 -0.92772341237323075 -0.38318236870861
0.029179928750245665 -0.43551453184852429 -0.22903099322952869
0.21145688141843522 0.65693380689893033 0.58634806022382513
0.43745480204588283 -0.46380290813007008 0.70803423097108542
-0.99175798374179358 -0.92485602896745678 -0.469234698236491
-0.049705001544902316 0.27416812362496579 0.76289019319531093
0.31242654273260761 0.47309255017357632 0.39445686128792445
-0.41089542881541163 -0.58689135644178214 -0.3991908946288234
-0.57198209994536242 -0.64681620569653808 -0.30692128213088665
-0.59392880790375813 -0.59355547179136869 -0.16936593706573078
0.36079977253159612 -0.34206172215950481 0.29578967652173915
-0.65605081606956439 -0.34636828993699398 0.67948347745867466
-0.31383257406650777 0.28108383974550843 0.81166299357923322
0.33347162573437039 1.1730301604923676 -0.4548947705845805
0.087258098952190721 0.57642895755104817 0.66818819252124229
-0.3834802711544878 -0.28842049775203282 0.75289736918261951
-0.27328458794729116 -0.0012773107819059604 0.76795137554708504
-0.30596061900635085 0.24870659624196545 0.80818359818325547
-0.62958474088805083 -0.49114769317785711 0.59354726708961891
-0.35966848732979351 -0.0016010899782661348 0.73858609744673487
-0.56015177613737066 0.00046520094121804689 0.76609044380251845
-0.53345221069698212 -0.027388340383363463 0.75914644868242576
-0.3850644872333131 -0.26594595651912467 0.78059723475437792
-0.52849920357189895 0.8009060495047704 -0.27431522025322508
0.044264677560590826 0.09295110885641833 0.7537348589543349
0.17366821391379261 -0.34167012365330862 0.63646703116341996
-0.72430969810087475 -0.75730739869971808 -0.37695260041347112
-0.095792733558198506 0.42120409880399645 0.8095133198675768
-0.37087872849177295 0.29460416658215083 0.62193651661394256
0.22534692148636282 1.2039661785572227 -0.36929126116923072
0.73038603991466822 -0.44254915264818617 0.67028855286387312
0.55346461886304432 -0.087440962998268645 0.69762565624433748
-0.094286033815116355 0.30769052145050679 0.77654974337991334
-0.076885449353760293 0.11369632768126298 -0.73222905764391655
0.64856798880921218 -0.56506874498030157 0.4159430542335798
0.53559547206873503 -0.11467046230291089 0.35383237118777444
-0.18657267080927831 -0.29519005002148901 0.64615645916107667
0.46617246482943031 0.90126401605981865 -0.39136115759637846
0.8421880421246204 -0.24285468180165548 0.66092589546607883
-0.42882959182417224 0.028043618636859335 0.77579485266093684
0.24524514755472815 0.62964998282128315 -0.41962078470616504
0.42399832570779949 0.57264728685510402 -0.24994749944203321
-0.090516657483203034 0.23028037483813968 0.76383179169433291
0.81598151231898264 -0.19538890770006034 0.4016287156602143
-0.76806409391701536 -0.43261108500849577 -0.32746010307678119
0.30055184549073743 0.49670192123449652 -0.3694694309782669
0.89879112259957594 -0.32540375403024235 0.61467302494498632
-0.21352554184150918 0.38067971247426513 0.77460050611761133
-0.47568154252640227 -0.65139188621699795 -0.28604752302655001
-0.43128305752032325 -0.004547696557656522 0.73524014922767833
0.14263703202767353 0.31755921600635428 0.68285213049925275
0.4429892871777259 1.2387278177295 -0.51644757781445882
-0.76907779130237941 -0.62663931196181721 -0.41285534521009737
-0.23983960227136158 -0.37307660511577811 0.60191137775953152
0.33890110003788365 -0.10362598868132533 0.73833049891776881
0.15213185044821032 -0.039794117186440658 0.78579103008511453
-0.56378581474803369 -0.90117020195962427 -0.39044006454137659
0.32110868245234592 1.0333986117961529 -0.38482553651855333
0.75448458030896148 -0.51115434027806383 0.66398195106130409
0.16349410709534595 0.4688277222456021 0.65254123533830111
0.84800432885567822 -0.46604570473027884 0.52440498191044682
-0.08082125647750793 0.78135762883874804 0.66571590292106464
0.39943842282692898 -0.41783110994277628 0.36244922822823256
0.090477274303419009 -0.31500620480902608 0.49760146223312773
0.18427556125521427 -0.20017130214458412 0.77072571755896391
0.24547944927158838 -0.36769256775593018 0.27776945148363552
0.063671049737607177 0.60767596926846501 0.67040541447061486
0.024111203628491396 0.92483233455908387 0.006888349038625563
0.30535671577229806 0.58121744938536235 0.50185669932701416
-0.33840400780029611 -0.090213182607713271 0.81356401961228642
-0.15446159745010846 -0.16728039861115018 0.6691587727991184
-0.20583368981791139 -0.48982227778212728 0.41004779913970779
-0.43187563215759539 -0.77371259766438105 -0.26809783463695425
-0.16549273374708484 0.69831848716928668 0.73763992274533408
-0.19977478091270129 0.43358037786775405 0.76726859543703085
-0.7456131380070854 -0.23950498225125605 0.59145570862109054
0.56032589173221048 0.9107429502031712 -0.44985619727438042
0.22787406550231282 -0.0093454514595308069 0.80551361648230113
0.2657624021912941 -0.36385562075235534 0.69590445046940275
0.098140041732749594 -0.15948869272854793 0.7961127354707962
0.23236751597035799 0.91042599184463668 -0.37815577088261776
-0.065497534341496078 0.12605659867012164 0.74689854320602223
0.51035731439526444 -0.33126491062030183 0.738842364880826
0.26893324830467691 0.97240265731025133 -0.34688122546582534
0.43343720496428162 -0.57138519301492607 0.63837978496099801
0.028681064784318977 0.67793820149232431 0.6643163408664563
0.25569759284413962 0.75282983575278939 -0.015428801233806411
0.20265209025464692 1.2092588532654394 -0.43160245227866056
0.18176919478933229 -0.36613875109470539 0.359538874915863
0.084961405788792632 -0.13381823051251285 0.78488855655412948
0.34015625146979644 0.64264021211288291 -0.009547999480478353
-0.21387337161520925 -0.33102036139273849 0.63694341141183841
-0.0068140808902192873 0.34251405177224736 0.80720325378402435
-0.53321650892126193 -0.15521544514039443 0.73649760276291332
0.50397951604547586 -0.24840529522328136 0.32268827850806758
0.50750673694627935 -0.66127702045064485 0.48269536846949457
-0.46724584578712935 -0.20663939789335739 0.78594413382532125
-0.57053352902220134 0.49302762131337563 -0.59514397175949441
-0.97555303829951967 -0.9095747762400006 -0.43984242654217454
-0.55708382288276859 -0.031514920062394758 0.6576149810495231
0.054893214252995648 -0.29762878548510141 0.51541212027910177
0.51886451085941232 -0.042507217432311784 0.38466053200795258
-0.6174747922856838 0.026177651862687945 0.78639706952568034
0.36269777575772011 0.96304767607044273 -0.37483862417671254
-0.97489580624628225 -0.69761492661612534 -0.38799264845355097
0.6682212521662283 -0.46552659298348864 0.67255195926790634
0.39136335931276456 0.72780973901930768 -0.27159769914099741
-0.20387373059974223 -0.34086512000059521 0.61163417924374031
-0.43293107109183815 0.19085805851968862 0.61444789325761917
0.28120857124778631 0.76097191952999976 -0.27930590176641346
0.316311315763107 -0.16402897716109521 0.74205300316113565
0.39412653140872145 0.89648912468543607 -0.3562173437429319
0.39227862485478582 0.67277854172885831 -0.20352869489757097
0.42639018178391552 0.72905218875077704 -0.26012890622267903
0.76095611619883563 -0.3927552453731149 0.6683530837692615
0.14591457975822131 1.0325349556013874 -0.36503118120166
0.053248477818211626 0.89318031282542476 0.091624058096133609
0.48965627028307246 -0.52422218408690835 0.38850697670442358
-0.12357329513647031 0.97918704607860541 -0.22365968571648054
0.75244646998504017 -0.30272038624529163 0.71326378418981129
-0.7532935893889654 -0.33885549342586563 0.56092570333582259
-0.61776340347166858 -0.19609227665839768 0.62247566940762411
-0.65619973289303068 -0.27413638845785471 0.70675764364636962
0.20053652541630385 0.021516623645029043 0.74854785925858991
-0.4867683238234175 -0.5431982499751582 0.54771655107460049
0.31242229022397794 0.070605466966657815 0.54358833948436569
-0.34719753858566271 0.20096661682030792 0.78449863065259962
-0.40139527697404986 0.18560533610761976 0.74359564318787363
0.77253458727752466 -0.39443162826686606 0.69326339395857595
0.13235754017772017 -0.33411294215167153 0.56809336110782382
0.85128251503986796 -0.46486570048388831 0.55088020180928332
0.49629239999574182 0.83725513552915576 -0.30616376865859429
-0.3852037881045618 -0.50611007934173458 0.5904428542136948
0.36384710738762038 -0.014177528330962197 0.70365178907497139
-0.79151929724049097 -0.96014559628250717 -0.47246620748892099
0.65801554920871475 -0.085085554108052186 0.41092178565552473
0.36260192144428594 0.63914812751589878 -0.16180272156824671
-0.72357645467109855 -0.27137709695914514 0.38663780417742188
-0.078808168385947397 -0.21232349033816733 -0.63198626940092595
-0.72333600719580815 -0.53728759487575339 -0.31475162413404334
-0.21197461919435057 0.75158828143757894 0.3382390195888263
0.26115824759294881 1.0992295168435828 -0.4102318787026249
-0.64008780542720523 -0.051095860777891744 0.55578262673142476
-0.60913054621393314 -0.97450441868221893 -0.36514075930653789
0.33945472375679842 1.1704992092493658 -0.46468595640246413
-0.6804844426282699 -0.12000657335581533 0.53597430876653718
0.44734441078007947 1.1836691210240673 -0.43695876114437127
-0.12581051099882501 -0.030293743282287622 0.74653129044880728
-0.58969460363137394 -0.22793500441782077 0.71219107006649551
-0.17756183784540092 0.33549176204441711 0.7685691861099464
0.05648993105500999 0.8671789566602488 0.58182598283139519
0.44920762027103578 -0.098238858586532807 0.23471206101789122
0.53443907891387177 -0.50003989996865972 0.7149995653875223
-0.42485552303603313 0.59255878304112342 0.69096063872112978
0.62029792591187949 -0.39646733838021131 0.7344771507261143
0.1067862547855345 -0.12490805461333032 0.80344710239045725
0.24542301300346558 0.010136009062211571 0.74477069823923614
-0.43595352297949752 -0.078862958183600007 0.80443190468329817
-0.47474132792130064 -0.53327900208985191 -0.43559126099353662
-0.61480273687825004 -0.66152949201074018 -0.31728474784282312
-0.2259695792727765 0.47194012048598477 0.76141192803820701
0.12681373232273074 -0.17401178067050171 0.8066688517264673
-0.2032603668498254 -0.38954578473403778 0.65281670066408637
-0.37256286211646561 0.87510604376638046 -0.34462892133715783
0.4637684995102429 0.8313534190101004 -0.33511866510178834
-0.61805309711405698 -0.85833852027603896 -0.46634095380364826
0.37063012845612775 0.31067989786453021 -0.18303730278330477
0.71789397934100307 -0.50853920430979205 0.69063568475566761
0.1469015739235342 1.1243421368939486 -0.30642610819161575
0.1265339719751708 0.73243385225326607 -0.46440549905461381
0.19811676287583602 0.030514422838447075 0.75001042091260217
-0.15982132241848568 0.60425583941093919 0.74043863742004135
0.21756966460472071 1.2391685897254918 -0.40095836253622963
0.4980137324360836 -0.63589905134731151 0.4494025231420018
0.21984014857597955 0.25751229324757041 0.67883660392723399
-0.5092906981689449 0.11091616673832139 0.81093681714840926
-0.51522807968234119 -0.33341107395725178 -0.55351344404563463
0.40619442691509455 0.67716951718687612 -0.19654414133712095
-0.28163077409589121 -0.16538327147806697 0.80045681056774853
0.26922623580694527 0.77007907355298499 -0.25316920812215571
0.17396259921987856 -0.046594072036673317 0.80607896120836031
0.042229295626336594 0.42372555489452779 0.78932375599347182
0.64086934794599593 -0.46113816698503385 0.71357306532394205
-0.40609481172631945 0.028701788001475492 0.77620039859320045
-0.026945443362867749 0.94603478226639126 -0.28239965900132802
0.35847261153313426 -0.3695494546417657 0.32395622915685252
0.23383008452676535 0.92530622672516127 -0.30090080272962005
-0.39740843824003314 0.35628873524689197 0.69777792061321264
0.066452308923842907 0.36702212881616969 0.77216031743833113
0.14831827985108426 0.46476595986408942 0.67549554884338647
-0.6651019750903906 -0.97205953268591205 -0.39289463897170762
-0.44020542098602711 0.24714321951533913 0.59575497025423729
-0.75081712734442618 -0.23633188131059768 0.62134617957189064
0.31102469296916091 0.4164916180623468 0.55791298269163292
0.30357094385110628 0.25186439834852692 0.51086204826847847
-0.71939140060660556 -0.47176140265306232 0.44493782965573558
0.16575497668503836 -0.079502580452555094 0.80623730753537615
0.21207057062732559 0.98326237543330386 -0.29851506960546104
0.28667521681885333 0.10196839443663297 0.51324537355289834
0.1154531446493241 0.81847814749630121 0.26246289890300645
-0.20665242942005335 0.43444892753691988 0.768793301179727
0.41083805309440891 0.69406959085741571 -0.21765827196278487
0.14802985828443838 -0.077033234540333062 0.76043787903393678
0.90979786299063115 -0.2508090525104647 0.43754181336565878
-0.91543619843740309 -0.80169823997243972 -0.42977679556792836
-0.53690815326135422 -0.24706238456979035 0.7027479572556885
0.21732371935184425 1.085955984528856 -0.44046500839491998
-0.22149086557830699 -0.59351955492794284 -0.23731102132184034
-0.95427298286895734 -0.66256938701844925 -0.40819696574515874
0.017327872226930552 0.62383165200344681 0.67844016438957411
-0.058015839422951743 0.87285410040889477 0.22276131222069395
-0.62906133999946334 -0.60313703260766516 -0.22321074993014633
0.52000917202544095 -0.13539180659758543 0.72256405058940132
-0.21153271247153427 -0.32352584234762632 -0.58487374042030282
-0.30507881864819097 -0.21752447930846763 0.80005849888916813
0.40732113253335633 0.79675638965200202 -0.31196323245300484
-0.26597040052526744 0.56213541695082547 0.77981491409748926
-0.63827396846494011 -0.75883638931383868 -0.35749248099260811
0.2590130813809548 -0.10615568927913976 0.79083918423596344
-0.35852403475016104 0.62845463817625502 0.65159241855669237
0.50365084349931877 0.88061081176671863 -0.35565634420142977
-0.72738373658365596 -0.39316364745861709 0.39539810182145274
-0.10812159219079298 0.44939372101021036 0.8032838102981934
0.66012022490025224 -0.68120569691780375 0.50368575058873333
-0.47085933721784379 0.16426125387456469 0.69003214514739852
0.57070130491733906 -0.37122670128134772 0.73722939930043907
0.648709494754792 -0.25507892672824184 0.72840383492044758
-0.26472224152410817 -0.26296120913846588 0.73341122681945947
-0.76500977610117715 -0.41715838327034938 0.56580872622324918
0.1324669712106008 0.48463122567133343 0.69030304734546277
0.0094410811145309026 0.51874583461974932 0.76261408184479151
0.13947867660466606 0.40312645196778352 0.71211412015817999
-0.22536923175795387 0.3167269499935923 0.70317775009856831
-0.15339896729899216 0.7175964810558364 0.42287867733064033
0.12923648090441375 0.59773351164745581 0.56489802459902805
-0.45063390804644321 0.48402301480573939 0.70367532963886958
-0.35470423862087941 -0.63416227612040199 0.015556763157633213
0.13938649700390293 -0.10275153128497294 0.80759458980392651
-0.9616520414424965 -0.78195355623391216 -0.40878870705646975
0.65516684921411183 -0.46102657821962989 0.66232861511291219
0.50925173094307397 0.67735032127121952 -0.27902911757484716
0.28997258559055616 1.2335616337980482 -0.40683127152321852
0.4173701643533434 -0.23931122251705883 0.25430980415360338
0.37510525135569495 1.041741812450856 -0.40745187133596339
-0.59910162228312203 0.36534407563592186 0.44067940407887818
0.55268498030650903 -0.26611713139142257 0.73573055697129774
-0.48102227299499312 -0.57275388474750244 0.48997014329188104
0.36075002789252331 -0.21110583804356065 0.74224721192785381
-0.3194201388301483 0.7717847200793635 -0.50560348395773502
-0.27950571641382815 -0.28457981158707701 0.72662242619729511
-0.64264110073581548 -0.93422040889831459 -0.43345796677468229
0.93093600782811237 -0.18851780270214213 0.49440856124669708
0.32994621974653526 1.2618642367561952 -0.43199335573354425
0.53397963007364524 1.0531214097703856 -0.51092467847051104
0.65211747220970118 -0.67428730441290963 0.47662832838994618
-0.17312882592320911 0.33864964981206658 0.7636562490974832
-0.65297317080586481 -0.60263997384427492 -0.22570376135016801
-0.94724606037349268 -0.70744593249671284 -0.36952512618222499
0.41600612808348636 1.2384650474796945 -0.53478615920396777
0.48923722416764903 -0.39783427112369818 0.35325405988922753
-0.65072378565418276 0.096498582580117009 0.80621510455232581
-0.17968298844341213 0.51486393636071792 0.75463373720443272
-0.082899280487863436 0.27062219742002913 0.74843661193718347
0.41590939070927568 0.93956644455459681 -0.38939020969856841
0.25890739537528518 0.82491975302056453 -0.28077689344035583
-0.57144593522926357 -0.63699659846499701 -0.28385313501821585
0.29458292776800832 -0.041107305466890232 0.74759210134001464
-0.49358124187559227 -0.65996017265519225 -0.31398270272034878
0.6242576114643974 -0.41702474721535854 0.71029178792034564
-0.47088374052239601 -0.10029203588726121 0.79218762457890435
-0.41277837643821336 -0.35561532424983344 0.6770735462377786
-0.67833237080961339 -0.95949910916672621 -0.44799724017514464
-0.36076990588857427 0.27710955352071087 0.77179783460221074
0.59780805220679412 -0.4348213203811504 0.73321189975946055
0.74723949981979132 -0.59448799909155259 0.57367983300624736
0.32046184833770752 0.52674938606215171 -0.34759942852230807
-0.30134509824105038 0.21591592181750485 0.80534002206146482
-0.57950748001112196 0.099504095205002585 0.80850570021940982
-0.30185182913315067 -0.24850773101392765 0.76904540622809847
0.8358889312537503 -0.17442249800106957 0.41361552833074811
-0.5815956902729269 -0.31031424079753833 0.68424182423930091
0.25706428224694022 1.0737501217006371 -0.39812348294785771
0.61322811633994512 -0.68103093683408655 0.61035436244954333
0.27074432996868225 0.80441918408712265 -0.2907719192122844
0.17922004315937023 -0.19338059041978983 0.78679955515727684
0.66937645252717459 -0.52968382059812935 0.69979618622953765
0.048323264444883662 0.31798310256230078 0.76220015571837862
0.12259857125531859 -0.18104339545783343 0.80072600061837562
0.88822810818153286 -0.16274055786977115 0.46237000981055587
0.040431408418674764 -0.28905384317177063 0.5844861550676228
0.7383133963656956 -0.40047316865371396 0.39227517752394547
-0.37952446812179375 0.46869481963827297 0.8192993876676411
0.15197628101594418 0.79560635728835294 0.56311481019060849
0.34015581663052963 0.90130213276588789 -0.34216697499499205
-0.29161921340824115 -0.051771054965256802 0.75920760851133551
0.3694921840022225 0.51983319069618483 -0.27465442030170095
-0.37836204993795697 -0.5254117924941788 0.56591719970040444
-0.37362883827209714 -0.77122275814845231 -0.18006992927754339
-0.38099804469458576 0.21010622969860737 0.63881611031216323
0.47990693946794849 0.80980891941300204 -0.28689595790327971
-0.2314205622862513 0.70560776896867416 0.66126485699411219
0.10403728352767772 -0.17857480889337563 0.77394454916390387
-0.33755363371095903 0.12991539849115785 0.80209852756512845
-0.37337567925166582 -0.23061314447006342 0.7983214875894511
-0.18997065497534749 -0.18085187700164873 0.74561193497260803
0.050022898193017085 -0.36361433042956692 -0.41342489569331775
-0.092411594965533084 0.97381091043920032 -0.10668342505753969
-0.75545122910346052 -0.64588884199625829 -0.28278995485635505
0.78155079502661806 -0.26645277084877605 0.6963210386880565
0.87100518284911566 -0.38053780485475297 0.62299012822248478
-0.64835323237569042 -0.54967707604476335 -0.38018012640223731
-0.74436411483796761 -0.8392569397177656 -0.49543428147126178
-0.59297338153616863 0.73375874652452255 -0.29098623109887356
0.16366962207132651 0.81978944390695752 0.48810532189773426
-0.37074311376338542 0.39625325605434503 0.64470849820546405
0.51044143485871984 0.91889654904071172 -0.38524498592557777
-0.477495083789087 -0.57202264258534896 0.40266184502415925
-0.078258403338024252 0.4915208792945398 0.79096301992270313
-0.79005847164265219 -1.0206977296968867 -0.42447320919303166
-0.43873239564329758 -0.41893838645942028 0.65494177252937291
-0.32533480013490923 0.31506299379745784 0.81511105837639164
-0.20679126601130804 -0.13332248158164539 0.73470810548379717
0.20929553979305382 0.76115010493059998 0.25109483968918056
0.79040543838035049 -0.30665900995157003 0.70003273545585643
0.17882128058827895 1.1425974637065011 -0.3188553058679382
-0.093910068834059501 0.6724181626174337 0.72135371762445288
0.85323935945861962 -0.41189354834093628 0.62720335593702359
0.73380300703637502 -0.31510973412393639 0.66354771651143629
0.10258547762951054 0.8327042356787473 0.21536999289545733
0.10795350987236318 -0.41437586760463319 -0.1468389425068537
-0.27945601264494968 -0.7183444897300526 -0.18792639778363096
-0.27392795123120273 0.33351021847048479 0.79310712493506941
-0.20541088806701069 0.4845025425537095 0.75896219745407478
-0.23147723950523336 0.96618041765750684 -0.11028323780557869
-0.60132708050578998 -0.39580487879691395 0.65242425004520754
-0.6763226232733448 -0.27621155563993405 0.71212631194599041
0.067739155099991066 0.49200290167067084 0.74006587209309771
-0.81333790531042283 -0.74476140253872858 -0.41399602093380494
-0.44227033030769469 -0.25833417677377302 0.77054537223549247
-0.22307660002390506 0.36182825456942957 0.71998731776556113
-0.71979955254926509 -0.99881247946476637 -0.40269988898506881
-0.035360625757538955 0.45996078335392632 0.79874697800473271
0.81782904072603024 -0.11822414786673097 0.46446697709620466
-0.4806294158313591 -0.37366642006301509 0.67753186956354483
0.64921201089305569 -0.027412276909349664 0.59063527390687831
-0.72699344293558354 -0.33237251036850157 0.45425222850634128
0.21341085514108116 -0.075928412113354327 0.81030781457608114
0.06503159944795911 0.39179852384673364 0.7847365867759386
-0.063744446027207857 -0.47640990181915477 -0.20994267909632214
-0.35376896184623163 -0.63797411620532607 -0.075663308371240134
-0.38787448851707929 -0.011248125283617405 0.76924173104785609
-0.73629766679513331 -0.33100949489979214 0.66764599850187167
0.84341318269083843 -0.42050253882793776 0.46447188437379694
0.35719065428226138 0.42560334863937932 -0.23915142879078033
-0.69136469270578615 -0.70805012842315795 -0.35126180457909939
-0.25533176272091573 0.44217353799488368 0.67133971155426053
-0.61564113432500456 -0.22952618995524965 0.70732214293255424
0.54597127462720607 0.011097247127890064 0.59373662857019482
0.18880048956229167 0.6938313824331912 0.58673442734879089
0.30376420120759562 1.1142925340979688 -0.43239793323626863
0.44286753919197963 0.042670117617135794 0.48880218434161904
0.60993220865180575 -0.44494812015991592 0.73006251843031933
0.52304549833955072 -0.22269170655417803 0.7355790892391294
-0.72693417751808909 -0.53091179159565649 -0.15574892232208271
-0.61790850582375256 -0.6467970108946427 -0.29587467947193247
-0.097644819922656723 -0.43351503653112999 0.38623063004148861
-0.90139935124841486 -0.12653581781692402 0.13025306023652305
-0.54363695780855714 -0.0426797852533225 0.75570452570786628
0.093310970585504194 0.55369131067586164 0.66876102913540336
0.64577453682179886 -0.61659836195194018 0.43365215194064177
-0.095204373454590652 0.86343457235426868 0.22806727716688968
-0.91494413838470123 -0.72389539034965744 -0.3747305797092757
0.29393556890121353 0.67217177143196105 -0.37228426756517052
0.29148279537070287 0.13209032401887733 0.48891303106070438
-0.50981662495199487 -0.31249592765496992 0.67462340691735534
-0.4279882150405836 -0.39269773074848757 0.67352158469230616
0.39778241162133021 0.71927229774785228 -0.27010930919774268
0.46344345271631582 -0.010414592587499882 0.37596469874604566
0.27721249750704757 1.1235462771344058 -0.42894882547689228
0.086119922404121141 -0.16691110331214887 0.75450606602621306
0.2976078032871321 -0.15399356235997352 0.74441423642230475
0.77572433803788599 -0.36621152777926991 0.6970758920512079
-0.11048378448119855 -0.055037732263957473 0.74994205580098239
-0.34032890499325852 0.47851520295871186 0.53919147374246279
-0.88246959793054103 -0.89735076442212591 -0.45519042379624608
-0.29374245452280334 -0.44790370959730197 0.63035777801310289
-0.65978813754227872 -0.8557884742838221 -0.40079363300668192
0.026443072412510205 0.66384033097274386 0.66904022656858686
0.1919837858708604 -0.36047874582518435 0.63791870935886763
-0.27128027747682637 -0.16666134864982318 0.78519854171797121
0.67301079434667344 -0.65023753038383703 0.60993700925531336
-0.75401381695573022 -0.41375831920756379 -0.37389047722390956
-0.3244237443677811 0.24632444687864918 0.80177189006850824
-0.43466889344978554 -0.79128668575907979 -0.24347341260551758
0.26090440474345833 -0.29189071777806852 0.72593584197801775
-0.82794525954012954 -0.77079956971795371 -0.42807826591611686
0.21157305295571405 0.19082579758429996 -0.57732469183516599
0.70559171324383385 -0.51251918767086657 0.41624411340550971
0.079918123363611926 0.60015549086081244 0.61692570571611327
0.61969091044489844 -0.44212377327920738 0.70920531292837374
-0.18967916232085535 0.326920242236028 0.77498101194829161
-0.46184012125331009 -0.25032405499438193 0.76498418421946113
0.070567595143501194 0.38980118530060359 0.77979010608274635
-0.37662994863699595 -0.3569951428707232 0.6811976101370476
-0.74505415565202782 -0.44666010933242406 0.4928509456516359
0.16818729433938984 0.7898225531455898 0.27707662710088243
-0.081438675006602068 -0.35736971553424146 -0.51847376117270372
-0.21002355479567036 0.52132614144286471 0.67681295975847533
0.40882459360804546 -0.23439743985330219 0.2262549176347477
-0.79567937737877514 -0.47644096208423792 -0.010793934407633543
-0.33341602502554224 0.029821416961523628 0.7739867731519432
0.47105175250195508 -0.54960103111009317 0.40080597302000953
0.010029538204209487 0.93687114209346323 -0.19426935122219291
0.28527905903236928 0.46160904483332921 -0.39307328428810706
0.33895351774996385 1.1210451828312253 -0.44170181191685387
0.72480419397029472 -0.31371540094339689 0.66560356607546645
0.67762382039636826 -0.60713726700085235 0.65111168271129927
0.38852211701981787 0.53504895281075404 -0.095892155942891577
0.19902288580774652 -0.19092235453087802 0.77650919172644706
0.34722428914593451 0.21778830025186924 0.30139308126490505
-0.32402753994996303 0.8459918079723181 -0.41994941413687314
0.038985136956981137 0.40303463598757006 0.79430936034154698
-0.69601216715940595 0.64883921411849688 -0.1079944067098495
0.093104190098458162 0.5821845046959071 0.66947833637020082
-0.54524027140645259 -0.28766142578009068 0.68195995241404717
-0.75629635597324807 0.35002130599049774 0.30624237778685526
0.042129102112465233 0.64938123492418143 0.67015712283859585
0.30260669121615535 0.101364865722811 0.48912745214505549
0.2243875828438231 0.014321331722238817 0.75166314108784249
0.39364562317734375 1.163107531318659 -0.47674615053386837
-0.81955279438279049 -0.67732058122808014 -0.33247232863591236
0.45963872719107357 -0.1636067150290792 0.2759979112605393
0.83853663093911557 -0.19597729029347732 0.64834805584202826
0.59341485923816428 -0.22919807980834239 0.35406653391665444
-0.54757705084429631 -0.38730751476199909 0.65931147088103614
-0.91939846462327246 -0.76169044131659214 -0.50567417401359194
0.5604430033804082 -0.47515436730778138 0.72433018962727402
-0.55581184889971347 -0.36473785704665929 0.6679569417165041
-0.56471968806970452 -0.54593580496391736 -0.41004381989377592
0.68461229714335659 -0.46549480730174686 0.67890878640500141
-0.63572129380977493 -0.3386803167480652 0.67531306724988127
-0.87533398657684458 -0.90525264720619258 -0.47466662509912183
0.62630333138348071 -0.39772630337288017 0.73170640253922592
-0.36012472748915059 -0.63656588544341197 -0.13279548668400309
-0.11590883386624107 0.7477415156128715 0.39774734458292116
-0.48218589433371228 0.42097143464237563 0.49023471415273434
0.29104509318958094 1.1468446637981411 -0.43826169838388118
0.46534446436773003 0.032562984680143181 0.59378815017769782
-0.32814966167363657 -0.077135658352215586 0.78998636840949388
0.12010232482375827 0.49036468911341391 0.69234032482625807
-0.092812565636711142 0.44151584558385615 0.80618768963026355
0.30330573020433782 1.015191188511503 -0.37465300054343587
-0.16675887742678341 0.50756479334483906 0.75753419441296899
-0.31595240852896467 -0.64291472340494549 -0.12897267734668816
0.54250370067160425 -0.47687944293133633 0.37547253285130111
-0.13766265497260299 -0.29324826406628901 0.70358482714877013
0.70063722042315923 -0.34514419241593863 0.66940889380929924
0.036040193369176521 -0.32656659972132918 0.47807138277106631
-0.37456316147558866 -0.39145837064394406 0.63193698708265345
-0.57631424276547705 -0.93091572461611982 -0.35730417575976148
0.34302388781973647 -0.012388827264841584 -0.35208479040677432
-0.80519142205062977 -0.77462436756374653 -0.41296407913614175
0.74881717469604858 -0.38179716734185476 0.65270481850228279
-0.15379589260893489 0.38645268137931321 0.77614498632033602
-0.0073249711834790787 0.3985460115602909 -0.6749404233404519
0.14582598691842286 0.37126479100955212 0.7126965599303432
0.12331788258979515 -0.24968904446774243 0.70409539008193178
-0.33737518540893063 -0.80851458351430883 -0.25526837900582322
0.1092517275276581 -0.14951170546540915 0.80587633838935702
-0.52324375515232902 -0.10208533546070786 0.7503966156896027
-0.59514354235150968 -0.34399083927871832 0.66831348189925777
0.38436703496934044 0.71926324104136308 -0.25597646525407924
-0.027107326562482825 -0.35328374034083687 0.52204944608208947
-0.76195594853675175 -0.50670735787836474 -0.087366283671979517
-0.72428415491097198 -0.55319480774977281 -0.2151484419235743
-0.40659747208251495 -0.017234216433674732 0.76455709257303894
-0.069518015177145287 0.26044386054844271 0.75401761046620308
0.29921593850742134 0.83389532017384438 -0.31286120466659106
0.058055127370970183 0.85768589553158492 0.60484292600823686
-0.44942600926451881 -0.43573533826142574 0.64459563908990702
-0.60681280315263564 -0.9854751130802708 -0.36889431977278164
-0.60938461663810095 -0.042987184700673087 0.76265122299081156
0.0071140420581325969 0.51270994106432166 0.76845678644912851
0.42476314411429961 -0.60133107381513096 0.52848121981977414
0.25919814563524923 0.0011861592144715161 0.76057992314039069
-0.55664976955283407 -0.24713279838303404 0.705261572323721
-0.054143245501293791 0.53418153258401713 0.75083703965037785
-0.41623758246371523 -0.77315099084874017 -0.36377790734823279
0.011824090783257191 0.52505636530615796 0.75006825121434062
-0.24853764587680516 -0.27131169532646915 0.73701783205847704
0.12247753842471276 0.40528465362507315 0.7054429515478482
-0.56582934867637746 -0.22277125575696211 0.72381096287944402
-0.51164780668282006 -0.60766603611591119 -0.13036140343586311
0.17501922918567381 0.27626985598878573 0.70247245270194369
0.033088546436220057 0.62137746674214434 0.6748768886270966
-0.78560289575427333 -0.59602131410504056 -0.24041237440153296
0.10405141388506856 0.53169937073582041 0.67330255234210412
0.40254718977083748 0.59907531778924339 -0.29396730918840674
-0.1339603670203342 0.75204067844508149 0.59959294229618365
0.30909644586911789 -0.5068433620266628 0.53371270997295639
-0.90272546613755011 -0.1225375210779327 -0.3347894435903136
-0.90804984803092381 -0.99377660588303907 -0.52308494422860008
0.28970913381701457 1.175025055874737 -0.4179075451541312
0.25655599212180746 -0.017098901292879276 0.79958413595537792
-0.37395550194666072 -0.40719230033221798 0.60559199788587392
0.1869655785186648 -0.11853718565301286 0.81181070991653925
-0.66550010338624688 -1.0034608120296991 -0.39035185893212443
0.83493696064207867 -0.37099890449303263 0.43460296187010883
-0.44851065537275936 -0.34657447482733517 0.67768797616115251
0.48953210367676547 -0.17978557027526776 0.73469720312597353
-0.44970812691592954 -0.35333830735031047 0.68002354592909597
-0.3957573084436028 -0.060025542270616405 0.78864919999541883
-0.45263338385816532 -0.36780546661072133 0.68194548486491158
0.29759365386882664 0.20675371519013908 0.47249143756285505
-0.22922320448988387 0.6818550486502426 0.6054999381419286
0.12514501570327852 0.84743895419086179 0.53777501942771444
0.19203801559636879 0.77544308505915538 0.41294941712052236
-0.36261793334250214 0.25175832653972607 0.69000151281123934
-0.20546146577255975 -0.48250088810268021 0.54183009512558655
-0.17410753910322541 -0.33494714204402376 0.68479489598133014
-0.52323780394495856 -0.35847954610282962 0.67732988095024638
0.10522976269082385 0.59529370383709157 0.66744245507596034
-0.89337011331481264 -0.87447966177214576 -0.46477877017234093
0.035767133385601113 0.33799574994823267 0.78788166126509651
0.46001212285485593 -0.52246450998952021 0.68800435816623207
0.30878781676594969 0.74842333529447691 -0.28159891614285115
-0.4784169204761799 0.0098989209660218513 0.69262601694743964
0.27537477884920847 1.1519391686298612 -0.41387077229478919
0.50980458351466851 1.0374472896851694 -0.41881164835324824
0.11520367604230408 -0.28384566578297044 0.64349465034941034
-0.25285993427612219 0.43817604911005326 0.77018120667121437
-0.61420360798612883 -0.071441943447995371 0.75610158415620532
-0.58830171717767499 -0.15536234027391371 0.73149902050423421
-0.57208786783879617 -0.64139680197819682 -0.29626173706862247
0.56853145916595871 0.835499648901322 -0.39074717851528007
-0.23080804535797483 -0.20242695540065991 -0.64912611065145143
-0.65477526322553636 -0.54171423550045805 0.46634498454465856
-0.84093943948985483 -0.65544503133919019 -0.30509179908075268
-0.85798555369227358 -0.77419243108193658 -0.44613790172124013
-0.36832937092678719 0.20949658081965339 0.74217746122534578
0.026776167541418872 0.30456961085590173 0.76663460580031284
-0.1502714847166402 -0.30874288675522932 -0.58895398564332524
0.3617410438078803 0.74872528704312691 -0.3497090454357572
0.88424845419774734 -0.25016749251855952 0.63483842309797289
-0.2290123306436751 0.69876459632731436 0.71531775875036274
-0.20777182739546163 -0.35867469524139761 -0.553224792096632
0.76599316585381416 -0.31713263249436885 0.70949500553323119
-0.39348996055364438 0.57853278291368326 0.64749202316559717
-0.18064326763491501 0.46950463491047678 0.73968376137768743
-0.26387396428655663 0.014627272608636943 0.76673586695057949
0.26811947864618801 0.060888575102447717 0.6528616165615162
-0.59504340131675981 -0.19147803649121098 0.72051655131036441
0.69843757795722183 -0.31509304322493215 0.69293005552190223
0.27735523424980002 -0.034903423186497307 0.78185231159504909
-0.59963022684591394 0.23201227948198838 -0.63715080336716312
-0.35403320111915626 -0.076666305047070615 0.80947379275880849
-0.66756418620158797 -0.57276796252431939 -0.16560798360314877
-0.62943331312876438 -0.61467588531543083 -0.38808855829680411
-0.37540456590381766 -0.74651375643317364 -0.18378517252555682
0.36812164539553471 1.0919041979894089 -0.42950150802124831
0.27982696352724545 0.75616379657052057 -0.26728186062898729
-0.16877325596113302 -0.1676708799150548 0.69120488782484557
-0.28678235233928717 0.49192072939032183 0.78170209136436597
-0.69594295187826205 -0.48639200399219518 0.29874390372021864
-0.065111589786333468 0.58166460505440565 0.71635060477744261
0.56942053012277682 -0.13826123287557657 0.36317863468670453
-0.65771876350211755 -0.31492623922853014 0.69236019579772901
0.42641387946777876 -0.54542883291808408 0.41930483998081058
0.12490928238427301 1.0540139768131898 -0.2617035441244262
0.29972199532153709 0.76120563227240057 -0.29611446952105247
-0.25826639137336116 -0.67774568511496214 -0.18532525286649104
0.49369063967546012 0.99995214543208322 -0.45328675714671007
0.17735187093490268 0.46235863716837056 0.67315731510572974
0.17076685217259602 0.93974119546126245 -0.22098651192380103
-0.60617461923534321 0.18311285931524335 0.72146654262616394
-0.49540886637725379 -0.64921667717874654 -0.31204435816318465
-0.71270694806165658 -0.22522019489276346 0.71813457552566717
-0.039975174227855348 0.24452752480038242 0.76175758657769777
0.24108526958466747 0.011188023271673231 0.77841994276442605
0.2903080038621848 0.81177173938452718 -0.36173169295422625
-0.75992444545367022 0.55912238683823867 -0.11522131273194347
0.14349088081479344 -0.31170604608441721 0.63607802890750165
0.1805483224055866 1.0079995356917566 -0.26409082365115211
0.58696029540861971 -0.70080173663426937 0.58413912499890763
0.0038580778127137449 -0.29600723191293454 0.61738848253590106
-0.3712137337671173 -0.63431152292595394 -0.14382212044712617
0.8727896259990704 -0.2314573369122952 0.63864483025554541
-0.30418524626979426 -0.011925414010844904 0.77329185153563529
-0.33465475281549217 -0.63715436314537288 -0.051202777796103049
-0.47644651679076944 -0.57434580396576296 0.43613811648153344
0.74974226977848524 -0.32691052050728242 0.66969245580558834
0.39568296401999881 0.87390427701349349 -0.34450874220512162
-0.2229358252470437 0.52786487560022266 0.65498596162128209
-0.3441845848932914 -0.22782272281048765 0.80054062542001958
0.11824672543956716 0.35233582866195601 0.72656126164269352
-0.40688505134617969 0.15536713750025211 0.80303262809592368
-0.85351015268019026 -0.5971378011957702 -0.28665920377101273
-0.14285319443817102 -0.41305389642424029 -0.45113352562698594
-0.38861871036813511 -0.23656227998465384 0.79442658087128848
-0.42772802767915508 -0.094342444307494056 0.81210947797331556
-0.36109542015711149 0.29321376832925417 0.63947562185213158
-0.7941851503137336 -0.95812865971902994 -0.45026835101273122
-0.32924457670998208 0.19119149247927059 0.79789183380484374
-0.53091909256008485 -0.33940453977962104 0.62542327873638826
0.49163966246024593 -0.65732798598718922 0.52187238272759373
-0.60452255783985365 -0.78837112054111769 -0.3588373011790793
0.28099688493971087 -0.15563825369186612 -0.38042616862671963
0.13173779162797672 0.92684896022662944 -0.32564272082139567
0.14815829858235041 0.82128117657233268 0.17133881749850133
0.16768072664634914 0.96269840426166908 -0.22752080218553061
0.29267550302911971 -0.058126884546034319 0.75577118305483992
0.28601427932645151 0.089733864157976129 0.55044462648433523
-0.6278014229074369 -0.18446469234381579 0.7266144375962611
0.84101832846560676 -0.24559493640037289 0.40680200750168005
0.39834401333683189 0.53268215670899632 -0.12872290692985189
0.18974293374215989 0.47740641192480382 0.60302118717442355
0.70988229060236385 -0.17823336373064436 0.38415028386884309
0.036941327442480798 0.8245687701237765 0.33620887765365381
-0.54154029352520539 -0.60312440966828174 -0.19242643783464075
-0.53999056828929071 -0.138585356514906 0.74872734272803854
-0.69078395734909392 0.13533703470546588 0.78533804524961681
0.81117745074431546 -0.47704035899933128 0.63339016989992913
-0.33343200574740983 -0.083373957927719289 0.80458630102646111
-0.49029943975339485 -0.028112462330783572 0.76770856689360301
-0.81673677127490585 -0.93898036703400289 -0.47338281536135796
-0.3164145280491848 -0.23344748660142933 0.79564456505773862
0.43237146247461666 0.79021156353713184 -0.30109791566083821
-0.68016147946826067 -0.94803621386120751 -0.44680803575360883
-0.055142253938466723 0.23295834388743053 0.76285525876203408
-0.074957437621577583 0.37256689461187253 0.81257159618657226
0.14818694986881731 0.257186587948528 0.62209146200324739
-0.87383954501854788 -0.87669983176314648 -0.47639010502987844
0.26835412552092563 1.0979651379276461 -0.41612045439550194
0.55315478737453994 -0.062062899967902041 0.3882703259711846
0.67264956991408553 -0.48959673202050435 0.71365187920065054
-0.16970333293834017 0.38061555468847885 0.76503581203762394
-0.5803134943288093 -0.59882145389046981 -0.19610768719444138
0.37417979530899714 0.58126309784737407 -0.069792319436562167
0.40106740258567442 -0.22951338527298626 0.18424518728529193
-0.38869380782830909 0.18946674784331563 0.66125387347232945
-0.66884745509068289 0.07517818550197175 0.62338482620627644
-0.046850506593413499 0.35639237935509538 0.81189776855881135
0.40246564648697003 -0.28133545150581796 0.27219429113748106
0.13483539554627733 -0.068205074287099876 0.75065601658014458
0.71904341369389613 -0.49010624259626567 0.69831375078848446
0.69443596192750867 -0.63013187250601899 0.61188034851607043
-0.52475629710051663 -0.7755617974137784 -0.41086974787513242
0.55341415251082893 -0.17979552617746908 0.72728526524526593
-0.61632053028110789 -0.75453774717890854 -0.35136135316311012
0.43741746585176067 0.7386977177315357 -0.24409989393502407
-0.1140440256022206 0.22321035416779544 0.76318023051296535
0.21099012728205757 0.832979219966691 -0.20587199937394374
0.061875156591389313 -0.14526421212424445 0.76026853076578504
-0.26290650382576786 0.95706769072583953 -0.23582273430429268
0.37104873277902684 0.92178774334020952 -0.36032462804442922
0.39695620707372292 -0.43099400657353293 0.71030847715023171
0.38042094333542309 0.55158290029896762 -0.052904242698620152
-0.50928333157497718 -0.068931308652189216 0.73795484127595401
0.38212835761774144 0.83605747834309785 -0.32630688340977798
0.019458309702324428 -0.079336482439217981 0.75611841618258424
-0.10499639439868602 0.10036071931489765 0.7492680487136596
0.6734336124155913 -0.43631211595285713 0.65691305190513205
-0.20819518922787772 0.41789434544848891 0.77069619952390411
-0.10141169725898003 -0.32983236305351671 0.66170686566438874
0.19941594420722808 -0.20118450844686819 -0.45987264306429054
-0.083281789074812096 0.26549549943200557 0.75495296544782775
-0.18214722401676298 0.73037206278586098 0.64545672630149653
0.463621387798133 1.1017744296955572 -0.45908849636985494
0.38003909262141633 -0.21570509720300635 0.034682730188226429
-0.48506675400441956 -0.089059829872338181 0.76607453120206515
0.13629022948887304 -0.11534692226478516 0.81051587966275918
-0.79272359357273103 -0.86923876841769199 -0.43175870932316585
-0.36486352404635625 -0.71990769249036979 -0.18371827918778649
0.46209784887638961 0.65681501042168078 -0.29365486777658845
-0.30464593708972743 -0.53231876811968881 0.43230667690560409
-0.15725193436470164 -0.45568222657887736 0.46721020387506229
-0.005822661599383494 0.2264389163402809 0.75582097448403829
-0.18843398764692054 -0.53174192262003039 0.19669470392855715
-0.69172971462805677 -0.54711256352220117 0.078831807457017788
-0.54965470077346801 -0.21729911848320249 0.71455540984042898
-0.5124034576370331 -0.070369616765568743 0.75670953521077067
-0.044378348345185614 -0.30937919263845881 0.64534024658603428
-0.21399489740566935 0.96943713493774819 -0.23602935485717325
-0.49744754400113145 -0.40468590899153556 0.65867469005904766
-0.72915796765100716 -0.057045544262988024 0.74312304309673038
0.16531953717141867 -0.0014045562033881964 0.78789805478398023
-0.4134256809308674 -0.72652947525795253 -0.28067464889754135
-0.7821567906124578 -1.0078292596199994 -0.41685060813226116
0.68984124123687529 -0.33166915507582573 0.69346232602591051
-0.055846204960895207 0.46156591209475017 0.80039029932560624
-0.26049492040617039 -0.35052548657067728 0.69085496533904944
-0.21663286602169229 0.48817422106834485 0.75799236866459552
-0.76280222359551786 -0.548230517853176 -0.28599734870632432
0.4448976828613258 0.015936907209532336 0.41204862297850653
-0.45713290975841758 -0.60887778088842381 0.16162426657939832
-0.20067106030546356 -0.14836454001267452 0.7564381442028818
0.31638574486185611 -0.090669379766218583 0.74121168155662076
0.44527449484454706 0.77012330646172344 -0.2782759775410355
-0.95050726394825347 -0.74701560119128896 -0.39146269323634186
-0.15231361701108881 0.3102866246040108 0.76206042386296957
-0.43554244278921317 -0.74922251812895957 -0.30599199951914002
0.76819398722711618 -0.40675075000662453 0.69266702307178463
-0.95297278437005417 -0.66237549970138332 -0.38092307561186445
-0.31984768437737721 0.42296731022545409 0.80407763909974506
0.150150903617007 0.84649616825559626 -0.36570558767883554
-0.52347937543773781 -0.67113096268693617 -0.32232441739486006
-0.66921979186727043 -0.17346443196530448 0.7425279404551226
-0.1242899307739993 0.62911361140958277 0.72729312045158068
-0.85782348484676874 -0.20743048313960255 -0.38367310002355026
0.89369415635090199 -0.35567845993654945 0.47776684846866502
-0.2412280116124883 -0.027228863987144081 0.76327905334338197
-0.15215055133970168 0.54832839597122951 -0.67215209613510751
0.28652592554190548 -0.24661017166043919 0.7384660902072504
0.0080057095802565925 -0.32451997628039475 0.50267921000684623
-0.28017962827234832 0.95228512585395109 -0.10615570272156205
-0.3931284940902664 -0.75471842686384116 -0.20076407733115076
0.12547983935616358 -0.37511607267171421 0.31385357157344629
-0.14352561674376396 0.21490948792623676 0.7647172892168328
0.12352654455384382 -0.33479145344610917 0.50784175546142407
0.42516489126342272 0.73435929356033558 -0.27195215700744235
-0.40514756214748004 -0.27605463278546694 0.76680278990587425
0.23817444119464426 -0.066423902111361066 0.80561567375926302
-0.1848876580663692 0.30400586743239177 0.77465421994370232
-0.11160435709653527 0.27939560844820477 0.75765952635398293
0.4423567406157094 0.90792232111361848 -0.38503106316704283
0.091339883554987011 0.67590560047105797 0.64506501120910897
0.054552796614203203 0.27700455300016635 0.75069018459152304
-0.067285101182898543 0.83640585571123838 0.27576665560771474
0.50684616559110118 0.87531969739140658 -0.34139928841006828
-0.92230474571823606 -0.15846636473563247 0.04716656820249554
-0.25662131886944017 0.71350622155051191 0.37238169525743814
-0.52894163642227987 -0.3145547146398453 0.6747637933199897
0.40151528491347932 1.1744846037149022 -0.43313310252267989
0.57778109184657467 -0.37672803822471934 0.35046619260801393
0.12778863409821284 0.40486263335260642 0.70879192744554587
-0.12582973334240499 0.45556404835397668 0.79569842253758694
0.34450811901182909 -0.31430011743932251 0.73422802433877266
0.54604006143295436 -0.69856900013617373 0.51823354047256487
-0.38753034427987387 -0.85358516547929786 -0.32444033748060974
0.31457997253825987 0.30626450984645182 0.52301303397203469
-0.32813121215557395 0.51163034265186136 0.61269201967123976
-0.027444891198697974 0.52344524261752956 -0.64405739758830904
-0.51977382927964655 -0.87678443459742272 -0.3383908608485946
-0.24293377935185667 -0.20798839431765259 0.74777152672672997
-0.63922819117684426 -0.58212100665459965 -0.099595630819514724
-0.72476431921540829 0.091654572214669106 0.65454784246283637
-0.72383665218558235 0.052816111191989368 0.63584263936660435
0.058450196454735703 0.84075125414821272 0.62447126491743887
-0.29173869809741326 -0.1270892772200698 0.80402568130224594
-0.037087171925353601 0.15842403755476209 0.74800319124097214
-0.54968249493480137 -0.086190619530919665 0.75319607115211085
0.46386109893543903 0.785206934642106 -0.27213430819510798
0.27082301713617696 0.050027253043461339 -0.49885067864735788
0.090930391781890663 -0.14684206470589878 0.79362638857834611
0.13820981329390136 1.087955564261454 -0.35828781295540857
0.24772161374905366 -0.049606947993819261 0.8039432965538289
-0.83901462605178168 -0.75266964843736273 -0.42996397501207184
0.02186973260037739 0.3748614361799989 0.80237432656574725
-0.25010833240961894 -0.30735943705387259 0.71768761408862858
0.13498087808085657 -0.28132091673630644 0.67067661162267456
0.04480338001926043 0.35833910402105129 0.79381547446151401
