# XYZ point cloud file
0.35687420122422253 0.069094466723377934 0.51077685814840379
-0.54855906146657674 -0.12077475190913667 0.75690630859944008
0.12199233647929475 0.43107670116712171 0.71071727856820388
0.66266925829702927 -0.69478954582784969 0.5401063425410868
-0.13612380474168972 0.29143823376238487 0.75906379657193668
-0.036245122848182376 -0.46722521909332038 -0.12759275854379837
-0.38821633937900302 -0.17893938035079415 0.81379755550693034
-0.70564975081384773 -0.18150425502884815 0.7401846177913356
0.42540179607523143 -0.054894137795198361 -0.045389937336516084
0.25866695882706381 0.8016359642439026 -0.28757639584933514
0.10837765565210944 0.43100926717179888 0.72875342255700559
0.32938195471498233 0.66468030293495772 -0.034723034042755785
-0.85142959306944554 -0.38134008785917572 0.10144154014990647
0.78069893114333411 -0.15458428040712846 0.40480335170680348
-0.2325537337758945 -0.12073095097308695 0.76123386154667116
0.78600945982681836 -0.35098559088704473 0.7022716411138461
0.74682268723295664 -0.33132326292368042 0.66524643500634539
-0.71425305559777641 -0.7955082550712369 -0.38174608724160919
-0.38986831181332704 0.47624919212300654 0.62315947957254991
-0.046839420390599074 0.60772401037960933 0.67912473453020539
-0.15033196331158294 -0.012594635076073502 0.74536625635685994
0.26657139513294759 0.77938849987761571 -0.28656165897916708
0.39421478480016781 0.73722978014823148 -0.28518505650174575
-0.48906755892300779 -0.68933023372952817 -0.31547596135037281
-0.20906455557240378 -0.22435326284396595 0.73827917231323426
0.17370748058563734 0.14193756469955154 0.73314369808458224
0.094449325485108204 -0.11293974409126228 0.7665021825619931
0.11072516908694929 0.51394333006846793 0.69021806047952339
-0.81485377809808845 -0.7352737759735124 -0.38642152432922217
0.85793712212020168 -0.37665888938944381 0.64049209990559319
-0.78367471631222152 -0.050107581767029785 0.34382790316072942
-0.34843293558122923 0.55079482599744267 0.79812485076416806
0.42271583795249512 0.69452248638752145 -0.18707007531661901
0.31232907578917413 0.67702100852385705 -0.0897154796157551
0.51596404226618375 -0.60395608245725363 0.40797665057480259
0.11476546300543511 0.89431468981550211 -0.34544890091343916
0.43606941900644713 0.067028741593327723 -0.024649070006546481
-0.5082995763810203 -0.030494315080755285 0.70707495634086825
0.16189517711095647 0.86544270772622856 -0.17903884655093805
-0.3512645865276145 0.2488002200877073 0.78628515441316438
-0.62769885168410866 -0.94955840887494425 -0.38817543542523936
0.21194514001647491 -0.36565810982125413 0.35931912159978197
-0.17144659453777322 0.33133104922762158 0.75642692753233121
0.1190653935616055 -0.20532735348870723 0.75496153755454998
-0.59991023587928893 -0.71583146635181194 -0.33488349607662826
-0.71197156980373322 -0.83702537325317294 -0.39977184416255085
0.13807396365677604 0.56499873396681721 0.67305926590974963
0.13517288695147656 -0.090164125725911148 0.76346835662380386
0.10190405592464558 -0.27567223906369165 0.64583808027744283
0.11811620075202001 -0.3258798073431457 0.50595631167615807
-0.18899596764448034 -0.12947517736654568 0.75167391276487194
-0.49194904440330944 -0.059972796669852002 0.76080896113159469
0.79412830302655735 -0.28811428053261423 0.69618204085220015
-0.17191613316687615 0.51065996013192461 0.75180809588373876
-0.90373776740911183 -0.66804504278917065 -0.34148813013372603
0.20768449392351229 -0.18671005151592723 0.78700204668061957
-0.67371841184667502 -0.60615540157524528 -0.21237763212423744
-0.4520342932117174 -0.61697107648049965 -0.16449588507670398
0.051733076692276114 0.46914049656880152 0.77645950691567833
-0.40699910227499458 -0.35034074351250766 0.69330804971225746
-0.59747502412059106 -0.92047100650529678 -0.39599251791327816
0.041020739847510868 -0.41640563791307628 -0.22546964523503021
0.20593953849316726 0.66214940912252729 0.60148452280435549
0.44288179836926389 -0.47877928177752338 0.69943774216671528
-0.9896609017156841 -0.92439309180839757 -0.46432213592981242
-0.059286229297724091 0.27606123039287311 0.76456175417815331
0.30963210491566429 0.47893675410018233 0.40740891330793261
-0.40578748183591529 -0.58855090292986034 -0.39219503864251948
-0.56700474567508863 -0.65318487351855836 -0.30364315789346819
-0.5874157394114512 -0.60301662448350868 -0.16871148236124611
0.37384517875968371 -0.32709723756478226 0.29262600045012022
-0.64959238201217673 -0.36111984691774346 0.67976042503583756
-0.32482866175396374 0.284110746653365 0.81022443239431396
0.32819706553884487 1.1833295028465365 -0.45851422105229744
0.07811544980652485 0.5833386891377863 0.67587902341264083
-0.38083773607921145 -0.30211042180462044 0.74803757594684583
-0.27795078718837374 -0.0052691334967569503 0.76625089421827397
-0.31626871200610118 0.25090897445373628 0.80695499172950491
-0.62212733570732581 -0.50756642144248332 0.58698621084919012
-0.36405261550356371 -0.0059946043149157191 0.73682488091984766
-0.56276387740007472 -0.0076813738118719499 0.76843928845817544
-0.53572469491994212 -0.035339702513265792 0.76071936829722375
-0.38292216835336745 -0.27957372298040895 0.77667143586038634
-0.58081944155034648 0.70704748211679025 -0.34976881442197083
0.037734781050193789 0.089542692693678205 0.7556644991132444
0.17860219305687153 -0.3511049096852652 0.62881246373886768
-0.72057385545139852 -0.76368881456701843 -0.37254943872806479
-0.10759754047613868 0.42723041697523279 0.81111165748320957
-0.38321183710700346 0.29261858098138127 0.61421441107026453
0.21701126084756517 1.2198997157482161 -0.37413926420916965
0.73262803389205189 -0.44556647094492075 0.66710160119217221
0.54836333633799583 -0.097569945943405401 0.70550004773660646
-0.10465858553111573 0.3108722701102149 0.77746116612085814
-0.075793300292858135 0.072680140751277378 -0.72634729499741724
0.66795652287056839 -0.5510055737488031 0.40659662379820816
0.54357425681025617 -0.098329116973381758 0.36036031257098244
-0.1837718038892433 -0.30487344764193658 0.63825855321180569
0.46552310085301052 0.9023727658539773 -0.39341649405474044
0.83760100750209077 -0.24657187735087405 0.6671929724092962
-0.43354992356017164 0.023296078131346931 0.77563861777871779
0.23769148856446876 0.6213039000516698 -0.43064135203936615
0.42613453299139437 0.58063016592860439 -0.24693124962665536
-0.099669515676506393 0.23169648854699787 0.76440854669485958
0.82501459100767605 -0.17606124217772656 0.40969305944361878
-0.75499061789746946 -0.47957457659884817 -0.31847398852232089
0.29945951175503538 0.49736047997126676 -0.37194593578990975
0.89821525337648467 -0.32060240961746445 0.61818310400693122
-0.22590573931703162 0.38666210181939853 0.77252289518988704
-0.47172127800609331 -0.65224878349550508 -0.28559198736486735
-0.43521717445310948 -0.010146135242585785 0.73420877259572848
0.13462634466475976 0.31808029109050118 0.6898946453294954
0.44462500636998392 1.2520962955899684 -0.51183619003060699
-0.75846717317651624 -0.65209892061646535 -0.401394652843031
-0.23523159949822059 -0.38441303440786356 0.59181805677916088
0.33493917067374568 -0.11443726486743877 0.7415559755500496
0.14714670522065632 -0.049606132100507239 0.78752128034650326
-0.57142425569809774 -0.89418962359448528 -0.40088513126318048
0.31463955020557322 1.037361055437195 -0.39088388834570509
0.75891078219405372 -0.51210206284600801 0.65818635234806067
0.15551434383915641 0.47145628240155801 0.66240146229963415
0.85799074577847634 -0.45052236545290825 0.52199496250194954
-0.093910074804256283 0.79942437372703345 0.66380428285571469
0.41359668302328245 -0.40740670986616223 0.35606025665199326
0.096471827232342378 -0.31620967280217549 0.49018405144667554
0.18282558280730754 -0.21363100041010696 0.76853530740924469
0.25766764505256035 -0.35566050937747384 0.27223700858500166
0.054134703837052101 0.6161318842867427 0.67713619721971696
0.0094646533790783138 0.93303545647827058 -0.0045921735548049014
0.30171037211969143 0.58384491602865296 0.51912209511760921
-0.34073607002726547 -0.097909856116512373 0.8124951107615459
-0.15481401941314843 -0.17323999863832817 0.66427188698044404
-0.19841265747727732 -0.49766467683075533 0.39596297790063062
-0.43184079469554248 -0.76941033776879486 -0.27692647514119528
-0.1806594955952292 0.71450561788141798 0.73317774390242363
-0.21282704200042524 0.44102426602876044 0.76489268899335627
-0.73881468395312133 -0.25691776534362987 0.59562408578764803
0.56232890457503082 0.91033247402401063 -0.45175941939027098
0.22139264730671115 -0.021293394015367895 0.8096268081726663
0.26985545766504515 -0.37741840729864329 0.68877200947429174
0.095808960182758085 -0.17240426947208398 0.7941295979832006
0.22028630097455348 0.90677364129108717 -0.39259094969214203
-0.072681690462122361 0.12513442219194815 0.74709643474833598
0.50959005984817196 -0.3450374944495298 0.73707893282821857
0.25999708280428635 0.97415466760943392 -0.35587269460066295
0.44506252915508782 -0.58451802050323032 0.62445616881870336
0.018594947494692704 0.68963672504475859 0.66940814501080581
0.25182311913792255 0.76038896916688969 -0.012038981692278128
0.189829125321058 1.2219345664064676 -0.4434084374108096
0.19181852387851706 -0.35997031448243177 0.35228133909154025
0.082307589735751918 -0.14510470862683356 0.78331542899385909
0.33954714216374526 0.65122955408247662 -0.0026795899995093464
-0.21024848577244271 -0.34190171642799427 0.62809650098930803
-0.017223664727579191 0.34422780618437443 0.81119419201228027
-0.53234489282088937 -0.16538424768997473 0.73713273256974077
0.51577784526264026 -0.23006909640784201 0.32485487703829818
0.52755933461314086 -0.66279578159426222 0.46537801388103617
-0.46584923901628628 -0.2181223425958887 0.78511638409634088
-0.60601152953433157 0.35003129587574477 -0.65373766413219414
-0.97290897186043424 -0.9099841371837023 -0.43553832300435147
-0.55920598427450585 -0.042023460529669876 0.65709765295298439
0.059972040436026219 -0.29963451234401361 0.50816813955834306
0.52426356904827287 -0.029299391248192919 0.39270922026842214
-0.61971621973432001 0.017077150065354374 0.79091979588399397
0.35795130981695777 0.96505504885074256 -0.37976791533944976
-0.95807233445466267 -0.72836234016027923 -0.37488880064074692
0.67211783242559164 -0.47077866700195337 0.66748248859271797
0.39010094276824248 0.73148961259526057 -0.27201500504783382
-0.19990522360959773 -0.35105155553369194 0.60237010350786591
-0.44256502630611827 0.18500990146449681 0.60818585745936815
0.27481178685422059 0.76115459407059127 -0.28565755339915455
0.31369929756967352 -0.1757404590047944 0.74297644094208692
0.39099851921059425 0.89799250717136392 -0.35968738840430348
0.39223653362523514 0.67892456375423293 -0.20104384213686188
0.42665946288535395 0.73374956734472807 -0.25851108166492054
0.761263071834545 -0.39522404244265186 0.66765270881064964
0.12908846478529767 1.0322755053221764 -0.38375897119984614
0.04173634668108761 0.90406379699338757 0.085922116599967069
0.50739312890059907 -0.51518032323287422 0.37844877528824838
-0.1546631916709309 0.96635628722058797 -0.26143272114909166
0.74781982641952283 -0.31127957272788276 0.71623172648966715
-0.74473942518557656 -0.35532695680580417 0.56375008609408894
-0.61479315003429136 -0.20919788060044553 0.62309726833494494
-0.65086635532169623 -0.28793639927208581 0.70913971597947523
0.19497174898610581 0.014063648355561398 0.75236161277583591
-0.47986717678244872 -0.56056513194344326 0.53442846439002523
0.31053553264349532 0.073278332121345713 0.54997704738397601
-0.35651703655112676 0.20135243016961901 0.78292007478749071
-0.41040730447344664 0.18405669838152328 0.74110054133584669
0.77116812066499207 -0.39897080785579497 0.69268906717330481
0.13812299621537605 -0.33940641880459488 0.56024125016158877
0.85959264072050345 -0.45165983727092041 0.54844520753488979
0.49851626638348456 0.84078910762388759 -0.30293646287885423
-0.3784870752709466 -0.52378587764816764 0.57676806025423133
0.35910954165746745 -0.022208177930856721 0.70988763792831122
-0.80056870958555848 -0.95161424241635473 -0.47695594856698165
0.66399625114888394 -0.071706287124911228 0.42023953557509941
0.36206999367767523 0.64604188356307102 -0.15905077315793648
-0.71661764658427352 -0.29329027892661585 0.38720041427151131
-0.069279507188081624 -0.21876282335871089 -0.61226055234530463
-0.71255700727582294 -0.5655895910060309 -0.30609543559130969
-0.23294085120351404 0.75560594016350535 0.3184449393768034
0.25112304283093323 1.1048967320285827 -0.42015510695585334
-0.64053659171280053 -0.068645915904543386 0.55482282694709539
-0.62162954243004975 -0.96712030137020832 -0.38352942819047087
0.33405922326895521 1.1801730876640919 -0.46880502842958549
-0.6781593521866931 -0.13908015389272066 0.53650107157884008
0.45063854441459661 1.1952023904012998 -0.4294590296727776
-0.12985802216395825 -0.034753306789436778 0.7445338538295303
-0.58642331594290908 -0.24018295684753177 0.71317330568070503
-0.18892455264753849 0.34018886473913312 0.76737659890703469
0.048907355104912398 0.885445922163969 0.58899780988514294
0.45908415958297866 -0.076870385505779737 0.24092507724910206
0.53952073018385605 -0.51372813637996195 0.70644592109405124
-0.44464123504704034 0.59612169979235397 0.67738290253692668
0.61967389834865116 -0.4085267770161165 0.73181008921240931
0.10349479631841163 -0.1372690616906187 0.80254143868141625
0.23991605693661455 0.0018449372830104949 0.74926818147385177
-0.43787842683983058 -0.086425309105564452 0.80483822177753694
-0.46821617963540518 -0.54446816549520705 -0.42515822979896001
-0.60958832887557435 -0.66940052812601181 -0.31334513763917471
-0.23991478544491684 0.48038946501635493 0.75781489312701211
0.12443605785520617 -0.18838090829498277 0.80473511268737496
-0.1982890503205148 -0.40385586430032561 0.64195911878435652
-0.42195982620661177 0.8081083129271498 -0.41236770669024736
0.46407319986755979 0.83386394371227457 -0.33500981240014482
-0.62279834679813817 -0.85328797101027831 -0.46723220594224557
0.37648115330393495 0.32690480312858128 -0.17581091847390695
0.7213425329938481 -0.51347994940739028 0.68449340113551926
0.13337799014887075 1.1345091426289242 -0.31848158971960316
0.10968233603380639 0.71235738442370788 -0.48737349321380918
0.19238454735558363 0.023166495343970084 0.75399016747476821
-0.17420353411563205 0.61684190745561196 0.73722826705619582
0.20821874488659731 1.2569404743261066 -0.4070583078623855
0.51803667844933088 -0.63460420106941839 0.43335988775844214
0.21272275686310849 0.25550054175134562 0.68751167060889884
-0.51533041939633151 0.10658071385877754 0.81276420077242051
-0.50681724708361742 -0.37540827073418193 -0.54004973067026896
0.4066957048386346 0.68367435559017675 -0.19319586224220586
-0.28240099246350781 -0.17563116023382719 0.79746993564143764
0.26264640824031282 0.77101302060207288 -0.25902656561498816
0.16855608858221771 -0.058161103383881141 0.80821316109782515
0.031758234164417587 0.4263534074370412 0.79532928227767741
0.64293467293464346 -0.4709337497770445 0.70840774858961453
-0.41098140361800084 0.024310511028524218 0.77574502181598604
-0.052494084976547839 0.93520854216221316 -0.31286727089640465
0.37162503143080627 -0.35684328121340236 0.31935389906390554
0.2240165348346963 0.92641099009740202 -0.31044895466605738
-0.41104079360645684 0.35654426350409452 0.69091370290730225
0.056599338891038187 0.36795564777329481 0.77825265492690221
0.13990874430329292 0.46725854353328344 0.68489768368917936
-0.67725491948881711 -0.9635013709770579 -0.40748085947911505
-0.45160090329621738 0.24051282647584138 0.58768580588613872
-0.74392559630249444 -0.25319386211472761 0.62632029173840209
0.30598096653916684 0.41704271393318493 0.57212836853828009
0.30003012918232486 0.2554050308772382 0.52059522472005426
-0.71058518060215903 -0.48643036739185064 0.44246307126171303
0.16104400237168903 -0.091704634935148022 0.80740376100407474
0.20139188741605452 0.98638051046826725 -0.30841992668491258
0.28481939114394805 0.10630368131898216 0.51949501288157052
0.10853075857936645 0.83118204496309289 0.2667208046421834
-0.21979336730459842 0.44192761906029077 0.76627487976570308
0.41120244238792303 0.69996035607292306 -0.21493728095502718
0.14428402978447252 -0.086188824972932565 0.76099925745023
0.91809525146054938 -0.23079252021075547 0.44447587933980515
-0.9071996363850392 -0.81423747964349324 -0.42060386415590045
-0.53397527323036442 -0.25896315511861623 0.70171022750552225
0.20287501055809898 1.0876327166284252 -0.45689225874126294
-0.21498647444161989 -0.58490398997252413 -0.23946894558861231
-0.9369081558745016 -0.69858744021660435 -0.39417866441377925
0.0067926531558732961 0.63406183598901578 0.68279327058515804
-0.073769432989788442 0.88426119105694134 0.21117094632197109
-0.62208897431283106 -0.61484668682382804 -0.22037717379874522
0.51519455379568768 -0.14704700458580433 0.72821946172724239
-0.20315788315650707 -0.33270690893540689 -0.56708873053053566
-0.30448552749457036 -0.22987867478706647 0.79628631470583144
0.40570678099735602 0.7991870835218009 -0.31343847597099739
-0.28168980396514343 0.57351129556773017 0.77451844333521791
-0.63656752380841652 -0.76090139189833828 -0.35618701717661594
0.25438808718003258 -0.1195318567609629 0.79280220763710219
-0.37838986529147967 0.63473908303349091 0.63720941695320477
0.50538978579150928 0.88290211579607103 -0.35423274040627462
-0.7187009422825561 -0.41028250496610852 0.39523887791072809
-0.1203035279392406 0.45655423033120357 0.80433642235187364
0.68039354677066299 -0.67509070145728955 0.48840999938219198
-0.47928756560415486 0.15889559844125856 0.68659643479326604
0.57012063227036691 -0.38437198516021898 0.73483474169452023
0.64412324779883079 -0.26676406442449618 0.73183589314737674
-0.2630177983793125 -0.27490876835635802 0.72740230905551329
-0.75547714443506031 -0.4328701258779688 0.56719287838775045
0.12371645871889037 0.48764330222815744 0.69946231148485793
-0.0015171885686111608 0.52543616350356004 0.76748906091850699
0.13066185749014636 0.4039690722849123 0.72068852935503713
-0.23681916110544954 0.32054919045046049 0.69960487520706494
-0.17052223810529377 0.72662296500908141 0.41041917680949069
0.12161139038473223 0.6051608646422082 0.57356177521187135
-0.46783303878762794 0.48433067877738267 0.69335316701548066
-0.34909546750002818 -0.63485214278415114 0.0037683588200252416
0.13532027056940166 -0.11520129645620258 0.80775766761183831
-0.95001244470302559 -0.79925010704633692 -0.39827190470668938
0.65965213936827993 -0.46581181186654685 0.65722863707082269
0.51281871574410154 0.68378955059639779 -0.27505214763816355
0.28584058549217239 1.2513019380705446 -0.40629888680287962
0.42958744758090361 -0.21927976209415334 0.25606599100252936
0.37107415756542039 1.045784615885526 -0.41118519713143087
-0.61609493127543047 0.33553409821956137 0.42139912263752421
0.54968781358665808 -0.2789111543759395 0.73719854401879559
-0.47411541686264869 -0.58907025921893741 0.47524071417058167
0.35876908458513412 -0.22390690117966194 0.74240119746235678
-0.36409740850271888 0.69138275445205011 -0.56818388950101451
-0.27724528366105972 -0.29719956062771757 0.72013669250995349
-0.65233906432531086 -0.92606978804460205 -0.442408804183124
0.93421082750726825 -0.17615512587851523 0.50344153615384357
0.32874328260421848 1.2814411712061258 -0.42757922886011812
0.53478984381536065 1.0538714083152341 -0.51340928583260848
0.67328285914155472 -0.66658001978182391 0.46160415273649136
-0.18450339423772277 0.34341837340424597 0.76243155648411687
-0.64550870919224579 -0.61594007655945227 -0.22229428932665485
-0.9324171424035903 -0.73359975989557569 -0.35789719933511321
0.41486038712112183 1.2512506550958378 -0.53403433193259531
0.50405251557774022 -0.38336872188297022 0.34927348880189868
-0.65412199012295424 0.087360261958401964 0.81190984748003814
-0.19352807279876494 0.52464978999030265 0.7518263000181804
-0.092547051166199878 0.27313880864928564 0.74903669606082701
0.4132142812648123 0.94097962246175371 -0.39291024061262902
0.25097772072540181 0.82502225410063179 -0.2885101827515939
-0.56619845463687213 -0.64373278969042502 -0.28110912801770382
0.28956062323652532 -0.051147768244417691 0.75181096264747538
-0.4898124158140007 -0.66134720762559951 -0.31243011388577457
0.62540910766382751 -0.42686524603372167 0.70672756121822999
-0.47196771726646425 -0.10865094132083719 0.7929038639148942
-0.4086016933587473 -0.36963087107387693 0.67017324259182942
-0.68970406946166207 -0.95030810892626327 -0.45761257733128247
-0.37192306489733795 0.27881625016887135 0.76898961484960893
0.598833627769217 -0.4474449704731871 0.72858563625867134
0.75998163757547843 -0.58749742843987462 0.56405873036861465
0.31938629943413588 0.52857757544876449 -0.34987730011038565
-0.31095027713356416 0.21727370997602513 0.80427982113569385
-0.58431124813592383 0.092965547100599011 0.8120525589435772
-0.30047575355968803 -0.26111576392166924 0.76414096013025556
0.84379749801664872 -0.15641991088318541 0.42253191299642623
-0.57687802904725061 -0.32384126831068905 0.68297737790685176
0.24680077391485611 1.0781849498576763 -0.40849498654166183
0.62893747172860159 -0.6861527446254625 0.59424684978341702
0.26330026967842102 0.80414959079607229 -0.29833793582331225
0.17729971492173746 -0.20764634882847766 0.78485640533904188
0.67395385651873596 -0.53743007442292434 0.69203470513291165
0.038818564426144064 0.3187036236002978 0.76701866915377082
0.12052715284312043 -0.1952280182280397 0.79849018542778083
0.89308199208658934 -0.14886949960959139 0.47202246583273677
0.044394124230624499 -0.29443986557391177 0.57727093858176914
0.75344184398939262 -0.37923122771565332 0.39191946097115249
-0.39462192922322359 0.47604691490617945 0.81505928545111317
0.14683770490452019 0.80738486557287281 0.5766611725735018
0.33476767638535243 0.90250759559162574 -0.34769393020581418
-0.29501239573913907 -0.05710676865516362 0.75711677504099839
0.37065608461627875 0.52676395778163432 -0.27325846016714195
-0.37140327209695556 -0.54300483133038213 0.55120132079488826
-0.37227234988766966 -0.7681428844529421 -0.19389140086482826
-0.39102911676576113 0.20729504760051753 0.63304390978333913
0.48172721884619918 0.8138291453139459 -0.28371775320589165
-0.24905505798207805 0.71958422019367951 0.65106939005074338
0.10250030326536574 -0.1908624847738114 0.77133787132279963
-0.34518102190846989 0.12877164726912582 0.80142743571249042
-0.37212195819319405 -0.24329594914955877 0.79525476403659212
-0.19041939079134451 -0.19002869855909665 0.74112283060846806
0.062467861180071083 -0.34417691922991445 -0.40033003508053611
-0.11765830694238488 0.97191879755571797 -0.13509315896634888
-0.74634595218725153 -0.663253597139974 -0.27658445710017077
0.77647836957009631 -0.27375398427697561 0.70105657526207921
0.87186430243939483 -0.37560016127807305 0.62404224472858516
-0.63949503865770652 -0.5724579219077679 -0.37046720793629362
-0.74503065106803845 -0.84043825702062414 -0.48999564839139254
-0.6439524140299735 0.62153243701566119 -0.36738550942848747
0.15945112107267967 0.83240194907481424 0.50174251021139327
-0.38556929648128069 0.39643589508872701 0.63550218932165592
0.51206920559715385 0.92063238358270105 -0.38450465225520958
-0.47089673417319844 -0.5848849936487337 0.38872334854713841
-0.090394671747510813 0.49946752261998384 0.79271908433254623
-0.80486526393598368 -1.0088572984449193 -0.43847213711490696
-0.43330717249158823 -0.43491503769412532 0.64624540911602679
-0.33705526798540575 0.31893211606589311 0.81337532596050011
-0.20831225762304584 -0.14042717934295901 0.73099642179001734
0.20556809959376388 0.77151136765217565 0.26093629022901865
0.78589948265532428 -0.31326132561312203 0.70327413137792405
0.16753848174917607 1.1545545485410127 -0.32778793336239431
-0.10716039663927646 0.68676263072274324 0.7204027014522012
0.85504445753818814 -0.40711694155166001 0.62679669716157349
0.73270656740478657 -0.31889443452483057 0.66563570144886341
0.094795707511735827 0.84512559504251783 0.21738278969140623
0.12140709940954508 -0.39277805235703411 -0.14508286875489063
-0.27555980033251259 -0.71267288252221661 -0.1990490870446564
-0.28587901812805327 0.33809577000747559 0.79095337588797321
-0.21925743178240076 0.49337895443942692 0.75574219250335517
-0.2669275596927605 0.94975034152044735 -0.15441595273700415
-0.5950548739061432 -0.41098415820292011 0.64900763459529998
-0.67053790722676432 -0.29028146427910606 0.71531690719144336
0.057741605564043397 0.4964047250037904 0.74701191218784402
-0.80602869124384036 -0.75838964395091679 -0.4052657248931979
-0.4399345304575526 -0.2713129132940022 0.76784213590811135
-0.23531773326085137 0.3668453029264942 0.71646352359636012
-0.73365967461788273 -0.98890186745795994 -0.41790938365493702
-0.046812160054557239 0.4658251306144745 0.80220233049325884
0.82195209266726366 -0.10697840538342174 0.47490462957318158
-0.47578106066270109 -0.38852285943909237 0.67155994137677766
0.64672811087640625 -0.030164301366440327 0.60193383905092901
-0.71908362902937739 -0.35019011503173836 0.45520482257802541
0.20814250232755782 -0.089174911958213698 0.81243604522088475
0.054914367998119218 0.39299187582356154 0.79122621650613922
-0.053863162553916766 -0.46195813363506666 -0.20881722997688001
-0.34860866422267378 -0.63653190497357315 -0.084711539055106755
-0.39186992841591461 -0.01633327385933292 0.7683967913372598
-0.72834077541552489 -0.34626795300086144 0.6713222186722021
0.85541703969327187 -0.4005911459862217 0.46421391753719377
0.36011204726716173 0.43600561622025857 -0.23535078473602766
-0.68621277219548205 -0.71687530841491487 -0.34628712490456337
-0.26956906911825307 0.44783699475886962 0.66474731804625264
-0.61191300395752535 -0.24217348331390731 0.70903843432732572
0.5434288254209676 0.0084433811478454857 0.6042696066448201
0.18319186702176005 0.7008133771510856 0.60122182940765612
0.29593072496806094 1.1207263383601296 -0.43988233151013389
0.44329983121144778 0.047930217982468548 0.4975063361979295
0.61120738154422938 -0.4570372030514358 0.72518184571197963
0.51949353363765738 -0.23544812014979222 0.73817935164613857
-0.71662353393114842 -0.5539348386271179 -0.15137153745021692
-0.61219138089028746 -0.65567608053079773 -0.29213598090969128
-0.089998164423533922 -0.43649935377576554 0.37439785320648156
-0.8914795648835252 -0.19338530618809813 0.12813133083729866
-0.54538277949501257 -0.051124619059006449 0.75746552629909303
0.084226091503106559 0.55986387764318657 0.67652774951972816
0.66638563727745748 -0.60495418500645393 0.42160703693472357
-0.11291272116481821 0.8731820226863789 0.21322541480056856
-0.90245332461731387 -0.74552650305271229 -0.36423050308402338
0.28805868723778616 0.66868998166256155 -0.38058726641159524
0.28969894690263587 0.13743693592627082 0.4957663020215648
-0.50587887732044834 -0.32537107450590952 0.67114569116744605
-0.42304428083047441 -0.40818751496242101 0.6656589183733459
0.3968669886257814 0.72321734825844963 -0.27016308411965895
0.46805588848067714 0.0024255819970839809 0.38370073101031466
0.26796603634646132 1.1303816841034342 -0.43788395575155192
0.084713337954216428 -0.17753093284191479 0.75185889624887636
0.29487197807699417 -0.16553310635675622 0.74533110503198685
0.77326356771303395 -0.37154475464961578 0.69771133715004652
-0.11400768706969799 -0.06040569472575541 0.74775174496448926
-0.35761203181956702 0.47736344975390743 0.52529831694818796
-0.88278837557322376 -0.89674520694119408 -0.45204368656831662
-0.28773950835559958 -0.46433582438483612 0.61796310325499348
-0.6633470878354224 -0.85215050959106264 -0.40370698184021592
0.016238803796790435 0.6751221671315264 0.67399028190030208
0.19741810331334264 -0.37056908037791558 0.62977493122636474
-0.2720225780684622 -0.17649532660976419 0.78188450031527879
0.68684567133290031 -0.65105762647741727 0.59644815679200747
-0.74113516447533989 -0.46456644522141843 -0.36423675565461622
-0.33471970372058912 0.24825072416774496 0.80031750436471327
-0.4351096078715706 -0.78745524178294346 -0.25477237085558357
0.26228240727636631 -0.30527725551755225 0.72156121886214919
-0.82148072863498278 -0.78247229989135292 -0.41962677943057969
0.21794279275902184 0.1880638203528946 -0.56839265675461093
0.72327776871761174 -0.49476115570019363 0.41036800783498251
0.070950108571693704 0.60844096300644779 0.62362400429679354
0.62175479935632083 -0.45208332762541392 0.7045062946555305
-0.20099643164947167 0.33142252346546641 0.77373397484716833
-0.45953076845452756 -0.26288928683765889 0.76283523675187581
0.060545093173370645 0.39088670792514613 0.78639228128362504
-0.37252806713396325 -0.37115967720743726 0.67360605574675958
-0.73579272859749878 -0.46199616659063203 0.49218246242648434
0.16328878164642191 0.80143005983688376 0.28532404181301274
-0.071470804921087705 -0.34980757518462546 -0.50197032153851495
-0.22476041210541098 0.52995202217381632 0.6707587742131409
0.42141172643140479 -0.21310965090115452 0.22838653400897613
-0.78342437876639082 -0.50440695580654094 -0.0072718957830062436
-0.33867205345588403 0.026261110340117355 0.77278647999649763
0.48911479002070379 -0.54305510740009311 0.38905566612965004
-0.010376022365258919 0.93428858372888079 -0.2164620780995179
0.28458982409624412 0.46138646136726358 -0.39517530950067226
0.33316009194980545 1.1279780733258065 -0.44684110663587973
0.72370419612031256 -0.31787689408394471 0.66762764929259788
0.68754180886710969 -0.61068256283341071 0.63982559698748531
0.3902408843120071 0.54558495642868898 -0.089781440846820715
0.19711731352191819 -0.20461914895337152 0.77485628023817554
0.34833899522923417 0.22982296159121063 0.31025152351214302
-0.37091314749715565 0.77778448867388761 -0.48429515162869308
0.028543953172285086 0.40515020180071559 0.80008997589728637
-0.73950663087510193 0.53621376340601401 -0.17621189528985326
0.084079312181163601 0.58901721590889977 0.67757732606340682
-0.54140631481904933 -0.30032162004498453 0.68009691785720605
-0.77304352520162389 0.28580711783728319 0.28003368782941607
0.032250779354034975 0.65973163211647368 0.67597604166692804
0.3013630606124913 0.10679204193538183 0.49567827240179696
0.21876458486813277 0.0061003643318393586 0.75585167866405811
0.39102422823129501 1.1718989623981075 -0.47817243195651571
-0.80919308734833706 -0.69705814430554192 -0.32410525848155203
0.47012575492675168 -0.14369427012773173 0.28040207831089248
0.83377926614185682 -0.19998028787931865 0.65637911072403909
0.60452476452166337 -0.21071739584710514 0.35809569679474862
-0.54200737217886541 -0.40226109475985083 0.65456703209964218
-0.90815297638149595 -0.78356104276542204 -0.49162871907700634
0.56385012731971784 -0.48843385690505059 0.71733944764879709
-0.55050254469749405 -0.3792260396014786 0.66425011979882953
-0.55734855307259679 -0.56281621126106351 -0.400077446438452
0.68789517479305928 -0.47074965387069856 0.67410357973638924
-0.62972884237600368 -0.35310791369131067 0.67502430609155084
-0.87659465831506722 -0.90384939128718145 -0.47142113849306355
0.62574394101759268 -0.40940834341373478 0.72906687784576718
-0.35523685297635055 -0.63428456941311673 -0.13961499166754976
-0.13197494651972619 0.7581997071834472 0.38700660579846868
-0.50024313470622062 0.40635085670398574 0.47255994622587139
0.2828846076108178 1.1552906123192628 -0.44559164152679642
0.46279034724726387 0.03065102109132134 0.60316870058974104
-0.3308330500650456 -0.083915013854383602 0.78850448643903093
0.11117633759012691 0.49387570654690549 0.70101668085987967
-0.10476553260357235 0.44812518435688276 0.80779724447525325
0.29588716985996655 1.0183860048948103 -0.38188382413147792
-0.18031259134171229 0.51711038945609822 0.75530013835919618
-0.31077098559587313 -0.63926069743905067 -0.13696611190608365
0.55958290405404298 -0.46342244693506096 0.36870646038050836
-0.135139997577717 -0.30531705483724636 0.69588468978245999
0.70056502013331823 -0.34974788603065399 0.66983362770631771
0.042082235792520351 -0.3278912277842192 0.46989441071534088
-0.36978283468270945 -0.40530201558233259 0.62293458801077151
-0.58559708580393632 -0.92426148148519616 -0.37224689866174998
0.35787718435486582 0.014022318823064595 -0.33681363432957312
-0.79981695404087461 -0.78414030608131213 -0.40590333315060434
0.7499280451231094 -0.3832577137001163 0.6522745473296041
-0.16570429810506582 0.39240092110042646 0.77546202071403059
-0.017931211697865379 0.35232152091648494 -0.68923886031578974
0.13715928158113755 0.37140688797279964 0.72105187781628644
0.12466193543072279 -0.26024459038929493 0.69920252037591979
-0.33761173857399029 -0.8031521227761278 -0.2696532864631962
0.10645014246790652 -0.16282063974809269 0.80438236126610718
-0.52376342717525937 -0.11109986448114739 0.75141920455444478
-0.58968910741855041 -0.35815217841389213 0.66643827982206005
0.38308819860177046 0.72332834183865202 -0.25602078740732992
-0.02134929828819665 -0.35847767941526598 0.51241224799833418
-0.75064230848888869 -0.53224943285053783 -0.08352385976645138
-0.71413545814810675 -0.57587074945661776 -0.20956638765274249
-0.41033324289170992 -0.022672830602214589 0.76384366199663134
-0.07896690304080245 0.26247271520716353 0.75499862997375544
0.29252952840832691 0.83398563357691291 -0.31981945694955982
0.050425016480005524 0.87553328186857549 0.61243175025254715
-0.44370459011214436 -0.45207525133515958 0.63543340016777705
-0.62024394307726638 -0.97798215836720814 -0.38848322298432691
-0.61003619968330547 -0.052986015017825849 0.76648539243205249
-0.0038924048123192279 0.51922843914511496 0.77329770070989667
0.44085198092889399 -0.60786271613266329 0.51272086036463094
0.2533790813259813 -0.0084809162922532266 0.76527230231621246
-0.55346448873538634 -0.25928087317512727 0.70482083668259321
-0.066085177089053815 0.54310404619376129 0.7527291098103035
-0.41689159855378932 -0.76682172318703223 -0.36829278102889873
0.0009496176794208111 0.53199972637090553 0.75486790966866835
-0.24666742471734082 -0.28377961867126444 0.7306851150179412
0.11357989928038315 0.40692104950792896 0.71324979451023296
-0.56300872292369064 -0.23466205243496319 0.7243341145534643
-0.50627549168441277 -0.61198095788820517 -0.13316284347774143
0.16720644505357285 0.27471755414053156 0.7102220466382434
0.022911400428510476 0.63111539017993401 0.68004970022360567
-0.77428407858631587 -0.61965621110774016 -0.23362557325638278
0.095081796109599992 0.53696387509444321 0.68143566486666884
0.40322689961272573 0.60450100202034029 -0.29346498915663943
-0.14920236677673593 0.76773997036248787 0.59275616182473101
0.32133399962201636 -0.51371137611248585 0.52080966868968659
-0.89136357460498772 -0.23727848058248746 -0.3405635222770087
-0.91659358575100924 -0.98389138094766615 -0.5243339172473469
0.28312890389946155 1.1868299214332776 -0.42210281575120945
0.25009688946292385 -0.029460234249423678 0.80404616248939931
-0.36888615673296954 -0.42072723349030561 0.5959617149056271
0.1827609163951891 -0.13243237700990562 0.81233785959481253
-0.68034772795740395 -0.99440056696690959 -0.40883806926209587
0.84706618221299479 -0.34972625150941106 0.43640036527267512
-0.44435353018056034 -0.36033859140747637 0.67182114009111871
0.48555083612286865 -0.19226358432891111 0.73825653162572991
-0.44541178364244516 -0.36743202939750574 0.67399321559643255
-0.39847560557672068 -0.066598165361163808 0.78813940881553179
-0.448044461697787 -0.38253563115756073 0.67553178540567416
0.29518383543535975 0.21232880695310286 0.48082590073430254
-0.24701168429699116 0.69325743230446868 0.59407459529310813
0.1199260227685528 0.8623675181046675 0.54970985009497042
0.18817593732842042 0.78618931801999103 0.42616456789846069
-0.37350534422395043 0.25130565726490595 0.68507257630284357
-0.19824653432438311 -0.49619934942222166 0.52718178490643908
-0.17049684786053021 -0.34806038453153931 0.67580206351269823
-0.51833730292507951 -0.37287746491450591 0.67295779363020358
0.096494965330398585 0.60204309135985845 0.67634952566537265
-0.89133901076841049 -0.87722840515688638 -0.45915685238119153
0.025785466451541339 0.3388327185466693 0.79286512930518427
0.46792244352286616 -0.53688818998967314 0.67705944542612428
0.30370845720262452 0.74940133298196088 -0.28652159765509566
-0.48245506901244539 0.0029539675564755896 0.69122189801548473
0.26732820846771865 1.1617915999506883 -0.42032350283088249
0.5124170211442145 1.0409161581265085 -0.41580142332235681
0.11843379809387855 -0.29194649473066825 0.63721510227644274
-0.26657465883254261 0.44557032034614608 0.76657549271078551
-0.61405481828826325 -0.081939116376663179 0.7599397898475857
-0.58662828750345675 -0.16648123307949803 0.73361377011524098
-0.56695328167279868 -0.64801968695982737 -0.29319110343307386
0.57198531737039104 0.83697889093710298 -0.38987375822949133
-0.22347922602150661 -0.22810941435568921 -0.63221489934255715
-0.647052972828984 -0.55608784835328606 0.45855102996006991
-0.82904970460231731 -0.67844670957769893 -0.29650530075564063
-0.8504758124302505 -0.78777356664865117 -0.43637565153725433
-0.37798072143667305 0.2091514486395063 0.73930055448368392
0.017236255086839236 0.30546050003765046 0.770711736828531
-0.14123307053450773 -0.31305191293574453 -0.57037715779958376
0.35787381606785118 0.74860146992244392 -0.35509509564285935
0.88074164947117595 -0.25042363339453999 0.64117597419926398
-0.24604834066658654 0.71407219098952268 0.70710041211148678
-0.19941727990860869 -0.3634371560853662 -0.53643434423752723
0.76167536173466388 -0.32483568865434975 0.71204199282988867
-0.41300977809363282 0.58138527655652794 0.63318910207733126
-0.19398986942434426 0.47775938208910418 0.73683778297720437
-0.26893107990074583 0.011118599540049345 0.76506963724551724
0.26384602143801317 0.058037873692979858 0.65850268829862557
-0.59245746367398766 -0.20325286860740555 0.72228604792288564
0.69631743572739069 -0.32227384411273174 0.69459465581856961
0.27146428141584877 -0.046816241226590449 0.7861273788665244
-0.61430392232203168 0.097939798268090072 -0.6673215862571098
-0.35660252449711649 -0.083843012180700782 0.80866309923499102
-0.6593238921305975 -0.58812522661114919 -0.16296826431665323
-0.62245050027745563 -0.62932814984912966 -0.37953398545799644
-0.37337407795267552 -0.74315651216980427 -0.19546576963997353
0.36391855288645303 1.0977176532205437 -0.43305737394629773
0.27361174033278424 0.75677923364220057 -0.27315089574170059
-0.16925918580818688 -0.1744360092360715 0.68646145408742143
-0.30171431498174783 0.50077582333290138 0.77701112035478559
-0.68740962311089504 -0.50072099511731238 0.29570785496164831
-0.077419026809131708 0.59231728928294558 0.71701365819786389
0.57787476249691139 -0.12172033601258647 0.36958232323585349
-0.65168783780101869 -0.32927348815177204 0.69368655668618118
0.44342235704738187 -0.54192122401916798 0.40685543030794946
0.11045838900284366 1.060474632522256 -0.27520251832441289
0.29387769961289756 0.76131522786172656 -0.30222676969215456
-0.25324042457846474 -0.67121333417148499 -0.19405220750739716
0.49355887420875 1.0010458536739524 -0.45550065825229069
0.16930231267368079 0.46383187687181149 0.68384912613917237
0.15958557066417356 0.94334143312454977 -0.23046532263713715
-0.61363891645163626 0.17261636857215734 0.72071870523284787
-0.49131907617125137 -0.65128939247789042 -0.31005096913101937
-0.7069884260768351 -0.23941578690730125 0.72372871398287231
-0.049094584842478639 0.24560121719623673 0.76349189407172702
0.23480201138458767 0.00094612304980934425 0.78311074229608835
0.2822741882221429 0.80889445814722993 -0.37176624392171931
-0.79752377004342101 0.4323999467854307 -0.17885287371073844
0.14760083096936327 -0.32021437840996647 0.62915432355347178
0.16922751343725295 1.0132514378575266 -0.27383494653945206
0.6048685271695966 -0.70611279692604434 0.56642890828001669
0.0074740570600226874 -0.30357728385537541 0.6097029811467749
-0.36640118185103532 -0.63226772666922848 -0.14993241221988995
0.86881346539196613 -0.23293073583606638 0.64561425191227784
-0.30852465238410076 -0.016408044120936438 0.77177108216743306
-0.32920602207303418 -0.63572717006891999 -0.061345697183497805
-0.46972583829653658 -0.58854179321336098 0.42168682647523781
0.74833750209693051 -0.33080265902991624 0.67153232921478434
0.39283730472070033 0.87551499306792646 -0.34756533394494937
-0.23812410866992728 0.53600203573646255 0.64775588426115149
-0.34315870075213439 -0.24052553856028958 0.79708739554293118
0.10931101884241201 0.35265216249230136 0.73375436541805072
-0.41489115834718859 0.15396440998237182 0.80268355989056062
-0.83943775241018059 -0.62805815262837505 -0.2771672569948862
-0.13407485831823251 -0.40599317637083665 -0.43857676710775451
-0.38713361904451915 -0.24935245856014099 0.79144801730763703
-0.42933512799199747 -0.10240032195980575 0.81239722813351278
-0.37324960570758492 0.29212762204371501 0.63240366662288494
-0.80289520091346844 -0.94981927054386439 -0.45567280023247747
-0.33831473830035286 0.19165419066779066 0.7967560449576041
-0.52632389794933232 -0.35225995723840953 0.62141499237480957
0.51024350587742973 -0.66239097024631199 0.50441651856444736
-0.60484562592559854 -0.78722618471420525 -0.36023809778260585
0.29722955429972231 -0.12756694894585685 -0.36404317164556232
0.11528297368956331 0.92240948524067345 -0.34437269037913154
0.14194094755599806 0.83268001043519568 0.17537857373386601
0.15627065794549466 0.96695969179489616 -0.23719700593990467
0.28775493875288305 -0.068898050821294632 0.75952388964633855
0.28356924830870156 0.092240999137386481 0.5566071264101069
-0.62477734600020085 -0.19670612126339293 0.72966115499682616
0.85104871272146454 -0.22468216666300478 0.41343081585783636
0.40042602180309927 0.54317034787921514 -0.12303707738749381
0.18264861411025457 0.48058204263056403 0.61358212986519334
0.71916256234300846 -0.16003788002511055 0.39147114323164089
0.027093791302414516 0.83873278946818708 0.33609802609863948
-0.53586285914284204 -0.60940097483644706 -0.19234366962577099
-0.53940474303415797 -0.14855251489378674 0.74993468721424961
-0.69454557734817612 0.12357626825626156 0.79089139890005811
0.81534356158741161 -0.47312906422674939 0.62978502552807925
-0.33595038400183341 -0.090649791413476066 0.80336481476530963
-0.49304345602397603 -0.035098636722480592 0.76852560275798254
-0.8230788465105725 -0.93261199935875005 -0.47494284237518514
-0.31538183958009824 -0.24631400364300404 0.79160075629607718
0.43202044575940413 0.7934192501286681 -0.30092036206674777
-0.69052310144791207 -0.9393780531350977 -0.45521207847672684
-0.064171776974667694 0.23398329853368338 0.76418801605034758
-0.086118767935163376 0.37669830338031218 0.8148005826945024
0.14154712928082702 0.25902252798693226 0.62774202762695808
-0.87277366734366346 -0.87867503559916393 -0.47094197047609754
0.25853222745807258 1.1033865359873527 -0.42595122738682534
0.55904519272114683 -0.048483434394123393 0.39644650059051401
0.67503617758757883 -0.49838635594730452 0.70774408809023015
-0.18167998726838519 0.38649232301839476 0.76372041503010024
-0.57407846707319976 -0.60752427634333728 -0.19500764194786768
0.37493996697702414 0.59073061278723493 -0.063614110890533482
0.41428654700221301 -0.20635158563082712 0.18700339593776505
-0.39810506093601994 0.18668847143480605 0.6563757625933988
-0.67239335672084621 0.056722009633402237 0.62264131429470382
-0.057656077486926804 0.35943090796418531 0.81486475012179937
0.41509114874619613 -0.2629886406945765 0.27213902062243989
0.13114850820039337 -0.076420295212178857 0.75113662608155352
0.7214051305812923 -0.49579266172433911 0.69300697716606408
0.70710856139614719 -0.62961049413448666 0.59972543814006229
-0.52555499697217556 -0.77223984180825234 -0.4108006913353961
0.54881822395018887 -0.19192507254205005 0.73197533195417464
-0.61477805381043638 -0.75595197722728713 -0.35061470279254792
0.43826338331333226 0.74386476296451143 -0.24125617703756319
-0.12318379086364928 0.22471262410436132 0.76326536755981067
0.20219001353276411 0.83496744109708665 -0.21289913132536498
0.059964622177417937 -0.15530095493463136 0.7579356779947517
-0.30440448074737958 0.92470382386850325 -0.28960028334331867
0.36681881127038984 0.92331382346827606 -0.3648159307254133
0.40167931046762106 -0.44607503107282298 0.70248101999883517
0.38166989671056584 0.56188686653063868 -0.046035075744534026
-0.51083171403996275 -0.077174064443658708 0.73844798954851143
0.37903797740657552 0.83767739030165256 -0.32947489430287646
0.016253021401123391 -0.086737502106009501 0.75474601385818829
-0.11179554511635104 0.099114895916549983 0.74872366840885718
0.67713907614852431 -0.43999572895288352 0.65313778234125408
-0.22110576990443143 0.42490723019439258 0.76833287512624793
-0.09765186618138344 -0.34146416831444881 0.65266545747057592
0.21455175018740746 -0.17796463689129105 -0.44186106331199682
-0.092889381858579867 0.26780101064030504 0.75564360252739959
-0.19859378575464426 0.74576952339712754 0.63710821244301741
0.46402610552872048 1.1070937870750592 -0.45826585184849478
0.39524167104064389 -0.1870398796909889 0.040218539091625871
-0.48632387938832622 -0.097201911234163774 0.76660182716418745
0.13245737859117668 -0.12827877553875311 0.81033349571197988
-0.79401203918555296 -0.86842893934802667 -0.43025736944772319
-0.36201895896599012 -0.71627685713960609 -0.19366062619705815
0.46407199788871623 0.66254433140176339 -0.2917418996420551
-0.29748129088166664 -0.54395267675671732 0.41695452390975163
-0.15005164943450922 -0.46403499993767561 0.45388983627677959
-0.014498038938462798 0.22665582280763097 0.7581711063874792
-0.18029851833913568 -0.53231744780059209 0.18376961079358267
-0.6831618859095947 -0.56098781625951233 0.076836664814130984
-0.54718525861186507 -0.22882288767572589 0.71452979432223174
-0.51383944926144132 -0.078597139167694507 0.75771691017198606
-0.040853065342080441 -0.31912575136636079 0.63703487198519326
-0.25213074014804349 0.94456858992711012 -0.28451942662116636
-0.49199427988726541 -0.42017699835391475 0.65193346399165364
-0.72670160524573291 -0.071470261398889789 0.75070549191410407
0.15951981592865039 -0.01077028134273661 0.79078418894477664
-0.41174510972023626 -0.7223047210044502 -0.28591294208932538
-0.79578981275657057 -0.99677956033789528 -0.43002119649740678
0.68828144736503916 -0.33886594656831548 0.69433685049592242
-0.067538628723838201 0.46799798714553376 0.80313794936999727
-0.25662420334804992 -0.36471130236072291 0.68196466249775511
-0.23069169438617543 0.49711487525386389 0.75438027753100556
-0.75109339829623778 -0.57752042205298437 -0.27766235245867676
0.44790603854348277 0.026204378494432135 0.41999332415666402
-0.45129898340503871 -0.61505332835878335 0.14933011749795355
-0.20193997801133179 -0.15670804397417548 0.75270213136541031
0.31228119447545311 -0.10122895729283599 0.74440017343579967
0.44586261556927553 0.7742620281660777 -0.27653096563589941
-0.93743919966682654 -0.76826122226313309 -0.3803754171947844
-0.16308175596006436 0.31423603592787686 0.76134868596386696
-0.43487633470195064 -0.74479994718512366 -0.31116762940267506
0.76730988312467474 -0.41115220392592544 0.69152644362895899
-0.93583323041380062 -0.69679090951626144 -0.36773686728813715
-0.33374181209394571 0.42974991625901104 0.80062397151011311
0.13436608640733105 0.83741804720863477 -0.38506435306939579
-0.51982216169484374 -0.6734279513966932 -0.320388661334988
-0.66554853294379157 -0.18625433319965268 0.7475373614977201
-0.13809253095576679 0.64222982344971058 0.72517206388768329
-0.8447289425481852 -0.30558007240275842 -0.38288514380096217
0.90264256512244856 -0.33651413141304065 0.48051305019305346
-0.24533086375323521 -0.031811048914782702 0.76125762585751033
-0.17738751806125386 0.47600120258697842 -0.70796947490719475
0.28621383895220021 -0.25964794400004543 0.73613352535225829
0.013516293372870081 -0.32733414529739413 0.49426575128241268
-0.31876754648648031 0.92905348137262145 -0.15530951139521676
-0.39164031926453546 -0.75127520515345125 -0.21198058556867494
0.13547570872318815 -0.3682528717753879 0.30620031080011501
-0.15265438931234598 0.21641700068326308 0.76430084281759036
0.13013553726254656 -0.33675483856535138 0.50002982588172529
0.42520441772657591 0.73865938285291843 -0.27090930375960909
-0.40266558528758267 -0.28965007883805427 0.76283571829385721
0.23260758719215247 -0.079647515399287272 0.8084246244669373
