# XYZ point cloud file
-0.03153893569551669 0.12613172226349356 0.0054651794941793508
-0.044953911323495466 0.13095611057900258 0.0059234158255090374
-0.06919675706632944 0.14424687233866573 0.041462472923804672
-0.0068190878639853292 0.13023631715957296 0.018512833039853849
-0.017813012925730232 0.12748602493595584 0.0057401477556702218
0.031954321702340249 0.10705306022764816 0.032772632624632481
0.039216936210735631 0.10533853184413544 0.018216542727955032
-0.030867626891611266 0.10606635842637735 0.040130208141305301
0.029428372535555858 0.11859598432834961 0.01969700068641167
-0.064159181806283661 0.15905781782218853 -0.016649629379605901
0.044180030140221982 0.093053018159015344 0.0058899871192021891
-0.032367450078638615 0.17007904642475602 -0.0056574851604147547
-0.085564331472581023 0.13345495455542766 0.046846533985902328
-0.069630014209072777 0.12151935017583571 0.051647945985869637
0.0050266728500600877 0.13090461368962247 0.018569152714880355
0.039786780630536978 0.10532827200684347 0.0072870637445445752
0.038311217336312708 0.10241095448241977 -0.0037983162152590566
-0.091569135509796729 0.13364106263969899 0.01686145833016206
-0.081964560146954635 0.10675866524553135 0.030641447413032319
-0.067850981332179261 0.15564659524256375 0.018087855086157401
-0.080268459511046109 0.15227353801590382 0.029976665521434409
0.0048428729099193601 0.12233740958973727 0.035298377054042707
-0.052261407867539078 0.14459871611442232 0.018747261481305788
-0.078806940667591308 0.13193747313366921 0.051236691331948192
-0.0068653445945336955 0.12773487057513344 0.028056745525924853
-0.048519175750710519 0.1289407443762568 0.027134450191582227
-0.081666099311011209 0.092656557220798352 -0.0060675535546717008
0.016444475645164491 0.12762919849691878 0.019369185567882585
-0.090440061684173956 0.11992939087811527 0.0063265913655465855
-0.030202570455483801 0.17869098176399867 -0.0070885169757681776
-0.080595634138513894 0.14313387639691511 0.0426645609158256
-0.019132077177128171 0.10810092975463392 0.041806555098003129
-0.020959779318912797 0.1815820978929189 -0.017417292520102601
-0.038191715825012684 0.16769364296587852 -0.012430316729672208
0.0047527522876475992 0.12790200477075675 0.028619124095536241
-0.044022251782632527 0.12971516894189772 0.017754228733525279
0.017716497096548212 0.11976714641288766 0.033191205856358597
-0.044707303477821703 0.16664370713576326 0.0028549907514823225
-0.089739186558986939 0.13197157246283864 0.0068176414931819806
-0.058166894392220447 0.14449865094236658 0.031727798138653895
0.043506567539867147 0.09364882449901557 0.018457814473689105
0.040325286372011493 0.092307928330067957 0.029334583582942164
-0.057082184617378573 0.15410954550273515 0.017178173626496207
-0.021244872291008243 0.15955108541615071 -0.0064596899827866761
-0.072375262638086024 0.065492563781571422 0.017525935924206593
-0.067799019474249267 0.15481287453700132 0.0060049843269622816
-0.090840164805528811 0.11806695767016284 0.040850662123184334
0.026181482092361152 0.11792985985977877 0.029472344654181359
0.041613277145062355 0.091953095254113326 -0.00479499617964807
-0.070267609311735035 0.1649329564401455 -0.019218714680060645
-0.007203241641369984 0.12251512035393797 0.035333902978638809
0.028942311086508798 0.093296822377247568 0.042815825282986664
-0.018069588152047067 0.16194281221920714 -0.01378124179482465
-0.076091484688534772 0.17098127392225126 -0.040868478786186602
-0.084964046889992373 0.10511485568495804 0.0029662000773715835
0.036068578002117047 0.11051902472972597 0.02161151526122862
-0.0067685497175977716 0.042815245601972474 0.046789015115492605
0.0061040058909735961 0.0438321302430843 0.046819317561091589
-0.056470504126901466 0.15719129134180132 0.0068952529379731065
-0.091291175580737183 0.11832681406036716 0.029474207912916217
-0.060238139715255379 0.1278861475025751 0.040004673053291917
-0.0183150997498287 0.12741217792010107 0.018405794028166556
-0.067473715331442752 0.15326890978107544 0.031058657535033785
-0.04423338629068585 0.16907720733964104 -0.0049421145467432037
-0.056944307192197563 0.043158363508596254 0.042189621673830224
-0.076319957122580884 0.15685143458485562 -0.016775496337163576
-0.044071362702527095 0.15569118589880293 0.0066048766378885571
-0.042488357683386546 0.042140078385502933 0.042169923155546796
-0.026101180759728337 0.088451446738823214 0.050435509196175676
-0.015029208303254049 0.12605172824155686 0.027135809929022869
-0.08763332853203154 0.089639273026452471 0.0063738317102011166
-0.069064251415682398 0.15737784714330727 -0.0066790809373720172
-0.067959718681689818 0.14255663130143004 -0.0074993735027248931
0.017713769240799926 0.10621237649290383 0.0423552747541458
-0.037272678253955749 0.17085186547718212 0.0011954087764987076
-0.06605823079704265 0.11701210379063787 -0.010001425095105265
-0.067965843090435407 0.17013613781082604 -0.043389240590346656
-0.091240395055183443 0.14549286983826104 0.018905942557278621
0.0056751577365496964 0.11568648665427117 0.039430013724089719
0.031014932213176083 0.093399353396058538 -0.017125096979865528
0.0046427267967866781 0.10575245335437644 0.044076074726865144
-0.071498543924459868 0.13005931985735864 0.050196383237746334
0.0052650399689033733 0.13080098269127116 0.0065366636531738465
0.018120778654693193 0.042523402490785789 0.042582977708485403
0.013719105649451668 0.090901148806954546 0.051456377506871709
-0.0070028453912776012 0.11520144680039779 0.040688688636138171
-0.080750920205916676 0.11769539098681558 -0.0038699076188528636
-0.078687789361219451 0.14388817717045199 -0.0039126688512143293
0.0059189224107480953 0.10641728884963408 -0.020371767915266292
-0.020108098816015718 0.11961325874584194 0.033192049296142834
-0.0065325825605581089 0.13011558244498922 0.0065666709603815487
-0.089797258458772511 0.14215776323499629 0.028888867872902679
-0.007836378561493329 0.12327956201111057 -0.0092817316692035412
-0.068846202566731574 0.17867177576717752 -0.053900871938517447
-0.030461902759601922 0.12401305553928121 0.021280508689374367
-0.085480535029979987 0.14836911794583207 0.032727127056939809
-0.088432998521798978 0.090679662820708606 0.017315152746991469
-0.030651608922470097 0.12229079139900201 -0.006069937335712039
-0.031389174365503703 0.11772611723288995 0.030867339119852844
-0.078732292303481555 0.12009412683834186 0.051183232768377662
0.032861711851496445 0.10871288481384112 -0.0066011339595251073
-0.066874315234569881 0.092847751737343942 -0.017235662955754183
-0.074795252883698926 0.091099366843312546 -0.014148193129657205
-0.082350954291183998 0.094757177595851005 0.030602998990217678
-0.085629435811033994 0.13649483289309206 0.00176281739432671
-0.029323888925595787 0.041757966394940671 0.051003202758780342
-0.0178881935645957 0.042408651567546696 0.051415559938010835
-0.065201190698086053 0.17081828120799913 -0.056302696029052801
-0.030383102392972705 0.17064581215940244 -0.015845472548382311
-0.056969557307830709 0.13456437991435755 0.033178733245405434
-0.067426142049642035 0.1324829383276408 0.044713461128846221
-0.04291731088942552 0.15515833850952443 -0.0070433950066459694
-0.054540759215852996 0.071273483272314642 0.039304717616947427
-0.040574414063858977 0.090786376222170007 -0.022687538774704197
-0.018143674325764469 0.091964573832356122 0.053789123634895741
-0.0069707872949748007 0.0938486756033311 0.054565833725335633
0.041766125023783518 0.067503702313606362 0.030150288659898106
0.028029909395537844 0.11705002495152994 -0.0030625585835255542
-0.03312175696396269 0.04506007819285418 0.044708550412549286
-0.054502865027832859 0.11818908929164651 0.035387854546717445
0.042140150509843766 0.079926654334184222 -0.0051211044273149486
0.029541566979439993 0.042858031024393672 0.030722215789900975
-0.030956284168864645 0.096045439243292896 -0.023632872916934278
0.037159288514072131 0.10519497354767304 0.027549364326648895
-0.027748124020975151 0.090668316114762448 -0.029053855966534425
-0.0173459500478782 0.043854612426712625 0.04301700839541911
0.0033815714504876748 0.047841056037310925 0.050205033634381779
0.042969448766528862 0.046186371495122613 0.028218706793127657
-0.024151209457912715 0.18093019801666255 -0.010416188180569774
-0.0061131874784378093 0.056495821813598357 0.053861611933588183
0.0047345331496287946 0.055719563748470757 0.053374220209655876
-0.088093364534943985 0.10540209369239617 0.016843688436683379
-0.056140519835625291 0.04698179739597752 0.029947016686815431
-0.029624454819759727 0.054302464426258523 0.039605734635264289
-0.0069378279683426358 0.10571295481923115 0.044470726005577887
-0.021573471054054716 0.054686061601471159 0.044440602549254082
-0.016504434166245474 0.05739995861599001 0.050782449773199456
-0.057053964304334404 0.14607210051489961 -0.0024190417382849994
-0.093065810782535396 0.11862977447983447 0.017605421481428518
-0.061722199469505634 0.15815996864320014 -0.029028802662612652
-0.085474915969740883 0.10646774537448789 0.021312440601051419
0.033209278121549057 0.054300953114181261 0.03544972604334462
0.042274747070659702 0.056324888876172152 0.032036146921009312
-0.044027539043722697 0.11687833669499958 0.031815924567537124
-0.067640706828139052 0.15651651259499977 -0.042423915743183049
0.026103532654502826 0.10313125565314729 0.040430583384865493
-0.030065380196365066 0.17823345328819606 -0.01376979299447334
-0.076330460408478906 0.090873266398035057 0.037887804173129869
-0.019910861052953366 0.098386915101635997 0.045871601570577569
-0.052732426840555346 0.056678625209548916 0.028883486917552936
-0.043083255915662422 0.055508984955614404 0.038664358576707469
-0.083782620802055008 0.1151106944162007 0.046513104737011313
0.013333345116005146 0.12696801048446271 0.027095339214911363
-0.039465535030669741 0.12346994903198183 0.025193282587229859
-0.060051860500412779 0.11947778816607524 0.039945213635531163
-0.069931335119098215 0.15400252265882985 -0.031089428937602803
-0.058306928595362018 0.15206640277845251 0.028723582147739624
-0.047807645406697907 0.05629002148141915 0.035803568489513493
-0.011336750021789577 0.17949186848401422 -0.026757867263693669
-0.087846776080882205 0.10575523775962237 0.0080159757547906274
-0.079292242202888441 0.15349951685609009 0.0065782788415897908
-0.030066571385440333 0.12585843554590792 0.014965493381948747
-0.082217414941115563 0.15383600053450797 0.017768650637572492
-0.078950376179822923 0.10399947138212073 -0.0065813057381995943
-0.025536720793089551 0.12268068247125707 0.024896795098579227
-0.065849840175566277 0.15979908870132775 -0.053133291255100246
-0.077878737284307942 0.070369932766183863 0.016788146609002297
-0.010227706917063761 0.17308178587841183 -0.025549919394398435
-0.055817450786426859 0.054749987712502279 0.0068769412588880474
-0.018542849253752602 0.12217936184255052 -0.0073384652645218651
-0.069432181928819281 0.14612299461684219 -0.017941916828534632
-0.041176414738817058 0.12307568540842684 -0.0093970151480220476
-0.068174880133680782 0.1479556866087709 -0.028609715459779417
-0.053412077855140794 0.055542979967230566 0.017234011798056947
-0.017452881187074221 0.068116915726128435 0.053113944584359363
-0.0067508066996923022 0.067636340791158545 0.056522658721668062
0.0063205437130060549 0.067304741307152249 0.055542761168748456
-0.015244310000324779 0.11673721299972228 0.038248701746715463
0.053392774167191792 0.056112728423542646 0.027214391626697809
0.0041164794743761002 0.093040753128699083 0.053997312040575229
-0.0431779834678091 0.067307742156642036 0.040458186351047587
-0.029512615580997825 0.067989748550328133 0.040849275968551702
-0.038365346805087963 0.16168602349476158 -0.012248231480513239
-0.055933731151100341 0.065295847347671576 0.033729356751048156
-0.076290274515766865 0.15514175783176165 -0.005825341518183258
-0.055015486459735197 0.12233591136389232 -0.009432099948580408
0.017659318753004416 0.10620828090867873 -0.017967319929748093
0.05283477879384102 0.065949869922825477 0.027104697740791384
-0.086289671861841999 0.094191134549508893 0.0023919489841404129
-0.076196115576730228 0.16138276061650425 -0.029600735356773988
-0.044165990333727367 0.12727033250175268 -0.0030871337760198791
-0.031681251046391412 0.079672607331103484 0.043409098855976547
-0.054366311562741076 0.10629913240897138 -0.018667565964018529
-0.07185846767614934 0.10987913572450803 -0.0096859537613693814
-0.054545967311425803 0.092011186139778434 -0.021412460094051622
-0.048754460662318366 0.065884051007878086 0.037008535961266187
-0.047769014361056628 0.14482867240965447 0.007197047735270079
-0.080152384651059227 0.12931269621224895 -0.0048642290936034005
-0.041307625652712066 0.10594294826751482 -0.019841407223213925
-0.0057285798669847177 0.093431897446316969 -0.032608598449413884
-0.005744910826925187 0.10629234454953995 -0.02182649985089069
-0.030035771073878337 0.15803957510856204 -0.0055820798991907949
-0.017478021172292135 0.10639607112661154 -0.021496924728998446
-0.0891193952857946 0.13722401029784292 0.039219192674341263
-0.06727830742222185 0.12814480563298136 -0.0086783766082556557
0.045814363375280553 0.071796252001940952 0.022323440174143894
-0.040713732849957496 0.11710179454495895 -0.014446585705393478
-0.011256835434833135 0.16738617431675473 -0.019015879200072527
-0.053652702216372083 0.15710005865730781 -0.0024623515328556778
0.0057517982082812003 0.093608647090788755 -0.029778047497156401
-0.076939156850835078 0.072511362840096294 0.026028210461749746
-0.062507416799985616 0.14964018606612972 -0.014837424791970699
-0.068487548846904556 0.068391831644075807 0.030091557106720401
-0.053582735343868371 0.080924798044064938 -0.020492581794667286
-0.043936435568718624 0.078719615697908085 0.042663664607642371
-0.01928240079786403 0.078802007160728604 0.055775562759569075
-0.0068593935168896891 0.079320816804402061 0.057975959891530815
0.006105468811848036 0.081108893676467564 0.05614453125502461
-0.085155818054925225 0.14556654731171659 0.0057875268243803291
0.036362590402047923 0.1105656188083276 0.0035396394292515065
-0.068335685061773344 0.080047603576836379 0.040245276345001635
-0.056064700232726916 0.079012391271985893 0.043187657856833539
0.038080445120886264 0.088464572955193499 -0.013163277839357779
-0.063785739833085775 0.039563890771654342 0.038847303752507445
-0.069758721908352306 0.16821321824545177 -0.031053698204660418
-0.061774346036631012 0.15545282228932733 -0.020540478209076896
-0.062007991019354836 0.16213626043022178 -0.039325882412891477
-0.068897066590759559 0.092022562755795012 0.041832714747544131
-0.049860314190795174 0.13894912757350208 0.015036377190474681
-0.078773015118042355 0.10966293838752172 0.041476276878261276
0.016984809622242358 0.079261516967086609 0.052308184565029947
0.0050025025488797947 0.12371515774428687 -0.0092992565265912486
-0.056051465975164305 0.093206038689747861 0.043987124219335705
-0.043638382744216608 0.091858791790416228 0.043166533764024573
-0.030470318858335399 0.093790879369101687 0.044533069246172508
0.019559565803450751 0.087087713736626271 0.049749824624574668
0.016458134842616268 0.12766613756517786 0.0059567658780212973
-0.02862285693968647 0.10677679392263217 -0.020580475925291331
0.017450272304223358 0.09475068470932968 0.048321375082598372
-0.00591300904914005 0.11669701978328273 -0.015511074909818845
-0.053393854415954012 0.16224140684108412 0.0033736295942377037
0.035626899846797899 0.096164948039861309 -0.011285533000293002
-0.091513830990020861 0.13086979039087965 0.029269257251820502
-0.068252453289826875 0.1065500935683944 0.040142122285716342
-0.044715498149610067 0.10461529955509763 0.040168869959329667
0.0064307627497166564 0.098226545172814039 0.049304142695087316
-0.055954356178386622 0.10355255522684692 0.04101235877978926
-0.067533096914498492 0.1152431882194026 0.047204047211898414
-0.050446894382904062 0.14003201198731896 0.0028288105546896425
-0.055460777310711085 0.13218031483056059 -0.0047378502512374077
-0.015383961090779552 0.18169413376936905 -0.025311085111083487
-0.030010239059276356 0.16155506525565333 -0.01369726930066717
-0.0566679326531776 0.11091459473871657 0.037299649023561976
-0.04158188732528767 0.11019562916671466 0.037167789950268482
-0.032679523178581138 0.11020161760305969 0.037216359368732022
0.023840165019698767 0.11055855515009327 0.037611980149976132
-0.047316520505178872 0.14714411534689209 -0.001890481119082299
-0.018380667266647666 0.035293325268027309 0.050456934314375923
-0.018441325418201759 0.17027976936049949 -0.017277845386868274
-0.056499413142146571 0.034898423290297464 0.041630725697891613
0.0057435794192874923 0.035300434645000656 0.042004013990155409
-0.04246689814276372 0.035169841108661282 0.04109500861407489
-0.065830105944453821 0.1046731021349524 -0.015096294099203877
0.025411897095099167 0.046152257160663734 0.038331424902594335
0.037971789504887443 0.082105491812313747 -0.01350794304437164
-0.083910130743838462 0.079542626938725047 0.017993867170637667
0.053016630860972969 0.048026053062942942 0.018702219802371189
0.01812253964625532 0.053738990152122912 0.04642139736467743
0.0071509724107897688 0.11835655321568239 -0.014656021110768469
-0.032119026915469306 0.15677398913141005 0.0015559816910952762
0.028071675228197757 0.05706181257239884 0.041101547192333943
0.057787594746200988 0.055423131241739809 0.018652596590232662
0.01719239874339773 0.090272652020130795 -0.026412284532254637
0.013955673727418794 0.05865426978144106 0.050376593271470371
0.035714289468370852 0.091896706168861253 0.037349686105325519
-0.020532206361995153 0.16617561062573982 -0.010489565345364271
0.014247699122611701 0.067763256502613056 0.05235874225211723
0.02027907395671924 0.068183090002939539 0.048791954276275584
0.029147155150504367 0.068127661957895547 0.04236475082482638
0.036142330838269787 0.068037285179680551 0.037159250073962813
0.056949544011920761 0.068585058822676293 0.017877181395303365
0.031898207082013075 0.078914592169267439 -0.018654468456302364
-0.075610107770171187 0.17542467904721482 -0.050418565457047593
-0.064914891054504764 0.060722427520575217 0.016962930079402527
-0.080357868073489214 0.081163395165161245 0.030067215133335656
0.018506763663655001 0.12160556378103726 -0.0061506040347387714
0.02977105862099283 0.079624199177907529 0.043706823027126696
0.036338147471975391 0.079384814310489049 0.037414458918556548
0.041170163710350538 0.079780650455878788 0.030263668657623199
0.045445836559025565 0.079635805767657053 0.018481905711193125
-0.077993191641964388 0.070670908509142927 0.0061962673953697145
-0.029236541980137476 0.1159004671603564 -0.01446294869111231
-0.086640973884760109 0.11320028041268382 0.003729734542776697
-0.014755860800895082 0.17384649698777921 -0.02507650919545612
0.018151937312835931 0.035694962791832707 -0.0058971107263041667
0.017074015448277802 0.036374419793302137 -0.016189961757548499
0.019302968979389989 0.036127394874834295 0.031378971177208781
0.043713060830166572 0.041602698063514132 0.0061534182968296935
0.023211778303871555 0.041092012114011367 -0.007803983998428965
0.019931316124642162 0.043303524007740735 -0.019096077380302834
0.041747969270716778 0.046142173631277816 -0.0031740010015064435
0.043634311975402129 0.041628569448986519 0.018077181490956384
0.051308935289177793 0.046893427262037046 0.0062856628541947401
0.028374863796607697 0.1054282535327532 -0.013485288604313528
0.031114646738856333 0.04500261875176792 -0.0059307683458404981
-0.017775408990534092 0.095008902141190954 -0.030569787534009074
-0.030037415778001675 0.034719713776203975 -0.028895352912524763
0.026664009094546803 0.048102332500152722 -0.016352386847495293
0.055108855456951211 0.069049082050947619 0.0066127471425743156
0.05208650801339898 0.055576267242416155 -0.0019186823686714316
0.056620688938687103 0.054708133879521559 0.005729650643083728
0.042994332981153072 0.055814343970022384 -0.0055780447683673184
-0.061561036236863931 0.16724336837620346 -0.05236760649409089
0.034454121922417813 0.054653641515220452 -0.0091149958479770365
0.030019714681701282 0.056548095713742419 -0.017250992275662735
-0.017707058798308029 0.115943558613126 -0.01541974450015382
-0.040240022452940449 0.036122299064047403 -0.026991513419607704
-0.0040408221199260685 0.043516807912702293 -0.027470837114482949
-0.06503177506850899 0.034527266092489239 -0.0050139486774691822
0.047272580541309228 0.071589785753499391 0.006082830938112016
0.025229678227147501 0.082906086931375689 -0.024070086458248596
-0.028517459158758141 0.042988390732708992 -0.028716099700229591
0.022548534846004387 0.05210074287815869 -0.023431926491858657
-0.027119210484698009 0.035184501697399617 0.050497645837328298
0.015889250417998491 0.11578458734474728 -0.013831129454845215
0.032075825817796333 0.068447849120189086 -0.017890185463958819
0.041848924021160361 0.067943941667607866 -0.004951085570565672
0.05141284240698174 0.064185858077317026 -0.0011157036481757032
-0.089851373295663839 0.12771701980606165 0.042534364023255167
0.045565104717928406 0.07995687494283088 0.0065092873045686783
-0.070045986392509363 0.14969451570058812 -0.03862274346433936
-0.041662238717510958 0.043303850750862627 -0.018158299578410642
-0.071672317993472734 0.17755755009322527 -0.047124282247889449
-0.075725377943505201 0.17734459292804694 -0.046853758643371712
0.02966248825027229 0.11858623042985406 0.0066267952778806816
-0.076986711522616269 0.16735236346891369 -0.029684299296429684
0.020469975141275021 0.093181816455562561 -0.023177233801490726
-0.026057428737933264 0.079695426459001406 0.051030550380201545
-0.06407121658492998 0.035384501540240199 0.015400069855472154
-0.064021793312492581 0.035072344910370146 0.028626241548128872
-0.063786552321480228 0.041419287025495799 0.029684609106983117
-0.063748049334146351 0.035172381410143339 0.037976032943349614
-0.066392351216191137 0.034137771979669496 0.0050429646576282128
-0.066860685402014508 0.041925629423269384 0.0058862492729463423
-0.056605419825616399 0.043187211431944816 0.019347432414506871
-0.062538783735174408 0.041479240868306788 0.013450955930965902
-0.058456756759028505 0.047215048875565491 0.0056222065120909992
-0.023681235498382081 0.065570494490455489 0.044971605123657499
-0.063441529818899944 0.071452597234458959 0.037454941213227899
-0.018338053039482327 0.081314643246335971 -0.038387532111701539
-0.041281085764002357 0.034683385969023539 -0.019732485634288754
-0.005755440692547853 0.035106200624798301 -0.020444854991136907
-0.064399432034047077 0.040968062062902155 -0.0048015927175673045
-0.036958068173399528 0.042268602734697347 -0.026896046193486178
-0.054433847017465009 0.043466045750801485 -0.008246827846672744
-0.040514120809630128 0.042277533416451907 -0.01052109971765014
-0.031059861844173531 0.044967197406355797 -0.017153695955993475
-0.029704951999151685 0.05660009173752123 -0.018804231290953322
-0.041892231467247076 0.056377194579012468 -0.011718668162999712
-0.05402770846733207 0.056764946660523896 -0.0058496577482662904
-0.025023381804061939 0.057217459894952749 -0.02850515905213924
-0.054878925481554597 0.11733384983058082 -0.013385626693426911
-0.017870584333722794 0.055058561156231867 -0.032045786987539016
-0.067781184710921982 0.068678871772109074 -0.0071239364507256209
-0.072205884191685721 0.065366359050317624 0.0048821125210001259
-0.01959703283825609 0.067628754436362626 -0.036642428659355297
-0.028017783235361415 0.067704995044282179 -0.029226539291988596
-0.031870800523165377 0.066684358831141544 -0.019742379681808475
-0.016413799919321015 0.034788043694771731 -0.026257775000553041
-0.076417906867252694 0.073200821329355015 -0.0047216955384667969
0.014588236635412977 0.12614642791780162 -0.0018683828234034028
-0.083772637503417124 0.079894928351570749 0.0046682874685339826
-0.078429994002206072 0.079773978387651545 -0.0069931883006288942
-0.030015512197595351 0.079698468130426137 -0.031337352305578547
-0.034702973038601814 0.081957789756954225 -0.022804969308642065
-0.067139012012119137 0.080132880207826607 -0.016897211663211564
-0.049890213315054943 0.034491326542327116 -0.013593339397502735
0.016693749454812723 0.080869100909832015 -0.028808386828558352
-0.013623102395318165 0.088213781755855147 -0.037874958849930529
-0.016048414675765343 0.043696628832093132 -0.028552273149774599
-0.018836976854243792 0.098079882359097259 -0.024600527126911631
-0.054221774176223647 0.033898122092860805 -0.0069306543240403862
0.0072929952828770794 0.09809476199592615 -0.024140881498256883
-0.015205965451636771 0.12599724309840876 -0.0020381992738491839
0.018311044986850655 0.055711631651409133 -0.027071725227575505
-0.0086418809368540295 0.079753850428666229 -0.03785402115863834
0.0062565529249217766 0.039633697573200233 -0.022009734784324886
0.018216330055612184 0.068384854440154963 -0.028624216467325381
-0.0062065688652990225 0.12803291143124074 -0.0022560685713670647
0.0057520183757368004 0.12804982434002687 -0.0024505150051981062
0.0065976822705415827 0.035161644132326253 -0.018029341097785423
0.030186217271434224 0.036383710645032541 0.0050562164373970653
0.0072461210533053544 0.04645784663179231 -0.026371519535688948
0.015209471231920735 0.04786155289309757 -0.025048645769868205
0.0069829784278795382 0.055979298091891283 -0.030344397455700833
-0.0050359770291626971 0.055078809040472243 -0.032682155875635277
-0.033738892303366796 0.057339132969312812 -0.011816016017230702
-0.0058587629905718641 0.068369332957729179 -0.035879744609971564
0.0064851097896897469 0.068051836813333266 -0.032732006440544859
-0.0559918736716426 0.065247894738870271 -0.010064790483380159
-0.041370826859829068 0.070146231412655857 -0.016434807657531136
-0.016485986849952838 0.070902248458332484 -0.038254564537093416
-0.054593689830788494 0.072389584120936656 -0.016528579082206063
-0.062752657969444181 0.071323378566210294 -0.014354253446771992
0.0063808258646843585 0.079435973007356053 -0.033631691803967634
-0.0025790603559346925 0.080806394976727813 -0.036517678506515105
-0.023915385523863297 0.081772241071512597 -0.037117352237422852
-0.040407530136528647 0.079270365660328301 -0.019973401513989186
-0.072576940663437672 0.077681811388803701 -0.012748955595166755
-0.016839418914039173 0.035680825561366425 -0.019878303709667589
-0.030274149732064326 0.036205486264649811 -0.01844038780348245
-0.005029787334649094 0.038548231626594265 -0.014706381102324251
-0.016674226817228743 0.038639224772642478 -0.015759410490428394
0.0082982055676341648 0.03600558491424255 -0.0065694908914610828
0.005070314710622803 0.038826057623252974 -0.0072532371439986143
-0.0051150881987177543 0.039325095150818057 -0.0061007638641346063
-0.016686225199750826 0.038939905937105501 -0.0061487881743440553
-0.041828054571390272 0.03439775596016903 -0.0062661879822536459
0.019387028055567357 0.035539406522099193 0.0050439721106914082
-0.028876535887366939 0.038680478908147076 -0.0062601205397423421
0.0056972613005422668 0.03521803465366824 0.0054855238136712892
0.0016939242125740828 0.037965855457483877 0.00083392937937665224
-0.0052284300207289247 0.038661456136483863 0.0057250163499318329
-0.041474653235778258 0.034515109834123314 0.0053076688398265848
-0.01715195881074616 0.038590787714252728 0.0056865279444517913
0.028785803908128127 0.036235650319979773 0.018904269649408389
-0.053919940749618034 0.03377749823753573 0.0051032873204854834
-0.027630448737655078 0.038392169099737861 0.0039986571501733348
-0.00041572399289768747 0.036064471670115616 0.010192508231809061
0.019518990292372917 0.035539281378824561 0.019713528329321051
-0.033331344275825181 0.033986586091967141 0.0066576566497305034
0.005714939370776162 0.034912404458196211 0.017888871280867136
9.3363380902711235e-05 0.035462033367562706 0.013263644229964511
0.033430578658593335 0.03801060725933858 0.021227825833666225
-0.0054888480160609765 0.038437930086713368 0.017521972114931561
-0.034543497492454778 0.035220419530576419 0.017309596929987903
-0.017298293914719376 0.038410676988959058 0.01750366177898699
-0.025600427876752874 0.037944782442790204 0.01730573274830105
-0.055418497258784671 0.033768322213913904 0.016779381695374518
0.001413166037465996 0.037925684140648008 0.022226132387021647
0.01011782659960625 0.035773310587685736 0.029614874746781483
0.0055921525665131311 0.038795137715926464 0.029599227489170321
-0.0057854855838189723 0.039088297894306456 0.02974733559741094
-0.032603367559838392 0.0356327556092354 0.028734742413878411
-0.027437647608881677 0.038359031350124195 0.031876702759918496
-0.017616355865446964 0.038742045748317078 0.029312080170130539
-0.041391009766741038 0.034449052392712676 0.029375962944033329
0.015080337331097038 0.035841628513623935 0.041283904162101814
-0.054759996524590182 0.03428557689709788 0.029063150563651163
-0.06521594205704162 0.061104925550208855 0.0052443909727790672
-0.006590840741180104 0.035166979707441981 0.045179451646839119
-0.030574216797984222 0.034810660475694255 0.042825150933067491
-0.018031517588146029 0.034899383852170174 0.045539084001208874
