# XYZ point cloud file
0.51063247744079932 1.0472729444221049 -0.67183582854357982
-0.69262643994976947 -0.82602013053506473 -0.15379176336987563
0.25878468485382289 0.5225777608305946 -0.23004954686690382
-0.25368988939212489 0.36660810357199058 0.52192433445202568
-0.31893094124375576 -0.63858336998405418 -0.15943119463181901
0.91447595423528938 -0.48354021648932699 0.46896590793286436
-0.65400789902085765 -0.16250355245092862 0.88818159823327758
-0.084966118079019992 0.55254199741595711 0.24287359060626945
-0.31298868926475132 -0.26061214565968904 0.83991161656409841
-0.49492576657205078 0.43682212839831291 0.85115773395124161
-0.24640772185079007 -0.10487813904214427 0.89066472810859765
0.17205341444538691 0.92167277528083136 0.14129221459706331
-0.021594539522073131 0.10507383867164166 -0.43908218671560162
0.52646441160598378 1.1392823980829818 -0.30804731636540272
-0.13859412168130003 -0.52698383253102987 0.59723065346736348
-0.3112065201284353 0.77432796451375363 0.58095739348107767
-0.10748930853783645 -0.21718868908151534 0.58902436677522063
-0.23077495313798302 -0.025476979115732101 -0.5851763682431681
-0.29366831774612012 0.55296190319920369 0.68171407857877653
-0.277844101298098 0.64795941521771239 0.57071311813717229
-0.10792383366715352 0.90117874329526582 0.24918255627090613
-0.24450367592034095 1.2017589780058382 0.52689395871845268
0.27826775281921623 0.20002431376640906 0.83858607724136736
-0.6518053456097378 -0.62257880128494691 -0.24382784757464523
0.88333126522214656 -0.43094410094750679 0.71685030884425038
-0.021728503816873523 -0.3177037949709991 0.66464233473776391
-0.21310633551390168 0.45315571961917533 0.71347524364155368
-0.5822751301544824 -0.49870636233266885 -0.5587887014148446
-0.53442281946988768 -0.46997808780283479 -0.15442623552573626
0.068684693671823172 0.75211573359836192 0.75762254809334384
-0.44559188298557961 -0.46540959295810058 -0.18715658454876227
-0.34742983317375298 0.39597284875742256 0.82537072514826471
-0.072957667851379249 0.28430755293929488 0.7807435008521233
-0.23200642073672417 0.17108621631252707 0.79611540193089381
0.2160962020835433 0.52210978892838256 -0.12026403865479873
-0.53185412222477724 -0.42540925724543577 0.13364904727809529
0.70275049499184017 -0.54399317908225209 0.66843537654376861
-0.84440095544606319 -0.25261264960187235 0.63790919048424821
-0.25465859333542262 1.2154217466571211 -0.41586009166408233
0.28093766428010447 1.0063236893304053 -0.41645792392914016
0.057081776705903753 0.69966144569715949 0.5445138809797555
0.55034852763514963 -0.37859497127798902 0.73868430134351692
-0.1642796968702489 -0.0485837042875914 0.54310523468871785
-0.488490345802782 -0.29482410945958137 0.72875443813188401
-0.47185789756626872 -0.49475649346790007 0.45964879730687014
-0.83561489247498089 -0.057910220600714934 0.73494174223420039
0.10586235596488125 0.69137016799708439 0.58613747616863532
0.53428442178415037 -0.43268615286994683 0.675787324117612
0.11643423865630542 -0.70373998704337848 0.066752439526458429
0.3824133548975005 -0.51727990316812456 0.65982241053217783
0.99996171042544058 -0.29844841547350498 0.55295537993622934
-0.53966831052559916 -0.59153452871837287 -0.50688994621244543
-0.2171529873173263 -0.42550197255359934 0.8533694699989367
0.061701415893727907 0.53184996579833776 -0.074233699817754406
0.052226811827912778 0.39760102923753626 0.49527808390346367
0.59864689707045704 0.1149345604367189 0.47371488671115025
-0.77749570736915152 -0.32555745842267036 0.67749412357590311
-0.12479080473116821 -0.073649415072016389 0.91902942920313757
-0.52494921563978014 0.72530697421426649 0.67150590632168861
0.10477325800072868 -0.06050450987969791 0.93659847496171533
-0.53895189969220769 -0.25410429483137786 0.62276807683981539
0.483167058982505 0.76654306188591592 -0.50823341482345441
-0.02696703944426615 0.29703123162265599 0.77370451715158528
0.14708599765049113 -0.048842248116875098 0.88256128133156619
-0.24633119434283213 1.0741356080713687 -0.23205327096712991
-0.52558069010349173 -0.68832041428723101 0.28758942739139176
-0.53254138586346333 -0.60305766338591593 -0.34759860553898636
0.58336354877509156 -0.35639367459749427 0.73538676252354862
-0.12769021959401394 0.15791871055265627 0.65554794479601408
0.074288206758020059 0.48019384715937807 0.79934248021210363
1.0707191233149107 -0.39403972015104216 0.53616618306120745
0.20472058921068181 0.30385613425081792 -0.10798310431996783
-0.39101518338754282 -0.53321124875611536 0.33280748322710785
-0.18384543665709085 0.40224087245966733 0.83736263370758546
-0.44308538413984344 0.78215136205878033 0.31891490973252162
0.07635314695469253 0.92322104382189418 0.39781779263131395
0.3699278120876861 0.66179510230016847 -0.24070246063285161
-0.12502305714671347 0.35188938700566474 0.70987425035400809
-0.53560846001003548 -0.40153607839982319 -0.35966744374913445
0.55259104259672642 -0.41350872358056634 0.63507732863874722
0.48432582580611272 -0.68913961650935751 0.3913024653521483
0.78081323323602403 -0.36648688268442875 0.18046557247687378
0.046817707276061826 1.1333777752752852 -0.71519352072823617
0.19245732703724872 1.2818438677712956 -0.31573755589863717
-0.74205157689923307 -0.52494203832778452 0.43575278404806239
-0.39450043131256118 0.23943016095128034 0.7724985788148625
0.71966181024080389 -0.46330162232660466 0.49635772152534957
0.74821858115814699 0.79820060490932421 0.10119553914321899
-0.54495289751081444 -0.12185112451990654 -0.45609991014741136
0.57206233896785585 -0.32945460346649669 0.52216096618065222
-0.66689153479145147 -0.090750021367772105 0.86284840546911212
-0.2067825477383044 -0.12535043670328894 0.93561895357718061
-0.013993032539637129 0.3354654903452654 0.77237063609705681
-0.62929601982668149 -0.36772152214816445 0.94449989016731761
-0.71571645531594075 -0.25821677614220362 0.52788724654315
0.47572290577920628 0.56463519060574718 -0.10446964973130546
0.30713025486356416 -0.099609453133606252 0.7468509533246489
0.2587576884643128 -0.10446512503478078 0.50119326050385105
-0.38343843239346143 0.29924276792285998 0.86192247200651528
0.52050317087569176 -0.013124649043416481 0.62335468988230236
0.52795223088752696 -0.44455730095946033 0.74509150315520567
0.54610620628015449 0.28591221729542537 0.4642309782615941
0.54903547666644159 -0.28833484175951418 0.46572995280803819
-0.068716374415200399 -0.74075432077428904 0.40975890766425616
0.26099119473181387 -0.19954209386773947 0.70788679310221769
-0.38349601785685694 -0.044778711354976242 0.7696314579731468
-1.163582450136567 -0.086586539614894154 0.073690343691891091
-0.54133959744503568 0.53605617214369927 0.63923719525116707
0.44958654591336056 -0.22872124572044283 0.31396369920928724
0.12515134675271744 -0.07029764531970617 0.7458470062896374
-0.19794587586203427 0.43128340008189769 0.98546237603463305
0.098327696781744356 0.75529581117774591 0.046427778916913076
0.52898079296258782 0.73922298714542189 -0.36794738157806495
-0.32231328695786476 -0.28584330658282808 0.52575409342290813
0.12407757264561992 0.30534833913782888 0.66535879217389682
-0.21998137752024216 0.88473711394881716 -0.60362820266687833
-0.77281534337738522 -1.1152586192072347 -0.51556341649416715
-0.34978195136544454 -0.31096443365034365 0.62720740710223855
0.59892778796963198 -0.2510961468964632 0.54636223610072332
0.56324794479937712 -0.42764611989871759 0.42178434654791852
0.56808637407394791 -0.30381194215030227 0.86787718937605307
-0.24593279200960705 0.28999199297272216 0.61898674069320947
0.50161639759129839 0.83021028174948108 -0.029677679843732707
0.44723795003610811 1.2571969923596849 -0.27863918906001983
-0.31475870442686349 0.20389317921394357 0.90291245667217235
-0.24262294255441663 1.2018781821339304 -0.12301554047856411
-0.3815382615533337 -0.68853149414783044 0.060590525958344632
0.25596358675657049 0.25588302050006018 0.68800011206547818
-0.5555749110146212 0.26851282375795527 0.53109258633373091
-0.60235546898772807 -0.40561432380696139 0.43235863317418544
0.11597302711562252 0.50564014757529807 0.40276544789670798
-0.44306708367275738 0.53566593427785458 0.79027835725666551
0.6805693857424211 -0.167630391384467 0.64355971441517279
-0.96609402715502346 -0.81633890289676048 -0.86725753819361406
-0.33440252955039473 -0.11129186355770782 0.76136018533032845
0.18822314487807335 0.69377061207686008 0.60127691217844026
-0.4002998587043034 -0.3289520172930569 0.51991626746361852
-0.024571900998872298 0.4019731983087016 0.84961220816740424
-0.32765712602450514 0.05004301790330179 0.88719145405971767
0.30274444184334892 0.45814267999633773 0.25477075885360634
-0.23987488181995564 -0.65112371870210595 0.21741042890314993
0.79502572015310013 -0.53497155786106276 0.46175164936292473
-0.17042507916645111 -1.0110553494002101 -0.23380453579042912
-0.13164870882951529 0.45096071477147714 0.75177882252021622
0.38083345637492982 -0.056139576094206278 0.11645571298985019
0.17219066083576473 0.45434309691197405 0.82912629662800641
0.1491499087536089 -0.17645611399965033 0.41097249753566245
-0.66322192862133134 -0.18846615290128232 0.6193039281079562
0.010146521703261469 0.64371764829961453 0.56978809104160255
-0.37264272824589501 -0.45118417721570392 0.8006776338963999
0.38727810464932455 -0.1678744962415486 0.60539427126294298
0.32068533892191076 -0.26860558661583167 0.69331815165237964
0.04165117002864005 -0.099619572004237211 0.59107478231658184
-0.13926444234702784 0.072066064220827952 0.67371916738814108
0.044799850847561107 -0.2070539099339237 0.96603002689732731
-0.60831684056806024 -0.79926062716467028 -0.37385957800003727
-0.7635573525785132 -0.66298040560827043 0.105180704138943
0.11380754610299326 1.1067064588181514 -0.15569655925383008
0.67420942347567958 -0.30410419683646261 0.30269460810702464
-0.071128154070074556 0.66030445974479446 -0.50322938307028975
0.62615300056569534 -0.17727581117635705 0.880303618101826
-0.60007545280752783 -0.27227772866440914 0.64579655085053966
0.39103877042553692 -0.31740346619083337 0.73092367877376341
-0.28821271920003899 0.81053530293950149 0.77180832260711241
-0.43306374929489577 -0.68928732101134393 -0.30155548952838551
0.6415588710894653 1.0351376038091349 -0.12260126991213194
-0.11359144762690621 0.42353548266194618 0.51820007755641606
-0.24152038845757473 -0.37325515724392577 -0.11737767183963538
-0.2256648675741465 0.51452249221802404 0.88165632487023093
-0.16451528275633198 -0.15687868013328288 0.98040765181006706
0.040774731699471545 0.8914936740577224 -0.03512025934204932
0.41305487360484161 -0.60627398640314545 0.87135943981879382
0.087498459095023629 -0.070637132619634002 -0.42276107917107114
0.51983434860790778 1.232537049683406 -0.49229617467481579
-0.68651053396202555 -1.0298218385446525 -0.37077502634257614
-0.96245106424000526 -0.65464135903986298 -0.20645042888181864
0.23372865181573399 0.64917805423147912 -0.2491613485223072
0.27096392503032274 -0.15741402783285308 0.62282321971114185
-0.569159003108755 -0.84604910538656575 -0.096227093253298063
-0.29209420660856589 0.63589334065375414 0.84287058927790581
0.19854819212593755 0.404344477047482 0.41357607181984357
0.83772984991585431 -0.29663705860301204 0.56547409730571685
0.66218303428280634 -0.36797124394131342 0.5421124719503545
0.39261693552588128 1.5596068321703083 -0.61036777240991391
-0.30268004900711154 0.90836260940325708 -0.48860756904898495
0.019827319740705063 0.26400512225058392 0.80565270071582518
-0.4076051210218492 0.2403388280895904 0.62426184750839797
-0.41913871067300512 0.054565954773162284 0.72686403459005078
-0.79588048054561078 -0.62947617891134655 -0.71898349490871127
0.097983491216394825 0.72160639628584633 0.398766025796635
0.34205990020391774 -0.4450513580865314 0.42072914362335828
0.3478983476313009 -0.011205516346164401 0.37297652637603196
0.16711761320219587 0.43289223159539869 0.59208178775713605
-0.68414054711903538 -0.20050322725228953 0.51837715286171238
0.50541611995902547 -0.36846978686599496 0.83024440254435428
-0.030822483694801894 -0.016354558124988872 0.29405289706295634
0.18947611602564296 -0.025357214775479919 0.94871313613260333
-0.54260761221864751 -0.2994111116801097 0.37810547241094755
-0.12745922641256158 0.023066541515337269 1.0393151097350937
0.38097069111617232 0.94878950553156893 -0.22278088813914976
0.2286728204538806 0.19110986555107146 0.52630796749378106
0.12994759435786873 -0.27945181789551432 0.76610194485686534
-0.47424078955745513 -0.17977477380026663 0.98823757834875825
-0.24220101926243309 -0.4399307287968437 0.68088740830356587
-0.075026710921249906 -0.094371408229321885 0.69085529504571586
-0.45110938260262723 -0.46048873516803801 0.63847455046390089
-0.020578123687263972 0.83132249638301581 0.37094702653082434
0.091545838812977509 -0.11314452299225009 -0.42268939118021209
-0.54920274994615093 -0.16660129452880379 0.50553540491409676
0.41725112906403217 -0.27401549322068952 0.77927946640650525
0.1937604669662718 0.72698628863342574 -0.089508513774081422
-0.83712580134277714 0.099289887263281362 0.69178617275288889
-0.40167349891554049 -0.26245756808996834 0.55008807793412129
0.62474411196265123 -0.4187673245459671 0.41598522929275839
-0.2049228760643963 -0.49657910310262965 0.7468302755279006
-0.55889372761722367 -0.36845296268426342 -0.4681221544643418
0.017633023129062009 0.75384245872729572 0.54230667992708204
-0.47155059688101308 0.28850642564767381 0.62781684029289231
0.46394460738677212 0.97297429207685915 -0.36876129913029021
0.22156008210226119 0.46126234127145205 0.76583803453420429
-0.41489000024394729 -0.69202072402672044 -0.56395678719339226
-0.1860132261271541 0.065112642731981474 0.91536816409997046
0.039785318523026802 -0.18712969041221239 0.4771237364460813
0.79661803558937749 -0.19568335075210808 0.60817093863120275
0.24288797950403818 -0.23353986888045242 0.58941649036940447
0.035305915451218972 0.98535609208203678 -0.59438585451793857
-0.74643224944811237 -0.13397913543105155 -0.061514991657897311
0.13948893210418667 0.1301080091332627 0.78822733662308919
0.20076368479069984 -0.36845390174706671 0.60034858444253825
0.39587622103427256 0.489525261818059 -0.15573653820474054
-0.42206965536557606 0.70684273044933776 0.57030080739401923
-0.71947994183179143 -0.74686584830132885 -0.38832868204761473
0.22971731343154322 -0.1118928097381624 0.25636611835679379
0.80417442861340449 1.3606619091642234 -0.555230453753496
-0.26681745384927069 0.47912640081211166 0.68142925311526859
-0.75394533561147559 -0.94292655743287268 -0.59039941495141346
-0.06024870192150944 0.51897737619933948 0.66180332036077649
-0.44021552216959187 -0.79232000371310374 -0.065738840720383995
-0.36738044718446472 -0.0039658589687383561 0.78680721829414635
-0.38294453771461556 -0.70763891654608146 0.099302826576760705
0.43945779748179892 -0.10826718437575966 0.52250106125589246
0.66721051105035123 -0.64915464407815171 0.58850960116337858
-0.88377926152268738 0.40237398017283155 -0.33244854285483411
0.4507101699577869 1.1327016429559249 -0.1562874001195631
-0.38934783511205662 -0.58322863307270123 -0.026810997558891381
0.14243542190548042 0.040404314518000195 0.67293280943070988
0.6341671103007207 -0.075377581282202843 0.42080355098696692
-0.35049431421706245 0.46810695551184534 0.65850682860564513
0.71820683667576346 -0.091094103401887949 0.77966999278796001
-0.52903560372356928 -0.71387100954259086 0.023856366062835574
-0.23543565409120049 0.080704029262531174 0.8691800349362675
-0.45420827985617596 0.37467442693346142 0.27452712450531269
0.12156578460900436 0.17934398899366499 -0.066801293710179954
0.13719416161302056 0.55733331232416838 -0.13330190190810698
-0.49926530374515232 -0.40106728631471467 0.51365684804734935
-0.47064660523792845 -0.32496596430871572 0.59925497945511208
0.58784297998413859 -0.40501697458007069 0.6979100773457112
0.19078319677055089 -0.080473698658759307 -0.52433000344995073
-0.2125363036225123 1.0405329031496056 0.0085940130986934538
0.37374991695134152 0.045131140955980698 0.55711525520293337
-0.57012840346941651 -0.66552252390059752 -0.41922166605924838
0.5860406726209193 1.2179079606704248 -0.25517219234083577
0.44638251262297068 -0.22160387016519967 0.63857859884866297
0.22761781756148936 0.98411576795247035 -0.19678801912591526
0.15546019165955571 -0.16643407469646054 0.57087908872263005
0.43455597703906323 0.088942343369728505 0.27901829766226333
0.52342467070318144 -0.222170402226886 0.57570437720468415
0.26394782067057632 -0.16699060911289143 0.71615908638193593
0.33615132922170687 0.71861704287104922 -0.46784350632976446
0.72018825197307756 -0.30295636800801762 0.43060785578787647
-0.64723164519012744 -0.15822330292730769 0.72348154440961587
-0.43585273298374272 0.19666232509199422 0.86732149279814752
-0.56178053891455026 -0.38096662917508795 0.67417712542291608
-0.07744901922949543 0.61451046863412873 0.37288437863453122
0.4738613463094431 -0.19076033773149614 0.25457460248153557
-0.76176144574127891 -0.3798495151247463 0.19802159992427779
-0.94138949624395574 -0.062287279033623966 0.63839718192905104
-0.4797315088196189 -0.85860863283523758 -0.089037861782150202
0.0080531044658310735 -0.39585050797752008 0.85359112540487436
0.32380341456295314 -0.13839582691396979 0.8240011024374676
0.48830545556851135 0.98681502481818828 -0.31126096942776993
0.28967369000751697 0.87617467198819754 -0.11956789604629614
0.14043955926024121 0.1083056981476227 -0.2941645646244182
-0.66447587583451106 -0.33326021444340714 0.28372374355461627
-0.39071953697909334 -0.61895246068871335 -0.055402362104070346
-0.45966924421188093 -0.64633789426414445 -0.49853554406589556
-0.18412084955622432 -0.79017973754161375 -0.099098391073419667
-0.41450675292449768 -0.59679227597412865 -0.10028119745173908
-0.95145701582259101 -0.43901745974640427 0.076420873939925402
0.048169790344170238 0.93153788513465541 0.90008349129174881
-0.35064815316530773 0.24145307650323988 0.76823080051449799
-0.017720597165666874 0.36840191045853588 0.53288206466011823
-0.12192960023205335 0.15335141831302623 0.8895138287778166
0.11594397736226414 0.86551490381622287 -0.44991081392647525
0.37149161837688327 0.39831705064273737 0.37705724067475588
0.67072502293186165 -0.71279710334422219 0.46460120929589166
-0.49499734516351845 -0.83071754688017485 -0.26597311690034742
-0.64042881570348587 -0.19043035370876882 0.083711917443620609
-1.0478099828078096 -0.9516108136312047 -0.57066691969513927
-0.94838389716999871 -0.21505094878163389 0.75689362583282416
-0.30442982515975459 -0.16408946976172056 0.59927374254395271
0.068237744856277538 -0.23466850558161756 0.87696403299541448
0.41560264559300486 0.46130606870946567 -0.22515585685466055
0.051551996307672709 -0.27887072666328083 0.89239430938878117
0.46649010665622281 0.92457792370522796 -0.42807740492466861
0.46362127579065127 1.0479394064394167 0.4621850495694122
0.41028770144210913 -0.39697341662794328 0.59297856860920606
0.07990911364167097 0.38518284958235816 0.53278413450657292
0.4238762491664666 -0.016492248938658083 0.81827336376702053
0.03866054600729063 0.55103912040586978 0.60332449068083283
-0.10486809377972273 0.24172372462894964 0.7122665663859209
1.133349061044268 -0.81437473669474802 0.75713641658542308
-0.79864122000488358 -0.98091961331688227 -0.78819010795648592
-0.079328262906925184 0.18582690786475098 -0.69576567353338126
-0.78708040297837745 -0.67164476810841389 -0.53142237961506533
-0.6281885421399982 -0.62540552996384746 -0.15099444066587725
-0.75278143033120282 -0.93435399778853911 -0.67956102283789166
-0.30175042457152013 -0.3555522055676541 -0.37245118357618578
-0.86370323736437427 -0.93788493914172988 -0.15161575278375686
0.064589349229618453 0.42345762728405534 0.84544766610197697
-0.3593038649745795 -0.54533337544490257 0.58492350551744621
-0.0096098089919807173 -0.66850671134543482 0.55912889133371568
-0.10755393655944556 0.3798327517537381 0.57086953884681613
0.34923971186972902 0.69233999144650671 -0.17257952402250132
-0.23523329234510737 -0.1406279709627456 0.65860139398420448
0.24577674494992841 1.1437891629880712 -0.57571220047340632
-0.43070268967624398 0.48361573455272822 0.9271901952487247
0.14068267921796651 -0.36577103225809271 0.69664554714405347
0.45873979341796423 0.050401657914936004 0.54346715364256948
0.25224406269405608 0.6656137124286603 -0.061672890568758576
0.013422822583289307 0.71534009673587162 -0.0022282300204266026
0.49335900730271565 -0.36992797934568711 0.50255036135863362
-0.071941647396166486 0.12518068135401661 -0.40918455952989718
-0.20097023755706345 0.52770025809675603 0.59471445431764636
0.66422095071357712 -0.17920827030729192 0.74971707423016287
-0.26416392903025643 0.79826307166647903 0.74937432452875941
-0.56983161424071449 0.4444909158246636 0.044098575100522397
0.017649666609377057 -0.055113152265861443 0.82723348473018332
-0.11110050096963053 -0.38242427130208778 0.86059334985344882
0.66424861088410814 -0.4588755682895429 0.69730944264443273
-0.65757912606964242 -0.27160189312296223 0.95112138977544947
-0.47343753190683485 -0.13526187257954847 0.92977255466340103
-0.66032123591591629 -0.69438711257459795 -0.4319916097131446
0.043853833129121278 -0.014832008638867356 0.818894157233228
0.65996816936122626 -0.33742801128421873 0.62491551838036696
0.37789748454349348 1.1313539369878696 -0.42903140753658142
-0.56296479538805522 -0.54271205008812529 -0.045378993097742043
0.59256861728102694 0.49126547415957544 -0.24719766367676355
0.32989695103341843 1.145288438220605 -0.32845070847448909
-0.015755201471080338 -0.31317107343841943 0.49404812794183833
-0.11136757756755367 0.28982553981847525 0.56748524463288752
0.11323373298041561 0.25502423411514163 0.48816211065486748
-0.81593048378928401 0.085345321866888701 0.35055583168401844
-0.75447827852568738 -0.51459413946042099 -0.23638458455289216
-0.53584592963755284 -0.24366929301291473 0.40582822677128649
0.080767077307756896 0.41479984410667892 -0.34045210218069666
0.24802719216195301 1.2599112453481047 -0.30557921603314464
-0.85530093142334551 -1.1072276954442521 -0.81546352151120449
-0.20683541375899039 0.026069228872265482 0.65603693366251581
-0.096380216173537203 0.67831573828769232 0.18731063513124313
0.18126064864338309 -0.040998058904999191 0.95930904589103028
0.84131618546177767 -0.70616268094743018 0.80124455063858746
0.56650965379767548 -0.28794461483008149 0.70707556499137936
0.14719249708919557 -0.45636300475971558 0.36986036190629845
-0.36344855591336089 0.61849628295780645 -0.24429843175668875
-0.26857827055763739 1.1603430367675307 0.023442670478112881
0.65872215939883438 -0.70403514420850044 0.71284437197298622
-0.6144195425378961 -0.27123963478406199 0.69454105796030396
-0.55952911322432242 -0.29393598448701419 0.70032388919071398
-0.22450063086612837 0.84813717667492705 0.41526884241857343
0.77107627299149351 -0.62329497067391593 0.42167585577693378
-0.6397234953111588 -0.44506089663449488 0.11745216657118437
0.058295182770333742 0.79965503567091289 -0.1738479833797244
-0.17114813914335014 -0.39858940276622801 0.38264318477397552
0.58579235665328855 -0.1058561202050452 0.81930117339481523
0.27203166721289773 0.50730886132836273 0.21077751634175601
-1.2011680032223973 -0.99652899308676068 -0.57322179847649646
-0.087074583494634705 -0.46514905065208656 0.6576058364543802
0.60923987808333746 -0.39950438184734671 0.70334428029561047
0.44425281563093622 0.12958096396840069 0.20945450614856376
0.52658560080005445 -0.832114914521626 0.14287640928164375
0.11980491539028582 1.2887386673084664 -0.51208568229936025
-0.59866263866739811 0.5617757273753512 0.72223900627013182
0.016844806336723139 0.20886770164822943 0.94282507153068917
0.7408720590205331 -0.59940036483967374 0.52325864969065461
-0.23305729203136072 0.83360509188094278 0.26494465312237636
0.16433052365363077 1.081775319703238 -0.64076534771935711
0.39892412293156232 0.052491275167022344 0.35479498016925387
-0.098101338461484833 -0.2960232052225249 -0.38094826566421902
-0.4485816588210455 -0.30866753814734871 0.56205502806693564
0.47860031036442086 -0.26208233307773621 0.19450275383789606
-0.84965105727946566 -0.69738350655583692 -0.3494893647970555
-0.13108726372194934 -0.23824166749418207 -0.53071683914316925
-0.082247266458378099 -0.67703952442840243 -0.11196423694709629
0.52273528300838823 1.2765595663265485 -0.4798945772499974
-0.70171463668981993 -0.074585236256107912 0.76880331081715991
0.067333098781996004 0.49911483112043431 0.20810300119694469
-0.60488676481024439 0.37118631056953455 0.35739074646494245
0.34668418792412603 1.0135366207459864 0.52189136939477154
-0.14134701510594805 -0.54228031698993506 0.44428220739242308
0.15289771147215425 -0.13183380028691238 0.7747458469498103
0.41445459353138703 -0.13910588607130125 0.56845888143556911
-0.58964279240817552 0.16754398091984557 0.69196662356956584
-0.31261667490606859 -0.33811245741476137 0.73082720307457572
-0.77151891592621535 -0.3094303912969163 -0.40907217175554644
-0.38580497651587281 0.036878430435106413 0.84015559734375034
-0.81857825176021282 -0.10986374005828381 0.56646206292904366
0.43974361593608902 1.0272645854308964 -0.26991383552268278
0.30648303105413188 -0.64160991929027267 0.57153572014185094
-0.046640764828894232 0.35883685975977397 0.5773265820702338
0.82930323237314263 -0.56151134865652153 0.74357219383645445
-0.15162650681432011 0.021389062179447471 0.77694037862832999
0.26639106148127711 0.25513230401293785 0.60401290028490362
-0.24339497410801914 0.45061038456733993 0.41593194739972228
0.13264486309152268 -0.095778551508633125 0.69888159880769174
-0.10280406575487344 0.37426072248274922 0.76898266374767232
-0.46458865887376433 -0.18660485157511353 0.60245973943048681
0.29669417285737754 1.0684367926604947 -0.39081989275945339
0.074203486967454713 -0.045118130381696098 0.80407750661820443
-0.26191053576227263 0.71939466585932688 0.18444979852214516
0.17328400592912141 1.2566753980317014 -0.63078206899292599
0.26004462704536357 0.15732344852580793 0.062220736210829464
-0.14883684037790545 -0.49898819488096335 -0.14523491672186484
-0.33771987611106236 0.30647497372053722 0.84812091330132222
0.17458773320325571 0.038730656211082737 0.82552705889551203
-0.48703236716838738 -0.27237863756914105 0.91814259178660629
-0.22775104014166198 -0.36751200757374503 0.81432789287531615
0.64544588249587931 -0.52361625063831907 0.37253516685164878
-0.58237239237561744 0.097851921771571204 0.76419076609628056
0.28308276826416989 0.75888648159263572 -0.28759215838170638
0.38073542003042338 0.32574472646085817 0.61813587467869147
0.26993589991395861 -0.3812164659821542 0.84085308159806971
-0.36224632939898371 0.062043801252522179 0.82182010948364648
0.42025136989235956 -0.45439639894714579 0.71788933640377373
0.57179141560737667 -0.49092298401711965 0.68790145740845487
-0.73224512158091337 -0.45293796400728614 0.67562262148930641
-0.30144949785033803 0.14836232141785644 0.71013082808825168
-0.6086352584688608 0.13121650065418655 0.73265566884745514
-0.41661507216471971 -0.61779050991069195 0.49731766051636889
-0.14102073301100626 0.8382871920945355 0.37228039751864861
-0.6173308313404513 0.86417637492184129 -0.43972569363887692
0.14512270322790144 0.74238727243110825 0.69025951409934838
-0.20430990649150949 0.20398692992007827 0.84561653330384656
0.080002289305012964 1.0894840713421323 0.24907487335718015
-0.34616357199703518 0.02661089128992522 1.0583557399178305
-0.88186564699279524 -0.4672769674605104 0.5585485249132861
0.38382542004610265 1.1813587814022082 -0.39360427249075469
-0.59743128746705687 -0.93496674117298717 -0.8394282742225736
0.45636985704514532 -0.26605539604690298 0.68584076291097806
-0.37667043017397378 -0.018361097441644159 0.9212625811017533
-0.17929943106851221 0.085911453169543073 0.84616964538262951
-0.09015113279486231 -0.056324917059657809 -0.53477793010893537
0.43167146012514213 0.44920890208115472 0.67803290930292592
0.013330051215631356 -0.043767697934046224 -0.63722602541447004
0.11307307064300576 -0.29524138543484857 0.82116049669607527
-0.047133000712073159 0.88200825541352579 -0.039286884174732695
-0.56007670361424822 0.56739272261055396 0.52168960452365487
0.81120779100870788 -0.52301010992089392 0.69790824041908239
-0.87606566999973534 -0.22124366731811973 -0.0095964398747543922
0.33998723850265389 0.3737237462428098 0.26404587479584818
0.43203902803713345 -0.44663367058118175 0.14518763706707499
0.2892351703301923 -0.10949434294085436 1.0210333273699164
-0.70657921559168968 -0.711156846680568 -0.82253950636470352
-0.16966821884043348 0.1707757242674619 0.79544576570040282
0.80566762806334757 -0.28889768083127154 0.7225285058957639
-0.2284676988163703 0.53949900552417418 0.8178847737410575
-0.51157485160368865 -0.15365609311794604 -0.60782633894282356
0.23663007652783441 0.78223235969895955 -0.33392083839129216
-0.10332912424500673 0.3222157233393903 0.85955941908342548
-0.45928661513449087 -0.28860554935280125 0.94197337950986149
-0.5076366748408192 -0.45057272959464068 0.53939592393811264
0.037460334160614117 0.097375883241267225 0.57716117437657199
0.061358836634499037 0.21550713543959543 0.20122390597005224
-0.42152568818714375 0.12261220566774478 0.89489502793490683
0.0011420151081769081 0.41161770158588373 0.66652465860042498
0.37093211231159851 0.66015019212702075 0.32514602684373517
0.60132528179747691 -0.11636014103621095 0.58021787834278338
0.2498271849554593 0.58699375474947002 0.80305136094872864
0.39960250182441337 0.95408483366664287 -0.22874154048894368
-0.56567954163085932 -1.0179066626122961 -0.36185518397807859
-0.34375924121932955 0.068282058810099189 0.20138697524613114
-0.4019242059125086 -0.5955854758235426 0.5085042975378844
-0.832386473522023 -0.30123491361748367 0.050260532087046894
0.13419366909308383 0.52880071444809063 0.13069584138111479
0.65474030871505051 0.018648036964060921 -0.024157052538107737
-0.48269571956246754 -0.34686135433072529 0.48451420560805747
0.75400413853796533 -0.34447074158952762 0.58798667186878861
0.39784039286257711 0.3068895540200256 -0.35012842393165666
-0.46969703394305351 0.58435108955925785 0.64862906039074852
-0.7747495802865203 -0.74198941396703333 -0.27944122671210642
0.44399106300932201 -0.046296125100450336 0.47046337271885547
0.69180766215039102 -0.52401018999737947 0.58717361568575777
0.4094499373042364 0.99912121921805497 -0.17499679993302697
-0.17558787827190814 0.50015155722222548 0.8558795276677833
-0.90004816692139666 -0.78877351228200454 -0.45579751127475593
0.081109045548590997 0.42828184039209338 0.36665142528760564
-0.065073064036355044 0.078463931912930551 -0.49644912988720352
-0.18294467156937921 1.1285449473543219 -0.063358922711466148
-0.48461959945544825 -0.033371949116091981 0.66367881554362396
-0.10417402012954358 0.03654461272838061 0.74444545192366385
-0.90892150047980635 -0.26689975898191398 0.0026177158477468376
0.1588249936142212 1.1462218478891466 0.024071549824710936
0.14967589420742278 0.47026309560111357 0.47140494605632732
-0.049847742216982294 -0.12406089044542812 0.67303521389557308
-0.54169795695883749 -0.42073437628205346 0.46449855564984399
0.12646144072445309 0.56395683821176301 -0.12252713244548874
0.53125276714249137 -0.31193853605074384 0.42266441559537193
-0.3216541566234028 0.39915933165197703 0.67720450119808495
0.066315866491152287 0.65464129108684799 -0.39436838124950624
0.16796472004713481 0.92436424937365014 0.077621762051507837
0.015578372462220713 0.83717805453310201 0.02759346891910941
0.65629704254308985 -0.51165396921025175 0.74051932050511948
-0.043167123521053119 0.41983716789331438 0.73548365099315327
0.052651642731368797 1.082312367828425 -0.29637787976552332
0.68067969180735199 -0.3938294864284424 0.49458264581261335
0.2873928729541062 1.1298667496207011 -0.26859234241217567
-0.078752687493366613 -0.12779193506714659 0.60777446979212268
0.0021179626667887641 -0.30084467661970238 0.32607946740946747
-0.023515465846960293 -0.20722393348424406 0.47491464967177127
-0.29410034711643962 0.56703393943386127 0.60720849989664516
0.20932280196789077 1.018439553803278 -0.32948764892996008
-0.51634112268513421 -0.92770675632949318 0.056693024390430447
0.262274820180321 0.44525272358730161 0.73984018635342919
0.23268859108311624 0.60460759474048564 -0.67411183881636449
-0.28357016593298923 0.49939686953028883 0.67396735520454043
-0.27167796682416712 0.0064530638599309409 0.81074412501005555
-0.069624933883012718 -0.67724779965707693 -0.38711475590227024
0.82699000386628629 -0.42829029980465627 0.33170811134503869
0.80211402416194888 -0.34035054645453844 0.862886297307913
-0.005193373044523053 0.75982225914499879 0.22412309155787646
-0.68626666297937822 -0.77746148318797625 -0.32104021622899542
-0.81753688290318838 -1.0951488211722584 -0.88752968137377031
0.07640213613488589 0.93475074518843382 0.48695895552636037
0.31286186435251473 0.30699413229400108 0.30787608061281541
0.53678813114991542 0.67239754097204152 -0.31407033651582572
-0.015932763713117248 0.28367394039779192 0.63424573663646355
-1.0547342881158224 -0.18685295407837899 0.35384797278610891
-1.0999748401302047 -0.66827129405212515 -0.76477117617106327
0.15355177558699162 0.1650928567365757 0.62945815479543943
0.42977324481559964 -0.46570833748798734 0.49640899552946194
-0.34482186902482515 -0.056415300755443987 0.22726909005532275
0.70268180977352845 -0.16712627543109293 0.64824536689594603
-0.7857487592693212 -0.68899537036288483 -0.89542760831934598
0.17417999736147194 0.7308617878947945 -0.43063720457013011
-0.68498736225043644 -0.33677491870511633 0.45915775698744532
-0.24882039148309709 0.42667825085411537 0.58371106723650112
0.29195609015398838 -0.12991482004437005 0.69752707022769966
0.074384295730855032 -0.28871443162140564 0.8116250395646647
0.25721250168537257 0.52138616574011087 0.1362896966740712
-0.0076000693865396762 -0.1733809369187731 -0.19656445140994699
-0.044245456630685576 0.055144793111609358 0.85604834058530499
0.41401609253114935 0.3386338732483456 -0.32207230618631078
-0.14738132166601248 -0.45378280061405429 -0.10664384714392205
-0.65633521672846384 -0.5107801303363344 -0.27685047523239853
-0.64311710478393591 0.54787597029195267 0.47341646405796411
0.15410349132657319 0.21470030719295008 1.1137364040147175
-0.24555477294527994 -0.246587735325283 0.9417469400671119
0.24131990339347387 -0.20694915554972337 1.0344162387438747
0.9454169355784533 -0.35017931161152105 0.57029498271252455
-0.72362892407547197 0.058672252214455822 0.57540612057936968
-0.26567904125419639 -0.27550523416710893 0.40856155875052214
0.18019297769069731 0.77917019031230272 0.70850563924530774
0.62631905372582519 0.49740002925579874 0.066409447609161565
-0.54834179141589501 -0.78010140136634742 -0.093890562664733446
-0.509429805241574 0.28685827328908875 0.42604707955049426
-0.53701166447123561 0.56981968482069434 0.55494435565324607
-0.072428660945158096 0.48508637358622075 0.66579830091628855
0.0085925924936458564 0.46430802556359563 -0.2872957265707704
0.15721638554817852 0.52351695512856855 0.44575375057829342
0.52050215621965923 -0.24315167176187447 0.31244211623542323
-0.11046750214182455 -0.36647544798408305 0.48285649689459803
0.25694326494354913 -0.34484934332625716 0.6629912476956058
0.58654469751903648 -0.37285704039280865 0.70304244602186228
-0.83174045442506139 0.1630627532220098 -0.12078598599387069
-0.32439452507852684 -0.45137173985243129 0.42106957330051065
-0.4345105187429823 0.17956567565833637 0.5453775395554662
0.23899842279435024 0.58697807081821951 0.58029590651398255
-0.012584935487773397 0.48475147388304296 -0.38170022591600938
0.31962078442399622 0.80462193743264532 -0.14100582682685825
-0.70487213053182729 -0.76812524021188655 -0.58723472542920974
0.38249803330831966 0.86321494470242599 -0.47765962907431136
0.014986297732000886 0.031797414365804189 0.70230909948033293
0.80757430357182702 -0.24184364266139013 0.65758230044033028
-0.090119150996062714 0.099121207980269688 0.90092208971937482
0.54780369605160295 -0.46942900939979326 0.59571681674531418
-0.58803277295708578 -0.80253919184277689 -0.34728942037401078
-0.092460778930273602 0.15585073898671431 0.72779968404312245
-0.70080220652512881 -0.21417509229790932 0.57124363501635256
1.0890450034174552 -0.38675168618557687 0.54250827561946913
0.44782639748253783 -0.5924785246160762 0.49621258801735196
0.82434834461006623 -0.096208725873436318 0.51398675097021207
0.018342495684056659 -0.23763249107615825 0.44312463533080115
0.046432446072922184 1.4819018959898607 -0.33102949200113452
-0.50203694333748927 -0.77094994061695776 -0.0030621006969607095
-0.068801672480975684 0.83580698353038385 -0.39918353287365049
-0.40471881659232506 -0.31164273677315135 0.73474262810840396
0.46086105988668269 1.0025773254050736 -0.16018903515222005
0.21892422598149619 -0.094392686695172756 0.91094887846062733
0.0756226291021177 0.13058676042392148 0.79879984306916174
-0.68430115145096448 0.37453924673476546 0.40901802940453019
-0.27939677808385954 -0.47051212820316346 0.017734853712338905
-0.47974877858915205 -0.17487250490696638 0.64134594487496699
-0.34538570097795218 -0.092096095726052818 0.95857119925349887
-0.59876017990420127 -0.51210162735929665 0.13291829888085691
0.31940925638065298 0.11047318127207073 0.35732932808134443
0.68717944400492015 -0.25156704708511857 0.66474863981352672
-0.68605453623035584 0.049980650381297398 0.48930655044117471
-0.53292532241109458 -0.18149379550593725 0.35287930425312897
-0.63183751984626402 0.0603945340882035 0.41078531037124966
0.13721810241226595 0.24248206858135091 0.68533210901748265
0.022324665048627068 -0.39412019526586017 0.48942767193404496
0.26435147970128314 0.96887819198637137 -0.18265949268139092
-0.38327869181941931 -0.60637895187509994 -0.076184480134606714
0.012088928290639567 1.094494162275788 -0.35932651931594173
0.18659229603375371 -0.22842686553954117 0.93362703688551241
-0.37622760162740465 -0.0069321561743174165 0.5241357002780106
0.097375127652989835 0.48335970902309588 0.72808292811635111
0.0053260907432636229 -0.40901755678993412 0.58987138032558906
-0.06582347282271761 0.83974181031855599 0.64576330036414253
0.29447008916377704 0.64465720364854073 -0.29395792806346199
-0.87684532300383 0.12465024306678973 0.57366391950521878
0.1255329094031985 -0.20000221471850677 0.43784801491312819
-0.37311050802704837 0.45825638012909886 0.51641421914185814
-0.96877728736692537 -1.0757983553766657 -0.63149601029939939
-0.22419073207075102 -0.026660468936857251 0.82590644095119359
0.69982122867543839 -0.25057500935496724 0.5396447054852056
0.11286188728975399 0.35015319489612229 0.67848848239646187
0.044736433361119321 0.77346250357838553 -0.53786301142564641
-0.53859933565843954 -0.79649855906463096 0.079781988777756413
-0.74820520883714181 -0.15673539792797486 -0.32885189787202657
0.27189312600700588 0.27748798139918573 -0.4743171629109969
0.49924130104185371 0.015893515033907457 0.37898763597930341
-0.021593154993777119 0.9671565121843575 0.22517881019517805
-0.34568978754572771 -0.13959303426735037 0.79878084096408919
0.059334557797607657 -0.54686698064252304 0.80578244536989263
-0.1010270616011627 -0.13145965695430961 0.89301564020716739
-0.75599768726555827 -0.47792054637132075 -0.15901497143068408
-0.75594339018441647 -0.11558922432823482 0.040664369837064118
-0.33544954609372246 0.58591294748593947 0.71617079132768424
0.5217242147811616 -0.27288223020524494 0.76866613007655715
0.1267403274502541 1.2133070720982975 -0.52117954262073007
0.70566006674265869 -0.12096392105819276 0.54256671923859523
0.16532532926092625 0.81386360520339496 0.052674689776614381
-0.013586280590218158 -0.37228379672654155 0.34738504063496523
-0.28368766137295531 0.13283821707328913 0.77923022682898258
0.090430897223276019 0.026019214336713281 0.72370918952579655
0.15224634143656979 0.62430419035162021 0.52358419263132117
0.25145636674429206 -0.190227642027055 0.77246671284845947
0.33089349506781562 0.025112424768358732 0.62402896046106182
-0.085292662032251831 0.37197236579551696 0.48686062378652806
-0.055461811099738689 0.42143001298687577 0.41457616558320665
0.63381429172023451 -0.40924163271519176 0.55608024462581851
0.41750290076198682 -0.34580064035805091 0.74059484246080665
-0.097841061299623111 0.30406594031226475 0.85711582995295221
-0.91881853580921014 -0.96705989419430671 -0.7466105350078619
-0.14518073306887547 -0.18304839168220322 0.94724602676284397
0.00061474085291646219 0.24084704624492459 0.90191796473392016
-0.16781064454318895 0.11268653583585153 0.62239890257962516
0.60384019480534612 -0.30951899485791912 0.38547638706316345
-0.31472444476870798 0.44476614629336364 1.0807306441436513
-0.38337017174648391 0.34324589436690378 -0.72413503971457038
-0.051387159765822643 -0.10734396678439406 0.48525966079163652
0.34424628948586733 1.048466816575331 -0.30897051858673508
-0.38186998580974119 -0.15861998011398581 0.43949401986375397
0.27857884807288336 -0.48680347293201254 0.58316425851396991
-0.28208777654550587 0.55287226204585149 0.17222324705595993
-0.64276177864212158 -0.79548322512282588 -0.41268575637896809
0.21360978040069556 1.0327541018275386 -0.31394121975810108
0.24447749987169931 -0.33591600663246979 0.55678051459164823
0.20974508815611226 -0.047681552233154623 0.70455508535258782
0.50452849480051765 -0.30367146888367436 0.57219470545827145
0.30554073507244195 1.0662050700782417 -0.72719146201693763
0.44705243149358909 1.0490681735827372 -0.46010654406521967
1.0685168157594411 -0.54925061424725552 0.084148903778603179
0.33927026845176855 0.54909182572747439 -0.25622879005786592
-0.27215336561487957 0.78001294737409643 0.79977923565736619
0.19345790372022709 0.37205423994214515 0.4207648757394401
0.18960732126739255 -0.2286699751353265 0.32086396587423816
-0.72289004309084381 -0.4865275290561355 -0.33455685407918079
-0.5137950768437145 0.76751244269393071 0.72065154607594306
-0.17037256931533573 -0.5909809605427192 -0.47247860842121669
0.43139761144834576 -0.29262435874767956 0.76892896619382012
-0.58984687343601272 -1.0328044908384761 -0.41385395400494807
-0.72142001988373039 0.39367609765465783 0.91561975315630151
-0.79378806012682634 -0.23804941408027669 -0.15479412310205415
-0.04364463084388237 0.45257436315531696 0.89071699705371499
-0.13710871551408377 -0.12821072156641122 0.91404748433360827
-0.48552230855725725 -0.97777865685096832 -0.63365013879166276
0.43061589998572969 -0.41802714403732755 0.60588105614431598
0.65078863616792249 -0.15506897299202804 0.37088362226712224
-0.029595876109402397 0.26155593197671867 0.78789351527620566
0.05789121571779976 1.0539109537043974 -0.30014717899221677
0.0039545203806015117 0.66458094306022952 0.77828062937178921
-0.014069799516955195 -0.15938812656641899 0.66183137897342659
0.3422935837493879 0.99315476945346703 -0.12236624926936235
0.33345670419462392 0.32428899819718771 0.49915036917415528
-0.15521118779544396 0.044707332858538784 0.75515173541961433
0.70548350288121209 -0.083254813181458776 0.5959985088555193
0.61907302549192023 -0.28333498631891807 0.11474824768850278
-0.17497287561223707 0.57335432062301295 0.69525371160730787
0.317732977402432 -0.37590691173933544 0.57696461334584304
0.75851504637804834 -0.56219542620459917 0.52442266291206685
-0.21097019730002353 -0.088222747203643204 0.86088650128308086
-0.79392823983966887 -0.44446005793252197 -0.37549617914909805
0.16541168555981423 0.79394906529705644 -0.18319491395415965
0.31023509718456943 -0.24463613491228053 0.79246555092548454
-0.66551351992454766 -0.57517366323581864 -0.20590117963805396
0.39362938860996755 -0.19090026948211269 0.75655069053134083
0.50469437818010632 0.63427965908181649 -0.1111025533097828
0.1160731223804623 -0.2236003088936076 0.8896946848271936
-0.79555524393600874 -0.48998026205416401 0.88161748261769535
0.42218757516694061 1.3637974800725794 -0.40761567658261355
0.71436185539134223 0.70889287942208057 -0.44910424431891172
-0.31765067931017665 0.32719053778701235 0.82352713040125325
0.024802483295554234 0.11877443072146909 0.91982408740720178
-0.10805083449272246 -0.71675892236828886 -0.19251134230823228
0.22794070166985569 -0.092408300929914589 0.8705943991591345
-0.1362408104170475 0.2840380284132149 0.82326193108930479
-0.36818968833568499 -0.41777057912188886 -0.12518971843435606
-0.23645139519963193 -0.3094216750663461 0.86785591193263012
-0.41543421803672909 -0.22360395283629675 0.59263383583568308
-0.54869793633331698 0.14108131658052536 0.73759343789321741
-0.48559498003154078 0.059562852370509844 0.67863513013005505
-0.43640483073726233 -0.42742536646850837 0.92262934617388681
-0.9596264645925443 -0.85577630170626229 -0.24745214027041545
0.73737253687759541 -0.631970144876006 0.67264029801591574
-0.50889086716671272 0.45691562125986407 0.60700468699048793
0.87385607851911651 -0.47340948327999666 0.71753008387076678
-0.90399698479850876 -0.48608629622790889 -0.19366393092753745
-0.30093129349923387 0.24339827063291009 0.46768465719057961
-0.047809990718238993 -0.65812484828773132 0.74821554510796584
-0.10128912896532305 0.86136909874328138 0.027775016850268619
-0.15480962903486495 0.4132688819434911 0.87165583898425547
-0.41258755044615758 -0.56262432786267702 -0.086024880577603213
0.2105645738894999 0.78013728205214483 -0.3072808891180282
-0.20050083075118719 0.41091814941487348 0.78503551087337486
0.20864328572614266 0.24139202789573044 0.73996533373011641
0.47358816223835354 0.64809945365874588 0.44365842139497358
0.25738018401362628 -0.16804195220897156 0.98684241107477966
0.089751565163972646 -0.3358101080408169 -0.0025574884420662136
-0.47451731452809909 -0.95400945139539095 -0.42600627595076379
-0.70492929834202489 -0.74981212510866313 0.32553600294938834
-0.35756499313682688 -0.10377826477596686 0.7177245373517851
-0.64299470266202996 0.21478652085307115 0.72016248825264295
0.85652217822837173 -0.45414280129491025 0.57710962049364833
0.52347222498541668 -0.47886847021443302 0.33838518473687945
-0.69071546418627805 -0.67348919755337988 -0.065673134137264944
0.10598250534890341 1.5004335947220819 -0.92828624766285173
0.66672017026296004 -0.036314077450922966 0.71213720795422053
-0.76135036105888287 -0.4996979772357355 -0.21338117343365245
-0.19945200123609563 0.50041157326601482 0.47253853344555408
-0.081875245787393469 1.0591919005483852 0.43229788735744878
0.35528839596289163 1.3901611144718993 -0.5379637480662901
0.49357710821021694 -0.10703681924468023 0.6230077195007071
-1.0117287875897572 -0.6880478460642947 -0.34789922160509007
0.3583186143080288 -0.38003126100364848 0.26713711171885601
0.17442604824479457 1.209829454258593 -0.45253551717336016
-0.26819084153101036 0.46178709261622597 0.5359166639024473
-0.12780325614369858 0.5877307484936507 0.63821972057010634
-0.70923025063449419 -0.32910531340552107 0.56676727130953153
0.067954349717342932 0.3706017792804388 0.70325317161742629
-0.81535334222726608 -0.39030522056194594 -0.35563107002686167
0.59661193258052969 -0.36281089530248556 0.74978093259616707
-0.58573757864669651 -0.23654361975053773 0.83569298417130367
0.2035594566988459 1.0160522545651847 0.13774645433013022
0.11108601299609777 0.45334635234047616 0.58674321452723155
-0.64857880741570728 -0.28652736896477782 0.51136168036763996
-0.027453119795319614 0.21035997742566881 0.50627168617496221
0.38130319450502292 -0.52175965479079212 0.46471738775508159
0.0059248590603950824 -0.28693030017399757 0.89071261952509673
0.35866582902461208 -0.52167866495178528 0.30121072306155006
0.73371303530434062 0.78086370801377836 -0.44821517284243961
0.22600891304294457 0.43586362195741168 0.56967330710093844
0.016763368554549296 0.24200976885878611 0.79684750786201741
0.32710685451237154 -0.073216087130874463 0.57779748604207637
-0.57848272822908275 -0.44369478579351851 -0.19596364818394904
0.13238421791028587 0.04115719542198093 0.58226730682757788
-0.22348925412695952 -0.24594250867456591 0.75997442457983611
-0.040693877848161142 0.87673725170795658 -0.10164479140936178
-0.70899101061915393 -0.56723399669260721 -0.37453686713248768
-0.40506005782057886 -0.67700154051925532 0.48711310509911721
-0.18813913055664366 0.40335113420451241 0.81383744138482395
-0.26594133125283359 0.13581774214126474 0.82819978609549927
