# XYZ point cloud file
0.11678196417170578 0.47873339421968386 -0.60405098926889866
0.31188172173453044 -0.38673259123132975 0.57002801825127825
0.37817799614543124 0.563412419018263 -0.015980034336692595
-0.26354307321775416 -0.11746498633206104 0.67247513357729427
0.45619211121721115 -0.13884021959332349 0.6515278190521635
-0.47040293369653274 0.053339163597985406 0.81861866726185539
0.14306567006516979 -0.26256791997417039 0.1553900201307431
-0.61178831857820792 -0.3827424506149244 -0.00088744870059764835
0.35174925196969975 0.090239789526138758 0.75558832886025062
-0.25658550217951581 0.12316692225144066 -0.83154639016996901
-0.196933062804453 -0.13545572262883487 0.7816435291759728
0.19009931499099847 1.0386378946299479 -0.43352530138361689
0.50255001424935497 0.12826663245602321 0.5288472075839753
-0.060377818992313204 0.60174659428095034 0.0013648873923253202
0.24284298088900891 -0.20352950236095624 0.46583453566605904
0.00047005807147826317 0.6891323490715594 0.49000774228833033
-0.14462583092115167 0.11595668054539354 0.88612055552739322
-0.69053128373160055 0.040415730586268683 0.54391130508180641
-0.19182874481133472 0.015577683492958738 0.92881304414738264
-0.019378722336708676 0.672355645491164 0.67563501484584321
0.11334866507932739 -0.15442901476860249 0.8275980356688456
-0.3542925712905991 -0.068013920197196653 0.83033660171923873
0.11172447022843746 0.37025363713454273 0.16954181857019701
0.25424616100219777 0.27148708331791449 -0.24907732720182441
-0.22002624113659275 0.61939532396549668 0.70912313629321033
0.11578138532471605 0.10514590078640473 0.12441734144078975
0.60749926811637778 0.56826869789484769 -0.24681943475793655
0.16646246176146617 -0.0025728290562688771 0.5073383169694371
0.51075497853045804 1.0683977490031471 -0.42350231614004707
0.28302835386811775 -0.24896451471238989 0.60470182964284258
-0.064325211517454184 0.79871667390583156 0.46568679759805987
-0.14157184741887752 -0.10488416507001497 0.62882270793689266
-0.0036652008884318077 0.1264119625935578 0.73962022371504721
0.2431318699816033 -0.51252407010861556 0.53233736965884593
-0.14943275844767856 1.1004176070270368 -0.0068836819155940754
0.42856327556174412 0.011966638473897451 0.57679316029412675
-0.52371341932972837 -0.25796866922518669 0.66728578861505283
-0.1125554713215432 -0.53719115763678527 -0.032222468205627575
0.38072027136954351 0.63021277795744512 -0.090488956480054838
0.32724421829475225 -0.32068157486039806 0.75533501631141808
0.078274183304932521 -0.030914292473791627 0.57742432667098553
-0.49654917130903953 -0.51079249878164723 -0.13865945075808755
-0.36197864859903039 0.02237313673725716 0.68583630373321347
-0.11372705937910332 0.35494466044908213 0.79123368435628583
-0.5122143332983331 -0.34336675524138571 0.65176081460829804
-0.42333314394296895 -0.25194995081305394 0.62658401921440365
0.57325140250158835 0.52082234205958999 -0.097234891547800406
-0.52475544140321839 -0.343425251719367 0.20343005202120568
0.43775212038392453 0.80914069006646983 0.11168468157175482
-0.5065020043988846 -0.50550177653121708 0.06248924198972633
0.52093830694941345 0.1939494089004099 0.42433132857532563
0.26862809120352726 -0.096521342027807377 0.64260359359624275
0.10858441401491559 0.60210032385480905 0.081969692935452088
-0.74857017577382368 -1.0361586706086015 -0.51083145998692137
-0.035650870127324152 0.40363996119975387 0.60122416117016508
0.43905696368808073 0.84902215045800056 -0.33503969962972724
-0.26987467530299003 0.65629660826947545 0.11592504647464308
0.32428706071118951 0.77790578472388094 -0.42085235813061783
-0.2581707494098191 -0.50687077969775329 -0.45734283454563535
-0.67007767456077483 -0.19592695348797551 0.50960465171581271
0.5011726682651243 0.62358144158264639 -0.51470591074728023
0.39697291374468574 0.82964771874548038 -0.53782710870182304
-0.22547067220457728 0.46279716843692686 0.6431815759913575
0.028822011683256488 -0.17759654753498333 0.60957216932162928
-0.39549632875658158 0.074845635132575028 0.69813377238961971
-0.29129941348732546 -0.60405992080452064 0.021614704963643955
0.2523869605999689 -0.25301259437223755 0.67258300533314763
-0.62871565342226576 -0.71722667538962359 -0.33734542399669487
-0.65256269062085615 -0.19920827020755438 0.70735450934912913
-0.32998973081768534 0.013646255405709296 0.66607194309773465
0.389660696179014 0.8587565576927223 -0.38392076562095456
0.10653915564891492 -0.33787333163811573 0.37237910129154655
0.3364853277065859 -0.13867008183006602 0.90448440859020551
0.40787126399101115 0.7357578735578677 0.051557425853309358
0.29897693555470584 -0.12237568816615929 0.58025228490190806
0.22920669646446096 0.91061077511644783 -0.29108535930417645
0.29972732534602453 1.0553276662810467 -0.36884374060320113
-0.35829743097667333 -0.32456145524464519 0.4181787716349078
-0.7970174273204278 -0.43506733462976177 -0.41279054352924627
0.35686144101007788 0.013699641717981548 0.41033806557866992
0.2882958391032816 0.075331151853990752 0.51619007211656276
-0.27609171054941617 -0.011150636419610116 0.79393866199417262
-0.68056635023822731 -0.75029584404845373 -0.26283836069494226
0.06699438583319306 0.035940763577464008 0.60090787391194989
0.3217993201245436 0.46500082092516282 0.22842434691179614
0.62712277003172257 -0.49409761261361906 0.74705111932529478
-0.13491548347402915 0.10599614447379413 0.86988742593305268
0.0074887662239497832 0.45342797850881555 0.50033447032312461
0.30470571247042832 -0.17701677504460711 0.5327390780869411
-0.26453194741959485 0.10788618060258637 0.79417488784866874
-0.8598751222003499 -0.83567618649552478 -0.23057444688947329
-0.78362155054775418 -0.33631857692187328 0.29373248991284806
-0.18734616078357047 -0.11777865836952817 0.7196630104469266
-0.81846332362246554 0.23209386759553752 0.62673225552563072
0.46332964120380343 0.63222611264329565 -0.34978532478734958
-0.13028316473891666 -0.4819735674058081 0.3976496248891716
-0.50970237551185549 -0.69273601575243682 0.17146930439731145
-0.53450793823713871 -0.63978523075482552 -0.56018603778985776
-0.39300178749189774 -0.68189977592205098 -0.14797760940798596
-0.30121525811378391 -0.2105383886219736 0.32436083562002732
0.35514988620373356 0.025966544142446479 0.29543634349661274
0.17981396679090422 0.56271432690948953 0.5745810779480135
0.28954954393813215 0.69406060790642232 -0.099193064240877704
0.6342561998502787 -0.308431949504401 0.5154432758003944
0.2332656614345795 0.19938220824660369 0.47703323278644794
0.2474788525517847 -0.32409084100516306 0.46864689157435246
0.76265020738801648 -0.21342510931780556 0.65384398599567173
-0.56528664938074413 -0.58725004302710693 -0.038253487810561593
-0.63073315946641961 -0.32013032688874532 0.61478981195411053
-0.56522510737305132 0.60319419507232419 0.1186159923878744
0.022237422842089072 0.1149371824149934 0.77376593993579679
0.19304308703907172 1.1449961639450219 -0.30649517734848364
-0.50962681246687025 -0.25744860375245238 0.65707860945859431
-0.77341186433643083 -0.30672377642315529 0.5610015136133194
0.15963368102960018 -0.10442093899505123 0.40916059074960542
-0.073641991169443699 0.5143445864120918 0.78477015856643217
0.27172695081178505 0.95279029043338348 -0.43637855717785845
0.45290315552281524 0.020007546035026191 0.78874115009957457
0.2805725396872697 -0.18099909931156533 0.74973410162682019
-0.13149022828976054 -0.18876941698391292 0.58653314896492659
-0.46532417842573992 0.030334787274187036 -0.63420545187691857
0.14848492018380266 -0.12739821820418384 0.27642058070278086
-0.35925294546182251 -0.25752008884007416 0.79063025754790806
-0.049378342253510232 -0.1773181870098316 0.33176877309765185
-0.50631332353277758 0.12522465087605039 0.87011149593656067
0.018364387612587629 0.067801539771154551 0.66224028792643486
0.68654302862946737 -0.14489794698181258 0.39451105829770572
-0.37195483189442691 -0.50790592502474363 -0.091368632917221748
-0.63416757071584817 -0.6714694552506757 -0.50725525040736574
0.50538331399687686 -0.3934210241035333 0.78537412906005732
0.20573993237576482 0.13764071090882668 0.45743964395354397
-0.59425235139679133 -0.63157956032987206 -0.72926781418426712
-0.45782787323543528 -0.45081907716957792 0.20735492115385878
-0.3394596715525614 -0.079912317221072948 0.75446229571741863
0.45129533750181949 -0.31156650509884298 0.7814418157734413
-0.71591570794637371 0.045256114728798313 -0.18430119704501569
-0.61475623831640258 -0.033800475954696596 0.42313083947405827
-0.044965420651462917 0.14892476092200413 0.60272027634085157
0.14554183717705782 0.40397553017312071 0.63994612743521562
-0.31353698582935774 -0.27798562923199666 0.19132666168925094
0.7985280442381304 -0.28150510308359811 0.66356880438933075
0.084319645252932895 0.6309334694892742 0.54184757745340839
-0.13708699419344028 -0.22558340844922442 0.68337494789134445
-0.47929919269520826 -0.1725686216620157 0.67195988469360679
-0.59585860287239867 -0.61341059451707114 -0.20799454063924283
0.17997613651370981 -0.012288535840140336 0.81066106144257388
-0.38617187842803058 -0.17858809570060552 0.75486369530225883
0.50772159261497285 0.46620643320430666 -0.4920602880135746
0.4021917240402908 -0.1815538290706894 0.76656624025736297
-0.36745961986796316 -0.20034022058614387 0.50418948052764567
0.32154056587027169 -0.12230080026155132 0.84308167996090122
-0.54306566832581482 -0.17480467607672878 0.83400843781885581
-0.055591980655767204 -0.070645131486763657 0.80582507561706918
-0.64938580155050563 0.16480471224990906 0.95211848881891947
-0.15290896866355808 0.68182684221000334 0.72584793960371319
-0.19699206357446619 -0.37793787161161652 0.30299266556904164
0.048476601185102552 0.28907164528960894 0.69989227017925082
0.0022853313916051388 -0.10582282301809776 0.84606826046505312
-0.55108315458434376 0.57751971330379714 0.80717355669336766
-0.30833982708767071 0.083164126862227516 1.061561390695771
-0.2452637441206178 0.38646741211746483 0.71902872336350521
-0.74867983716480291 0.43445272774891919 0.691978327390944
0.25062218236634287 0.8335186047368911 -0.29353641746259584
-0.57621234195986282 0.076524053958968996 0.72950090262396827
-1.2430283194930392 -0.80692870065810574 -0.49125023119422179
0.10729889835306017 0.073541981429301462 -0.72632809797868503
-0.0039071318112459119 0.17172700141476371 0.78743227755825562
0.35051464181354286 1.3253891378201801 -0.54562228629391041
0.10455187976324198 0.60584139963850359 0.62919459354460383
-0.48910221248889585 0.11875775972446179 0.54524976503452849
-0.33627322055315512 -0.14537832809453965 0.67008839028538869
-0.50871795857383062 -0.22201877897282307 -0.50316493694718067
-0.4129249847787716 -0.21194508052469174 0.69076560985685487
-0.49585347465688978 -0.035344544437718062 0.74186638353612167
0.3158961073058999 0.16236942502541363 0.61418764211122989
-0.69201795632140573 -0.87144722515927431 -0.16646588055469411
-0.13801133971857804 -0.18376519307264128 0.76375245059296537
0.43893622152880307 0.51676323723581852 -0.35115034149927704
0.69877121907254103 -0.24673567713297428 0.6390289373482172
-0.05608501076832173 0.45340109186794464 0.81609646475558595
0.57025090553320845 -0.41768024726975483 0.52925571719381381
-0.34042431047491611 0.20413457151966652 -0.4167845820737418
-0.12311201717698184 0.16829424884374278 0.78984374797589663
-0.048279727000278938 0.64443020166787013 0.38658860992583877
0.15969413303639568 0.70127326505529097 0.55746128440999532
-0.031671963228510736 0.10516768131364207 0.64197173723197209
-0.4472130017785807 -0.20501118879693137 0.86591541076123024
-0.00011041645738418815 -0.13193273306885456 0.7011803409800712
0.56859304567341784 0.77127280323272951 -0.35325803791344268
-0.3562415582696985 0.07705906344816027 0.70793784264967463
0.020444771236776349 -0.15641755786613554 -0.077276185593964875
0.10153177851846351 -0.32578117668858075 0.73766498791882817
0.27689564486837304 -0.15457868407100595 0.79018332033126071
-0.60592115392895507 -0.62437441534113869 -0.50920242823851025
1.0856546592022749 -0.62686124998276282 0.56209719023035098
-0.71079884503528323 -0.09955113177895436 0.93943294448717962
0.44189653335395562 0.41827841010890832 0.18345125943168361
0.069643484323156368 0.52062656658452666 0.71152957318077159
-0.87279006229215106 -0.68743558072263244 -0.44352659274400852
0.098510343640943854 0.51624367182098163 -0.24412514924980955
0.36712248011514537 1.1559569084580086 -0.34813028712638028
-0.76852791187759117 -0.72292426465432369 -0.03237992636745074
-0.63556752936849137 -0.087476148180977042 0.65059422560633662
0.36639388276168861 -0.22421437853111759 0.71478409459865022
-0.3756362799796461 0.4253816276081549 0.49834766547752452
-0.5139137239787881 -0.20700590943081265 0.14511877191350353
-0.80888079591973083 -0.88090049166934448 -0.35997578725763463
0.38938306925460531 -0.22860960723642099 0.51740428006904415
-0.13768886305371564 0.25847652430425194 0.81882224232094247
0.37198206819213164 1.0046644646986516 -0.1179035574000703
-0.13628696665846929 0.61257241044597188 0.58152526854237929
0.26751670751854406 -0.017137976071558203 0.61810901579670519
-0.2574578934086571 0.073670926452096941 0.7260283220848468
-0.13497081116297294 0.09428684154064082 0.79902197011626963
-0.13787660193234741 0.11089029566275721 0.90211176275437488
-0.050171490955116749 -0.07595925287100902 0.71447215714823176
-0.34130197927009553 -0.33567235329198963 -0.027185453163668272
-0.28381084387957112 0.037330000879195468 0.79167950547651178
0.048989546775519477 -0.063723817153311768 0.95865700538562726
-0.66759977196879028 -0.64656238108890651 0.035148997131388804
-0.23738343888136043 0.51237693864430989 -0.29211023625078247
-0.40335429274946488 0.41093342952700973 0.83928096543734676
-0.76245949819721992 -0.50142329387164364 -0.56663046694069519
0.28074884938194422 0.85887620269491871 -0.22817311829831888
0.028322033768191923 0.97913691566022731 -0.31440555285145355
-0.30930621403755998 0.22490276507018803 0.75165654119257364
0.29231988556330424 0.024956684263655049 0.70429724118254688
-0.86374231662096312 -0.80539093582446175 -0.29450682936779676
-0.20066866957480156 0.3392309171108806 0.76232003752352373
-0.51176430659624805 -0.59218620087088181 0.028773872973814632
0.36456731853897717 -0.26387826997061048 0.54345141941028829
0.23783867709082851 -0.097567402844487283 0.63066797327287416
-0.69635678481168606 -0.83181845246357133 -0.18704116243866453
0.55489713040379862 0.90978943552647185 -0.41190710147920151
-0.20827452086770754 0.86032178406767101 -0.52104757563326265
-0.073156265997097014 0.27233118910581444 0.89029654708089001
-0.073779322383152657 -0.1001879325601841 0.61927963512872197
0.78319973506466067 -0.46186466346452659 0.54819973895354646
-0.0091361564028316078 -0.24908369577417733 0.50875229077455897
-0.34131495249027755 0.12322939060221161 0.6348611996646647
-0.35210460295229384 -0.60646986656378155 0.0034245758567575668
-0.28442150285548606 -0.46640970330374554 0.10792825755610191
0.9883011765702866 -0.46582330875605049 0.76180222606580394
0.35528880364422444 -0.079615990947061621 0.75558901192513417
-0.072994689736688656 -0.34437368419625836 0.33129757944463289
-0.59289908661607682 -0.79871198861454951 -0.46196663819875294
0.19288794057118741 -0.23354170669519492 0.79978195235479554
-0.30371425215761083 0.039989759498961663 0.55815947202757876
-0.33182639803640446 -0.23133708094764838 0.71772816793679173
0.31003875281263793 0.17330390713338517 0.55871814403537312
-0.95571080630673477 -1.0296871724011734 -0.90858312935094021
-0.047516818136630778 0.88313433438229505 0.015415741993555998
-0.60057877950174432 -0.47173646224447441 0.12197984335743904
-0.036700785764124499 0.47552917027589514 0.66454470511290409
0.55851218898051613 0.41303011587942484 -0.22643803332029511
0.012829027125361048 -0.36088888471448521 0.64147687747194881
-0.56252144439036156 -0.9147195589060888 -0.13964030574881536
0.38404525057403605 1.2012271260875802 -0.48337857985064869
-0.4727118585910709 -0.63569659252086008 -0.0049149660708741882
-0.066838524955289635 0.7534868723852115 0.7048449520088339
-0.01413813152226262 -0.0087649984168403083 0.6980152588289199
0.09521876133705176 0.15318058302230841 0.68515978708973557
0.39602465228064204 1.0390867797954089 -0.64050846809123241
0.17756420157991282 -0.33916483600232838 0.79225834652638494
0.08754002858794574 -0.19230056460533274 0.66399059044666531
0.48356413600019621 -0.41483721151505959 0.24522351619982746
-0.69266072874935403 0.25588223243576536 -0.0043823456194123089
-0.75876933665207724 -0.056274792388186334 -0.27334219662067005
0.1437732473871749 0.8819096371455083 0.31794232450228654
-0.36535461694500782 0.81376856417015997 -0.1570308310115468
0.025579575065140303 0.9429352997216971 -0.44269577530379123
0.13604460648116479 0.43048484329484848 -0.22518205428516169
0.25685128430641613 0.14612199608202625 0.60202393426970102
0.30152981712040483 -0.39184118821162617 0.52377343988644076
0.51646569609091997 -0.25919068242958077 0.48913250441892975
-0.098869346117520074 0.35766636358169268 0.53784041090034396
-0.5356209676273781 0.17391426366955509 0.26408553822390435
-0.33025009862949029 -0.0027742921469404713 0.82523907409792063
0.52766081426242839 1.1509210290005076 -0.54424770344416773
0.024005331548982323 -0.1520711339571571 0.75678954010670907
0.17665800825503064 0.32549799097269494 0.73344226590178763
-0.25977577351252035 0.4695296247854055 0.68784119002303179
0.10835355193212093 0.62206940748786577 -0.44345851971029682
0.091102648081716753 0.74220537550675103 0.41617988629455105
-0.33385238305433895 -0.24121945504387643 0.70823745997621201
-0.80775335393728409 -0.1245992082674493 0.60168181369663087
-0.19279995026400742 0.09153291584908152 0.923854039160795
0.17272504816400855 1.3332932204309937 -0.69125413265085001
0.092727220073626271 0.57505525675636038 -0.022428787444086606
-0.42576240865562376 0.43209564991074756 0.70986326275043399
-0.10785373165417966 -0.26189981519334005 0.54830464010644075
-0.066533151083798314 0.098020214634290004 0.67493252557099737
-0.77061525976483758 -0.67143848568852516 -0.2501200596666347
0.34490065546794108 0.37290244144932227 0.41498543283930167
-0.15347825838724882 0.93795244655020948 0.7517633160084487
-0.1584847242701608 -0.12181615022056114 0.88520953664830626
-0.53641374708141021 -0.69317538820331193 -0.38925024594817409
0.39351431486152666 -0.31805717573343384 0.5942565989559857
0.27784440406331234 -0.073799474529566478 0.78378606920003824
0.71029555023326996 -0.37533285258987603 0.8585140490822567
0.52354967270681341 -0.47352230763749503 0.43810279746830527
0.13614745031840414 0.22826680479442929 0.77757695504559321
-0.73983887093411727 -0.7160899815924564 -0.19103129515224856
0.38171433382540365 -0.12843575945961594 0.51123589190049634
0.15528900410992036 0.53753783468056582 -0.42576356251506187
-0.021402008826172159 -0.082044030962981962 0.58953871519225132
-0.61676202243942324 -0.032318801620147997 0.87134830321720902
0.46886144376338523 -0.22352244097352669 0.65591772059936959
0.86776126904130813 -0.40129070000865275 0.72369900597004277
0.4875505503988809 0.15129231133131205 -0.19219886465131875
0.0046954727805912089 1.2837910120328693 -0.5569668854212223
0.14715730614112443 0.61939267761743511 0.45968476207271547
-0.67781323536681815 -0.41615905125797703 0.20040942764254427
-0.47458155695022763 -0.5864077064636829 0.15389058256506533
0.65325774037788298 -0.35334507070605525 0.74757486035027909
-0.13556547315216183 0.81940975377599945 0.65757636153796262
-0.029620380403166613 0.015783036252414728 0.6550663622983075
-0.4732563215388278 0.038789972425561148 0.79852989123154883
0.66288498813773 -0.41231738431250897 0.54005951693991339
-0.2038819206352499 0.16774777555100251 0.61800810845813858
-0.61227788393314908 -0.17092189251327417 0.57320401317407133
-0.56906326190297052 0.28555913585367559 0.22582677516282085
0.27532394742988742 0.58557257600926349 0.59516745027561213
0.31501262582969125 0.14236159088226741 0.73410519336683133
-0.28742738002901946 0.35423347896934443 0.4502674935971569
0.21200606234831074 0.99139556979876842 -0.34745299391969153
-0.21623517611463661 -0.46180406857939116 -0.32732154791709744
-0.20109614901514949 0.33457343310905963 0.70056465311220184
0.28335247514173079 0.25903420354551587 -0.053766315672821308
-0.3823163885709262 -0.17356420042228304 0.67045971420403794
0.068135368967248588 0.55600446277060778 0.59514039347117575
0.14199600893331255 -0.16018414347902799 0.74643336834305751
-0.46995226962529457 -1.0261079641329811 -0.53121607205883337
0.26979637793116185 -0.20715090387407731 0.82046459814349404
0.21738340230516323 0.72336869133374149 -0.41155460584145132
0.023694089450453482 0.74897275392446083 0.38649507696359087
-0.58191058229470238 -0.72692188704861527 -0.73843718552598991
-0.014298176764778181 -0.019383187772435861 0.50357649538756621
0.37367563534383763 0.552036041887776 -0.33170892797991491
-0.70848111752929299 -0.68182644739964315 -0.22167957407658817
-0.66466036029134745 -0.26221007737963742 0.62390398298838967
-0.72479672725704392 -0.91379117725981107 -0.32246373919920357
-0.81519708000193114 -0.91992562285323043 -0.63189366961054161
0.24131838185326765 0.74073304572783816 -0.039846185799733647
0.47021069933641879 0.61642726587074836 -0.34681741876398775
0.61964115359661831 -0.14494318859686894 0.73047395916413005
-0.45419563723339351 -0.24576510755281333 0.85498091483484639
-0.79380606138835486 -0.33262712943780837 0.59681552258937176
-0.48720775222405222 0.14886679751615273 -0.4713524742810572
0.34938563835317815 0.24606256148541572 0.42533832712229913
-0.75915232497057428 -0.69075765371023756 -0.20489681410024913
0.058774335579336201 -0.086261257273291703 0.7699254732229065
0.46985702372741911 -0.3128329407989815 0.78202141524771196
-0.38639560347711432 0.45613540549663489 -0.12933640597496843
-0.37978180869422262 -0.059608248341875059 0.86888523315100452
0.14096791474867715 1.2358065157133094 -0.3409914956942085
0.4084918219367828 -0.45849149401083389 0.52678467854856292
-0.53938194373733805 -0.63070951856953117 0.28278536593995157
-0.64212911040463316 -0.69320898483328164 -0.62346446339067418
-0.85401792040276991 -0.95395471884047045 -0.87697969948482823
-0.53062017650379512 -0.04381985439195013 0.53295449917102777
0.47139541988261335 0.73919046956324108 -0.06323690126270809
-0.07768986934357236 0.734579717705653 0.39178053662545065
-0.57262761759238834 0.02665741513090425 1.0127288231603533
-0.12786797384640325 -0.45593742362793499 0.56615402150320027
-0.42731335163710749 -0.55169268094921831 -0.078896052674793327
0.35250298062350166 1.0224499262483564 0.23873811571430392
-0.65125302225935622 0.2250811648012303 0.58438440871417296
0.74951694188461282 -0.46510645720263177 0.70725495699617102
1.1696777552779483 -0.43305691617137609 0.65578842601265885
1.1046337462595892 -0.46574902435973897 0.69787650040783555
0.38003616497556036 1.2822279326766126 -0.42531115715923296
0.26527503178123957 -0.43366435586009766 0.86187356242983193
-0.48469505173520244 -0.050733872199688168 0.69827623170024944
0.37272324824411796 -0.34988084012349141 0.69993232034734043
-0.28677823496901933 0.48136173922154124 0.79511556307047559
-0.2565322973522568 -0.1691027664801863 0.69424930990125766
0.24880541926213717 0.098404369224789456 0.64202227007328605
-0.43040324517655959 -0.026979122417010504 0.66041742896310462
-0.18027565978298976 0.14649445950449902 0.7492193605605344
-0.75104997656649131 -0.74856231625861835 -0.69225561695864879
-0.9336538594143543 -0.64446187363083773 -0.55628847798326597
-0.56655805932073133 -0.11902713967171064 0.69336235911491972
-0.32090756813916099 0.10741612703251768 0.72899992803304026
0.033338656300090141 -0.30935356455694474 0.66616772691898085
-0.12595538648411009 0.24162294202075796 0.84335228495595649
0.59302753522737195 -0.52827367025277516 0.42095098734777697
-0.67671827898497494 -0.60655666998591629 -0.1553956958031803
-0.30351238796977031 0.55908445433403575 0.76573521837142855
0.18642164641075376 -0.37902934224663831 0.69257656931996348
-0.87278803570691754 -0.91280506046856635 -0.37062071366793053
0.19098694405817518 0.11654479020076369 0.68499791481800731
0.23047363894255879 -0.27732538129034989 0.49347615770699671
-0.18126425728466766 0.084588158220364362 0.69309500366934551
0.25679144746995619 1.4499804427790322 0.22092976033332512
-0.98624161672059674 -0.95755256990590742 -0.37708893006906524
-0.29201909954947913 0.23526084845880668 0.83084958695114497
-0.48278433969587942 -0.16562671819108343 0.79273441134590217
0.26148692368669152 0.87560009764830937 -0.22100789800347531
0.06980244282828113 0.43106308177246344 -0.20240404866719275
0.98701462287080965 -0.36066739609372855 0.53400154947482115
0.66523515549991463 -0.33473354443061376 0.76124272127715509
0.32763339683307796 0.35697335875613467 -0.083815491466118996
0.23486793697014763 0.74147194413230044 -0.026439822601218577
0.76659028746741686 -0.40697534511313727 0.48293539488285453
0.0067162060766293719 0.8398508493732233 0.36366647117149731
-0.22381354751477989 0.37813430462571185 0.61851575150250615
0.021656238057660593 -0.036666049603594097 0.73543390936847897
0.30742648017480279 0.0529054988783485 0.70617517469989843
0.14191201547204757 0.095526066792773423 0.6169315747363141
0.24666070576011312 -0.26180148603959907 0.53808617370773404
-0.41310339705283028 -0.50613061457970376 -0.39925617409849568
0.065734236131730794 -0.5485556205392591 0.61540560930747601
-0.020731444825482837 0.65433389920046747 0.71478973226846287
-0.44098080874611179 -0.89387776985500089 -0.04706493096738093
0.10876777834302498 -0.041832204557946562 -0.20201425236053827
-0.078060753164348462 -0.20917619875941895 0.58191336341333122
-0.097900667940049146 0.32134574003008842 0.64825982238880853
-0.39376397931295681 -0.20456248787766673 0.5844948676484808
0.05359633185055912 0.9359676126187465 -0.40586745362556731
-0.29352819842590439 -0.053954589654583551 0.74011505015726931
-0.44185438215434147 -0.10197240767844906 0.76115920992816322
0.54248901427504892 -0.50221969431530034 0.64664933509695377
-0.26294082192786228 0.39297859308807381 0.81288685807066274
-0.85842146530988972 -0.42346482561437737 0.029021403197639468
-0.20234146723078439 0.076619293880004324 0.78703493198212837
0.44505611860030037 -0.20443427990520813 0.77702043313835256
-0.49322156516657745 0.059178752262329826 0.82171749021662732
-0.83840316717535113 -0.49511869373793627 0.52326767041372668
-0.31722632902069264 0.58525293166915293 -0.15831579643631988
-0.46196443464460146 -0.14555906727991308 0.69620014659894136
0.6567767280034702 -0.10657572706444451 0.50010866709692769
-0.067234105604702887 0.51939324184334734 0.61312379542686501
-0.00068465363534131463 0.80497313596570963 0.2375154724669285
0.010749405944700752 0.62323940268816869 0.37139132103236705
0.16434420986743992 0.11178719006231996 0.76726854209570161
0.25998594316602552 1.2513935005330667 -0.42637728012838039
-0.70090049231934271 0.43363024846991371 0.84097357709711262
0.10131487227132496 0.076585901764175901 0.63982449797495944
0.62606459217858312 -0.57326667151714816 0.55829076372240927
-0.13841482837581043 -0.067176628670899019 0.55316230568999092
0.13479387141796839 -0.41071381354522896 0.74804772313071966
0.72156211601581233 -0.34039357728838893 0.68481685560997141
-0.32489602721186506 -0.26193544811088476 0.28354895977538119
-0.36426848125019506 0.43774584100015745 0.92475726096500876
0.11376087918041877 -0.34776193271973121 0.61018584563279188
-0.36865247904059295 -0.34204174770647156 0.76445620548157156
-0.74239439140737884 -1.2588753775427541 -0.98373657420801575
0.15692799970496885 0.85502292754372911 -0.50318443739937802
0.22441564111325096 -0.33302319391889268 0.72539372090078724
-0.55827539531621573 -0.19659966215809477 0.065147263632616026
0.1921369723565719 0.43137013442248295 0.12113113734808301
-0.53485687450805675 0.54068894276154866 0.63396682461290621
0.93176727406017745 -0.53732482628351896 0.57862712440937425
0.22548890133734445 0.029176784169300918 0.69637575787158912
-0.060758295887040958 -0.37570106813817006 0.89197674212556177
-0.77910003207678158 -0.69571307004470351 -0.69194419325181944
0.31704172076634918 -0.18638998788358729 0.42200116687336531
-0.22991580264415856 0.19561664860588035 0.73042726043009787
0.13163065375845517 -0.089953463962989311 0.21407232790871222
0.097952961635808355 -0.19153622463705677 0.21828473898492284
-0.6848909015251694 -0.42152791246777366 -0.41397377234896304
0.10715314784882618 0.87476760315121538 -0.21526555105036471
-0.15076164656763369 0.22808850101048295 0.69490011461700585
-0.50256123723081736 -0.84422255371646515 -0.49287024274416447
0.82250409857856666 -0.22245849952823371 0.69520042564333939
-0.014738435222353075 0.25674903335648547 -0.14392564587451895
-0.83010501805738535 -0.93348124907764529 -0.57121758169151993
-0.58032024808150018 -0.1261433856385803 0.81614278027931986
-0.47004942008754558 0.024516965757554798 0.67743345034419589
-0.40347825206348098 0.24804871725800393 0.81884391739404794
0.013454674095536134 -0.13261148073647699 0.75413373260871563
0.65657386892067537 0.68292534309836739 -0.21627535997552372
-0.77230109606605024 0.043294226506800038 0.66614744067791443
0.25585857232494535 -0.13526080372594107 0.59109766463279567
-0.33547397394507161 -0.77542780542149203 0.057511270789691843
0.3001954773077794 0.64248806758365962 -0.42327415962655923
-0.34449843124893542 -0.20874317549803334 0.7965783314179784
-0.22360215890753121 -0.1901658471989458 0.69775339541821935
0.85460445910940863 -0.46999908459909734 0.6786916792118155
0.16172399185221698 0.17636183561827623 0.66247236363036244
-0.75298821472088751 -0.65296899337254977 -0.27781752993757436
-0.39765588626249654 0.87028963596040121 -0.39430017067171019
-0.1979903603613915 -0.75995344882876648 -0.44770140936872371
0.85728081525454169 -0.38132470469463542 0.46063814959832827
-0.14248519892869371 -0.43145518424342377 0.71991646561457878
-0.66523224602323439 -0.85585557124731282 -0.1496396822576164
0.13905003866411492 0.3353094238062384 0.35709462889843502
-0.4287617429704812 0.37215087561788163 0.70649088210419841
0.082271129326536907 1.0298999546339367 -0.36605374943497404
0.09840469219238035 0.40571262538359121 0.64831048680637449
0.41441039335177055 0.62743195056220469 -0.33563718482878335
-0.36602583291833557 -0.28217299961150344 0.64252379568378659
0.49497778522908009 0.28405456746224056 -0.17365888253716677
0.044905958961284131 0.3522175721241072 0.76320163186708967
0.32623099689499013 1.0573440334929658 -0.45882169443606646
0.058137234524133108 -0.094360319830176675 0.83488590270189211
-0.34112383009063452 -0.13194659622092209 0.92379133291354876
-0.024698950942221964 -0.11650123676083934 0.84728839380523657
-0.54976267574060744 -1.005033720708191 -0.66818012293768114
-0.16239930430945138 -0.26739653123247598 0.66394601688525245
0.3389044573084633 -0.1237032892510348 0.66587252339682101
-0.337856215916995 -0.74509877621371001 -0.029696089330797745
-0.586619958574919 -0.61155871966635944 -0.13280265270118768
0.59799178821153187 -0.27206495003654863 0.6655123505345768
0.76753445332876713 -0.23087145434833334 0.32799909904747504
0.16441804187385189 0.28308198432980092 0.47784092780297505
-0.6415722473121428 0.34871242616996218 0.48930242037063654
0.02893085194606615 0.48751259655389956 0.53274564293999538
-0.11305830843887443 0.55724115190332368 0.58335947737702554
-0.07339264274712276 0.52940854726732101 0.67350916256503568
-0.54255838455669148 -0.52639291224361184 -0.0024657757104211697
-0.66919438811006771 -1.0359400735887854 -0.86602958536629571
-0.50614961711352913 -0.26995907071578218 0.64498215280764215
0.1231063973732156 0.81648831924535403 -0.20929148057752578
0.23331642858578744 1.0542048539282027 -0.49215655404052006
-0.5550684716750538 -0.095857038353135304 -0.1253335392364005
-0.32712100299478974 0.25568310753814538 0.74175804767345577
-0.42944687436980478 -0.72584217824853103 -0.21645424648890929
0.013914245624639832 0.50656429038042372 0.46252227596921158
-0.080396024261493615 -0.047660694944481996 0.82821124899310217
0.19470633111955069 1.3069384841597711 -0.37902065537810004
0.75259412988726271 -0.47124061164979181 0.51349352768384215
-0.42911128961510725 -0.23268750540367056 0.78175947867316964
-0.030083702352230901 0.50202342814908096 0.89054745046873296
-0.62182713453496508 -0.19021086428921585 0.75832895811796797
0.015763154975704574 0.19423302973366274 0.72421893292103456
0.023094201419542992 0.38640344742698529 0.55085612129663897
-0.46985205242565053 -0.016337209853760859 0.59161256193729028
-0.18395981774569714 -0.059769215679726484 0.88341087221414982
0.48781704239199042 0.99817429452735995 -0.6505060489527128
-0.71250237857009202 -0.777875678787605 -0.12588434947564769
0.2303006059049883 0.47040416718511258 -0.15682497366739545
-0.21146143986840482 0.37381650254210774 0.53100907811886544
-0.37467615345455207 -0.61888439216271651 -0.07781531898140126
0.844554039459402 -0.48299147973083278 0.49447100027185553
-0.62763145444604951 -0.06391072333766179 0.85964479855995235
-0.053429054192212333 0.53206750874478048 0.267697383965803
-0.33943316351238995 -0.18288332129964324 0.83259097946927163
-0.41093162373439562 0.48346574953285226 0.81166168778117376
-0.25975601027054451 -0.04800615708027034 0.87415703098511777
0.19018244295978559 0.86448263407868853 0.12883916476108004
-0.030254701923203342 0.074621250312281173 -0.34491256500070633
0.50132333992935585 1.0653778397553557 -0.32112401076388863
-0.21875592245924635 -0.44226256193732671 0.62702445078658053
-0.21585663753895423 0.78298250299211414 0.54288214888217812
-0.15211205358092728 -0.18069062284520843 0.62705812294014862
-0.19730191553419069 -0.045908883895883434 -0.51006307069580259
-0.22699565416771472 0.56339490575605866 0.6557778101879127
-0.20226615288155947 0.65254518620111068 0.5473998224270642
-0.038455218431439064 0.8811255061801927 0.23050217391576044
-0.11667404851469976 1.2057263289516413 0.44742952086192544
0.26107819121882603 0.15376897253321042 0.78485842144065909
-0.62421452667465338 -0.59805656808733842 -0.20928521060495014
0.84855433352792042 -0.43811474399682659 0.67518857160371981
-0.083188798885815762 -0.26716533919315766 0.69070889128058988
-0.17065879568302167 0.45614389252950061 0.69314482835434976
-0.52378936875231863 -0.5006327208201693 -0.51969266714746842
-0.51285659681016849 -0.44963519700128685 -0.10341213636044194
0.1011059583561732 0.69877322735589864 0.68564791013114135
-0.44216577925510259 -0.45201764860166516 -0.12272161689470901
-0.29146198897362829 0.42313114153301001 0.79504724124042736
-0.064974235970726824 0.27934616218477815 0.76126995905658434
-0.21658924116809464 0.1948919283360776 0.78538078748725593
0.19371771574076913 0.47257609888261953 -0.054091773320949055
-0.52244156174540057 -0.38513960204702169 0.17845747463816664
0.64067757791689173 -0.49868572394097066 0.6557826532034825
-0.78495089781217642 -0.15816367594747005 0.61410740477870529
-0.093584089434869289 1.240997395468328 -0.45171188828264885
0.28771311936831478 0.96210762425414043 -0.39458808444257321
0.081532261328487232 0.65252774482318765 0.51288118635587432
0.49291235360427765 -0.3550837903606896 0.71859701300080769
-0.18250853983312554 -0.026913654494447492 0.58081656254898939
-0.49701038593460112 -0.21236955511273925 0.73148239198903275
-0.50496852653487212 -0.41983585710395999 0.49103209937938441
-0.75294969578217241 0.034199538764699389 0.70145380005914093
0.12451032152415298 0.63595274622236408 0.5457175143080486
0.46470034687982698 -0.39718312419524693 0.67420997281517736
-0.01717042304450711 -0.65685483550784551 0.1658616544625206
0.29913234997824567 -0.45106408914850737 0.6679368514022741
0.95448009122727551 -0.35042372670360866 0.5399545291817055
-0.51242526551438905 -0.59225449036917022 -0.45744097883785378
-0.27095964409073603 -0.32478843566603843 0.83697525050854382
0.066142138891605695 0.49703273745058563 -0.016796681014201398
0.049924897614971431 0.36600423698116114 0.50751701628955614
0.5427789573416204 0.045094586328428998 0.48570007235866941
-0.74583083061862221 -0.22613069327808322 0.65967707041021761
-0.14359141857910207 -0.030612300596560504 0.89322966522329161
-0.39323675058329588 0.76648269313032946 0.62236609881905103
0.079039448765602538 -0.044226962335950915 0.89172524181968305
-0.52833273037901951 -0.18271468070295949 0.63337647202582692
0.44145964351812 0.70295368213578968 -0.45291462254240655
-0.02264940862809095 0.2847175797043664 0.75232151633738986
0.11721579542888072 -0.041393429042970831 0.84811906204347376
-0.11271213725445595 1.0868025566630899 -0.25229789321636753
-0.57940011303493177 -0.60681609609338016 0.32208876507648421
-0.52130436069485497 -0.59281945895469668 -0.29448973673132539
0.52862370657761115 -0.34170346532119678 0.71334018191489457
-0.12770661231552694 0.16544018670889371 0.66697142335681148
0.08583746735747777 0.4391873206905148 0.74844179302828273
1.0271995009256609 -0.43566441461055905 0.52707387201519729
0.16643780437959921 0.25969890075529711 -0.021358402486391648
-0.43839746691838333 -0.47117135009151168 0.38215773008604326
-0.15091773919922091 0.40654300535461019 0.80308110156167689
-0.30831344757215873 0.80708381240263072 0.29123028418256491
0.11458321122122472 0.87154048933777573 0.35580757034478494
0.3351509773977614 0.5983008986764724 -0.18233552687976784
-0.1053572636555804 0.34783240548306893 0.69790777854067687
-0.4880668860605879 -0.39533352998372551 -0.3110608125050216
0.47969953077398375 -0.38568609657333031 0.64329140538898022
0.36699715950289025 -0.61271995504199683 0.4448496796961704
0.67474921490252471 -0.38630384227977776 0.26906597514912362
0.13188498309368152 1.1331529586127784 -0.71527409802162856
0.23959885803084618 1.2510430114889384 -0.34161030161385186
-0.73521197845651154 -0.4365118313973918 0.43863311361548202
-0.34707241503896968 0.27711010629952493 0.75798853681881528
0.63761457764529683 -0.44532546139274487 0.52816009583392731
0.69400463773827292 0.66879453717732273 0.066297301838422529
-0.44737068766120569 -0.1171748377422509 -0.42060022940904901
0.49167532360723665 -0.32490622700284566 0.55622834640488361
-0.62571822985948244 0.00042636864036849076 0.83564294103749315
-0.22476507393936607 -0.066035670241975541 0.90930937256005961
-0.0075048550269857239 0.31835661718389618 0.74716890151432958
-0.64261699335401268 -0.23847055944857165 0.90381919678772737
-0.6685122179913594 -0.18293408254716903 0.52664357081250723
0.42324520298842527 0.48858234669060052 -0.046972590299836248
0.26023417860440534 -0.10561020299226598 0.73688730327047902
0.19443086048481539 -0.11184200033409897 0.54770187925123004
-0.33355283906319511 0.33702346049987675 0.83300319901063269
0.46972952815611313 -0.057826865782000025 0.61966580451552977
0.46708292438362209 -0.40284336246657981 0.72433475774748657
0.5002147077302852 0.20136902626364483 0.46210339192424177
0.46484287466236307 -0.29145173485607934 0.51268433766059252
-0.186622477563547 -0.635917272765257 0.45364193495557131
0.20302045790876844 -0.18558088404627127 0.71464778618535951
-0.37252710505481779 0.0095145012025845688 0.76939247433023694
-0.96648707232507935 -0.017110496696236654 0.0035393115993474986
-0.42580755622616306 0.57878586982002167 0.60695161035149026
0.35740529635744434 -0.24038564514749283 0.39155456717377068
0.084345358664265735 -0.061964524526346154 0.74703863177561258
-0.16060979972047951 0.44087351199103098 0.92576712443183551
0.11434062840242504 0.71245149877609337 0.069177068927352869
0.4781187701573722 0.66543118055271722 -0.31548562913640443
-0.34758324279439001 -0.23407929162069951 0.56359198871440652
0.11192638899379848 0.27095338038177674 0.65491917575710001
-0.093611768525440286 0.89518135946343014 -0.59726635598049316
-0.83236164424796433 -1.0724876792335356 -0.50248536671556643
-0.37689724843924832 -0.24575135097508016 0.65135366935388217
0.52709403204412486 -0.26299547846881943 0.57059287368744127
0.46615859778727231 -0.40862481469821499 0.47841437349390781
0.53418130131380448 -0.29901951245384206 0.8049347594163232
-0.21447791594201193 0.30189342415527476 0.623838263757027
0.46453388748985747 0.74024261121048118 -0.022143878722954535
0.44386821062043813 1.1927646161484917 -0.31058708776691291
-0.285934810030403 0.24064590995214441 0.87398052993111397
-0.099876125794134074 1.2164563958168535 -0.16361017815213541
-0.44662223526579981 -0.63932729937045374 0.12563818779854552
0.23288167896236489 0.20809192613726246 0.66757258948853027
-0.46342533557566334 0.31206984280789185 0.52456819486810702
-0.59516013747968377 -0.33612281780379327 0.45291918459506469
0.11292348365671112 0.46075043426003082 0.41466012176032441
-0.35428902715029698 0.57057290805655603 0.7512673348774328
0.62900273607161217 -0.20475455158477718 0.63018053497557092
-0.85688275184812734 -0.81537147148255507 -0.89883316199469432
-0.33855992731773854 -0.056103632547784055 0.76584162120755916
0.19856581237544635 0.62422806209847248 0.55076268021904817
-0.41960952331386459 -0.26910504702257354 0.55297127839635474
-0.0091546286022228252 0.3826091996488612 0.80481876358153115
-0.31443973698150263 0.099135662617114706 0.86759494393801917
0.27065593050067804 0.39566448098147378 0.28794209975640273
-0.32728040606962772 -0.59067492193526616 0.28549309072854584
0.71194462895401056 -0.51023581172079902 0.49664344484369188
-0.32119609354142331 -0.9483676575988349 -0.15234205112368404
-0.1011971022101914 0.44318861627011175 0.72474116052517945
0.29664559695458559 -0.089815846551514755 0.21353319866684833
0.1759999065572283 0.39869114355451662 0.76461546905302902
0.080602605612642764 -0.17163529007086065 0.47678912633862636
-0.62048829926341298 -0.11314819193920111 0.61662642226430009
0.03662922590498352 0.60559382670094519 0.54379014880864407
-0.41989125956213935 -0.34399303393710134 0.79199917143131637
0.32246642279602633 -0.1736725662495211 0.62720003863748008
0.25601979109960316 -0.24819764890633877 0.70130829163554631
-0.0042170540047208327 -0.08691499314336848 0.62629876817288788
-0.14672322865782705 0.088078662248020079 0.68776713679343371
0.010822478557452886 -0.15759395958429712 0.919565528229906
-0.61828117008402861 -0.77939903254208454 -0.33184355919656333
-0.75349623956000933 -0.59814752054979925 0.11840125532894921
0.15843171441571591 1.0717937648957352 -0.16594201032183098
0.57783064273976859 -0.32019189295533401 0.37492750618094689
-0.012910548432851165 0.64446251369377905 -0.45744539964498099
0.60319499666149246 -0.21133857823180047 0.80031932405938644
-0.58379548825206884 -0.19296378839052597 0.64875879313478613
0.32837427461031266 -0.29197393152400974 0.72494919931057322
-0.19808694698075358 0.81811090639952377 0.71252396009426167
-0.46493220898501841 -0.67565022582119916 -0.23301429040762883
0.59847868505475221 0.93279230615356801 -0.14964403170252227
-0.089697128026172246 0.41152577771526178 0.52597102077994917
-0.27317909989449241 -0.36828586019589649 -0.02934610659194764
-0.17648280186323484 0.52101645225323645 0.83327677919729659
-0.18677072262985295 -0.093470978455271192 0.94224793523231054
0.079932454433638889 0.85803226463968163 -0.024651099277260169
0.35978263851473147 -0.50346451335792008 0.81144464749732137
0.03904996396763305 -0.10713793986330622 -0.30994824393423348
0.50396288748531592 1.1763959103352972 -0.50520976741619461
-0.74710929535501958 -0.9831998994239437 -0.34368735512793303
-0.88069157869725134 -0.60984990540797346 -0.22461663505628504
0.21904309822635193 0.59915421247430434 -0.18956864125744433
0.20954628921384688 -0.15424749377536995 0.64703263161877855
-0.62402209151149401 -0.79209510722363252 -0.05239021755245743
-0.22048740308528547 0.64795855086837484 0.79140495566245139
0.17812302997612939 0.35478116185505515 0.43299842009093648
0.78055569683043324 -0.32598160421351474 0.56605968666998741
0.58642760777453384 -0.36307550263745603 0.56607543571398844
0.43704068719015743 1.542715739125792 -0.66620375166817092
-0.15675991632267244 0.92617560520390063 -0.49313879716642806
0.01804289863892139 0.24853219904307455 0.77818658947636354
-0.35306078121655537 0.27275192690977124 0.62471981674881105
-0.38876935976284399 0.10235927811395984 0.72647033375720171
-0.69407558455083973 -0.62850799084503783 -0.71994855647050204
0.11543100914042381 0.67049439690706425 0.38378586854347263
0.24040400013052365 -0.41103959733442053 0.48468696933999267
0.28046121891523701 -0.039983604522945027 0.4331309663154117
0.15878526231767487 0.38283774521998393 0.57856234523279937
-0.63206642773336363 -0.1314647088486306 0.52021590278101904
0.45882610424152981 -0.34030605461676255 0.78630764337731418
-0.064710996441111557 -0.018781589260306153 0.36321907796673081
0.16678293883260753 -0.025269981613056935 0.89106522700477719
-0.52484594607888946 -0.24581612149132814 0.40791842016527896
-0.13198239396427769 0.061676979362735862 0.98324608642088795
0.3642827452089808 0.88282893506353133 -0.20617846649808569
0.19287026709959842 0.15449649538831289 0.54778663514365733
0.071869347836519992 -0.23775857829119262 0.76673637478602186
-0.47549235932226086 -0.083664154678838143 0.95150846662255317
-0.30045189446858966 -0.3566535043016974 0.69839315199327223
-0.10706024406600112 -0.067505408442265491 0.70969736669130645
-0.4885679640358227 -0.36947934081665201 0.65211888471170365
0.02521965203552412 0.796323158806444 0.34851517618106054
0.037947742677682417 -0.14927839561968514 -0.30760557746532158
-0.51657644906971267 -0.11025048358267142 0.52300858162134989
0.36400061132137451 -0.2585644293984235 0.757381538630852
0.19087425328908109 0.67685794918281472 -0.050375219247453029
-0.72531329784331933 0.18263032771875382 0.65412117189554964
-0.41174724522471839 -0.20590850505521963 0.57945172987290439
0.53013511871768615 -0.40596404054286084 0.4708925202096812
-0.27206184801550704 -0.39592621333467948 0.74887452444021751
-0.49225902932349053 -0.36654504990712033 -0.42625806114180487
0.05231063609578368 0.71141846545363996 0.50625364171186715
-0.39900598123362707 0.32662821819397936 0.62029937120648548
0.43651918763726222 0.90690963959740789 -0.34709097937956646
0.21971412097669885 0.39745083868056741 0.70840046355353758
-0.43269717182968792 -0.70045140975429609 -0.4950172711364772
-0.18602313273299864 0.098678349568279922 0.88836357519322773
-0.018521506514521446 -0.17066085949843701 0.5331333317843685
0.74638118210936211 -0.24165009612877753 0.59424711267889885
0.17318180470198996 -0.218057690261802 0.62406217903611361
0.10153242420600544 0.97359391587519473 -0.57586431303999541
-0.62535946848890067 -0.098759107101220267 -0.056779526130564306
0.1178794494017521 0.11224012884669088 0.76664429290671199
0.12084455896958457 -0.3272575870028378 0.63450621058002188
0.34643541566692765 0.42434966121940976 -0.082806113556922134
-0.3099780319562595 0.73148266631863679 0.53559621113083744
-0.69066944862478152 -0.72617747391091281 -0.36498281645715169
0.15606931080184028 -0.12588871700522852 0.34039115617965787
0.75901712365701157 1.2923748080537083 -0.60116721228756975
-0.21257879803305257 0.48787900664941997 0.66257004130530417
-0.74835395724821185 -0.92893792417833498 -0.57473415740321254
-0.033927475594938805 0.49646051224049204 0.63916056578188618
-0.5087874333264637 -0.74429691995754188 -0.0047906174256705375
-0.35389026261522738 0.046783890884635304 0.78347815255402786
-0.45372304641173067 -0.65130382626089545 0.16130667630073528
0.37206424260775162 -0.12971055304663626 0.55626224248606793
0.58805921401209138 -0.57760269005435838 0.59475897653112009
-0.63429241035646855 0.45166433470865563 -0.38658743012280927
0.43776854393294962 1.055931730047406 -0.18060583331773283
-0.42813208601441832 -0.55302065810659207 0.042783199849300541
0.10646652117436572 0.030781550977068139 0.68258752687751068
0.56194060868861384 -0.12091477478186663 0.46010897575746434
-0.28188423953042641 0.48784021946977252 0.64107516744712167
0.69039615856597258 -0.15492083145932067 0.71334672164838353
-0.56920346867087446 -0.66222925627012352 0.072342209492531659
-0.22933029480528933 0.11583820639067899 0.85116830305819269
-0.36061218014123919 0.39795277692317899 0.28572322191026867
