# XYZ point cloud file
0.32658810808834682 1.1566980416603854 -0.32748838008180625
-0.0026597214437904526 -0.31760313224573844 0.47880701896855749
-0.11457895758343173 0.29099761005372038 0.56065414827723925
0.11666794853627716 0.26254013428561773 0.47898581221389525
-0.84093595112056174 0.065657056190133734 0.35693963136279117
-0.76780939321136865 -0.52293580248582328 -0.23869524030430433
-0.53876139342055906 -0.2544754928868036 0.39770311562450866
0.077893559888987829 0.42234027797355922 -0.3579647776447194
0.23816230091764878 1.2679964325529978 -0.30117636646107804
-0.85500428090281033 -1.110094655822373 -0.81118963832212232
-0.2058933720397873 0.021739758956470068 0.64869662880161616
-0.10856345216716634 0.68078123033114579 0.18033293861832478
0.18551113681589548 -0.040829006148868974 0.97276579398468577
0.84487382974934833 -0.72349540527266187 0.81651076784033538
0.57730643070511412 -0.28696798781652655 0.71005005145292366
0.16578550245824797 -0.46108448761192355 0.35149607478845274
-0.39231899243791779 0.61069449516012475 -0.24939867943951188
-0.30256630495033887 1.1505318415249588 0.030899350063881781
0.6688372763543009 -0.72527235739488893 0.7199395942164033
-0.61356404454851066 -0.28853849415857624 0.6953224436807649
-0.55651159798325534 -0.31046997371391627 0.69972830898831828
-0.24579272376422368 0.84502623346575134 0.4186116242989103
0.78832033364670595 -0.63210417657658957 0.41423412413905153
-0.64383110827902112 -0.45491475182481933 0.11005640159785479
0.049301913341569747 0.80529051547333785 -0.18260947665798455
-0.15903599201078533 -0.40446705642139635 0.3657197689511073
0.59161784941406914 -0.095973135105976937 0.83365777965537313
0.27652960910298208 0.52145889966409542 0.20124919973483479
-1.2034459866651834 -1.0117564859580532 -0.55588875296482554
-0.071448669148238553 -0.47870250138102111 0.65040668466071061
0.62041740888650954 -0.40323991947653104 0.70665844796115107
0.45797307013795718 0.14301790315712859 0.19354895427216889
0.55168399818248115 -0.84689314836855401 0.12685266997954817
0.10088877983085953 1.2884852583549418 -0.50802666353562664
-0.62439698945593569 0.54404681176471126 0.73296272849238631
0.016343839084407508 0.21088716712250322 0.95445081443621527
0.75587941989236329 -0.60927435206999059 0.51975166133291806
-0.25497831952608463 0.82997248512234523 0.26495131563716123
0.15093535093675903 1.0836245975694785 -0.64250732661003152
0.41170755573830942 0.063345937544551756 0.34102421758623613
-0.095285117901359406 -0.28904719927958777 -0.40403729184934328
-0.44433434290890128 -0.32060150807376586 0.55451812815320878
0.49784508395372673 -0.25602756217944256 0.17379972481884254
-0.86011670037554611 -0.70617832682651649 -0.34734545898143621
-0.13358005678855123 -0.23071190355749094 -0.55142232682179815
-0.064227868005779509 -0.67749211092698869 -0.1351121471097019
0.52450578510057411 1.2908038177419732 -0.47408707555827601
-0.7089346007756534 -0.093871272034806497 0.77511445166748971
0.065408089955126369 0.5071085504593762 0.19654115118677662
-0.63092658868732165 0.35629119999298398 0.35834311038050504
0.33984947946084931 1.0369661987846306 0.54361282562534874
-0.12412812511056148 -0.55319105918463629 0.43020374410611917
0.16182854892505238 -0.13325941356702709 0.77379110735281575
0.42726016587056992 -0.13406207280104132 0.56106448866938119
-0.60354628925243214 0.1524310818727157 0.69480609775395807
-0.30310060543269712 -0.35187309124764421 0.72683460432051361
-0.79784654030155155 -0.31870959235157348 -0.40801010746537769
-0.3883333680475477 0.025834011214713959 0.84197166282964175
-0.83159851876400692 -0.13004118878565762 0.57306799940024922
0.44354197399275752 1.0435933797854295 -0.27061097766743059
0.32556902169798319 -0.6597340952073123 0.56557138964542997
-0.049614811997365171 0.36249690638684218 0.57241101634045066
0.8359786771662191 -0.56956481057966779 0.7545481163768557
-0.14923552587335687 0.016975688138205713 0.77442770773049419
0.27150533122676968 0.26692638029314431 0.60253000724041617
-0.25552107466264617 0.44832389054987987 0.40928138848070073
0.14169987978742737 -0.095665499797791043 0.6936106035162688
-0.10788945674580552 0.37549621616963624 0.77198568880136809
-0.46446064824370126 -0.19822109094349338 0.59644454704538918
0.29313699104638258 1.0781489563999704 -0.39305087334816657
0.080722711076039344 -0.046030316822528006 0.80431924705361646
-0.2828999625180495 0.71526244918473902 0.18062500769028889
0.15673368739982929 1.256863314484451 -0.62781314110985875
0.26990168135110149 0.1680653331825579 0.041774677780175018
-0.1387459355637175 -0.49656186057962071 -0.16846824530143648
-0.34665626735806243 0.29857250395224955 0.85313919824631168
0.17979055211976669 0.042305538442546142 0.83010888113622427
-0.48104226432220076 -0.29205335925855591 0.92509778154301103
-0.21630118673278842 -0.38315029873176099 0.81416561892114347
0.66483788453334447 -0.52818360755549665 0.36012480737148145
-0.59265979522226586 0.082345125370988592 0.76794126980519106
0.28452803123946491 0.77057546456825454 -0.29793736721418862
0.38574393564068554 0.34280285009226774 0.62273732814594751
0.28101162406844571 -0.39181806468057534 0.84646630837232373
-0.36511874035109737 0.052109426705337247 0.82277802910028086
0.43360698666924169 -0.46438446180446569 0.71843266665178773
0.584319970240891 -0.50015467415954662 0.68965173058705032
-0.72642584498782037 -0.47495965280699282 0.68062072884072045
-0.30596499337326266 0.14199807306684664 0.7070166085960935
-0.62126384613827801 0.11519577051351626 0.73669837244631686
-0.40086268457033947 -0.63494791446213217 0.49042343465096516
-0.15850203532075513 0.83887006216891458 0.3738769426662692
-0.67065405512849119 0.8414724252417668 -0.42730619920103774
0.13784776679459521 0.75642966468486383 0.70435182776297378
-0.20748759542319806 0.19976092409684854 0.84861074699119521
0.065688384761167784 1.0981691576371484 0.25692514217156737
-0.34659873051058121 0.013077022440898478 1.0717902090849953
-0.88053515501224855 -0.48998557833850676 0.56662228168502693
0.38201844379104322 1.1932982682968727 -0.39163849316041155
-0.60155738634798062 -0.93072945132695017 -0.84469403123478026
0.46837879874169097 -0.26603386993559242 0.68484487255316917
-0.37684049122675434 -0.031006105542823903 0.92650172659381846
-0.17904527677125426 0.080949253347886829 0.84771670221743356
-0.094993891616094173 -0.049125505348398768 -0.55470644852670081
0.43412878081489215 0.47154961301498544 0.69228582969908359
0.011185895619796993 -0.034159957333815827 -0.65737280252331876
0.12417677033177976 -0.30384452471470791 0.82237273291352886
-0.062309770631280292 0.88432796096581612 -0.044010053201601451
-0.58752406639127575 0.55189319611718135 0.52716413474988788
0.81986105886453475 -0.52898255199344857 0.70550225969567348
-0.89986559041142078 -0.23749777194117172 -0.0042394779244712411
0.34791469878345294 0.38855515624416115 0.25350922175522328
0.45374323174141229 -0.44516267112985486 0.12272016681043624
0.2922636109745419 -0.10949898068877606 1.0422274163419494
-0.72472611169973511 -0.71091614166862871 -0.82292024876674363
-0.17133587327143096 0.16768858248585006 0.7955990887659532
0.81323952900776686 -0.28172135903355011 0.73379590310359144
-0.24073098359364442 0.53650747513027741 0.82597940156435723
-0.53599716394099017 -0.15586014181954 -0.61520565935035465
0.23540138534403643 0.79212793225704603 -0.34403081862166263
-0.10741852318563283 0.32244645401717453 0.86605019864292598
-0.45230978972024105 -0.30884557829647719 0.95004830785013628
-0.49979500699111379 -0.46534726231045043 0.53351794225782823
0.042108023121347316 0.10046741424422545 0.56774871271601779
0.064517789991172414 0.22210156943289627 0.18354593579570677
-0.42690447734695414 0.11056133334629936 0.90035464966545486
-0.0020673615195514472 0.41716432859723218 0.66688092444298519
0.37453271837410118 0.6802013872153998 0.32649799424471171
0.61343870515561694 -0.10686071064293801 0.57856932720303256
0.24609677090498017 0.60460877154700521 0.82216052433919229
0.40303157245786925 0.96977595953889884 -0.23177605423846814
-0.55023273068627687 -1.0246157541826062 -0.36996258411081961
-0.35222426753282865 0.064531729933080317 0.18733916533366538
-0.38666914887246495 -0.61213743508754659 0.50121528527383608
-0.85022494780838542 -0.31593836151975996 0.052534309291210002
0.13412401997759815 0.53868018973378762 0.11858756233204326
0.67475167048085161 0.034193309229822111 -0.042828426697057886
-0.47903034776950082 -0.35852120209962468 0.47609151062817506
0.76651847469923595 -0.34154421969349924 0.58822412566538218
0.40903652460793993 0.32122227514289969 -0.36952272511673845
-0.49244649984801914 0.57203624424648214 0.65453883316069628
-0.77890472941476807 -0.7498387031036331 -0.28120932059762582
0.4571484678869413 -0.03739402381269219 0.46039809690989569
0.70566919481267498 -0.53157549077292621 0.58557067014326669
0.41236726712576521 1.0160029178521857 -0.17551064502432379
-0.18544002376848145 0.49900255972657703 0.86514349256909173
-0.90977159408816433 -0.79731937929481056 -0.45099293055705769
0.080803987783043763 0.43659259949179474 0.35728904930594696
-0.070868432380906343 0.085035031267924222 -0.5158104734350073
-0.21166461967512107 1.1226500066719374 -0.059229448957821895
-0.48932411848644786 -0.045303829495341619 0.66063270187677159
-0.1012730622609892 0.033889861240654184 0.74065804711943595
-0.93152992816606928 -0.28380417321858209 0.0093337994992893081
0.14739439289134193 1.1559814142099236 0.029316747758294959
0.14995359315414625 0.48134804792317154 0.46746200822010364
-0.042079077956616473 -0.12762642800292467 0.66488021893776517
-0.53706502205725237 -0.43403981135433467 0.4576519513183977
0.12490990746860375 0.57272375979195278 -0.13698134672404694
0.54856512464905594 -0.3097765431230024 0.40978769664611703
-0.33375364416649056 0.39313554311051435 0.67740589033549492
0.058318514227389873 0.66004935904887674 -0.40685360081153099
0.1618946217692403 0.93572132437485289 0.076437134525535244
0.0046605970491209181 0.8425280881578705 0.02209230511791227
0.66599671024357376 -0.52114383135684994 0.74749992694459255
-0.047857120474143588 0.42372531194887308 0.73860932618577968
0.036847932727490207 1.0846260692476022 -0.29775358084729708
0.69651728091997955 -0.3938803472350898 0.48778349314497266
0.28257101452994671 1.1408061364121087 -0.26780773928993573
-0.071268313619848866 -0.13104812982720015 0.59693044358589109
0.015046698572905859 -0.30193654363221745 0.30607874466919588
-0.01309607096462484 -0.20918830163028801 0.45910595994976944
-0.31008941183046623 0.56213738942090541 0.6086488488824191
0.20280913741798101 1.0264039484995697 -0.33319440419024926
-0.49476767338840622 -0.94447903652023624 0.049492726218327843
0.26214554334914109 0.46101837619171571 0.75130802007760178
0.23009820566752714 0.61288531867262241 -0.68627376496929782
-0.29706495871576966 0.49480369539884705 0.67581531686512553
-0.27111007561138578 -0.0015670079536298509 0.80996359311547783
-0.055242145787112618 -0.67167472972622999 -0.41089275527679514
0.84550770894773319 -0.4256323010564742 0.32128901196696902
0.80490517540648288 -0.33550329349854624 0.88407262688587984
-0.0151499308080143 0.76568498269572549 0.21988480194418525
-0.68707444166953602 -0.78278528989053897 -0.32655735527074337
-0.81977306211423473 -1.0956587395429853 -0.88418110386105631
0.064476150890358408 0.9452563372676327 0.49696466423946994
0.32086404639952359 0.32035700230289899 0.29652353208038978
0.54916374033935988 0.69023270726387831 -0.32395708010600743
-0.016617609159047975 0.28743609763264155 0.63011911282191935
-1.0746225537551084 -0.2113953195602849 0.36977171304613021
-1.1276713798192608 -0.68039888496230727 -0.74710481483319136
0.15849065682585217 0.17194713752857904 0.62484467791407095
0.44781789442026088 -0.47191511909647588 0.48531743757235307
-0.34956826702138422 -0.060285893992539696 0.212207713597835
0.71293224574697489 -0.15716640079427502 0.65307192555791849
-0.80945075081006879 -0.69060743099972899 -0.8912789138874353
0.16996201966767432 0.7384902380567071 -0.44192385004069945
-0.68771045518297313 -0.35225692437433809 0.45721883273136882
-0.25968764227680197 0.42371506003564896 0.58085223559502563
0.3023304711796464 -0.12781179531464071 0.69461410936063384
0.085527480639526088 -0.29743188809357446 0.81170772403294977
0.26137255803539095 0.53481725254896917 0.12510687339565751
-0.001723130450261845 -0.1667563233117535 -0.2210912342847286
-0.041371900431461883 0.053124682604527518 0.85881476502299547
0.4255428669569532 0.35331574234671792 -0.34079933151045116
-0.13805209441568844 -0.45156208434061473 -0.12987159154073397
-0.66732506525095647 -0.51610735317782508 -0.28354492965025013
-0.67410693638037622 0.52930599318009131 0.48085618215733378
0.1515477253585531 0.22029923114083017 1.1429599485676847
-0.23782587928582699 -0.26185426621975982 0.94801936052231883
0.24558602114628969 -0.21281320564393136 1.0547872171712849
0.95645881035020952 -0.34240271653526166 0.57517745726366298
-0.74010693756362578 0.040608551297606432 0.57958705183608539
-0.25937451081777163 -0.28117902759373403 0.39340275568414212
0.17267851151476021 0.79505224700757493 0.72570899022186719
0.64091060958083057 0.52016423066511464 0.060257556546287505
-0.53901166889589236 -0.78735301948163006 -0.10459441588237137
-0.52798770370578962 0.27577361974558712 0.42281242592176033
-0.56313889834117292 0.55514717739002561 0.56032031795435167
-0.079130742442748314 0.4885232035966387 0.66714072867445906
0.0020934446952873831 0.46981346860712447 -0.30337977639820357
0.15684222955252758 0.53530304346636881 0.44250176575768624
0.53858685821565144 -0.23756412671606197 0.29575530066077993
-0.09758542064653386 -0.37298949099895728 0.4679068003879987
0.27120034668859083 -0.35062397310747206 0.65693691176281133
0.59785448268234032 -0.37564643415380017 0.70584151875248313
-0.86996711589347708 0.14395567613814708 -0.11282934490862256
-0.31377207906375992 -0.46091279350055347 0.40787660864775843
-0.44557933057954879 0.17059353631309015 0.5404432060610096
0.23799451717196174 0.60321173811226569 0.58678566889300987
-0.021561581074486913 0.48933973770121675 -0.39676409594528289
0.32220840288159236 0.81881889037221223 -0.14839872337859195
-0.71397456844882923 -0.77002025995548307 -0.59038399854525259
0.38572365840805478 0.87518129577855719 -0.48521662261787002
0.020080059639886461 0.032297933468636852 0.69720743372614069
0.8170252819383097 -0.23242507435276671 0.66521036855698101
-0.089035431947069643 0.096211948925947643 0.90636326582926685
0.56294967175332244 -0.47641635547617822 0.59149641714663059
-0.58511408565916956 -0.80561398812580176 -0.35661165501762737
-0.092136110689610806 0.15535560130422721 0.72487683234284028
-0.70660514607065705 -0.23118892013672032 0.57221030229016989
1.0996449024182766 -0.37602925150544597 0.54996790095183756
0.4668559401438156 -0.60485071470616503 0.48696037795410579
0.83707423789041346 -0.08036658920032691 0.51636086577453599
0.030236030072443798 -0.23915169475824505 0.42620087014241848
0.019031613018685833 1.4785024378162579 -0.31920923582150096
-0.48978402248754871 -0.77955171350915942 -0.014787017748561712
-0.087388960771713098 0.83529843874797427 -0.40591740773809593
-0.39757157885586514 -0.3263262261527462 0.73203272174134637
0.46559206919994445 1.0214536349500321 -0.15933976282839069
0.2248674676744129 -0.094642650592354771 0.92105441173607328
0.078679454361386458 0.13384511499563301 0.80112181479336964
-0.71283977838413093 0.35639447766406818 0.41402110593323377
-0.2720966596093517 -0.47217826953264441 -0.0021360766171987233
-0.47991730007930888 -0.18731927241774415 0.63682245321911779
-0.34280968247762189 -0.10588156215682321 0.96550704992405323
-0.59837354363622064 -0.52153692174798549 0.12395099741708741
0.33016781109150828 0.12088887543533522 0.34338365612931265
0.69769016058286493 -0.24593183957264464 0.66878595912620586
-0.70272978614895054 0.033844380185723777 0.49046832335943813
-0.53881972230265163 -0.19142433007659632 0.34419337305937869
-0.64841189677054079 0.046539677426008064 0.40875997298869027
0.13991959727127568 0.25014144489604817 0.68484248611468679
0.037868361489758584 -0.40027776487169064 0.47436984093929324
0.26182806480096943 0.98074221731777012 -0.18615877922466872
-0.37612145992264279 -0.60921098276186547 -0.09329866164401035
-0.0068045147977346954 1.0944654140303722 -0.36023086997750942
0.19419229688168183 -0.2350023456017345 0.94407714926827002
-0.38009140556749488 -0.014333254644515847 0.51513511827488334
0.094229450872990839 0.49319193228759683 0.73510125469508125
0.020683712653021269 -0.41802264388242305 0.57884167042244128
-0.080733177372753762 0.84411607441499226 0.65624485845250824
0.29795523198333695 0.65681019801999363 -0.30708136742405212
-0.89986787572864602 0.10128309561082993 0.58578204165600289
0.1383549155746322 -0.19931038706083104 0.42102160262680721
-0.38990461986975755 0.45091791387382218 0.51432505036496656
-0.96609873198397977 -1.0847476649694998 -0.62363121330622862
-0.22182170019186787 -0.034220890678498872 0.82543096732529286
0.7135342183411304 -0.24431193426663267 0.53662948137471833
0.1131216043935992 0.35878372071142817 0.6797470623867673
0.031779735516058505 0.77619697219784878 -0.54672450987454624
-0.5241783989206007 -0.808428425259341 0.070465147797616812
-0.77716388114694168 -0.16764824988729021 -0.32820931443638535
0.27782321687860434 0.28957497783487729 -0.49406486769998303
0.51325457704905109 0.027742464682368739 0.36747267714403098
-0.037042073820858334 0.97173385203894191 0.22743376843605845
-0.34243215848641839 -0.15125535580471472 0.79747525792188845
0.074669273463394803 -0.56806298936390798 0.80934316122401384
-0.094729678218975488 -0.13965300078339582 0.89626243825079421
-0.76905429265597691 -0.48731708481214264 -0.16137146650752091
-0.77848282521420153 -0.12943840130220519 0.040585013559990446
-0.35274942798963149 0.57891214149889558 0.72183754764139219
0.5311558408716992 -0.27254783980896979 0.77476204129907145
0.10998381882294739 1.2140915425417256 -0.51947033329950898
0.71831127173248066 -0.10920319989076965 0.54193850143155609
0.16140317598362763 0.8248751952077169 0.04735723140083381
0.00084930317989750925 -0.37535031078082715 0.32809314459792238
-0.2869546052527201 0.12621360320682484 0.77842602353886636
0.096455009414927462 0.027962631287163253 0.72048801448205069
0.14915995707548912 0.63717740640191112 0.52645466798144036
0.26149278528289877 -0.19176605280304537 0.77284672632041373
0.34010780788433004 0.033124339385860679 0.62005960769470592
-0.089660793083702117 0.3746880594740496 0.47917155768987318
-0.060001402658152569 0.42543209638475665 0.40593229878074222
0.64870081053366135 -0.41145483175099096 0.55130761677251283
0.42935752018163287 -0.35068656878111204 0.74202076414785245
-0.10140335963226321 0.30430191591919686 0.8631906866604544
-0.92691392790420279 -0.97193874128726376 -0.73977273769510055
-0.13839328494903713 -0.19466083772591114 0.95381838703654731
-0.00035036259732623698 0.24320887593789209 0.91106636214310988
-0.1682077565798783 0.11052734224416194 0.61466113977588877
0.62162995890008554 -0.30595882825977028 0.37257620552626858
-0.32527759366910047 0.43625186858486031 1.0999360980732042
-0.41599753406773199 0.33771203744795308 -0.72837979854009394
-0.043901599893104715 -0.10822315586446973 0.47033580026792726
0.34358924630539533 1.0610386915846037 -0.3107403506849773
-0.38225220755793088 -0.16593617302966868 0.4277624398998835
0.29605314322620102 -0.49696469988527281 0.5744995638399597
-0.30015983061578155 0.54909197312228164 0.16466706893892397
-0.64372052257661405 -0.79847280700600565 -0.41962793044678259
0.20711467218096336 1.0409786185613281 -0.31710945550479364
0.26003841973734354 -0.3395927008448667 0.54528806588895928
0.21835769294749352 -0.044783740523609783 0.70132521087872535
0.51911837057859578 -0.30328872069216706 0.56567165101637906
0.29878902975182564 1.0710657145323919 -0.72912633098112267
0.45038029530597123 1.0623452973534953 -0.46202789515833209
1.0910086854018135 -0.5431197883990404 0.072437980263957424
0.34592418411733439 0.56263457622448287 -0.27112957443588415
-0.29198141645915388 0.77470617187146795 0.81285814648348298
0.19693572408752735 0.38326609516826982 0.41296973773609347
0.20431755189401168 -0.2262612017355945 0.30081433527813983
-0.73872662986701498 -0.49319403444796217 -0.33772463066395753
-0.54244083479197425 0.75153741592845857 0.73372434105662299
-0.16364093220282783 -0.58423474609038006 -0.49419612879432423
0.44188388307920201 -0.29509108489856395 0.77262891104618925
-0.57556367827691579 -1.0387677552637586 -0.42107997576002804
-0.74189734487836778 0.37160442193586674 0.93223769112659727
-0.81764189966721479 -0.25052839188947473 -0.15359791254112326
-0.0497400885737731 0.45617379806969915 0.90269065467271126
-0.13130366039486452 -0.13744108274015909 0.91838712810706258
-0.47777525358528639 -0.97552419400873336 -0.64436989400364797
0.44612095910430805 -0.42407384468085008 0.59981729915768711
0.66741779248246447 -0.14541658584235706 0.35992157877391651
-0.030705546694191677 0.26394217084670912 0.79033376025744384
0.042970890466917488 1.0566355421131397 -0.30242106686720183
-0.0053740380727553827 0.6719344893247905 0.79068997349675085
-0.0049425365573667612 -0.16294625610454649 0.65313841105431969
0.34251736983925163 1.0085192633750979 -0.12315580543291216
0.3396572460709768 0.33915344426781679 0.49612172804277499
-0.15345917756963523 0.040803107364633995 0.75185641042350027
0.71648417880808624 -0.069769514827010992 0.59933630556796469
0.64020552543561915 -0.27554839301332912 0.094373644139993135
-0.18677407470730767 0.57302561831932031 0.69935521635592779
0.33370034360063272 -0.38075794577073108 0.56747231067164328
0.77326425010233435 -0.56972980538622053 0.52104034022061263
-0.20677760028908576 -0.097142837293529016 0.86192716607140918
-0.81500997758991778 -0.45317114666061764 -0.37461577431191695
0.16153370656096455 0.80299096279446402 -0.19233614099694873
0.32046348342290298 -0.24749101180691757 0.79516717490780509
-0.67239234328873831 -0.58137615810207155 -0.21264284731615613
0.40351013914773115 -0.18955149806919747 0.75910121600481917
0.51601633529950797 0.65333184236847641 -0.12013358141453845
0.12479914432661809 -0.23060919689302017 0.89545673934213488
-0.78523605336183777 -0.52042947880592161 0.89697918783843666
0.41745821013080975 1.3756372702474027 -0.39927949301654797
0.73238579770350865 0.72901760487211509 -0.4555568220282763
-0.32677950900276542 0.32025618530086764 0.8277203700047342
0.026425626924364787 0.11937920723537387 0.92860712432543846
-0.090467955931827992 -0.71631443571041808 -0.21531513641712327
0.23463817433083856 -0.091967931711075979 0.87791916932349312
-0.13999512363429245 0.28299172565640718 0.82680953808407764
-0.36821324629245034 -0.41855908781174733 -0.14302462573612912
-0.22676085767796961 -0.3246476086575647 0.87010120707378358
-0.41288765229418023 -0.23437950612962277 0.58509866463386839
-0.5598292864905281 0.12690056566599717 0.7400961973677016
-0.49309594170382465 0.047768484950688306 0.67685756035081757
-0.42503594674311018 -0.45148328517137148 0.93159026497966047
-0.96002230000057232 -0.86920033951321485 -0.24080105679191521
0.74783622975340536 -0.64616643764345305 0.67757323913232792
-0.52999416903173491 0.44400543315493035 0.61022924871574691
0.88090635141892992 -0.47461734380742704 0.72823732785177953
-0.92197520821433865 -0.49925251831586936 -0.18838463354128901
-0.30967214546375166 0.23911052002851241 0.45911880571383312
-0.029509303677889065 -0.68522228599837609 0.75135799403771897
-0.11843149407069054 0.86211265759929523 0.023659857113988436
-0.16208706215027546 0.41236201162792319 0.8800387098140745
-0.40831821105685395 -0.5653631068725713 -0.10243164616055575
0.20833615604321309 0.78953277229069685 -0.31741491336924599
-0.20886048480505526 0.40878337342294113 0.78896961088007078
0.21160702352202421 0.25118103440330275 0.74414368043828871
0.47768513490598163 0.6734550028130557 0.45345602421619796
0.26232949306059394 -0.17110875596761854 1.0036128561634927
0.10398127038706573 -0.33146000319413682 -0.028086122288439319
-0.46208429305927301 -0.9560074313484983 -0.43795855859666855
-0.69105711370906497 -0.76968980278005472 0.32502300422155406
-0.35619807648725255 -0.11388700176719713 0.71340252606637411
-0.6595633077168177 0.19754455172335117 0.72612567054733657
0.86843984060981083 -0.45432465246934739 0.57872784074580208
0.54376598163986123 -0.4818467086444298 0.32250120659128551
-0.69031487685406356 -0.68256314203368484 -0.071380155286876065
0.072837753323864218 1.4890837192716722 -0.91517741616217729
0.6743767406522263 -0.021251857548559405 0.72304967220058214
-0.77498615859483166 -0.50855121773218581 -0.21538533923621003
-0.2108175826163623 0.4995443184156152 0.4678531382336511
-0.10266002229594706 1.0612616389701235 0.44254685056417542
0.34610487169096249 1.3967627344208908 -0.53066232828484694
0.50494068325585606 -0.099642876759792776 0.6208977952425434
-1.0260153448269844 -0.70130788794713039 -0.33766696413422453
0.37779656624041302 -0.37919989915700358 0.24667156891228892
0.1611333027953874 1.2133712134484465 -0.45102848290237796
-0.28088665730820517 0.45827610123724427 0.53268356231623992
-0.1385149858299739 0.58944252399394403 0.64074012854618045
-0.71064515330168576 -0.34682001264222384 0.56773342093204793
0.066792622540505331 0.37796268004357003 0.70538716892060871
-0.83886635552977107 -0.40037632807448298 -0.35339477629271099
0.60637127723657813 -0.3652538415832931 0.75601035559140395
-0.58341762557352117 -0.25553760375505852 0.8405210703044339
0.19659793840044837 1.0294210134042039 0.14174378006868216
0.10997326349147829 0.46319014802005132 0.5864011933075588
-0.65131094498982556 -0.30168464459450117 0.50897157963507655
-0.026571832988042443 0.21356476436168026 0.49597820478969395
0.40066443788243933 -0.53018500047611528 0.45222976645918511
0.015887900175606928 -0.29829337040852066 0.89527177970722494
0.37999476645785069 -0.52639790534569886 0.28258677159026896
0.75170317053264979 0.80160897107616891 -0.4525057652246034
0.22770105437765209 0.44945413640256038 0.57052677383886485
0.016774249409467812 0.24554064298007061 0.8000866665140971
0.33850203012993263 -0.06779579511626932 0.56987587389349492
-0.58727748976967398 -0.4482213183692878 -0.20612688090332446
0.13977028263768831 0.045393711366929379 0.57308548419690331
-0.21525688728932169 -0.25668407985143826 0.75597416652135485
-0.05576784062794804 0.87892441632830609 -0.10714111554531736
-0.72191731440668994 -0.57259461169060799 -0.37847547190932351
-0.38690400236282374 -0.6962482981780882 0.48109955535340865
-0.19595736229897209 0.4014759545777089 0.81894767434665927
-0.26868471283497608 0.1292259539968692 0.82948278193223335
-0.513292052783902 0.1687558507163176 1.007299571123514
0.10595308968696315 -0.4408050069246463 0.25994296178753934
0.25253592222305454 -0.18288183714927286 0.8393598532505272
0.35898093607413673 0.80702923124818082 -0.2785111798176807
-0.66396639585162687 -0.99031711958017654 -0.51860174311625862
0.34164003963481848 -0.037725158713468376 0.63138903247925482
-0.13649548317893889 0.13245966575134971 0.80437667089753973
-0.48891735592278929 -1.0405417793449963 -0.35937304035813483
0.22253170676471257 -0.17225931151795981 0.64585654093045652
-0.3737632817503227 -0.096264418808650332 -0.43701041314663247
-0.75807664119229212 -0.35341110573219514 0.19333528509899572
0.60717150910975537 -0.38523584243583886 0.37719322735006749
0.11609961137735048 0.91461068115352762 0.40190653634929141
-0.6312408804281141 0.37261205550489951 0.87161146990671345
0.58260290593862329 -0.17260189690449956 0.61456705901423903
0.76640235027117853 -0.3537964527896893 0.47227884603691606
-0.31114174184605337 -0.6172988293507029 -0.25609969229379997
-0.074357553766178697 0.10350266882657855 0.54282919239119365
0.31248588725767656 -0.54282780541657139 0.54722790210704519
0.26866780936849732 0.48358232375975141 0.47759739064395379
0.28402324300533288 0.5630927483815571 0.06132928378781155
0.86216179139236837 -0.369642316476952 0.86604697858463431
-0.47732391933825802 -0.35474698629492019 0.53968297554844258
-0.089259847249104518 -0.4881782277002833 0.79472507568263506
-0.58153953025725091 -0.41424541617863175 0.68385344972012674
-0.27136211371877761 -0.5558838301616853 -0.30490449798660507
-1.2010433287413103 -0.80760156317748155 -0.49843260405371348
-0.52483364486468498 -0.55024649271120007 0.26173307576926419
0.80441214813977102 -0.29573087499072925 0.77815672166027117
0.18720725424694451 0.89653322277423841 -0.14940271859368259
-0.45021549319678389 -0.44389903129637154 0.23846157590895736
0.1178271587902544 1.0998292755768868 -0.23312443521402104
-0.25776860183948591 -0.32511940540693707 0.92741622351165454
0.45093984654506869 0.94539282470648223 -0.47475227086032123
-0.34393693329487141 0.78474292156586678 0.47541439183456269
-0.05866081612915508 -0.02751964499895676 0.83454469188945635
-0.042173367074009205 0.37344108418563349 0.96059664242003429
-0.37751935627439304 0.23370166345352805 0.67372265050803093
0.36518032649454013 1.1510042624768462 -0.43778387601527502
-0.13342360424412569 0.62866119836635748 -0.20650364404550348
-0.22921943919272558 0.73320730231086606 0.58313872510876941
0.28350526100098228 0.11319308538527784 1.1073465689002449
-0.44693295843178527 -0.31269804454643979 0.61563986233765988
0.14232208014624548 0.63972979806300256 0.68398175182177778
0.31663604871361084 -0.32235403758070924 0.19835924487938794
-0.66124400620945456 -0.92757642861077416 -0.44357805160802782
0.046412252119891306 0.6047148725629794 0.020212513302289903
0.98851310122340119 -0.30173944985743928 0.45092276333366899
0.049620182808306934 -0.19222869454763791 0.89112121385341114
0.32522272936561003 0.065609803065907801 0.74117792256767501
-0.33253197480394392 -0.47370266617688328 0.7162327395445961
0.4448495142483806 0.72775655073161016 -0.422041761036413
-0.56642172014912573 -0.35815967273216853 0.24912633323944824
0.32109487875055476 -0.10913777136995839 0.65311103445591012
-0.27080979079394374 0.68549377598134376 0.45003953404417757
-0.034899777404681753 0.47015812428029236 -0.15128485244100076
-0.98993196734068856 -0.85086783346686068 -0.31674942803498218
0.025311565788717738 0.93957304520693352 -0.29195304625936624
-0.80229722284047145 -0.74627242091251889 -0.098317943194529772
0.47121695572458178 0.75831020078175015 -0.27569774157610627
-1.0509050406063771 -0.63436880098130244 -0.52839928499792099
0.20479102228334023 0.0097480988649698563 0.7038167016735648
-0.27506332293118496 0.24270738126979974 0.88015456312923945
0.266893984329996 -0.10989249392596379 0.93635462419205906
0.68086515053213659 -0.19220692063359612 0.5469113160254544
-0.038270840205685053 -0.45219323595068484 0.22980907803754325
0.39398998931424734 0.1224613530750216 0.86239867640107537
0.68206151517482194 0.78458856041312408 0.049275898169478749
-0.72826377936051023 -0.48066206481464269 0.65273602450277179
-0.35884819303695381 0.47481216431297657 0.643756961657314
-0.58410075643966453 0.12417612155273661 0.91384194806630359
0.096363135610036954 -0.35854172161976949 0.67081294651658729
-0.91955626476369157 -0.0042489448123816942 0.28911313893589519
0.40827584648826831 -0.40456996821017843 0.67919347237014915
0.77468511563085807 1.1138972969119423 -0.27567048674757677
-0.45487567014502428 0.39411094748566944 -0.8714510913175928
-0.16221956243231617 0.80828207835297217 0.73229652928517164
0.22310445373641108 -0.023528977692834907 0.65570124557064779
-0.74597437343685746 -0.73950178362372787 -0.026295810891991261
-0.66199631561301453 -0.28765678625626068 0.66022392746157499
0.62238740581878704 -0.27997981140581962 0.56674359956731279
0.14147579587545667 -0.052346380599507691 0.63568325084866806
-0.65234402697197902 -0.15901948901983243 0.77811343073947092
-0.4347977862724075 0.098358430733515023 0.6420486842668609
-0.58166582235462128 -0.76312867707834298 -0.32009037445623967
0.38528956813724169 0.44905154073016007 0.59381475322367727
0.90103524700578308 -0.5565452981183947 0.60488053753048376
0.72972548302411688 1.286587710942817 -0.46438504531797464
-0.1778009122154105 0.26908357478910871 0.89830510404679054
0.58898863803728929 0.55840576163346523 -0.39304894625463449
0.21209037677362641 0.97323846543227188 0.10464119140851191
0.3166591269030441 1.3424382204878413 -0.7280180718912439
-0.22918709733934284 -0.40068347699271278 0.20840109922329367
-0.89783248388260017 -0.36859633617313992 0.41655995658230272
-0.47109935783157997 0.034510274824454568 0.89112689393300926
0.62214602340660563 -0.65717365061728272 0.68471790963760526
0.58504713479591053 1.5091624406354609 -0.74885737307692568
-0.15406134604090749 -0.11675738200183727 0.58169707652729985
0.301938591152489 0.06280320728130917 0.70759071396146778
-0.57800080030006973 0.050811325533800522 0.86965192304450434
-0.98463073768661857 -0.51358285829167305 0.34916106664124813
-0.54601326243879866 -0.15622533265230309 0.44335019529092667
-0.61339968958255642 0.46151518326253649 0.66996072117396421
-0.24769257084114582 -0.20533702425483358 0.87862358446207023
0.18462280367354067 0.57649043419743395 0.41520921529346227
-0.55826316055220282 -0.16521546969934642 0.4103690895615108
-0.05502826225050228 0.10708410428722592 0.80573689345851163
0.029724844456906041 -0.030645325768176912 0.95128943194831173
0.41298015068098004 0.031439389826102504 0.63145002234113545
-0.57467495079818498 -0.33203209455945615 -0.42595403262211329
-0.43622023694615808 0.46761907264855318 0.78199417885629163
-0.1671122611484348 0.08692409702126902 0.72303793293996621
0.50958497620884446 0.65191115877072936 -0.28868801921090115
-0.46849074527766654 -0.33826553329749021 0.68713968462879238
1.1084613128439464 -0.58030501007311108 0.75377793685447148
0.63504416061679692 -0.28470750788120713 0.70178150752971402
-0.21111619239563839 0.53090487664690134 0.66824283643701865
-0.26039495238293375 -0.97278382974299182 -0.22800012705897071
-0.47098434944530321 -0.13646830963727208 0.74584322903137013
-0.43364493161484718 0.60983571399547443 0.94046171273425783
0.0012760329680514548 0.97931975117048187 -0.086975643627622001
-0.4891094401140097 -0.42624566330443114 -0.23880853540963559
0.095393009974024112 0.35611269399089274 0.79467651250432336
0.049858176190169079 0.46572761103265448 0.60608352319570158
0.31068915286190801 0.32080515468320758 0.52872918298153992
-0.44122919011227624 0.035199325600120179 0.89652482062649796
-0.69758325955924882 -0.047012350181724116 -0.24125677348412392
-0.16826070898380285 1.0560918836416244 0.46024831554238271
-0.22522657559738024 -0.17412483286477642 0.92113432911259441
-0.16671214991650207 1.127076325468128 -0.095955248140712657
-0.49861978664443329 -0.18577860542682489 0.37114743044139981
-0.13693432929953753 0.11569096075950225 0.86611616001124259
0.18645723408553549 0.57081280308635152 -0.21355041976925027
0.34531288630361356 -0.71324776256957767 0.64120006753462899
0.58492919544591193 0.97608074443298687 -0.46151688429329252
-0.22928526035012498 0.5243572839592231 0.91862820368419296
0.068275514646416458 -0.34425510812614823 0.62962184621596617
-0.187007639654859 -0.57934521836616559 -0.25909620711087661
-0.86181802964469778 -0.06348470310710308 0.80947014182399979
0.45734019587940877 1.0620500983756931 -0.27719972163672546
-0.28097194633732281 -0.24350928021799767 0.70378189015214798
-0.8709394921690703 -0.46239594161698205 0.62298774445098248
0.363968850633694 0.037437153950067525 0.84755795242546594
0.074679389884772629 0.50356498163755892 -0.27206825463974615
-0.63720111368790167 -0.66104369712093147 -0.12800526586517172
-0.99408518645706034 -0.33154832873204731 0.058848087636236709
-0.53350268643363552 -0.074888066484658733 1.007700018147299
0.064937222587893251 0.98484622727429016 0.30749151514010536
0.11626557884093836 0.93703553000572348 0.040571263410625669
-0.62718028412240712 -0.26786747583041426 0.59943345266642944
-0.77017329542078006 -0.59596549908314755 0.24991406637615227
-0.41245568893910045 0.29416653425528771 0.74075373209252882
0.1030615957192007 0.82017740284001928 -0.2608669219849038
-0.63306817661667958 0.51211010588368733 0.56101882018891402
-0.47176571786345267 0.2041568106066709 0.70496582078926995
0.77838557670248743 -0.4506528048585412 0.79549389143015281
0.14644165562208356 0.043931749031163703 0.65796907224181866
0.37904796571610899 0.41837942525853578 -0.25998951487917488
-0.51440551491014008 0.18606162964988537 0.77564051483554108
0.15639782943471614 -0.05095282902967857 0.70907277917825962
-0.10099075132139479 0.086945180799805177 0.59885969059268507
0.094471295615225825 0.32231337726951992 0.65767883386839809
0.47400493560938606 0.79442223096424258 -0.34310514247837132
0.22887804341485118 1.0932170406737864 -0.11277529208403436
-0.54481213273000728 -0.63279848803156558 -0.17928616306537187
-0.91035229459683142 -0.78679282846476606 -0.37951190119177425
-0.60246402416066136 0.080997264558780646 0.82846843544580806
0.56362852716246636 -0.50547868957537001 0.57650382148834256
0.60979151228210449 -0.20386083135557698 0.38177283321733768
-0.12058099984039061 0.1700686543362635 0.77934295870716563
0.60184918631004103 -0.13666509633755486 0.79981693576184643
-0.665354908462234 -0.36402959991363382 0.66955099903815174
0.136363849746586 0.36902047507235425 0.85535216542013903
-0.47540991678825018 0.29501871292499793 0.74103297898597353
0.67605088806233327 -0.64455517461351741 0.58897355099305149
-0.31312599605880176 0.60008868928506853 0.80814124340742666
0.17635493041277517 -0.34275728557079099 0.28906570589300967
0.51354109010473636 0.44784836043131149 0.43647789931557585
-0.7249437616467902 -0.3465897026019451 0.5100766108866388
-0.49288206943973933 0.12043712635850667 0.68582184553881254
-0.16359046036590552 0.67913901788542996 0.77676530990501225
-0.10760288286341435 -0.13949507507360748 0.2439966999776047
0.38935157923999819 0.8759299054850167 -0.27540074662389946
0.035606940632023854 -0.046956929394062819 0.72550764969278125
0.26210592757590123 0.46254132461258246 0.39008935483340901
-0.68714799509426183 -0.57904408230462012 -0.27301194872223977
0.12115378465803661 0.11876974123474193 0.57379566279576955
0.10540393582356411 0.20144914277501313 0.61999700961365189
0.34686647340855581 1.064994512158743 -0.10926937153045946
-0.24216376778813498 0.19269111514337145 0.59032855893459668
0.23593151090653053 0.64204814748626926 0.60698180331814555
0.62886910655710726 -0.48497909322108046 0.89957017540293127
-0.99005524039997894 -0.92559013086737107 -0.18308185395874307
-0.71362636453053052 -0.55050367476532447 -0.44603306956347488
-0.3437829998759967 0.57435071668363102 0.95679969389445851
0.10302667929258047 -0.47830424245437864 0.46536392356671319
0.023874273079263819 0.61916261234832093 0.76085361957684561
-0.23174779960472791 0.055843421582719932 0.72069681573192323
-0.02158371731272446 0.47913916073608975 0.58446640516318005
0.54360039648065017 0.80083332635320303 -0.40108154267590579
-0.20369513350095625 -0.49157154139142945 -0.11317655773509157
-0.25764667889466586 0.13565580077215245 0.39793762082812323
0.33905517496405246 -0.35248286692456454 0.78927759917475238
-0.0082010138569623692 0.33661231516769585 0.46793580763182352
-0.81256135551752107 -0.14379850120551874 0.11411239669663605
0.37428458278853949 -0.40015145982303779 0.50227095125098487
-0.68759637911722415 0.53840087699462869 -0.081664998965824909
-0.51450224175360026 -0.12317937083844188 0.38666740399323046
0.28362807187436001 0.29254509933119199 0.81983907283062463
-0.4740737269057097 -0.37416785012549836 0.6789555085315111
0.46134707658916674 -0.61269304287965864 0.34161570053667684
-0.23589853138619632 -0.10885454172233722 0.80523722498987083
-0.14519998638001563 -0.089253820947781337 0.99305151214109666
-0.43224474217478903 -0.075002532105817421 0.75866876810319117
-0.2997875235579357 -0.0088520945079415547 0.82847830995598404
0.26744421978916177 0.58897990667537903 0.61484837522548874
-0.9586128511416997 -0.88686296889786154 -0.68147677733135437
-0.23131705979388295 0.36112403176424146 0.42574002924613374
-0.35427497973688737 -0.55415281477082301 -0.46638713202097881
-0.13125102854375714 0.51467402312371657 0.60291676028831842
-0.11646077801739896 0.26977033292949826 0.74916955019580389
0.45566181319865273 -0.16450454658089741 0.55996971218249381
-0.89698209408305341 -0.650676007910723 0.41518395666887875
-0.093044584742761893 0.1533919920756821 0.37961025032607942
-0.14102803631883609 -0.15011597837586144 -0.7344721282227793
-0.27300845125388484 -0.19652023472664681 0.93138226573331606
0.34027431689481635 0.51214991617878258 0.087894651561779447
0.096684853181579378 0.012513374521104792 0.96211854558537613
0.37000508841049484 -0.05682511724506023 0.97170469002366566
0.63297518603544867 0.45712108104150895 -0.18121311676370722
-0.64570419011258529 -1.2106483870751066 -0.90552874137367079
0.41479976550666087 0.063144478047338026 0.69988452904854226
-0.19829199891237703 0.49383495680295186 0.76291268665088441
0.64607051509800728 -0.35971848240506388 0.53657854825814488
0.34874316945805894 0.10902331346606497 0.22156202638475392
-0.33549396896575057 0.2463830362110877 0.67649582588448665
0.26788117398528399 0.50782711310162099 0.33318762633947613
0.54806867361469003 0.89070166004263029 -0.40840071380884557
-0.82769125099995955 -0.89007880366480596 -0.42381706881710035
-0.015247865771738756 -0.16238009955745847 0.57982802129130084
-0.52987830964312521 0.010159354381944485 0.55915996601154616
-0.025651334753524546 0.10492517600891582 0.68112752222746709
0.25802207405724809 0.77461548150801041 -0.090858604545462129
0.46911747543645266 -0.3398828459170733 0.71134640486606726
0.25295610136456026 -0.35878095967721957 0.57746586522273735
-0.26717579961992222 0.22266719521140343 1.0488966966283391
0.44100537565163811 0.50825737133749693 -0.41663603082077605
0.43223802437751546 -0.45287169591362586 0.66162035222237603
-0.96739662558150397 -0.68771494016077739 -0.4547239280729678
0.44021481309768906 -0.0079975946664470055 0.56632839392999434
-0.40891854850082288 0.21098382561771123 0.81466051538996054
0.086142421435935201 0.051407161236416199 0.30637105974605683
0.82314474040141561 -0.24940579766593118 0.62216069255089224
-0.033244472065200759 -0.57763236892076719 0.33476712286829202
-0.21954737349802578 0.2761651458037242 0.8213036089499044
-0.64047540932026925 -0.061505698051777191 0.70084647413262591
0.018468435067309885 0.46552264669798071 0.58404340373747166
-0.0046075541967702804 0.16206223101222039 0.82038951800991677
-0.32703642920864784 -0.44569169114702945 -0.69950361430563368
-0.12107306907806858 -0.23902134851819268 0.91978282321841731
-0.47009576482779347 -0.69147766515407527 -0.63237487255058356
0.13974891693430469 -0.41153400307096533 0.82942377081753671
0.060072512453035243 0.3325833132262801 0.76583233754025815
0.23209115721197837 -0.074890462527076096 0.67870066335070156
-0.33952444597317732 -0.18859028110965537 0.92541753143264693
0.21958834873728317 -0.30661611365633701 1.0783123640088439
0.083507454662654634 0.84271311105917435 0.41070807899097334
-0.73128408957095092 -0.14859974142318877 0.57250569079357494
0.37436061388319875 0.39549320985255942 0.50264284351702848
0.1582523338996833 1.3744198915628139 -0.40013218834299313
0.11767910359617972 0.27890071272641026 0.65662712354659858
-0.52362338514994644 -0.96398406582896889 -0.16899849499912439
-0.70485524065087168 0.20230756119167947 -0.55936203071826052
-0.1625484491955167 -0.075223469390745423 -0.74832803052555807
-0.31424374629615215 0.10540864330039668 0.95533326111575267
-0.76019798212110379 -0.2384970747691062 0.46629720301678401
0.98962083346829655 -0.41265920907430598 0.70834602833857452
0.72130549984872583 0.42854785159102171 -0.5616820667044613
0.66853842115255135 -0.39565466915018765 0.5569005919388581
0.22188669672248174 -0.35242937886622272 0.62248945191862626
-0.31602946934360554 0.0166925982570858 0.91757225394010145
0.002060580631704001 0.15913221741921602 0.95190827648716125
-0.94586355026097013 -0.32178267977155195 0.23809685883751561
-0.37153523612248751 0.11501898294857282 0.72095668673688096
0.4815694180565333 -0.24130882739609394 0.48339488246101814
0.83116859250009723 -0.63502982244888773 0.77622002058064465
-0.37439665106584497 0.19464953498506676 0.89893620976460853
-0.65807553231237115 -0.61269817356598777 -0.34414232733481148
-0.16055411328355684 0.27589817891821755 0.84748327812282342
0.7267925040359553 -0.51437302198654011 0.66938883857241605
-0.13433084771199177 -0.4307964374742288 0.7168273129311471
0.61528910913460289 -0.80031328583261541 0.7669514955152531
0.42465043881580811 1.0339883499691112 -0.19397343326998473
-0.68117330995290049 -0.71869695405497813 -0.19661466691800783
-0.038964063282003192 0.68925053315922979 -0.1673961296498756
0.08110656603052524 -0.44534272254550111 0.47974157250699606
-0.46058186466360351 -0.36388362152173959 0.63153469208398483
-0.026237902734693952 0.30416816300034077 0.51959138639467928
0.61802733172879343 0.49686327383933504 -0.12584595030162793
-0.97244778009060873 -0.87551854247870842 -0.64436192915263668
0.47430611142322654 0.71365313641870931 -0.29781780823621806
-0.22169157578030152 0.1362392967243562 0.92235157258756906
-0.30554529783370832 0.23596977083524173 0.82024227443693576
0.026966399802343943 0.3653936782545979 0.71359403656537068
-0.51261585647069929 -0.87562657082651163 -0.18686116223046456
0.65197665311211184 -0.41542802929895695 0.82213652087894384
0.77721468040607677 -0.40728863157507456 0.71243735057069923
-0.2777150885608195 -0.83342743821564413 -0.31059859373573712
0.1823142236190598 0.72563519012843036 -0.072535707590347998
-0.075945432998818063 0.36382171582526079 0.79553068180788755
-0.75100799170548938 -0.80747897859895157 -0.66558456379208308
-0.35641723716223805 -0.11894138133119592 0.90414857730587772
-0.87167333297346805 -0.69719838912259835 -0.36085515153376846
-0.66488968498685441 -0.84889231492533201 0.015130713661093309
-0.14350215672618116 -0.26149214150254352 0.42670986329551458
0.17271103865335302 0.039199231174821492 0.72134518191082475
-0.21560825364651337 0.20494687910418041 0.97523241916395786
-0.50897188347924494 -0.017588712401205298 0.45321900536708765
0.43929828696418127 -0.26075380141838678 0.008042322673240121
0.71215278423827033 -0.98463884510729649 0.78641194807648784
0.60323329858760522 -0.46668896667436188 0.63987300727255381
-0.19403320637276789 0.12483972575251578 0.69052057187814997
-0.79318055416324929 -0.33143632148747493 -0.24448095179000712
-0.1243582620710324 -0.26709528067512123 0.70539807158088985
0.79953301365805862 -0.56869948055351793 0.58973045045350503
0.40726693169210981 0.57211347818557057 -0.0066711538956431005
0.43514904396676979 0.82016725451576655 -0.40967638924496563
-0.35034659469011564 0.40170521836141337 0.70071875708549003
0.39502967583151993 0.27549843339624802 -0.4573580518102105
-0.65223488934404728 -0.56201295342555024 0.30034357274759466
-0.39724181084182386 -0.85514301242785073 -0.20071092505913651
-0.51482871094566263 0.70767014460553512 0.43769475232375332
-0.75329586397290749 -1.130516634435959 -0.832355966589445
-0.040310168211059372 -0.025561974066400373 0.59667318578377848
0.1280832248108501 0.85935698603924116 -0.51132780148246881
0.32030353931906519 0.45869610437023733 -0.065299418757704064
-0.31872895092599984 -0.56077880322506912 0.49059121747695444
-0.33510422364279346 -0.20619951347369803 0.67613780965139147
0.24051442519737765 0.98766036510083066 -0.29277566844191749
0.4266494967116532 0.56708939249344725 0.40665904734336705
-0.95496504618749756 -0.95789413084945352 -0.46825815159257655
-0.35189250990499277 -0.11866897407312571 0.87726163523070799
0.86848456103714322 -0.66734546879745915 0.52501542356942621
0.30647006170047109 -0.72841993728869259 0.85910668408329394
-0.6456426781317951 -0.68614552471723433 -0.61147814409790779
0.82374102905211499 -0.29227577581063513 0.558433812917284
0.60900120691459048 1.5864693214064425 -0.9858287205156171
-0.32425748320728487 -0.22018306417730837 0.79723772374712243
