# XYZ point cloud file
-0.16531679654301357 -0.65487386165055805 0.44775897550216842
0.21375741503883627 -0.18866599892339497 0.71436205144849541
-0.37546159476961416 -0.00024456477837886403 0.77054446663467935
-1.0099234556921288 -0.023709253764478189 0.011808686490205778
-0.44814091392012806 0.57403245099648958 0.61347947254921864
0.37487980466382248 -0.23965941978126692 0.3790659267874773
0.092037695277264464 -0.064036050101699882 0.74793161835794586
-0.16625507557256813 0.43986500432432907 0.93500111176799738
0.11246687750748341 0.72031242580610477 0.067081622270877217
0.48731287235813148 0.67776661565318785 -0.32681551623889438
-0.3437940935284054 -0.24411221620282408 0.55921593421974936
0.11470592559824 0.27669862091964215 0.6580848385111483
-0.11341731580569912 0.89565612734079358 -0.59811590663043268
-0.82094091176819861 -1.0801019947763526 -0.50565414503609263
-0.37304467498863481 -0.25811450880464659 0.64888027132266002
0.54001345606307982 -0.26167380088652958 0.56636937450735092
0.4841482854953259 -0.41268749796265314 0.46910850965337703
0.54031027262030373 -0.29989088291608956 0.81414026992905186
-0.22022151411704305 0.30030301368386803 0.62528824742814371
0.47035681791749706 0.75531857797007862 -0.02412836573252497
0.44402656599941465 1.2039457733675609 -0.30540675350661284
-0.29121748601493991 0.23451254689141277 0.87912147417171815
-0.12477090937231888 1.2175332956624543 -0.15429197321407606
-0.43471408455989269 -0.64960085422667091 0.11607092061090273
0.23752573455964632 0.21594976887571671 0.67173593658534203
-0.4819031878250038 0.30625811529613223 0.52721442899026061
-0.59877086759659082 -0.34886931907915231 0.45049064106743181
0.11410574987574806 0.46852754708512401 0.41470174916267821
-0.3708211411591269 0.56641552802940442 0.75848424000037062
0.63782776886670767 -0.19902283180685498 0.63146451088423905
-0.87731874337395344 -0.81339075032401731 -0.89616194426717766
-0.33862417749939722 -0.066262804534519715 0.7663140670550721
0.19755564241924267 0.63646327796187729 0.56039729406458327
-0.41730092442844469 -0.28051780754192635 0.54917025873049186
-0.010966016089736907 0.38627290925599844 0.81286800836038187
-0.31723971157092234 0.090440031745603666 0.87128547483541174
0.2768478557028457 0.40595548902329892 0.2833888714467413
-0.31125811132406622 -0.60290592832076828 0.27578036107511328
0.72675788443283906 -0.51474913224616903 0.48991796711159435
-0.29145403224688915 -0.96062650467129562 -0.16567909909622081
-0.10608802227773106 0.44516529366473978 0.73078777806946993
0.31326961006467008 -0.085512443527225646 0.19754054444679942
0.1764630934499416 0.40836115290993813 0.77532598547019527
0.093757064731637474 -0.17374167104972549 0.46758650202278434
-0.63099354504646155 -0.12622307232960306 0.61747772397624989
0.032647731593968943 0.61285582488409396 0.55021939592126901
-0.41263929343821681 -0.36358838168221874 0.79378166300959729
0.33443429442613681 -0.17346463569144244 0.624255990349186
0.26792743649518802 -0.2523430262739752 0.70067167187507184
0.0043980249181165831 -0.090023723197676486 0.62232385177220917
-0.14531983490870359 0.084937942927340027 0.6873921973611814
0.017218993381948766 -0.16641494572124182 0.92672693883943302
-0.61588479876575941 -0.78389350033608907 -0.33905582773845511
-0.75807132107324238 -0.60976504707239665 0.11623386859078921
0.15142371398478335 1.0789565523031297 -0.16273563207931385
0.59551007192006877 -0.31847731749099673 0.3621307231363855
-0.020084889800577654 0.64785125659445297 -0.46515374149750921
0.6072869393666549 -0.20578336672156605 0.8117150505376467
-0.58910018222542104 -0.20728208397180126 0.64886209724090327
0.33983967578000984 -0.29677028100065295 0.72622854724068953
-0.21363478018068904 0.81906235348361645 0.72337545818689497
-0.45754556564189619 -0.67975518043643501 -0.24407082600672581
0.60425104956301723 0.94969700654097777 -0.14649815181823589
-0.09356560530032354 0.41407618855701778 0.52720153106837175
-0.26554086168399194 -0.37087363673587181 -0.042802695254853917
-0.1845837397019402 0.52089420643441764 0.84175303367260657
-0.18277938649547565 -0.10492230526572555 0.94808490708829951
0.074024410093977866 0.86478306092593804 -0.024548070100631203
0.36930500555588597 -0.52017870591530269 0.8209226581591702
0.052198751496925322 -0.10290222200040411 -0.329612125399255
0.50629573767728475 1.1861927384723341 -0.50458166979457098
-0.73583700883313108 -0.99202587218674432 -0.34867998418643781
-0.89936746325314521 -0.61598111537596756 -0.22306217890416086
0.22339376088710622 0.60756960753416556 -0.19982144311913741
0.22098764904246149 -0.15562756254976096 0.64411349250114358
-0.61447554108267743 -0.8027594575358683 -0.059241141365510959
-0.23279990375194837 0.64748170442114539 0.80056942845354817
0.18233919390655107 0.36301719144497246 0.43140610536761825
0.7899653955729955 -0.32156970622550796 0.56443351152456323
0.60000861040116082 -0.36446259609463461 0.56169088272285705
0.42973411337179251 1.5464542916036632 -0.65689165710649777
-0.18095478102401236 0.92606734808311109 -0.49151249602772706
0.019051102276546827 0.25116886359421975 0.78370226417261091
-0.36377926398537708 0.26796715751665556 0.62655188359797209
-0.39531572611772658 0.094156735830155158 0.72785460441591554
-0.71221982693970354 -0.62752206606734018 -0.7214986254111303
0.11297197251003033 0.67982055459034074 0.38843033504723024
0.25949912047175605 -0.4179753166882052 0.47507037279088055
0.2932789428551843 -0.036116213334396297 0.42406076670420612
0.16087414533949101 0.39137681240655842 0.58229560817923864
-0.64445397071649069 -0.14318767968112001 0.5204747196115701
0.46727111454758286 -0.34514192226712237 0.79295872668007439
-0.057670332151871007 -0.019380266921107836 0.3539072796553987
0.17154540711744404 -0.025498879331261604 0.89986356538257473
-0.52986492318428158 -0.25557143664258763 0.4044107582423489
-0.13058298489644082 0.05481407718457687 0.99136988061846099
0.36741303111551227 0.89424078814097796 -0.20947282136711742
0.19979625334789186 0.16020651151393661 0.545644314498129
0.082484963539875666 -0.24561112053443623 0.76750895932435248
-0.47632235258105016 -0.10105068286412511 0.95646845829987648
-0.29071805855032462 -0.3722240531498805 0.69675413173731915
-0.10123367760153068 -0.072914038903083345 0.70829541280850827
-0.48341161054865489 -0.38647203581878564 0.65081491950068959
0.017751383601773973 0.80354841734348015 0.35486407160273103
0.052088933012160998 -0.14522347282213621 -0.3276703360685369
-0.5244572890097644 -0.12011887605089222 0.52148902917175066
0.37375215579142962 -0.26156120761279844 0.76094382672377803
0.19253263558169659 0.68560112654739547 -0.056188460031306398
-0.74946704302373612 0.16995118368105844 0.65911783087833298
-0.41111325212197036 -0.21657921178548867 0.57628557290732563
0.54753516421713078 -0.40891412437024699 0.46156117784864997
-0.26071921140166299 -0.41425027493567335 0.74938677582451263
-0.50287126312479047 -0.36692400799256664 -0.43343863246566861
0.046947216372270617 0.71963330154621385 0.51440057368587733
-0.41331547273964286 0.32129523709944663 0.62320987138940276
0.44136306398668268 0.91827818978556908 -0.35231886193991591
0.22097226272266646 0.40840199731330118 0.7182118293152967
-0.42609476423564219 -0.70094582838606811 -0.50701667936183592
-0.18586214183193317 0.09263570867585913 0.89315881329653279
-0.0074895692334786546 -0.1747030601033881 0.52582336915493066
0.75452339953835179 -0.23447083969159899 0.59503802535518746
0.18615803114261609 -0.22166679204245288 0.61957677040377002
0.092487426294413463 0.9768387997041198 -0.57933390163915677
-0.64982139530580751 -0.10271819255011516 -0.057323317274209473
0.12233631695606162 0.11497691878030847 0.77098425736118315
0.13557681764184071 -0.33527991564506809 0.63013478431017167
0.35636538081840718 0.43485507006493729 -0.095980603177852841
-0.33077840584869816 0.73000857522268536 0.54334102910632753
-0.69634245651760551 -0.72995938917387149 -0.36944658079949833
0.17059391839236293 -0.12488825075718846 0.32769303308911479
0.76475782644907508 1.3034174499773581 -0.59572180000198738
-0.22226657693513463 0.4874985620480663 0.66766950641031042
-0.74877409504392434 -0.93168407028947275 -0.57850855216628672
-0.037979398846697321 0.50096522181114811 0.64486251146467388
-0.49605275872578247 -0.75431570245823254 -0.014101476828106391
-0.35714276204055762 0.037731692950707996 0.78511156177489672
-0.44096215824091201 -0.6627833344566465 0.15226774078237704
0.38448272080068274 -0.12691763847856297 0.5511872558946399
0.60234193199190256 -0.58947808210342933 0.59351613954159377
-0.68345560977845832 0.44988443089134733 -0.37879093733914393
0.43948199545195865 1.0690706357185364 -0.17667077773716677
-0.42059859364233243 -0.55989949291360663 0.032410310905159334
0.11337393988611455 0.031830427070283829 0.68237143803937139
0.57471098810879639 -0.11405073153791379 0.45299092851089839
-0.29458407068583126 0.48585188610730312 0.64590696245963541
0.69485831710307089 -0.14461018733499131 0.72244264763187627
-0.56260047836160321 -0.67255426945787122 0.065139833979583131
-0.23049635495212828 0.1095704252792119 0.85488578861967035
-0.3782738461558724 0.3957854253625922 0.28622698656767065
0.093609843614254784 0.1504588092703385 0.009934581289238964
0.13367969578144179 0.52234171391832485 -0.081755034408047322
-0.51308560060111774 -0.34278822555214838 0.53580612399936522
-0.48097410676856767 -0.26705885351523095 0.61653606158184493
0.53702800347439728 -0.38477681576956702 0.68818413941762424
0.14359080272916647 -0.12087889719973011 -0.42671063193717385
-0.11949088502481192 1.0446575703769139 -0.0081417776624359561
0.33128274091969795 0.014570542217309468 0.57422486062164602
-0.55762210213477248 -0.65945420925296838 -0.38022663924291389
0.56253124235998564 1.1489653908946074 -0.2867922893766115
0.39339864302437877 -0.22321161171663673 0.64889234636486459
0.23811861637273815 0.94377703600878249 -0.18651187181061246
0.1057992107713005 -0.1581256213397807 0.60517173259958135
0.37900436385629066 0.048484817060298058 0.33274686948219734
0.46657687241018947 -0.23081580084476105 0.59388454690841441
0.21943114780065476 -0.16054280968024104 0.7199782539985784
0.31911851755567888 0.67429060196480195 -0.41920595054758392
0.65296361570543837 -0.31699888974640444 0.46639655776496303
-0.61904137193136011 -0.09113381728167147 0.71495546227638118
-0.39912320074163321 0.23829442073979445 0.84678164580506599
-0.57214674040918501 -0.30688896805485077 0.67727367851177744
-0.047503163866838671 0.59617282911471126 0.37951736385884516
0.39842480212221532 -0.20914207865718892 0.32519513278023726
-0.7143038922721916 -0.3326536774303136 0.20491129403996933
-0.85781256685502227 0.015881046015787437 0.60166734429223168
-0.54136643846545818 -0.81469583630360543 -0.042987378620169853
-0.040361357883916593 -0.32981484964834196 0.83773335512794866
0.28976983746981089 -0.13861029417059767 0.79859327462885177
0.46306900910774063 0.92719359540521518 -0.3008135565710468
0.28424111279362629 0.82603355047202531 -0.10224890709800849
0.10825996455573922 0.074998328264839875 -0.20672342117247211
-0.63167473023177423 -0.28747994296846324 0.30045932116146656
-0.42562718669649824 -0.59561582958296588 0.0041778137277498906
-0.45978214253822597 -0.65034959336309095 -0.44628012356654356
-0.27285523572383608 -0.75873195826952955 -0.024020402461286824
-0.43974837371414777 -0.57746084313607104 -0.042217150480870713
-0.87546052569732347 -0.38741923895870678 0.058166748467904456
0.092389863151837726 0.89006076169848469 0.81166449060120438
-0.31776216339333885 0.26861286832162745 0.75895553815223449
-0.013295385051248831 0.35102472724110745 0.54434611291199653
-0.11941736988822249 0.16642395404805665 0.86623419584599159
0.14296215126531203 0.84160204143443307 -0.41968816192522562
0.34139231652169372 0.33997550292499301 0.39169079300650156
0.59151510386161799 -0.64834901528845501 0.49099436285399872
-0.53618756632575237 -0.8076848021795755 -0.21721481416002383
-0.58025321525295748 -0.15997015257616587 0.10451591263721316
-1.0086738591234021 -0.92403357965442157 -0.59936666378635506
-0.89728529007939739 -0.12245278581559726 0.71805213086648734
-0.31554888170577267 -0.12733519365555368 0.6249689649555058
0.032163424485539771 -0.19688219941159557 0.85737055807914497
0.37236932530123501 0.40653029004291252 -0.15963350921865938
0.013651854313210254 -0.23215851464795045 0.86958779843498901
0.4417227148072842 0.87189472592704598 -0.403385108253424
0.4662555229825035 0.94907056900867204 0.37301975516203906
0.34297091458516049 -0.37005534269012474 0.6161812446230932
0.075822854919124549 0.35665315116301843 0.54054640135510379
0.39750143119775344 -0.045503490863064711 0.7787678147494842
0.052000770755552761 0.51942274414449718 0.58728146349329513
-0.099375562051419286 0.24222400307352465 0.71103895949201168
1.1321726427985523 -0.77612884393206982 0.7025999598602678
-0.77688861902015316 -0.9806482643408756 -0.7871808045788572
-0.053010717907638394 0.1608228603478925 -0.63281686440921336
-0.72676030027278604 -0.66127766079784855 -0.52638978200778952
-0.61762848418859861 -0.60020600558725823 -0.11878700032442228
-0.73762405537937115 -0.93016985995726753 -0.66959318303661541
-0.30132731072967628 -0.36397609487508065 -0.30357394593606185
-0.88702091675266381 -0.88052267059478651 -0.15201653084461664
0.073484253641415309 0.39454585187307811 0.80123005670124936
-0.41107561901989809 -0.46902390054199516 0.60500998482113766
-0.095990282825039408 -0.57954792561318147 0.5817144615706652
-0.091631753579643482 0.37178608600569374 0.57757034521234274
0.32574395910069531 0.63917660663062559 -0.13161428948048293
-0.25198760515904473 -0.10635153565850608 0.67972461270969187
0.27266009809282299 1.122095040447785 -0.57074990459964126
-0.36929865641906989 0.51800773609610373 0.88579111089963825
0.082396635816751274 -0.32375692637190268 0.71045135003337356
0.41448285245258054 0.011580713672665444 0.55678892355127829
0.23942748509573081 0.61859683839647406 -0.023848387334082233
0.038378889101322478 0.69000403617706552 0.024561522346884246
0.42190327599518718 -0.35639938914841318 0.53904730690547187
-0.065620721413954031 0.10261303710946112 -0.33563039773858183
-0.1607499617373549 0.52600584727854138 0.58661601147233677
0.63180885226283423 -0.20882096025416252 0.71325990088925795
-0.19365358423250517 0.80313031338898655 0.70365267993959946
-0.45369108475193221 0.47298137295492781 0.044355783473425836
-0.0063571925365154547 -0.038614766789455079 0.81800050649253309
-0.15559707422762048 -0.31161334098649585 0.84686360851408704
0.6161193766729709 -0.43465911708492855 0.6825545857550388
-0.65540775397324313 -0.17473986959471632 0.91686682441087275
-0.469560509388666 -0.065931445932846833 0.90772664412649784
-0.63481760129015474 -0.68437578403997434 -0.40565187418594395
0.021474470415102087 -0.0052537088676406496 0.80870993999232843
0.60739199578822334 -0.33749521859610032 0.62623809255592233
0.37753099548558938 1.0902837766921674 -0.42703296932985313
-0.55765987135436923 -0.51616176262763858 -0.0059178122440031733
0.5345087909309103 0.42387596441812014 -0.18835223166805082
0.33634556142741256 1.1036463834822734 -0.33230424425357075
-0.070191934600303596 -0.28497022816534923 0.54157860035927685
-0.10237359982867555 0.28575571150453916 0.58128130504722875
0.09575639493595911 0.23033707502867995 0.51203969455920062
-0.70798208577758304 0.13867282381975277 0.3316636012509806
-0.69690251224662203 -0.49102170256443323 -0.2241594785844615
-0.51818022705801725 -0.20090382259019557 0.43044618141882418
0.080523082206121088 0.38466349728400173 -0.27441315412427425
0.27593481628416988 1.2284705914226666 -0.32436256384059103
-0.85582896741951886 -1.1005000952755781 -0.82122695756207742
-0.21019593479174459 0.046651567239920588 0.6731349592352579
-0.057770448645465711 0.66247894150656683 0.20253339377825574
0.16324675724058568 -0.037863569799148511 0.90910938651740569
0.81947179323478059 -0.64485864388744096 0.74694900348964444
0.52038427523073305 -0.28751278201821207 0.6951030689256894
0.066828200991866038 -0.42570521275415252 0.43262328402490685
-0.26419889474246644 0.62972981843145892 -0.22881934161086548
-0.15289090772720026 1.1746962160491918 -0.010064154631928779
0.60912124908734766 -0.624604581014361 0.68718102150248972
-0.60403993505432585 -0.20148696744381933 0.69227502786864026
-0.55905153965524268 -0.2251977375775196 0.70171188951291286
-0.15225243306984237 0.84636982628665924 0.39346134766190988
0.69529170954361386 -0.5867946082318487 0.45664565433208332
-0.61677748927374398 -0.40755370258943413 0.14336986433943383
0.083983997847825009 0.77335777533359917 -0.14583690917449954
-0.22081137618426261 -0.36420312132593224 0.43706073234528597
0.56043123960924524 -0.14044225131569732 0.76786560495885292
0.25077461352872327 0.45682856496916169 0.24044377955875551
-1.1650874925989481 -0.95781737205707462 -0.61967421743260309
-0.14818029767943997 -0.40148794063324367 0.67805385894637182
0.56040301245203583 -0.38208558907604562 0.69082760218507588
0.38806171639185738 0.085051859960301623 0.26823380769336619
0.41064621356748676 -0.76880672737604949 0.21280816309650261
0.17956333546581993 1.2816202039437639 -0.52731943971329676
-0.49772188784314159 0.60821647086882236 0.68582529616971422
0.017294786889397118 0.20317456547036816 0.89870987181412954
0.67423830224406367 -0.55949345563360153 0.54073251170723569
-0.15856212097908179 0.83345290155956941 0.25492265598780017
0.20500135814195997 1.067554038543479 -0.63058692440533803
0.34571116426499304 0.018184046546673605 0.40246429921270144
-0.12688683006211154 -0.31521799256999061 -0.29359028817335459
-0.45823022728472218 -0.25610772907156798 0.58422879675749273
0.39587520185785741 -0.27583109184254151 0.27397645364982126
-0.79859257593415556 -0.67284729683533695 -0.35007943067438835
-0.14163430499496765 -0.26249800554801905 -0.44995524471863879
-0.16678928949134808 -0.66011326037420925 -0.025679328197035056
0.51157129123739542 1.2305463300188551 -0.4987503560551505
-0.65852402121856513 -0.0045166121375249668 0.75044160889250799
0.068433112646893557 0.46877164423865836 0.24158737754807436
-0.5038729255597636 0.40820766140902803 0.35018411069017269
0.35952543170964824 0.92910250287612572 0.44116195372114897
-0.21068000214475358 -0.48685774797076231 0.49023552680866656
0.11616918769303264 -0.11942772576975069 0.77166753295559687
0.36077546081059519 -0.15125178295723196 0.59161702738040756
-0.52870582928134624 0.21631391729866878 0.68024209350619269
-0.34380416141498826 -0.27552730483786891 0.74055997340713353
-0.66856348472457849 -0.29182464775078598 -0.40726656157458813
-0.37024321220048795 0.080616689516917583 0.83009462553376778
-0.75076614751523596 -0.043394343292240345 0.54846279328761105
0.42288084493538941 0.97015398412272991 -0.26552732728485973
0.22276729929099648 -0.56489540834529506 0.59128496035430689
-0.039289908711833132 0.34526726614059311 0.58447149536771981
0.79771802473590281 -0.53233968721375424 0.70624623109898788
-0.16001975807399227 0.043001878734406418 0.77823616212048574
0.24323417034083122 0.21490626151733005 0.6026427215848621
-0.20169239970320679 0.45298838222697302 0.42897152235214842
0.095030977383120607 -0.088807630720528663 0.71026874633605541
-0.0861039082871905 0.36861038804680857 0.75051225335842808
-0.45828027974305396 -0.13832608965255178 0.61879814345996997
0.30429917065375456 1.0311890900000769 -0.38155092217179365
0.047664525251798096 -0.035456916291684681 0.79642315543612108
-0.1900866041482619 0.72183364763148428 0.18862892417602906
0.22492020026989351 1.2488646134842571 -0.63953470859705563
0.21522071011501948 0.12224305312451245 0.13570196849614802
-0.2011087915671903 -0.49632294908726782 -0.060971968059181869
-0.30164431577458395 0.33265960836491015 0.82633615203461031
0.1522553387021609 0.029996456675668859 0.80352414505628322
-0.49779688818175405 -0.18965200813333216 0.89579331033942788
-0.26745099811058837 -0.2975046154113683 0.81118605424681889
0.56099076684838423 -0.5000031974437511 0.42343940252955731
-0.53363049020698383 0.15150452676980408 0.75040876535944867
0.27262695614949084 0.71444845808169444 -0.24747249837306229
0.35828119715711632 0.26577030887650854 0.59737093777927419
0.223190147335252 -0.33526842749995722 0.81660285821042455
-0.34638338568292804 0.10125293283195547 0.81385553136411892
0.36205741404341485 -0.41105557339590892 0.71286547716297477
0.51606790074469377 -0.45248086146376054 0.6806431923427676
-0.73549297149754733 -0.36301382921866443 0.66338431702674461
-0.28265674525900986 0.17257984311255492 0.71332223068875811
-0.55100289571859584 0.18449908095296597 0.71807005924316936
-0.47163732974124339 -0.53946058518871487 0.52061022212078711
-0.083421826596143112 0.82598583337315012 0.35601931617607707
-0.42502118386428667 0.90920162878327393 -0.47759059334109466
0.16406044404171727 0.68825849748720525 0.63471692991794615
-0.19137414052138135 0.22078609088669288 0.82907897267437514
0.12251515032874782 1.0517329130079074 0.21179437331432815
-0.33690721055013684 0.081064179392073332 1.0146657162058017
-0.8627125758112576 -0.38046332253925896 0.53913797475719738
0.38524707568300565 1.1391106519759591 -0.3998361812083232
-0.59572487078243719 -0.94853998413185481 -0.81258440228024797
0.40532733337024185 -0.26037535937703327 0.6864046721491035
-0.36881660064812061 0.033260062599233642 0.9014529485545999
-0.17882609170223362 0.10808349451017485 0.83457277254262829
-0.090665098922966481 -0.082138983201770599 -0.45672692090189837
0.41775696000087681 0.36945818411239739 0.6251622031823888
0.00062413141364747737 -0.077970966350651594 -0.55435480317290797
0.068410503414928603 -0.25465748349358375 0.81141463098106148
0.0010529522727894536 0.8648656902711942 -0.029538084743184756
-0.45559859044786494 0.60477178075230487 0.49880384826723489
0.77233482313094681 -0.50044488045190494 0.67326949485203347
-0.77118370103335243 -0.17995514652796307 -0.022660158345951337
0.30641162288967366 0.32214930897532879 0.29869727212803743
0.33576908575345782 -0.44120096612075699 0.2322473716374111
0.27508081484292901 -0.10749057553209418 0.94592158958329997
-0.64503427878720609 -0.71966572589474431 -0.81349966490196302
-0.16316943519470173 0.18433994415093657 0.78748972627644487
0.77457665968616896 -0.31445583642434549 0.685296291899683
-0.1847198919616071 0.5441679101475152 0.78423192310956757
-0.4313456997635261 -0.15610266869046596 -0.57656688622632113
0.23509477705849469 0.74319433653902911 -0.29487661192866033
-0.089353945497612663 0.3211259568726107 0.83099456898665947
-0.4743446387008835 -0.20324293216640732 0.91587594485751977
-0.52868382584711648 -0.38520773661428509 0.55816713983593869
0.016285810955520841 0.090923024039231248 0.60140339068526727
0.042554500251174909 0.19404562190216634 0.25798207539068652
-0.39450471861795244 0.16774391865590765 0.87424623506670585
0.0091811946313237192 0.3907763642681229 0.65602848944033132
0.35344012454869866 0.58891532477912933 0.31591319520638239
0.55213576558010302 -0.14713617891179853 0.58642462836567921
0.25667256436290453 0.5217112024179883 0.73339835329816483
0.38389542888415268 0.8980877586543059 -0.21629838049844174
-0.63004559514622094 -0.98337759639399303 -0.32513073879381332
-0.31504734145716323 0.08034572582044941 0.24372940808995058
-0.45531852962489883 -0.51962473029366951 0.53268486596222597
-0.75058374049065613 -0.25968064919721801 0.046467229687692291
0.12843517400156312 0.4919978302866248 0.16815477247120969
0.57639082674466136 -0.034057628789144978 0.057149306734480265
-0.48997328672372609 -0.29581432371938754 0.51034329519818855
0.70226384198699976 -0.35231094761572856 0.59071520429528523
0.34852727711867715 0.25566197370565591 -0.26841577041291531
-0.38410100371632172 0.6144126432496364 0.62330847019551672
-0.75049578803559935 -0.71505628716144731 -0.26750993985652793
0.38948421555788709 -0.07316084977232673 0.50453272124935689
0.63072582833305113 -0.49234242085308355 0.59537853950095232
0.39521294616840197 0.93971546101706915 -0.17298960675590092
-0.14093498942361016 0.49986059346260336 0.8187057343766011
-0.85042314821014453 -0.76647461990579546 -0.46432490572494467
0.076948920507081464 0.39809775217904042 0.39100945343010174
-0.06018970409443819 0.053323664547917704 -0.42132560161864641
-0.086734077964042811 1.1331339088916492 -0.085241139098613972
-0.45980592428049394 0.012078668285884553 0.66971726192294689
-0.11561381392673431 0.05161086371862611 0.74957488945541351
-0.80609253181657758 -0.22314014750244304 -0.014106287261332492
0.19161329370252023 1.1069178144985981 -0.0021087375429295063
0.14368411732183001 0.43018528539460876 0.47674727058764754
-0.080901708937747618 -0.10245103413015699 0.6937360415307896
-0.55050046764932781 -0.3631539491918907 0.48650920315562357
0.12483135223984521 0.52975574109255297 -0.072297734737291508
0.45778230186779378 -0.31251076618907403 0.47055848120908306
-0.27650416228274488 0.41556523185968919 0.66851684459235539
0.086390656086867856 0.62913582192452266 -0.34733730401809981
0.18353008647313668 0.88022413954553869 0.075021128967500572
0.048623491398335161 0.81144015893925003 0.039792618989690554
0.61185619559216053 -0.47450823063362368 0.71509667694193069
-0.029078047611707514 0.40435934428231834 0.71611664690070331
0.10226585343140204 1.0656063189935054 -0.29471224998484069
0.61374007524939866 -0.38865744543904812 0.52279354523331956
0.29883358017518025 1.0890442365085482 -0.27315316184807759
-0.10909276711148685 -0.10724837186661995 0.6377264747466016
-0.054346461929419498 -0.28526365254947228 0.39200107968347503
-0.067585046474482602 -0.18990915128343566 0.52358853798947436
-0.23702941253593512 0.57584565979516855 0.59329347168540281
0.2268125327762755 0.98564166847117218 -0.31661394799348441
-0.59871289811452399 -0.852151761790096 0.087941232527429219
0.25762154099421447 0.38820581163627099 0.69451274022760878
0.23191200690890057 0.56960299456010999 -0.61936844610101083
-0.23484585531209756 0.50915334744016427 0.65922306775142159
-0.27050113747064342 0.040906250573715441 0.80753455359898485
-0.14620249260577578 -0.68422314185319477 -0.29399594054565126
0.75139937045194327 -0.43397090453221621 0.38073980634341242
0.78810045908808446 -0.35929168250770016 0.78937823940880403
0.024866186462692619 0.73295756498904974 0.22956985286832732
-0.68032360905623313 -0.75600163868945802 -0.29657606778433143
-0.81223270411111881 -1.0967140605033474 -0.89052285313733903
0.11103298865281969 0.89104055652047909 0.44270580433051854
0.27850515314481389 0.26121745511467687 0.34452786285865072
0.49124976286944549 0.6086008977260855 -0.26835267998303736
-0.016685261734667556 0.27129658007816959 0.63914942857510904
-0.95096086962422643 -0.1164008495613823 0.31202868776384624
-0.97517562051030704 -0.65184634181444079 -0.81392344112647952
0.13115891077982811 0.14388837207596272 0.63772837341806776
0.35135756255350747 -0.43373606441468837 0.53554691237520469
-0.3293934411717987 -0.040791620082203051 0.27359657858507069
0.66141264739331962 -0.20109074122940263 0.63284402265059247
-0.70021620523811734 -0.69585847437790682 -0.90147389215354912
0.18179791969947548 0.69850524370584233 -0.38602871051049115
-0.66089448393111327 -0.27754134743453074 0.46645568974796225
-0.21036593672965842 0.43255139516427943 0.58391836359531657
0.24837837721932288 -0.13112648863631737 0.70232194097053158
0.030036787797116715 -0.24722719570981688 0.80565598372273284
0.23691047885227601 0.47314154382741402 0.17269394364341895
-0.044660396921057888 -0.19100306649427079 -0.10667693960040658
-0.055441652047173773 0.067353181799842288 0.84002673146542162
0.3645787619953953 0.28611033194085156 -0.24326039590467807
-0.19581015479053532 -0.45089722285819289 -0.023369977250912832
-0.6134074939375187 -0.49470278822902225 -0.25037888623410437
-0.52327175204548215 0.59267844242143086 0.44614918674777676
0.161205479944597 0.19338125419148944 1.0173153281334815
-0.26935818107177767 -0.18031250136270072 0.91796617570252659
0.22286173450599922 -0.1824145559992425 0.96171722615932209
0.90370692376391126 -0.37785280229783136 0.56118052121437589
-0.64850962554293157 0.11518842781778271 0.56209073257015707
-0.29065093077845017 -0.24519584240663872 0.45539021588555062
0.19914427632924453 0.7184973418538142 0.64330745952765622
0.57403212137404791 0.41782249272708649 0.09518816668337049
-0.58340612113216572 -0.74369363763072871 -0.053014304938248505
-0.43754026594973611 0.31696132084648199 0.43096884973619132
-0.43779922025975432 0.60542108831934194 0.53202919034661189
-0.051398956617798475 0.46985296908578744 0.65166215192452959
0.02238691150055544 0.44013859420011614 -0.229129574941625
0.15344899917821697 0.48045468928609791 0.44873231495366295
0.44413895754534133 -0.25615290108417144 0.37571280836505483
-0.16273952851852769 -0.32978321942218791 0.5295680157490501
0.1968876861616109 -0.31428894274062658 0.67956449228349913
0.5374418936694183 -0.35859488831087716 0.69202428516976222
-0.68024734572722934 0.20342776564814657 -0.14312969791222124
-0.36378221072798422 -0.40366002152131963 0.46309617787490209
-0.39031412224850071 0.208388867728178 0.55529119550256911
0.23698135605900728 0.52782590789697337 0.55040952716503055
0.0094765688909437817 0.46259017838679828 -0.32569209680015365
0.30605436644739403 0.75250808249905365 -0.11419960990310285
-0.67213256055436676 -0.76418636006384033 -0.5697535857215531
0.36693386576376497 0.81812168669099072 -0.44338068592304392
-0.0065389107954189063 0.035685142448035001 0.71186353361079846
0.77014383547758181 -0.27491089812327896 0.63421507725868187
-0.093770782296777155 0.11364247440355024 0.87672679177052015
0.48162777723807926 -0.43757087594123734 0.6106193948932267
-0.60185806057020541 -0.78563881191408813 -0.3096487994428152
-0.09501884581443365 0.16075783222370599 0.72935753198545983
-0.66398219876770814 -0.15168439180882665 0.56898685184717623
1.0534251063380113 -0.42610509573394806 0.52842453852248694
0.36356336897995922 -0.53807887522825437 0.52994128607457391
0.77721443380644839 -0.15179861065945754 0.51208263980239488
-0.032401342332189165 -0.2214049378818026 0.49654634508839635
0.1338511092628524 1.483188432128713 -0.37784902773784579
-0.54863407465982073 -0.72747561028835173 0.040710333955405228
-0.0098461756769700204 0.82674576738984706 -0.37558568265418468
-0.42432857951814873 -0.24683865390257909 0.7410522366069181
0.44060845765914464 0.93729693972161099 -0.16249162643925263
0.19394838863685171 -0.088927398693656734 0.87137232006870913
0.061734705208917773 0.12233745190814471 0.78356615967984067
-0.57090798869711068 0.42023484553769153 0.39058985022931925
-0.31449180086933815 -0.45398813926502934 0.086377902711469945
-0.47140296496227951 -0.12372988957781395 0.65302161331492292
-0.34772232839347161 -0.034245797125835642 0.93369458324546484
-0.5939981803137202 -0.47259529436309933 0.16420647899020821
0.27368101506611708 0.077420862065464946 0.40358094631702002
0.64364389820068491 -0.26947403781960322 0.65154087300502117
-0.61257288875369931 0.099608609542967574 0.48438801111845531
-0.50532302747757907 -0.14432275814084772 0.37898939934731024
-0.56180176715564401 0.10223413657100977 0.41490680815093978
0.12340696529065565 0.21706728631645045 0.67908978585802149
-0.042481791735612173 -0.35846493831328652 0.53738860926456489
0.26822907460260559 0.92411426850800626 -0.17184649103992622
-0.41641012755957996 -0.58568204656804801 -0.015270848257454478
0.072536721102121643 1.0845048927306382 -0.35854888811373942
0.15552144449484118 -0.19843761896483936 0.89303646435246931
-0.35947147667307555 0.022216724293122714 0.54804157273923049
0.10419948102191912 0.44658559676051246 0.6960847796320484
-0.057176764720445417 -0.36292181431189752 0.62321809514159821
-0.018429908410813045 0.81547202929022455 0.60101554179846928
0.27601987436665304 0.59895273144368388 -0.24219684412309239
-0.77166550356778962 0.19216449142235792 0.53956328245355545
0.070361756280747478 -0.19267133903465483 0.4918140384295786
-0.31137389106645091 0.47570531532213201 0.51498084248349874
-0.96745093532418536 -1.0493786597629557 -0.64833633224044163
-0.23040421312583848 0.0071932487788011201 0.82159091059834966
0.64400334934441106 -0.26971872909052186 0.55361225223223065
0.1078159991759069 0.31972419241781558 0.66581232753617658
0.082364737228238144 0.75514587314574355 -0.50228464468934841
-0.59060630823909721 -0.74012779635138815 0.11558596766382158
-0.63610578780858074 -0.13514415166139215 -0.32667939408544366
0.23798102032327426 0.23334599930680433 -0.39182205156428329
0.44231317490091654 -0.022370932091699824 0.42068223892901058
0.026930201042845103 0.94227661347013514 0.20716517769388798
-0.35220161082892443 -0.089030955560417846 0.79887042804122599
-0.0026984315794902347 -0.4580961371107577 0.78943850180775477
-0.12325244231794674 -0.093388589925364807 0.8767498148271714
-0.69821311087032423 -0.45037694546873541 -0.14716046610257028
-0.66204809908886653 -0.079534410841384351 0.042591678603712213
-0.27236701122956752 0.60128575801322026 0.69004361337733711
0.48100962300142547 -0.27033720692784347 0.74472938695617374
0.17927221454892286 1.2026969954729849 -0.52712967329494609
0.65590874887130157 -0.16078468930639189 0.54799276957578158
0.17371943047101135 0.77125055420843314 0.065829620088764362
-0.075604419205587248 -0.34823779454013737 0.41107791041987291
-0.26907816633017045 0.15897747163800902 0.7752929548956049
0.064928776962407952 0.024527551296786188 0.72727059195820043
0.15777316293932275 0.57619936199889932 0.50483505920163063
0.20957324498261554 -0.17773750299063928 0.7656050359169172
0.29205792222045057 0.00078657264579695685 0.63282375749774411
-0.073086337569299165 0.36100481571285747 0.50349178792819538
-0.043391682728658565 0.4052743814360199 0.4348138217414087
0.57001590778184741 -0.39596695717548869 0.5749224263874313
0.36654907332318121 -0.32178724402224979 0.73201375989628914
-0.085768926567259207 0.30333742934730645 0.82986219141626616
-0.88035891617304296 -0.95836383578388362 -0.76159626366718058
-0.16772914347516588 -0.13171879364553363 0.92121200562757666
0.0025354041779631631 0.23364569144784175 0.86515446662491424
-0.16747819886299775 0.12377572212952248 0.64016565137779857
0.52912649130795497 -0.31602143999087695 0.43587484947966348
-0.27245857348527136 0.47153508564735358 1.0203961912870609
-0.2761899576326029 0.34627049240401242 -0.70244685276488861
-0.083628738551324133 -0.095927104609706659 0.52982322899298628
0.34208705728422439 1.0025382301953805 -0.3018492624120751
-0.37848723924835637 -0.12680308801108098 0.47394949866015634
0.20367034069327994 -0.43878024998400589 0.61077692809321027
-0.22014239802126201 0.55639710587806657 0.19003951162688371
-0.64044165483377669 -0.78189061895282697 -0.38294078519961949
0.23104430803678422 0.99923256424950713 -0.30338534034834297
0.17845808870333768 -0.31210818612817093 0.59312320886765846
0.17351962711450131 -0.052122119061630778 0.70930976923314393
0.44258053938598813 -0.2985717008121771 0.59435958600240968
0.32354411588330817 1.0438785447900676 -0.71336611120428983
0.43211698687799943 1.001825169025423 -0.44834916076086273
0.98516092385729559 -0.57000101304460571 0.15389643518551949
0.30939706129702027 0.49942743907981013 -0.19680998272003281
-0.20281283789090032 0.78674085986449971 0.75091412593538021
0.17572328089999761 0.33292872420825992 0.44095107031177416
0.12517828810385878 -0.22734582244413049 0.38899738885181601
-0.65955016981722547 -0.46998978405987946 -0.319245157802513
-0.40709123554243087 0.80478454762513529 0.6751112512003129
-0.21664892467371877 -0.60561978323624499 -0.38802146827816231
0.38637410995991495 -0.27836525293311198 0.75233222289501489
-0.64971643320957084 -1.0020244855635319 -0.37991925860568221
-0.63203784509432615 0.46087039506962862 0.86818720173284958
-0.69512109921927467 -0.20824971884148435 -0.15500969593538302
-0.024022533339865704 0.43724650249148478 0.84479993695749978
-0.15658929259283838 -0.086356151195933095 0.89465802849142562
-0.52985523641930465 -0.97750472710076208 -0.58723748850989832
0.36370343384981552 -0.38794959821891339 0.62531333685475854
0.5839005877740393 -0.18541665995788059 0.41522725032644892
-0.027605030507259154 0.25426032925546294 0.7716468606327348
0.10444836819924094 1.035989291541298 -0.29494625585809464
0.032371314941336271 0.63315404245517315 0.72899984159709363
-0.050909274190669818 -0.1371952697571851 0.68470208461536464
0.33679120088938175 0.93793752411436537 -0.12130755937032622
0.30644998281658453 0.27269521355864934 0.50456767701537453
-0.16147557585079564 0.063948040481849655 0.75880056172175747
0.66241514365189869 -0.12987791588664699 0.58659373315694163
0.53021809180551882 -0.30480264367458232 0.19917973902852876
-0.13466933099081824 0.56846168276449061 0.67236093622376358
0.24957699600241257 -0.34849862524386466 0.60718514243383592
0.69391516571769563 -0.53105342563612989 0.54169961662010435
-0.22362446053067464 -0.048028797277792856 0.85215695277066039
-0.70800840558020994 -0.42568552643073698 -0.3729554647905855
0.17330576236912248 0.75755914567310401 -0.15201425816570224
0.26711545891581834 -0.22782361671357787 0.77816214033011366
-0.63599763834393674 -0.55341576018111782 -0.17935866067220194
0.35173554181453226 -0.19060131233205213 0.74347873386133734
0.46236092178967447 0.56683270472485392 -0.072893014555213465
0.081267069283648574 -0.19047669175089155 0.86459457410260787
-0.81279031343684494 -0.36591391878300383 0.83933266901312453
0.43148745797828103 1.324796293158482 -0.4387240412722011
0.65305209203014269 0.63812707516279499 -0.41039852185313519
-0.28170087148814826 0.34953054726703969 0.80368678159650886
0.017612812336057826 0.11979065288283208 0.88456243372492849
-0.19222595550377697 -0.703266995313649 -0.10617372916446505
0.19982784624283778 -0.089070728848187231 0.84007490032483001
-0.12300826236724405 0.2881213532900041 0.80397578004029457
-0.37554437328958024 -0.40899003339873075 -0.062756801933603501
-0.26863659403642415 -0.24198611233919565 0.85677549244150075
-0.41964862886493293 -0.17662815625760775 0.61371530060225443
-0.49859461043602105 0.18906509377745206 0.72660693536237109
-0.45084933404333127 0.10203469432979173 0.68011528169442115
-0.46901935053302068 -0.32576200503026254 0.89357363427103231
-0.93850300733277681 -0.81176279021707709 -0.26073029490268806
0.68834483008556568 -0.57829779442361873 0.65654414670532846
-0.42737992327555951 0.49084377747620611 0.5908636001156724
0.84319843614638801 -0.4692187733056653 0.68281446230047227
-0.81990495560986654 -0.45213435214371445 -0.20490034279496741
-0.26946492670076028 0.2563970212169927 0.48822645902802286
-0.12107391398420453 -0.54618241220918562 0.73477172040326599
-0.045681468400718794 0.84875529264481564 0.034222168325408586
-0.12901450056062547 0.41410631389167063 0.83743350601319888
-0.43388126851111575 -0.54404089990721327 -0.027976354696636563
0.21242962224037304 0.74263406337906024 -0.26914339329189685
-0.17054942285039332 0.41559648855799536 0.764132854141787
0.19380293223278611 0.20795548395106911 0.71873446225544535
0.45405657438421626 0.55891372133966044 0.40624605692783217
0.23607375237126549 -0.1533263314056782 0.92569594545854983
0.021893723855854641 -0.34051261885004047 0.09000487790506706
-0.53235975682094105 -0.9359899866104604 -0.37649762631624606
-0.74405829058638973 -0.66539668131498986 0.33258846532960612
-0.35787809957231065 -0.060406680542004265 0.72703185847152929
-0.57057579853763596 0.26863314555532891 0.69996962559722586
0.80712379241314447 -0.45182476454343568 0.57728047230678536
0.43485089673128391 -0.45895872117928804 0.39961843762596205
-0.68453300705922338 -0.63708651545030504 -0.042327529301851588
0.21421324590316965 1.5283589449980557 -0.97014673455889688
0.63582008325798911 -0.089474108201570757 0.67440237938855474
-0.70193069077766435 -0.4746329181943959 -0.20228602703190224
-0.16098037854557345 0.49791466741064938 0.47838943960552049
-0.015432152660069476 1.0398706279052936 0.38674068665670569
0.38040901507513875 1.366797911992276 -0.5643063852996073
0.44642628319739264 -0.12935192456558697 0.6282882433668544
-0.93613882635326906 -0.65506434563964677 -0.37325270205583161
0.27294982199057116 -0.37225229430494355 0.34206735571926344
0.21494447935332683 1.1913267353190935 -0.45860570894845809
-0.22326764382466835 0.46825564928100916 0.53729913929978634
-0.092403237203779964 0.57604332974155814 0.61983778658456568
-0.68775919954342191 -0.26055573590169601 0.56544533593034041
0.068354147803932341 0.34420014434402257 0.68739568988620336
-0.71908629147206082 -0.36895062784428034 -0.35755207742161799
0.55383357755667761 -0.3506646048899269 0.72637060931190078
-0.5804964077452921 -0.15900400339604692 0.82094038194905894
0.22125065573785802 0.96541986208727926 0.11606049079116332
0.11045657841205603 0.41744314278906547 0.57902456084992615
-0.62559538726791064 -0.22807954413443299 0.51921742593330666
-0.034723482700400932 0.20115408585238581 0.5328398388678407
0.29670858780467668 -0.48043497431778626 0.50902528671443203
-0.032078202691387059 -0.23589717930707477 0.87015348472272036
0.26454216927292784 -0.4925449882632833 0.37004167681545019
0.67307728266717404 0.70903044623832989 -0.41852661063872998
0.21506027126030786 0.3873892960602342 0.55924881950712069
0.014285447095984893 0.23100341374913913 0.77812427820664098
0.27914599018945041 -0.086662156680193836 0.60104275260247864
-0.54614713660066916 -0.42812029745261737 -0.15905065289995654
0.10037741951001167 0.031479856278044061 0.60682493986552066
-0.25183877409132971 -0.19592425044438133 0.76831419656596411
0.006982241287497748 0.86005974889440262 -0.088065066524733671
-0.65773348145101884 -0.55316942049200812 -0.35620604060387662
-0.47018576490824926 -0.59026995700472051 0.50823333947469518
-0.1601202004801866 0.40746692813446572 0.78944227182851856
-0.25315306439871166 0.1621676315819387 0.81779447390393112
-0.46625177297315523 0.24002000202515017 0.95808733864426276
0.011248868626935082 -0.41511185051159427 0.35301914984390681
0.20745614550427427 -0.1670393249874822 0.81411913256796176
0.33642054336436433 0.7422633000841885 -0.23460131457330469
-0.6962383821515592 -0.96939294142184573 -0.48935633064045159
0.2890106686508962 -0.060103106932092532 0.64648595062867109
-0.13573801341609726 0.14802810561741664 0.79618361771178026
-0.58499564274446625 -0.99577202024592726 -0.30749175229317094
0.16303611238858184 -0.16336873964522836 0.67176084002746639
-0.3167388150997873 -0.10326486165439652 -0.36839328093739993
-0.69639060403099595 -0.29462784091369765 0.20322083938089636
0.51008602565528594 -0.38009934273114188 0.44174613715553346
0.14946749070261744 0.85406906437760055 0.36277546334389688
-0.53363166165310361 0.44437651675993728 0.82336057655921202
0.52067342382516824 -0.19755440870280905 0.62048036485568858
0.68728061276612196 -0.36369623682672603 0.50435848596177224
-0.3552212778685867 -0.61088650221164809 -0.16687114989790924
-0.087049174138839724 0.10481707072287383 0.58073737375005208
0.21463334220457719 -0.47781821022347648 0.58651251416711769
0.25072344241402755 0.41513687958417178 0.47688386267791827
0.25752054701478388 0.49918982915412879 0.11185211863450173
0.84672947284658151 -0.3936624157905072 0.77275720779412627
-0.49099172711678118 -0.28649262581231993 0.56772953435049156
-0.15938541930481653 -0.39116778600263802 0.7894572456213711
-0.59781022690561203 -0.31808770557834931 0.68363892419136651
-0.31023193334556964 -0.55846367190619717 -0.21010483603177033
-1.1015803718240067 -0.75817946371713874 -0.56756221183471989
-0.54955545876701939 -0.48968239746729225 0.30522446313180174
0.77146204739643642 -0.32524471737628902 0.71722679438481041
0.20082476007014927 0.84704810236476935 -0.12453631300339707
-0.46772737264439213 -0.39794183121274662 0.29413445512768677
0.16434516712709943 1.0671714735486015 -0.23348488100099651
-0.29610158996512104 -0.23389012315483582 0.90037039948547648
0.42490577854647549 0.88286514091068202 -0.44384488531083333
-0.2368271879615122 0.8018485259982806 0.44812435850614574
-0.08043825279697614 -0.0031581657957383547 0.82560088219009153
-0.022909495920484968 0.36024994967996715 0.89645377096950496
-0.33119757298390573 0.26707496015103371 0.67530577618980425
0.36912207823632354 1.1007786929425858 -0.4364376869321982
-0.072221970990427153 0.6162558972417328 -0.15948372688265877
-0.1526350096136726 0.73177680258459743 0.55400956036447824
0.28491532365012495 0.077021523637965661 0.97953267951334166
-0.46163763881562281 -0.24304641407770267 0.63793976576636813
0.15772935348173567 0.57640942134263595 0.63279216058108934
0.21779807729529987 -0.32406352874879163 0.30056400942658512
-0.68451891840039836 -0.90409485142555812 -0.41191510046929913
0.061583543827918918 0.56856782655435822 0.069306335875004677
0.92190941281534911 -0.34837791795683559 0.46338646369120584
0.010026031403085556 -0.15196082092818008 0.86631343892465329
0.2892758166104914 0.030686281330369103 0.72243866900271203
-0.38783246259894 -0.37834372251660708 0.72551109474922992
0.40520618130194364 0.6598755345000632 -0.3638394516360417
-0.5480659121090895 -0.30911038863148965 0.2882929568952271
0.2650189483459936 -0.11831011252529255 0.66870290557908729
-0.18949371245340657 0.69039764311619312 0.43998976011279134
-0.011840755800848424 0.44437762519593305 -0.082761205504570667
-0.94895620852962381 -0.80034241518670701 -0.3428349595933225
0.079990469001081005 0.91705312276759565 -0.26938600157306269
-0.78810048567827262 -0.6929076893213254 -0.089278470618597075
0.42802392728166239 0.68164827901025893 -0.22858774703629092
-0.92052393130984655 -0.59889040211308175 -0.57489630922738066
0.16519823989466897 -0.0035425744732864306 0.70889707070186736
-0.24622152878911818 0.27119968332706135 0.85281108054512544
0.23691321703200507 -0.10636209012698106 0.87809767897201929
0.61367250745833268 -0.22412045265034819 0.56165545074349288
-0.11996449912896978 -0.42352579701869186 0.32108171774492389
0.37239118022778772 0.06757950966148818 0.79555885905387391
0.62333718228453738 0.66245633071825361 0.038173091940363224
-0.73609224894527314 -0.37147079169887931 0.63826249117326728
-0.28714993420317281 0.49797572458052464 0.63069245104191007
-0.52886364320787904 0.20004257892714727 0.87710263540149902
0.025556655920183191 -0.3091529311363086 0.6970142626853213
-0.77612745666051841 0.072690981423465084 0.25401663286128001
0.33439891504317243 -0.36527564676362156 0.68737612887332977
0.7109194889378766 1.0039843206158621 -0.30727756377060855
-0.28532840566430501 0.41072513311162356 -0.86426597193277577
-0.090121513882962745 0.79523771853303205 0.67420230775533452
0.1769504101565067 -0.035415419123682401 0.67266949998283099
-0.74777508291964845 -0.68231591323296703 -0.0083649950528361383
-0.64284239429511703 -0.20040896096486605 0.65555191561941151
0.55067111927118051 -0.28882394934771161 0.58616850623612926
0.09575808249858031 -0.053340454190706765 0.66279177997120575
-0.62095973222263967 -0.070766445485312524 0.76053039551736012
-0.39446399788947495 0.14226675606531813 0.65158168736121069
-0.59289733805945466 -0.74235799216209486 -0.27187406814952331
0.36286202818673746 0.36188264553997274 0.5609895089361624
0.84493712999092629 -0.53336559555357343 0.59481019163697757
0.68322400704031261 1.2042537576430719 -0.50182617679504493
-0.15727763781954873 0.28295103943999278 0.86375532800844534
0.51922369989262451 0.47690693735664957 -0.32030578879349636
0.22852265866857802 0.90873897007869209 0.092114266326746908
0.36231093031519523 1.3288899944165862 -0.74939059149781218
-0.27678261237412527 -0.3716796638126989 0.289325778243325
-0.83552951510463547 -0.28077901903521174 0.39419977658842897
-0.44238668707911677 0.10109210473222963 0.86752036293936885
0.55265020396923314 -0.57235769591579544 0.66811709857948964
0.59498095960655972 1.481421978564756 -0.79889801677040295
-0.18109721977586013 -0.088809053537350136 0.62292075593840845
0.26363526458662556 0.031166078087970894 0.70003766880373886
-0.53132206309247254 0.12660158631158591 0.84212698238305939
-0.93446425181952986 -0.41836460730426617 0.31577767065573398
-0.51157906817361565 -0.10319737046012445 0.46966642349778442
