# XYZ point cloud file
0.16231886137051049 -0.29836347862089796 0.65960523794288439
0.08746932708585109 -0.20409070478447369 0.72296693815780588
0.032028318320677762 0.24133420915995063 0.62571307943026711
-0.83985827183317485 -0.88343825703745682 -0.66036144449868073
-0.11764899993732164 -0.0093739519389589299 0.79650677338838927
0.055115995850368416 0.16780798668255759 0.68748556956504703
-0.051387816579299139 0.13299505992813576 0.51627707907789144
0.12262990854473754 -0.29461187012065831 0.60024318638200802
-0.028005138390707118 0.42304770804452979 0.76304926088138736
-0.10867062314750375 0.37278831366434279 -0.47175406854414559
-0.10185857633712803 -0.052709215728759806 0.50926502316293853
0.30063852650423883 0.68309108807061192 -0.057034146875230174
-0.1950355270823188 -0.018778162056309666 0.39418050779457375
-0.079738599717037173 -0.26941198763254964 0.62012862874123276
0.017639682984146532 0.51514443732728121 0.093434738693851507
-0.60781145190883012 -0.66208521033354928 -0.27167975993203652
0.23612802893278073 0.73050266054082202 -0.1030684455697044
-0.051075457470499519 -0.21229126206466814 0.61585047343986843
0.050350799212479647 -0.051594970753343544 0.66728903059248745
0.10987127293513732 -0.23505508369107414 0.66035218823738451
0.29193513462267562 0.74657137504492888 -0.32347300934836654
0.35335673837182258 0.6422915579488736 -0.093068969127568013
0.3945837471007641 -0.62569147487605259 0.52997970049211984
0.13380121916576815 0.2301067296845416 0.18402833145914715
0.093776983182615403 0.67633138087078026 0.39239515308571848
0.10935461385983775 0.18314165819944705 0.45222971187611249
-0.088020220655516013 -0.19850774764460241 0.49414765524264997
-0.43454496848367813 -0.3263853242485521 -0.25233526268537526
0.054249905309153912 0.78893728649588368 0.29407455904844287
-0.43872804121239795 -0.57173295498601839 -0.10499275641332981
0.12037310314052369 -0.18572108863096889 0.73883201334810389
-0.7844101119401139 -0.89448393245804914 -0.2840343937226304
-0.13269678330956333 0.54697635959297342 0.58973182383616185
-0.31272626616111338 -0.044789070691408472 -0.17669900859048732
0.084563288934295655 0.31729076885434904 0.61065749728381835
-0.097318477503899437 0.0096613804910727352 0.76329247645007725
-0.72136449081118847 -0.91049670050384601 -0.4004051690053263
0.035971621849859192 -0.25704348147030004 0.65608921047000979
0.20277256423623097 -0.24074349507377843 0.61366216242232952
0.042109013719225985 0.19010256611222942 0.60461084469859794
0.19340914421465238 0.83292671828778131 -0.18491484981981798
0.14526125742770613 0.4538204573236454 0.46548411991346617
-0.082804363793973268 -0.066728228060475736 0.6216018355351971
0.29353855891441705 0.62405979323714034 0.045875695506246594
0.1769789288943624 0.10621576966084059 0.52845935373703168
-0.058223809412139116 0.093840046182218917 0.61672763929480989
0.33499951873708106 -0.19686616561828729 0.69461195848117041
0.074771941672451769 -0.35520301608071075 0.49794730398311071
0.070974934697062175 0.46800454784336776 0.41389544180071286
-0.022554919133319584 -0.23368029460587056 0.63331945202195417
0.20364273138431044 -0.37967603106168635 0.63430358995377378
-0.11238141402533114 0.040350132551489393 0.70898202506671071
-0.42710852487264489 -0.2733955005013089 -0.32043429209665703
0.14690838820100627 0.52207358813737148 0.053975818275251664
0.065362617154695379 -0.14400229527920674 0.73966464431715528
-0.46447330725334396 -0.4075049193188251 -0.12334615678459976
0.12289613419153078 -0.14588777137730452 0.72749662096760903
0.27095074948239173 0.2403198823780559 0.27754119004347894
-0.015673368937891674 -0.086389284252346932 0.77836004011085003
-0.54367375157906905 -0.072463422702397862 0.75863691544989043
0.45060724894627502 1.0065638384031981 -0.30359363057598493
0.4289004348761043 0.20080242555880867 0.14766580342660518
-0.02399365200296566 0.33947136155325291 0.55862040519275979
0.037328747499273118 0.092897572764386926 0.73327081249137838
-0.45211370087400343 -0.6091679987938079 0.076431377511345822
0.077641879139500269 -0.061735340821167994 0.76099512970710514
0.01415396819947401 0.24218567864763263 0.60242456109884013
-0.34688399111506146 -0.31169161716625293 0.051692034892715344
-0.20047074332731607 -0.06673195224506645 0.74576157351078509
-0.22063957645797394 -0.037267886606153211 0.50276877154985555
-0.12436838728981509 0.27961064646473593 0.50360610505292369
-0.13380792017850335 0.19433652911949245 0.49035104040612643
-0.33931622326047073 -0.075137513170905001 0.7929900464703763
-0.7570735699736546 -0.6667988788741086 -0.24579481260214203
0.21713128079431754 -0.35534744636186116 0.67858571590454675
-0.015370750028798619 0.52077859857889286 0.31103946417159295
0.40583099376922027 -0.34579336408666322 0.74376646154876724
-0.46806226199008139 -0.28046465919736835 -0.21348526411741447
-0.051063078158611275 0.265794385737606 0.35005389391352359
-0.28615606624463785 -0.24476888129977131 0.66542150063763161
0.11807905031673827 0.71080806095496807 -0.015748781511357474
0.039148102141828511 0.33605623988941735 0.59405384361511215
-0.41432605931657213 -0.41893006679946737 0.061359636418906183
0.15036613366617846 0.48831171496227693 0.022640465200653881
0.026602180459523117 0.3543432944465339 0.52499806719569364
0.13219498971994986 0.098760504360448864 0.62356799581623479
0.34164671041090883 0.26803528620262473 0.41056916028831025
0.095380515209171179 -0.085823758991554866 0.84084284740752757
-0.21604184540287863 -0.31816804189946046 0.29701245168722151
-0.69017759072869078 -0.83400305955884479 -0.23998456529733161
-0.59858160131911775 -0.42870844655144658 0.28796419758396086
-0.16113196950927305 0.047745658020931836 0.58387866667732713
-0.12136716561463315 0.36886801298011934 0.45257829914204795
0.34247342630291155 -0.3597583118613446 0.69054018274337436
0.0012853288312171807 -0.364780045703469 0.54066242716421475
-0.52167649360516855 -0.47137228065592529 -0.020741014379067613
0.41225753580905311 1.418610863262173 -0.86641064522093247
0.35315861563972012 -0.16385136081988483 0.7228660683315592
-0.44033710258994208 -0.31809031662840104 -0.17346798422481041
0.036473372621354583 0.42863182217596874 0.30652415642846809
0.20558541257275698 0.86063452948061447 0.068962470515877755
0.42636254716264699 1.0793131046741753 -0.40489740868349222
0.17702079065274151 -0.14940788830351628 0.67843262620832445
-0.6467522249277281 -0.50509184503960824 -0.35749996382827115
-0.075362849745025717 -0.31814764585496053 0.49608133239668351
0.28134924920094362 0.94875426306984212 -0.29939643206948879
0.018710071773774484 0.42541326704194582 0.33277004681771005
0.083787210724852512 0.46082911149886746 0.38565578637816617
-0.34332741420862045 -0.061515230044586588 0.44297613703847671
0.097263540975778717 0.22519904473071184 0.54265618608691379
-0.40175931272171733 -0.21103879794422253 -0.32070746549833473
0.21099324461641927 -0.24178183392343661 0.74095521662513164
-0.28979208389135958 0.029846882224084215 0.67718800235533316
0.26071536538338069 0.69938792236370706 0.066104698985514687
0.12127252233004199 0.26658315272092514 0.46955633844920575
-0.30068633458434679 -0.048865835331533936 0.39986989257393901
0.00064502473010047412 0.15036787422571238 0.46880844705499997
-0.065110957256528934 -0.32665451553349395 0.56876507313262503
-0.08927222353038633 -0.090731711856842062 0.77701842171278512
-0.11684697808058003 -0.37578684493011694 0.48839432140523209
0.47044308911711041 0.26035848922427579 0.12099805711221201
0.16422380488906857 0.21249199252055812 0.49427680964802284
0.05507005577185331 0.16244334970332669 0.62317974856433933
0.076548340577629159 -0.1022206131459012 0.63241268931797001
-0.38521547333082573 -0.29825659827688822 -0.087100265180182879
0.019503353408333535 0.0034852801411122958 0.58162375945150624
-0.1734164858919674 -0.059234118153635995 0.66043863257135171
0.12381470223351931 0.69980937074740368 -0.050691555516516995
-0.47862381482859545 -0.41579841064137452 -0.27152691076502178
-0.45075840643694176 -0.34298081374951089 0.45896575740919054
0.027988506307050076 0.34348847577138442 0.54987926789194164
-0.062221750207597015 0.18904159468971887 0.62556815663928678
-0.13618148396345173 0.31065290512849725 0.73425249621619071
-0.20496842115134678 -0.31295450178685391 0.43978195590036562
0.055177747460114779 -0.10269066367377463 0.75240817890554135
0.22197172255213249 0.43327642784040099 0.097255018779384028
-0.76420017131734475 -0.87306507677231604 -0.37770484990660746
0.10045157881816785 -0.083579122009613177 0.65442769488247154
-0.024803488040729793 0.14688153979555807 0.63057330294948022
-0.76406270832072687 -0.87702978314931279 -0.21444656560573946
0.0047633138684013976 -0.11621090684187452 0.655322153885044
-0.25142989571664415 -0.061318243832298502 -0.16368146699221905
-0.34263213213454774 -0.11824043720624122 0.13045962604800637
0.088806024147601914 -0.32201219862745156 0.58972266864852252
0.22178883150464479 0.61734948224605413 0.19457160043363309
-0.083736700350241666 0.50323915071179592 0.53436754013329635
0.20642247272492892 -0.19552737959559574 0.68885840309258251
0.24678615795367037 -0.32272175592425234 0.65284740483028658
-0.44485820476895938 -0.5137964107947347 -0.0082109192061249336
-0.03731793233150632 0.095600121605012078 0.50390386777728391
-0.093773989674062586 -0.29423794814277104 0.6014948476966917
0.17799712198128448 0.22130972981981359 0.45912581314812839
0.14439488546690549 0.27079507460384244 0.29867847683735826
0.47265560707394022 -0.30973000297110476 0.80284270535761371
-0.28671257235866371 -0.11451321115770924 0.47245045994995633
-0.21738004482717366 -0.16875387298969999 0.71102028799023842
-0.35064565305041873 -0.10463991280698842 0.57202451402978149
-0.41673588469168582 -0.48106785660332035 -0.019887232079381867
-0.84290006655411132 -0.65031109184696234 -0.54954714537098559
-0.3996054263316291 -0.30723264352880209 0.27573044465764562
0.40487088892113343 -0.27819710177350659 0.76754263038293247
0.18942143270010547 0.5938896633289571 0.039332821988571798
-0.33313583452076928 -0.24356384024024103 0.27633416687546258
0.23064369462901835 0.83191507278844179 -0.14201457335800632
-0.21283917998520588 -0.048474099510279034 0.78596955557387638
0.31168966595275649 0.52343827050153446 -0.033810322787232394
0.097688524727936821 0.73257402035083385 0.14677482911818979
-0.04186328876902512 0.036782600693978762 0.69683805698578882
0.069252664599451896 0.26034971613701435 0.67875476537705071
-0.05499976629752179 0.29288641391824222 0.46513825187539648
0.34064775494604904 0.77478623519437506 -0.16585687764941737
0.026288881973912992 0.50983890288876377 -0.038077668434038953
0.10057484981557757 0.62280253534464802 0.26856382842546755
0.18814634944120712 0.0077952100355577203 0.86489807576136635
-0.26101997043973529 -0.077105390037491728 0.52885978779086829
0.18710650295753373 0.36962382176677566 0.44749415790983083
-0.094951888740622326 -0.29250396896915232 0.46751084283086281
-0.70800159278351438 -0.79213832172639242 -0.30946063888427172
0.071775048223365778 0.40404283271680419 0.17143976294578031
0.46228751849490818 -0.37773752100561825 0.68411908701939128
-0.040738558092731469 -0.057352558524543934 0.76729622972689215
0.14301727628459671 -0.027450658067883021 0.68085515780356431
-0.30467435057260617 -0.16149248768341687 0.63594020168217724
0.23202170590109228 0.32127149986031578 0.08994871117153197
-0.31057799371882211 -0.1527511032713913 0.23805671679395168
0.07382925385265382 -0.10805541304504279 0.66766738690047589
0.07747920525592672 0.6099531893576835 0.2017487185833392
-0.0041784399798673322 0.32375710561969973 0.09353677161046714
-0.75260378884867041 -0.66389894740182709 -0.32032566877346647
0.1494228309177652 0.7239736797490206 -0.12558118876706215
-0.59526062892750409 -0.5237622347246037 -0.078868592117541325
0.26520216897986026 0.34066938819021175 0.15905082338302134
-0.61641776937992487 -0.45426814625748302 -0.53558274295863906
0.059540642239886088 -0.022418487467008225 0.6582237421335847
-0.033965155269141067 0.26726812677106077 0.62976086517796326
0.10164789300016353 -0.072312461450439236 0.79614047912370567
0.25263368352185378 -0.23439268844057537 0.67776897925893431
-0.25700603572077985 -0.31070362088425463 0.38891343980668125
0.22268430026045277 -0.023759267544059853 0.72726778661775571
0.45421236474014759 0.2844046856222327 0.3018330699069573
-0.43680474495535132 -0.13432573289689026 0.5347154196470687
0.01475074743150695 0.47064101529210639 0.37110948350345563
-0.15374708688436822 0.29702388172464922 0.65172483029163841
-0.10611667239755934 -0.17157243320563054 0.65693778293802607
-0.22289250375997935 0.24953943817919644 0.08217630640125112
0.040714094433151327 -0.22824890521204988 0.68970801022815409
0.60231003241785219 0.56817119070084643 0.008838539619913488
-0.087273676004826328 0.45673727059524538 -0.62617831435763971
0.13248675555671063 0.64268722099382791 0.34363343500431287
0.050098462435691049 -0.046479372569614652 0.64456610009126014
-0.57421854987761312 -0.50585264346564995 -0.0035218443496929375
-0.30791675539199254 -0.010246635380069147 0.51830075731041925
0.18808911627164843 -0.2477242142562433 0.67460723688470436
0.0027102782347117049 -0.043272022980581609 0.62552954188403431
-0.2598942063882545 0.098900608509038368 0.59362026445901395
-0.10600260341376133 0.2109300235162293 0.46634694851439173
-0.56737547355478235 -0.61472222751816008 -0.16957743530430996
0.24924798357418737 0.15193240921503096 0.5306823862326171
0.3537071373001941 -0.39194225640171443 0.68690471662576436
0.61926997269049622 0.78992310824998191 -0.20438119912171993
-0.00020212692821697242 0.24839206876660697 0.64932599811336678
0.26215149301278418 0.11600090096517612 0.20698683818800157
0.24582396870612877 0.64183435582595694 0.09461768532398529
0.40528660915571035 1.0554996303118562 -0.49425296396054719
-0.28064014709082935 -0.25508708172753003 0.324667637691057
-0.40364042880838036 -0.073364008061662322 0.2799369890837195
-0.1481918495539056 0.19625109219669057 0.66801858977410478
0.11337258909508252 -0.32822445230737407 0.6673778309179158
0.61643165956761392 1.1620971180779636 -0.57492791379467412
-0.12032110121028522 -0.018669839255898046 0.54451837607020148
0.12295272622224901 -0.023246958606217422 0.664518471189948
-0.16953146475529818 0.23869344932234893 0.63194454865125915
-0.52633195890586681 -0.20006519303272269 0.22985105272364431
-0.21591367921276033 0.031143853147841016 0.35215941002215417
-0.026171384466476044 0.57061302743462394 0.33061619666744141
-0.16273200942517374 -0.0043745613910885495 0.73482099829307879
0.15748723761482891 0.31967577856411256 0.38139908286368857
-0.22187711358324452 0.023247009770218541 0.32638308490999807
-0.0054388695061995396 0.10666371758219795 0.65106213951797831
0.00202888151882058 0.02194675542346336 0.77948635109110098
0.16020210037377547 -0.070993856912245079 0.65567635442898275
-0.35149612720403373 -0.21872353583972665 -0.24635582994234986
-0.0046185404062139002 0.49669490507307218 0.45454439951796466
-0.050371169830393192 0.12406148932313055 0.5857976085480241
0.25026367522504345 0.23353115717798795 0.20612393290456893
-0.27976501213367483 -0.074992062771382262 0.58186469073798541
0.62993195021031767 -0.45799707594804573 0.76995800748183296
0.23868392802780025 -0.23382158334680184 0.72563563201476411
0.054740993596506415 0.44796213113119221 0.40534864750221833
-0.64702180743244408 -0.78111372351973396 -0.045600153767215545
-0.19800722108851648 0.065502467259880348 0.59073884249602293
0.010623979725236293 0.60556304092514646 0.54402880158859068
0.16850820689711066 0.7645452298302986 -0.065106031302429118
-0.37030200930505952 -0.30626773012968528 -0.0662393920957976
0.11176654759481025 0.19893182922892882 0.59908175546126197
0.10286053176147819 0.29168456852214075 0.46288581917674065
0.16309088709860259 0.10544560903281275 0.53857508993528413
-0.14024690276086793 0.18804141915464867 0.67609250136984489
-0.2204904786764843 0.11692437685245971 -0.21664869699021938
0.19295397683003923 0.89000795906407415 0.061865019116970815
-0.14412666571228305 0.013573780126971691 0.76322188448487727
0.19197212641470923 1.0087895427712366 -0.241557424743017
-0.22253061724104717 -0.012680214518428379 0.32192683156099916
-0.027288775435428125 0.14014185816687003 0.67462985330140179
0.078244151245646876 0.30871553562392218 0.14142682171302184
-0.11232570159298388 -0.31570970221246242 0.61273879959778155
0.40614272454529121 0.4955096750386469 -0.0052074169090065014
0.044206635371989156 0.4437613588502623 0.57653239522166799
-0.1194120061583463 -0.17074337933427319 0.63119646660020212
-0.41035949965512608 -0.50498887304364781 0.039668608275922224
-0.30084179924574916 0.22688141913549825 0.57863052148261063
0.36229749458063121 0.6309048265511995 -0.0072912907473468569
-0.18960502511953109 -0.049265129841448707 0.61311877228444922
-0.4804340679608361 -0.11011472470314243 0.48772337885073413
0.17992949392154628 -0.048404509540092205 0.7355953158363473
0.019017411012764884 0.29898813450534595 0.077615105538092866
-0.50030098745559126 -0.47115732113376957 -0.044516488377071339
-0.39624086443644402 -0.071528897212820186 -0.059351078200267471
-0.22473791310234817 0.15883749307702882 0.79477473712169944
0.21708594789605368 0.71180380779823105 0.10596115201719941
0.19484413217556529 0.65853165565363714 0.059230288265860465
-0.28384671816262075 -0.013467663153250764 0.47115302187221719
-0.48740293827779602 -0.3153524881936064 0.20286198364733243
-0.045065595446167062 0.35281437429580265 0.48552421356663289
0.13033139695824814 0.56787968874164552 -0.013475425896066373
-0.0058504473338066298 0.62568508549111801 0.22201230789404519
-0.080771367197751076 0.30607624364808961 0.47297515089036701
0.34350801223286076 -0.3011292242450212 0.76275567054146209
0.035590734021979209 0.0069285769741125047 0.62175848901952058
0.10193672786719654 0.10203249332340378 0.23780196199427053
-0.098858766081841576 0.31053025491088893 0.52403332455896934
0.021677073524230039 -0.039126452323198752 0.66277416314576276
-0.042978812271563638 0.096502126646918096 0.53008062695532576
0.088426252090616664 0.18110243970501655 0.54371718549073389
0.27522832362958716 0.36992641373008778 0.11345792857729065
0.27301039684867534 0.7606376612893333 -0.044395050536136627
-0.4734653627348871 -0.47066053664950996 -0.046460195352855838
-0.66500485655959274 -0.61220865141540415 -0.34622265481575598
-0.15981341222612067 0.26496777560889584 0.58403444328590992
0.080252668483959289 -0.30547416485336776 0.64603565309324373
0.14953550877630151 -0.24816308723088057 0.60951895066663875
-0.011153933958216455 0.16353514909171502 0.60819690966841145
0.28642736924377377 -0.1764069409125702 0.75581599998620153
-0.34889792699036654 -0.061380045597573485 0.53966919529714186
0.13772995210538097 0.18912885750165825 0.63266151608723808
-0.056246401848073613 0.37800701542165283 0.47167231440009022
0.12600433083481127 -0.36106225218811144 0.63301484450574796
0.04959249290938389 0.54418447832648487 0.45080932073369995
-0.13970863391480071 -0.26092393765325494 0.477827420569163
0.29848993601544033 0.10906294105502579 0.50945059126525827
-0.34249619822319111 -0.069266241097602488 0.39202866364025191
-0.11008805849365771 0.24917762837557011 0.47766641640116825
0.10168724456146072 0.53570189378828825 0.42610549654300028
-0.15788392005351493 -0.090678431264036075 0.3724108858084344
0.26089039389431101 0.48197811048210232 0.077639992011648562
-0.023868452309775801 -0.0068761972435694985 0.65177111784013231
0.15530519893174738 0.21132464745885299 0.4365495987915714
-0.46946967369077208 -0.41263336201716794 -0.17525260335409576
0.032951998762831114 0.049981477591477558 0.56421309596474123
0.056239537796931305 0.10460169608014178 0.56262753086855688
0.31572954769914852 0.67638903193229516 0.01570746184178462
-0.04520323150612815 0.212158167187811 0.46116480017049793
0.22117153206001394 0.33559501669155251 0.43135800922359552
0.2445039626938238 -0.25524953436629971 0.7954210645921227
-0.83368645396787977 -0.70747332680176855 -0.20555952102893177
-0.4707876342771361 -0.40453163112713492 -0.32038145543089169
0.02174765702506809 0.53400059268586531 0.57957862136542648
-0.18305871252096856 -0.27517702507176467 0.54309221507682381
0.14253011559063322 0.40321207622748373 0.47419194530005893
-0.076101359968473559 0.12360203253362334 0.57805700895993462
0.081976102885374158 0.33064460086413638 0.4301596737547837
0.3177743437644388 0.34459031927089068 0.10320668206161188
-0.35493350951001346 -0.39796832978836888 0.13323900528901267
-0.079308170658716814 0.16630091349191789 0.36019368530964935
0.04363189999969963 -0.18106330924940309 0.73869428124383718
0.035796273727298933 0.22667400677491611 0.42804987408623435
-0.25496425301063325 0.07921362094643386 0.010742818576127189
-0.023229687486513606 -0.26156232438405175 0.60728861147315105
0.00065746669462490859 0.69587141684205323 -0.25912394570320152
-0.19990091014415989 0.042681311021413482 0.31606701619737176
0.19005805530711123 0.093627543886496356 0.65452349390299802
-0.29794939511791702 -0.097849746326432341 0.57952722037484472
-0.087671451845987847 -0.3987394413316937 0.50697390769943995
-0.12627106097592922 0.033610768238774846 0.66789120737475205
-0.08677911055388865 0.04567121127716417 0.80797359853304396
-0.16627585789329025 0.098165178201140346 0.59424976199791679
-0.11198626110841509 0.11186785611986827 0.65371506135592117
0.2243192565385444 0.28546441001316791 0.46278164491120166
-0.77648701904128881 -0.77252933944152469 -0.62006935556505194
-0.0078372084372091422 0.3292673553012514 0.32386310581413902
-0.44331806876284063 -0.4955526401434221 -0.16449739298668348
0.064575349824540218 0.40242254599441213 0.39632943756855482
0.014519886653435232 0.22423197083201363 0.56306278461401604
0.1110095948850387 -0.1707613106115492 0.65208251160813702
-0.59613599502460257 -0.30323929275227296 0.32267547522834145
-0.046710249566718043 0.12455434782742808 0.40466991656711082
-0.27882777043658785 -0.23389716815510969 -0.24157740221854856
-0.16940802225047744 0.014720975983556428 0.77070417877050523
0.15788302147939814 0.21162059685863291 0.34410673995449209
0.045435987815683532 0.02284839468461311 0.78266907177090628
0.18595863362657516 -0.081743180345506816 0.81185120713388892
0.27395767968497875 0.040952069769305766 0.34674926703949421
-0.97593957997353575 -1.2079656971023665 -0.72523368297860336
0.18577087369566991 -0.055132216508300802 0.67588774216218361
0.049856764713191726 0.411667509490733 0.48051757358946523
0.17160381130126307 -0.28441677821617528 0.65986426097183437
0.061380185193706971 -0.048405895356051665 0.48129569283105988
-0.043916653180641085 0.28682357815841442 0.47400622606372234
0.16157992747395256 0.24002753515922692 0.40387500509398638
0.35223745723153643 0.42645279128359898 0.058506462955012106
-0.72137797505624091 -0.73609123453862912 -0.35297291214399146
-0.095765277696740703 -0.075010366156671587 0.57995044262536855
-0.15082868009032468 0.16797348206052087 0.40379028179953386
-0.0075679079780661129 0.090322587782159736 0.58738950837336079
0.18189622882299372 0.45093755759824677 0.1498482677032324
0.10775586637244011 -0.2131016506092607 0.71313340305883444
-0.053748151833825031 -0.21227435549798254 0.62922710476555366
-0.049657372028195312 0.25774519167542903 0.7746381260669204
0.15305191264918894 0.13428615538662989 0.15895249344608775
0.035460105262407393 -0.25001915308641415 0.67896909210658818
-0.6155065668862385 -0.51167570957253328 -0.43534624629320873
0.14963278997873553 -0.099782381793878855 0.64139087748968193
-0.071685566523756239 0.29244850703312181 0.56703484814424621
-0.040917101813917556 -0.0032855439038784184 0.44637450635580034
0.37905641883566704 -0.28367615864097778 0.71814854986715637
-0.29263462727980066 -0.35157242963865276 0.43745470859041763
-0.0095575759603386823 0.26747669524139689 0.58695559582706802
-0.20714459788184159 0.15766559179993284 0.50586185817141649
0.090399282232698108 0.30477485623945672 0.44533390427801645
0.027901909942461889 0.12227456539488069 0.65378518943421071
-0.41593521981788362 -0.44252858977336118 -0.31303320785312139
-0.12661380151232177 -0.037960925938104018 0.77932249736665671
-0.54061827515654604 -0.63122566914365408 -0.34718834634037488
-0.076809437710040729 -0.16083249530411506 0.74690318138535849
0.08953690926715635 0.19865713983592498 0.58605666637307952
0.044131414867364882 -0.070598900656345887 0.66282246510935794
-0.18952615192281386 0.032252786742681838 0.75926383695281319
0.046296386290866187 -0.10343887469172044 0.89651637583784161
0.19206846124697591 0.5710303463494546 0.2275466665360838
-0.25471477988792735 0.098500237551174596 0.40134915926976067
0.21231992941850497 0.12706199250551423 0.51996004270860385
0.34185340042484869 1.1311128770438288 -0.39406090976190006
0.086172843378682251 0.14675945876897484 0.56081215940492901
-0.7004982408543623 -0.74706616076955268 -0.068033124485202823
-0.14385655209211007 0.36743272081171119 -0.50622602127164029
-0.25314284821251476 -0.15634263222624167 -0.26680101878428208
-0.087195897707016246 0.19704520953182081 0.72137561234948488
-0.29527648300017323 0.018186633597194968 0.32659033163316958
0.52589543371577596 -0.37402153753781464 0.75612208960154093
0.31252937664863156 -0.063109364781541985 0.16949894697310286
0.18385270253103447 -0.29645690144022285 0.66611265619637161
-0.056880053110924422 -0.19593534062641937 0.647300914131965
-0.11170742125104371 0.14071008832237719 0.71279254011488813
0.038006554738929332 0.12204659901199627 0.73655742597648188
-0.38077692819912745 -0.049063393116681064 0.10487917094365851
-0.089345798071369054 0.20702926433188018 0.53265948213161263
0.083184970425875249 -0.21915689916000541 0.62572460230013471
0.33407852605954252 -0.35736570069288753 0.73237034874917595
-0.074117427771267064 0.2721354743031586 0.64397205237554656
-0.48983704512309878 -0.46281090793986351 -0.21538874946096725
0.0067131667427913766 0.24554206194273098 0.61471977317357829
0.23339799613941908 -0.31982759184245479 0.6989945921818066
-0.21725994531539067 -0.1635090376582877 0.6577345000058723
0.097637840003515497 -0.34188262910136463 0.67025353753244166
0.33931544396547164 0.61432002013289 0.031603688087768644
-0.54833367699887836 -0.53279085211831823 -0.11311876797971593
0.062198166488619977 0.51770264175885006 0.011927711762093229
-0.17630257316228992 -0.25415555332631345 0.54999250340113748
-0.28790412854940045 -0.10422924329383021 0.54477063218223321
0.028214758137767748 0.21174714060389832 0.45582372291743151
0.28401311502545845 0.081132853552185871 0.35482702326480919
-0.77113469072050866 -0.75262150213141887 -0.59384334465400312
0.25003108501637872 0.30015502787215298 0.1679386943397288
-0.048522920113359791 0.18290186570484052 0.69797739385124746
-0.041457906686161061 0.27228931428556391 0.58264245479139787
0.080694767893824904 0.23225993780135246 0.54301788473379786
-0.62532040101945996 -0.68466443545217448 -0.060590311245039941
0.25511904582740302 -0.25630247818771412 0.76803209213588897
0.3234222287701472 -0.30074614900690511 0.7347615148486859
-0.56375206033662617 -0.70865962034176955 -0.065517937378543722
0.13957984989340499 0.44363197503882856 0.14678493639547951
0.052212888366245769 0.26987223337779798 0.56898489847462796
-0.65206402102736449 -0.7026277034948254 -0.51209188878398115
-0.16835144869756874 0.070898761407273414 0.72749069742218186
-0.58620311490912691 -0.51792774226313565 -0.31817805342599842
-0.63896900172835502 -0.59129593102884048 0.048562190569704011
-0.1839861450958602 -0.13443254043267147 0.47316446284204811
0.055845962972958407 0.0013669249482768098 0.65637165631757266
-0.030730256878629958 0.22470328857007033 0.72110766091095113
-0.15843322013515376 0.13136605901403098 0.34183685335833275
-0.055981534292115165 -0.32854311437657474 0.4156500740946536
0.14731373311166784 -0.42676187405050153 0.64140939392403162
0.14051357860493274 -0.28697652100734355 0.68264106481238207
-0.048255694325818055 0.15469863054250277 0.55094569257241921
-0.35312214807151682 -0.14012341205184969 -0.22295441096619473
-0.15165051640414201 -0.08996453816209557 0.6426538310877461
0.25104900549246983 -0.36889167800999728 0.66511641265618948
0.1965750266037154 0.22609667073402015 0.3135644812654349
0.25955109060680936 0.40990896868861443 0.055646444399777117
-0.0037262083342700647 0.40912863703394853 0.43685949382658462
0.045605747017150478 -0.040702438352929554 0.16046052213343087
-0.43465389576571445 -0.29070017154629391 0.27064281105880372
-0.58915745680572051 -0.68069901208733197 -0.032020748562745116
0.064329531244969262 0.75215693245292647 0.095952716953361328
-0.92897797442200536 -1.0945383332090428 -0.68772810422647213
-0.059121712814203031 0.010872125233227975 0.56512662592552054
0.14291744457215494 0.59957415577356465 -0.15370371535631125
0.11050272726183952 0.17202657978021335 0.29401997669094193
-0.3501594053856697 -0.27411093839616874 0.48308186821192278
-0.19024156591055008 -0.020723624931791695 0.5785485676478499
0.23112827719071527 0.65933819017418882 -0.047034636053431444
0.27276351799169979 0.21729004062055068 0.43968056292588409
-0.83464510497696354 -0.81238333401323359 -0.43952271404421805
-0.16532086400284063 0.066011503666140114 0.70676647837025741
0.26283798915605844 -0.43295948142000623 0.62577705947113604
-0.082507664167374428 -0.2469858923191422 0.72477560573975275
-0.55370917643919682 -0.58372366987883106 -0.41465004874200323
0.34397148785580556 -0.30390689723810016 0.69567813668640333
0.69816492214479142 1.3202475880132747 -0.82865123638790528
-0.19201821923908036 -0.010910912967934061 0.66855750474359799
-0.04940263005902118 0.17307242216103452 0.52512052344596249
0.20604814497911961 0.40470105123083 0.20879397317338794
0.056657436988008292 0.36711700724145951 0.38896602081622539
-0.0057937189439034587 0.059178947708606461 0.59409231667273599
-0.64260216834583606 -0.69403465640406492 -0.045349255988605008
-0.49329071186837564 -0.56442318937644509 0.042246276837842434
-0.0053332635461930678 -0.16414401469575771 0.63015601292921863
-0.68765509142026005 -0.65574667247744212 -0.13408946329520044
-0.23899405800595852 0.010203806271132654 0.32598643354595902
-0.011377516389978859 0.21045568976893575 0.60927468844014432
0.22977702692311963 0.50772971363236274 0.001576241228122055
0.42673879324785491 0.74447322906101976 -0.084727993584355787
-0.17023122196890955 -0.28067842236968515 0.52039147959975607
0.13339638879158661 -0.27641519228384903 0.6918578527139112
-0.23047149528129507 0.21442542707287621 0.75374596408036998
-0.02826199463137391 0.34680362799988435 0.59853167002648111
-0.3254925431553804 -0.16193298535383605 0.26875934303291327
0.03013222558394707 0.36987626240874416 0.57019555486268558
0.041277846125071294 0.18774524287229766 0.51452425084826237
0.0002484005957213431 0.083234913799733412 0.55909355561734797
0.20648831623047292 -0.23668031837088851 0.72017958259258197
-0.16758165902447986 0.39202348695152889 0.76394726724352835
0.44544586990934215 0.0054292728315615546 0.57170838981692229
-0.36867105935050609 -0.35577259842889608 0.0040468136974292634
-0.022677629431315127 0.18397838934141458 0.49641988017966865
-0.53163784775686562 -0.58527602709301163 0.11595767569548387
0.37160684691264867 0.82315602595418735 -0.14029189324106728
0.36986449304142255 -0.28527603567468574 0.69204555126181855
-0.090503978706490185 -0.021102912463018542 0.018044426521262605
-0.16707167562430408 -0.38657250973761548 0.45336150235112849
0.1896356017407409 0.72756646778166434 0.12467221231755315
-0.46382846310718367 -0.63220326821537154 0.007858461732688532
-0.46015159484251777 -0.37918405610772687 -0.13559707047212405
0.1256380262351145 0.30318279693524092 0.47664658908172108
0.053588603771923871 0.028917265419089233 0.54723797509233152
0.087883412270636341 -0.31894281145666692 0.53547904982254602
-0.19871542233980477 -0.02190939519067614 0.66532889306896104
0.14952419081678214 -0.075332810101318953 0.72576769572732203
-0.78955810783086622 -0.78331333989828822 -0.35761403628792743
-0.43711652116544875 -0.5777201230804877 0.19303970421565775
0.087668559547996405 -0.013115403730130176 0.60778020200448635
0.24954691003897045 -0.11723724335227637 0.69445106557730774
-0.13758384230162291 -0.048488945718502652 0.65259357107739535
0.39473197478809507 1.053350175604274 -0.47757760518228809
0.48981284406711156 0.26407123078479633 0.25631172280509251
0.18617259880899606 -0.20116880764235356 0.63881621550408552
0.070132566548431974 -0.056897268162517944 0.59701927751624406
0.29214523548812554 0.56378500929046549 0.018194218078601998
0.14330505775063812 0.23756335178093013 0.45600437708054276
-0.33521037309501434 -0.21067658064240713 0.27264275767744672
-0.23568217261763844 0.45266616489199601 0.51124537888517896
-0.069206659576578067 0.32766336455219841 0.51830305199742832
-0.67721554038909693 -0.66237991615619951 -0.3361052712099738
-0.089964119115211294 -0.18820045058640006 0.64030699230310428
-0.1599039024743994 -0.240790575164753 0.67399041351286915
0.087380382797465239 0.1545679153667896 0.55298165609703709
0.19284654018224662 -0.12667652353137132 0.72430505781798893
0.088182555304765819 0.016411547748873462 0.66766951210190872
-0.41098252331123991 -0.47041225229447003 -0.10234910739717035
0.091311658329887524 0.58342811477630274 -0.17568718826763541
0.0960605696481307 -0.36664749631145571 0.52686094667675398
-0.035659451376816254 0.10921730690804493 0.46444811375567874
-0.11291765544139698 0.10616307976604941 -0.10980022326141044
-0.88057194856158605 -0.99483632188467219 -0.57660038483447695
-0.30051838355960131 -0.019992804453182578 -0.42696106712197357
-0.38964849020726511 -0.069262365607868748 0.64713012554696414
-0.10301329100993326 0.31990678310874304 0.59768245315212287
-0.44351013062949823 -0.49295263752258855 -0.20994755453994068
-0.013919679967723808 0.38336558648925634 0.33398347025036318
-0.2348280266023996 0.01084426285677581 0.37577578988542032
-0.20030544707397807 -0.44162774099055524 0.39810541243956482
-0.58581803648825637 -0.49593658302308291 -0.38424074126777136
-0.15849132910990138 -0.1314021365674706 -0.34630042224500024
-0.36603140598656292 -0.26317791632936927 -0.37200811213192103
-0.15262560651675333 0.28618270792059075 -0.56181811634167644
-0.25530955270727801 -0.078661717821233823 0.36089419902742914
-0.19340637944578576 0.11247490320448772 0.66874979487185437
-0.79451810191604233 -0.92189586777420252 -0.61755023976224765
-0.56808851713622011 -0.50452307753091941 -0.53450319694558723
0.15921902772508584 -0.15882876339780014 0.76865662466094919
0.012731717682580801 0.068480487362111347 0.36116700579104344
0.17498889684391328 0.50708785963841796 0.40026473591300804
-0.32137564965956911 -0.0089152599012513045 -0.28749098955738145
-0.52560273508663458 -0.60148269285573353 -0.022199072930472741
0.28340666855732277 0.67521493696784229 -0.019003826437650473
0.2892067304416639 0.20476533565501456 0.46336158615357664
0.080287963477993551 -0.28053458190691627 0.65002472218434582
-0.58009010755700074 -0.4754634092997731 -0.55206074080118028
-0.062712619428498317 0.61798232142421394 0.63671805254352287
-0.39324315496513407 -0.26371811357130359 0.23825565004523053
0.024935382623023139 0.44853828268002793 0.37212429797302837
-0.25562165490731631 0.062309117293730398 0.73796387541297437
0.065205317055456735 0.15386174632009841 0.11818874908964133
-0.046530175568382182 0.057979368299719558 0.57271051327305544
-0.28567778781739706 -0.1128237547333909 0.36984104835625009
-0.053597786675221692 -0.18074842817104805 0.54122746331752747
0.16575826965697521 0.56826137531511511 0.33411236550483048
0.064187280370856081 -0.10466292003791219 0.66115661315076935
-0.023061497120547947 0.58552528349878785 -0.49980334404601057
-0.017245967636421611 0.18363364395337434 0.081173855202952505
0.13483151957619344 0.39342946412145313 0.4445692567922761
0.0026211936429239024 0.098199836876866342 0.56631395118441996
0.27365174273116405 -0.30515767980899516 0.72431366305461697
0.19360336075165191 -0.24863245302895515 0.73264145542315573
0.21742456955063055 0.19549275161643587 0.50718510848734621
-0.20249852566063425 -0.010900111716227012 0.68030097485914842
-0.55724012035018955 -0.68712759076258512 -0.10031362890982765
0.30384107268379329 -0.093094079100509708 0.67544275280986354
0.17476301998995558 0.64114423386575203 -0.054922295691711753
0.32527153939129694 0.90415529831165875 -0.26640896058945707
-0.90467111062321837 -0.9932997854784138 -0.55620275460706592
-0.41471089777515135 -0.14365648687797841 0.61016976742738493
0.18457554494534034 0.61447409605933312 0.26033855309500792
-0.89021163537228576 -0.85102216005875941 -0.34903659675686727
0.0060369111904552408 -0.19211213029949448 0.5792472390318204
-0.35587537612339049 -0.3862635869204562 -0.11578068775162717
-0.0020370845542057037 0.13172878678111957 0.41063239651234862
-0.54281527201758695 -0.2729434458375235 0.41640150678278343
0.19431234329244407 0.84917945078387103 0.19024018015679448
-0.20271340486256845 -0.043609226249842314 0.59979130139071724
0.028384675400207671 0.40448916853573169 0.43148015184504551
-0.62802085250254636 -0.67120230494789612 -0.45338837172129054
-0.25283209874196622 -0.06558689199912382 0.70676289881499232
-0.11849962130821901 -0.28422326090116223 0.61677033905171774
-0.22219431883407265 0.11793953615204072 0.47049477241479254
-0.14894732169994729 0.26724321751858776 0.50774789712416191
0.052713434728660802 -0.32306672548499926 0.59146550511565965
0.13917597120076625 0.22148019134079172 0.51078145820698695
-0.13142201489835037 0.23066237463974676 0.71939345131126142
-0.098782541620137887 0.31798730876653863 0.076833116928980399
-0.32519650908975012 -0.25422204629659062 0.22978883270044514
-0.38966404518764503 -0.34155325968763978 -0.037919624520820427
-0.66260179800265917 -0.6896075350198535 -0.18112184098629813
-0.10470564647516079 0.1885852281778167 0.73257474454803062
0.3865303292719392 -0.18588268807570094 0.70591919438456352
0.045029916367183842 0.16505442734670517 0.45640543560642399
0.18044131586509471 0.7790723707010847 -0.047374273554354668
0.052640668291619064 0.43962611533934071 -0.13957917446081569
0.14566317364927928 0.18556303574318095 0.29883646875634101
0.071698312980676027 0.024437186011906614 0.51693096899675106
-0.36504959988258118 -0.29806398460905775 0.1001998543644107
-0.15651153689262187 0.045464510060216123 0.70886783169076639
0.064865282504745048 0.49771782060243869 0.58003305870166355
0.059891478315974411 -0.097314933871176595 0.71287748496771419
-0.64361882525994829 -0.672604849465958 -0.33161468710610581
0.07976290565423938 -0.047688036847660348 0.86703617279210754
0.11824471618851073 -0.04330293588341283 0.68539758547519269
0.21147276100400852 0.64722102264245995 0.25592995921047101
0.19500566779311046 0.12379494494546253 0.58792548759123608
0.16378768591809556 0.48795582403794097 0.25940129208295526
-0.27296925299308927 0.10224519610161531 0.47884257964205656
-0.065123126920536512 -0.091944375261059447 0.46789371947139297
-0.057356561624689661 -0.0066551147128616206 0.63647257556512504
-0.35835341722993985 -0.11447975234327484 0.35971719403803187
-0.39652232671914334 -0.33054812170687053 -0.22225566733223068
-0.44126126337128779 -0.2838599644468166 0.36707707600614981
-0.12090355510641859 0.49196745666467562 0.35527080191245608
0.030789447038555684 0.14560815101035041 0.61849894466026223
0.21899685235647626 -0.29491048220082905 0.694619910967746
0.10625966771110595 -0.34828969272590071 0.59773876021264427
-0.2472893387956121 -0.30336184443420555 0.49771364766513565
0.029364450700813782 -0.39262889197214185 0.5529208673637398
0.19025645554248827 -0.24915799772538075 0.66272117898760652
-0.57243859922971851 -0.61268465471243994 -0.087395444765652475
-0.32497374043283572 -0.1090782852907306 0.59486101849962525
0.51148571138727328 -0.34001811864527998 0.85404040122190483
-0.11674403402054312 -0.42128818508827048 0.50401317332520623
-0.1380391772714355 -0.21960946688352551 0.56032516673074295
-0.22240546785269649 0.17272169542237609 0.57373955673473298
0.094835394035326592 -0.34886663761738096 0.62257505979469363
0.12408348351375842 0.47068914331479583 0.25516497337822697
-0.038356076585822907 0.69611030747692348 -0.33842429836145843
0.048161292303911751 0.036114334664932107 0.18030231707757288
-0.044770233935816806 0.15212693403584771 0.65500800888503719
-0.13950155370286366 0.058488021233805421 0.41872220011284722
0.17419241355657861 0.70115121918941625 0.24226160471760869
0.2186136509146922 0.43559119547798475 0.087801956600115527
0.36845200307572978 0.93377809792627586 -0.33567544344705758
0.052511440461634751 0.16606562724345475 0.55933303278313118
-0.18536723116587461 -0.023149882341591432 0.36870682736865268
-0.099422395248158879 0.29139959668147269 0.59433242579323031
-0.27022450873844472 -0.013923264497831378 0.48565296153302345
0.16609973731026961 0.15997040925944825 0.11353758842189948
0.13918404676826257 0.56136317505833089 0.040484344319997145
0.19880683918019926 0.26808742134743824 0.066977512997385524
0.10899164648803461 -0.11044069904021575 0.72022250634682472
0.12892328479048099 0.41678532587736866 0.46482476956754193
-0.58555675429084519 -0.29012260558610531 0.20840965465635097
0.061935989369136579 -0.11251529032178607 0.32019971995039209
0.059147730963930556 -0.32691139613526543 0.6448564678014822
-0.42208578669971974 -0.035131843947334596 0.59706130044165517
-0.078855958646068647 0.37373232016683178 0.32805505979619659
0.07696078071135759 0.66538615498027931 0.18187075742060788
-0.52153216284423576 -0.36143691456818244 -0.43676523350874047
-0.34174425928181218 -0.13552156377925195 0.53482209812965209
0.00021523969550485411 0.0033709619551992587 0.5985278425574565
0.16784974472743697 -0.18326009639007809 0.7922770574432878
0.14865611610285229 -0.33066969350733583 0.68630791655288637
-0.68668165511036094 -0.79100795622856401 -0.23518710875952972
0.16233903310052239 0.27200680303643016 0.59567894830457635
0.079123775639122484 -0.38110793721247277 0.47501669488299425
0.27568231134082188 0.44936671526065547 0.33505873828628546
0.01884908772011834 0.30987795308186006 0.49390819680178089
-0.32911144672319126 -0.038922891159698103 -0.38895394257963806
-0.5602768575683037 -0.55808888615239749 0.082845010823702547
-0.08000694079976306 0.18386387606650828 0.53990673613476692
-0.099071810145150707 0.27571404380372511 0.22359964914263974
-0.22088736854993263 -0.10981697575057925 0.79256883447084348
0.2152454557452016 0.51824856696076593 0.099383648022712878
0.13315457186074997 0.16117711324911907 0.38341315412278809
-0.023609199982692619 0.36371404764189219 0.4199828033755012
0.11838802458640341 -0.22886908560691893 0.68254698374528022
-0.031047291692897716 0.35254123414004612 0.62883052948570839
0.26530874625872858 -0.27513797138383217 0.75581594102927974
0.25017903663731789 0.53668572109779378 -0.091277317046231765
-0.57817997439102831 -0.64634519580926852 -0.11404968223504003
-0.31382101159119241 -0.04619467274683553 -0.23411877810153153
-0.35931818075501576 -0.23733208813364115 0.59518659996226986
-0.65838721619292362 -0.5743055738995394 -0.11271495279386534
-0.086839077155487443 0.17551522021220273 0.39795524448056713
0.073012353060874335 -0.26587031135462641 0.72862200884762474
-0.058255844141144375 -0.00093084391937622857 0.63597031539269655
-0.73404295091251837 -0.71538324727251601 -0.26961504585028645
0.32102724393805293 -0.07894554450900057 0.41580568759871672
0.093824301918098374 -0.12595418821448892 0.71609927879028623
-0.75477429432780463 -0.9146454087897038 -0.32140204074137102
-0.21592311249000345 0.01100184074995042 0.75697811584681673
-0.34425360096542912 -0.039366177673529845 -0.43284645654909643
-0.40643710878724831 -0.4084325102549401 0.07900995539864536
0.17961655275955712 0.1277730313729839 0.35350132122341782
0.1340252243876785 0.48531905637236461 0.28510953148353496
-0.3926426113379492 0.030108524262585257 0.28983989115716546
0.15061851423567291 -0.20336828747717101 0.73530436777079555
-0.70702489605752139 -0.75689386338163722 -0.18815758244096786
0.33322230473889086 -0.28311933927848826 0.68011936891425218
-0.16453398379756518 -0.053077912235470537 0.11925767172245744
-0.0070643576176063205 0.03927166707001406 0.44529277036191428
0.10574773298961793 0.33291291349404978 0.64379633506761946
-0.042904200828532635 -0.12727922549511883 0.73517097970420009
-0.13109281153559621 -0.32292182579944351 0.55298487459061396
-0.1337293126361179 0.095995909718715744 0.89563209935070187
-0.75755443496515351 -0.81159875131090331 -0.15790167015228035
-0.21052910387008369 0.1230528680691233 0.76575159879652555
-0.61462803716663783 -0.65682748740281438 -0.11010534566463265
0.11251207317774792 -0.053007964446236872 0.61212428811746133
0.31121977327349609 -0.33852212938930232 0.72444537667138864
0.17597770039551797 0.26845357306176981 0.26233775765107398
-0.13852036086447619 0.37644598158725107 0.51240285981988798
0.1568901364964046 0.081830595166874465 0.64026219515681904
0.27049850271510673 -0.35132505688083399 0.69040216702011903
-0.082208205376948063 -0.37419493179900509 0.53270581882637869
0.053978557738660726 0.31293089398507945 0.2535634304839996
0.051954561666198107 0.2921453572204466 0.56670570020199018
-0.76679824818922382 -0.80547445115843397 -0.55067453588423609
0.015664165678921371 0.013661312775608475 0.67817086740216648
0.34108863982935667 0.59269939183436693 -0.0047557922833574295
0.17260677238750444 0.12309713273881868 0.26968079281438173
0.17667125247159354 0.94464998266234301 -0.21378943731797218
0.020876322680489556 0.22441970288501228 0.55375572541173845
0.14478060606764348 -0.39606177510109758 0.56112376655900975
0.13169313237489888 -0.17496546871646643 0.72805239155956347
-0.078273429845304554 0.21070879753204369 0.52368624293658206
0.19081406245130383 -0.18436490341733974 0.82804836506263779
0.1251493223220842 -0.23453362451087165 0.76712461808793253
-0.5065622948945937 -0.39355453645708655 -0.0097288020431866573
0.23734635049998198 0.71024371030325029 -0.080415469283972474
-0.067152746807898622 0.50763266830951237 0.22022646580741789
0.087598275621482424 -0.27926666607788825 0.68945862548812942
-0.71550229191339143 -0.54574733271770404 0.12219572577651938
0.095927702697905348 0.56062984492986434 0.25764921037362121
0.014590558896360184 0.42776772569697918 0.31451017309442741
0.11279465078321838 0.10084334736496298 0.58725371273490201
-0.056290042673780738 0.085632067332207351 0.51649880032665396
0.014552260082124124 -0.083107794550324632 0.75348101430251235
0.34298506836603937 -0.28654690841487124 0.74733109082727811
-0.61479095711671072 -0.70804101507945316 -0.077287450701783944
-0.19541475406409703 0.33709095842526554 0.59077025604114275
-0.020105561770569269 -0.35924861800359431 0.54204037918376924
-0.46378476337034069 -0.34807136088337942 -0.13989276058511912
-0.34489106605238784 -0.21514025862755481 -0.10381202488765656
0.11958356119499308 -0.0032613511237065407 0.77707041063834104
0.068547331879513951 0.24301019422438119 0.53499475449617861
0.14366866243936838 -0.040366820633370243 0.71362352884971392
0.079904815942535512 0.31145058947441023 0.21117651380765076
0.048936681659209169 -0.29228484591239168 0.48162020389112514
0.056068410794802293 0.50045770049052352 0.38866733171007889
0.33266647709535174 -0.20508181891335028 0.71238095480913377
-0.10807382702026941 0.28345705839521002 0.81055682819538322
0.091918324841220644 0.63906646610160178 -0.26981173622669197
0.016800785376663407 -0.17905144880564675 0.77768082364168289
-0.34379721200822716 -0.2722508239245281 -0.048344418165370689
0.064090026322183191 0.082774650977206321 0.56647785843845677
0.29137486486073305 -0.42914080401037197 0.62264733968191344
-0.054514168574755884 0.537312298134618 -0.049724285891028008
0.12293114403356692 -0.067906184434929018 0.6285216486192885
0.07589979469085012 0.061285590194103651 0.5603747517712615
-0.16032405906096858 -0.084215933744206467 0.40025058711909467
-0.21088605360493318 -0.089519047274661534 0.19582622248690273
