# XYZ point cloud file
-0.3805689981296731 0.25233094071298556 0.76938576776679379
0.69469568809636362 -0.45840209484054384 0.50596126277866493
0.72830181459441712 0.75404062577284969 0.087123878342173278
-0.5119497672882618 -0.11845011171331943 -0.44445763580209341
0.54773116376169928 -0.32927165107431478 0.5335063866152947
-0.65762455313139245 -0.062047330581930238 0.85237865171856164
-0.21293849376989665 -0.10748799191114844 0.92707547241481358
-0.011103742083248574 0.33008150057831176 0.765940893031965
-0.63675493287118134 -0.32828612081163011 0.92851839417858339
-0.7052603923223878 -0.23409352316716747 0.52767205079982582
0.45925301006034602 0.53905525781107011 -0.087061927148004314
0.29308284642815913 -0.10252820874474744 0.74453886219266696
0.23965582835637653 -0.10853494041839706 0.51860782052934373
-0.36846185151426925 0.3123021705242266 0.85307052144432216
0.50472287565806662 -0.028617317668859332 0.62219011681367065
0.50971967463539625 -0.43143438162774284 0.73828192587140884
0.53117743080788515 0.25742816705859206 0.46322572671224049
0.52361259340371613 -0.29085797158130333 0.48140900941457088
-0.10439917898288538 -0.70916749090834252 0.42577611604501076
0.2435635289507711 -0.19631537722100845 0.71157747158698037
-0.38147262465110582 -0.028155345927389996 0.77116226947699928
-1.1115792976154568 -0.055793392263317698 0.045285441581046082
-0.50645852626531751 0.5537744697273298 0.63002495285183924
0.4222961876311897 -0.23454402414961306 0.34006288447534649
0.11294308614395071 -0.068780483999463016 0.74805418019933123
-0.18525446602737283 0.43529566139943854 0.96467163163481195
0.10494100080318158 0.74218484787708738 0.056395645075398404
0.51275038039160992 0.7145943498964118 -0.35391753456963226
-0.3310651908727299 -0.27114054604487015 0.5409319757027059
0.12110175483452951 0.29393549107873818 0.66411848373979243
-0.17574433530367017 0.89216445060695271 -0.60137805614600215
-0.79076442160051119 -1.1019384175222537 -0.51345227359139667
-0.35957622173420911 -0.29202355709379191 0.63732193459633013
0.57689415080268491 -0.25615206044212679 0.55422061828144864
0.53429626057714485 -0.42302268027957757 0.4404868698718501
0.55799775276028407 -0.30234433442196984 0.8458962008968598
-0.23600150830424532 0.29441858595422965 0.62385822717230355
0.48905741434633709 0.80015989220115658 -0.028010188161934124
0.44636974053926015 1.2357592006603189 -0.28926306610501717
-0.30616717640968966 0.21586471291312337 0.89384655494151399
-0.19525539714837914 1.212143497002431 -0.133284284061848
-0.40124629629688818 -0.67560657862069973 0.083419437543407193
0.24944010456993398 0.23990958082033753 0.68257033494851427
-0.52862805788065681 0.2850897952130742 0.53108117748378536
-0.60314036178295771 -0.38461218973365052 0.4403354935144983
0.11603425825725111 0.49119058779473046 0.40966393022022463
-0.41572937957350881 0.54967679540736436 0.77824782302849704
0.66418209108257731 -0.180538201088845 0.63811267994966137
-0.93329960705828641 -0.8122714342488786 -0.88137754571786353
-0.33689784478577683 -0.094793099930155389 0.76461901664789034
0.19286777670376581 0.67171171324504986 0.58627831199924985
-0.4077669445507609 -0.31163217275770405 0.5331504450057114
-0.018609195643165044 0.39618333328588606 0.8357258137272352
-0.32439639964313832 0.065262276969927924 0.88138785621579885
0.29329946284304043 0.43725043245467932 0.26723696839835931
-0.26626878235396273 -0.63478896213666736 0.2417633537144267
0.76966508894851327 -0.52771351589929782 0.47178107685622095
-0.21291059808457372 -0.99355555827525577 -0.20767251251065227
-0.12129043093767877 0.44933913347108412 0.74506761058417714
0.35653406377438823 -0.069194523854500645 0.14862458591333566
0.17485704809834463 0.43660001849481722 0.80785138260627365
0.12909497266962358 -0.17700504090463576 0.435207387201478
-0.65365527709909754 -0.16451750878931293 0.61882626588546019
0.01975753389524898 0.63242327811352994 0.56416009845128479
-0.3891471907186127 -0.41894038438896475 0.79817206027723819
0.36774159755617508 -0.17109963947489448 0.61377085543437027
0.30124152360715006 -0.26326070967413284 0.69719364085954283
0.027956195922809096 -0.09713943996598573 0.60552883626737886
-0.14147742132733424 0.076461497710220927 0.68128698874532745
0.03450133943825491 -0.19188676623471079 0.95025446636988342
-0.6105558564456548 -0.7942729111716138 -0.36063754331833386
-0.76418557829479905 -0.64287386373534772 0.10915103087455183
0.12976643246548381 1.0969955762239949 -0.15701260923451343
0.64491686081966026 -0.31101131092405576 0.32521087315183106
-0.048383426611205316 0.65675802887493806 -0.4881590906482195
0.61925537312400114 -0.18849009810571582 0.85178341461614138
-0.59828847656117223 -0.24796922826727208 0.64745018019248435
0.37220243849536111 -0.3101205896464394 0.72967036969980659
-0.25865658951072018 0.81638614496394146 0.75329142760180912
-0.44056707660211863 -0.68730870821370171 -0.27873956448147053
0.62608599714245528 1.000207028047237 -0.13320803077370758
-0.10529045667349002 0.42033439131427475 0.52441653073456262
-0.24851666211628448 -0.37402136948611564 -0.086783335472005674
-0.20939129588414002 0.51806160304645454 0.86617773927258679
-0.17181653560849952 -0.13759945849399569 0.96728663376054524
0.054993044178663797 0.88217226209068766 -0.029057364869233826
0.3973979329400954 -0.57231330876214059 0.85142839502162793
0.078085954111571376 -0.084823780652016012 -0.38686508946476583
0.51464363628606968 1.2137354309420649 -0.49830412958982606
-0.705032175785686 -1.0161167277657253 -0.36326651857561243
-0.9422989050641668 -0.63765907675942279 -0.21487695438865456
0.23122123125184546 0.63285488793676303 -0.22977370889260074
0.25255449585261802 -0.15786108913033625 0.6325926610836472
-0.58658201557891798 -0.83091378986612474 -0.081711458602000089
-0.26880720320139329 0.64216695509208976 0.82651556842789264
0.19297838818475721 0.38787275910756458 0.42246041145667013
0.81908609390450016 -0.30703901651321908 0.56365875706346447
0.639029367170865 -0.36741504931119251 0.54952701805324478
0.40869280352484794 1.5545461366464128 -0.62881048810436091
-0.25311275672009437 0.9191429085620183 -0.48913703431035638
0.020082423417469603 0.25889282476779685 0.79809388373734991
-0.39144689394587101 0.25189358385902583 0.62712857288542367
-0.41108418518347922 0.069820329179921536 0.72862299777165063
-0.76357738156205568 -0.62678106110135512 -0.72177242941494524
0.10470038442600854 0.70583680265072524 0.39686088491061788
0.31207751040527421 -0.43611891565041683 0.44313875316613494
0.32786802458787262 -0.022183834587403917 0.3942420414577672
0.16539762214238735 0.41659562923801019 0.58985659167978188
-0.6717598428173861 -0.17811920770239142 0.51962111806926969
0.49151700480358762 -0.35957142765364503 0.81531539576258605
-0.039960428092197797 -0.018695515465558588 0.3200533088844284
0.18318893406606829 -0.025714556767904684 0.92895396314344081
-0.53925855431494918 -0.28306775399569339 0.38989229474891207
-0.12860469257696272 0.034992136925595885 1.0192875198963622
0.3760394769334372 0.92722844676995853 -0.21781063074075402
0.21820035911142255 0.17835143047379654 0.53562359846840879
0.11229423015082864 -0.26740744489817292 0.7678087477542429
-0.4766926237808311 -0.15042063376836823 0.97439478864253271
-0.26122226221640021 -0.41549076021345388 0.68840522432489282
-0.084897253409949219 -0.087161995194067643 0.69969569905473983
-0.46495345481356198 -0.43361977163354393 0.64413929345068288
-0.0046496122510217841 0.821779781732207 0.3671298152113518
0.080632411990679498 -0.12739397414239839 -0.38610459818881815
-0.54148769881008907 -0.14883647015397194 0.51320088440528822
0.40125615886253013 -0.26973852535154963 0.77233343164716095
0.19442023517160445 0.71097523742323365 -0.075460694356243141
-0.80735108386717114 0.12871382009276566 0.67725648010060868
-0.40628824639907141 -0.24591231212927944 0.56217226792008235
0.59633803834889676 -0.41604700952615281 0.43367062142781887
-0.22661859782893631 -0.46629458999557771 0.74866255452062958
-0.53574963147170507 -0.3672725844857152 -0.45466550210540135
0.030046193286133782 0.74147748057385365 0.53333905138809812
-0.45012532409190276 0.30258466788312222 0.62765083826072576
0.45523680743123418 0.95117393054711208 -0.36352213739233052
0.22224627184903994 0.44069349940028157 0.74731669496329023
-0.41576432302762245 -0.69709355171968501 -0.54215674268643665
-0.18612009140245628 0.075314431509816315 0.90702306913534503
0.022537827526136034 -0.18386844648050293 0.49852171364354242
0.78004837752716305 -0.21150164352674561 0.60167550615071697
0.22202959130659117 -0.23024650701788207 0.60280913500208022
0.060090518679921323 0.98368287500595686 -0.5887123224133699
-0.71117757883968402 -0.11915590040063795 -0.059723768616532558
0.13344834377198361 0.12375272699522832 0.78242655096060032
0.17677355732148223 -0.35699666352030568 0.61356233176624586
0.38147458884089858 0.46747351691522021 -0.13296404415252316
-0.38690631286591792 0.71898738893051017 0.56140368730527657
-0.71109403136072591 -0.74026802211393394 -0.38170085007050653
0.20858892800917139 -0.1185770551347467 0.28588917075824954
0.78806615568560001 1.3359094814338224 -0.57296510427398861
-0.2494842020932927 0.48357517673596651 0.67795425709564805
-0.7516877003779614 -0.93865758415800782 -0.5872211076121191
-0.050943882987643074 0.51260239316140677 0.65709107029611635
-0.4607846676012598 -0.77966492253516217 -0.044971679712497631
-0.36440066384964998 0.011674119483687795 0.78728295570821749
-0.40464464665493072 -0.6924517633202929 0.12112262671344726
0.4190367601277657 -0.11663895560931836 0.53457012371409995
0.64370649527219004 -0.62603248896448127 0.59027995341989525
-0.80875918526451207 0.42894036231431426 -0.3524962069616332
0.44646651626928646 1.1071577541343163 -0.16435244578976393
-0.40040291208458401 -0.57602395679526719 -0.0024083271240555315
0.13184024537402372 0.036244539235530837 0.67832858305121069
0.61146872122398577 -0.091545798286678748 0.43303602968518989
-0.3291126149236715 0.47653512941121856 0.65543429700776712
0.70909766045902045 -0.11239455415949795 0.75550035112778624
-0.54221849105063502 -0.6995460809241536 0.040660287338108531
-0.23386227093724477 0.091478462232960189 0.86436664813724529
-0.42513905903899474 0.38507739866494639 0.28152480272264274
0.11299006725720795 0.16713324091681159 -0.03563763034681755
0.13749565953226728 0.54367260513693316 -0.11213778535008234
-0.50614114904866181 -0.37993744203026192 0.52356705484665111
-0.4761349600978278 -0.30388141543750358 0.60728235733464131
0.5691284331154669 -0.39758495741190658 0.69404230410151335
0.17718811100712673 -0.098025620919259149 -0.48775196552668398
-0.17506070122349893 1.0453691533244409 0.0044449319963628664
0.3579624800559511 0.032304573107570178 0.56486596598418548
-0.56410337787500842 -0.66384595851069772 -0.40418513389213057
0.57657891037535303 1.1895655869061605 -0.26837998589086554
0.4267677436809133 -0.22314945942254827 0.64327109646328207
0.23269116693832714 0.96875280053847113 -0.19206482248302215
0.13722500246676295 -0.16456422823028882 0.58624402382674268
0.41391274332237316 0.071973915248016551 0.30065505880039067
0.50227131671288128 -0.22650177965089924 0.58321559973901183
0.24752625527531519 -0.16543560576063854 0.71876388317750173
0.33103168337867084 0.70116184423643446 -0.4502038156878847
0.69484027208725618 -0.30944622070177585 0.44387990225191598
-0.63914799608028983 -0.13261153520942859 0.72000771280303466
-0.4227799650873677 0.21316094743362013 0.85947698857746258
-0.56796791484209408 -0.35372478665418217 0.6757199114874195
-0.065004919909066095 0.6083073177265097 0.37825540019840931
0.44628525847587808 -0.19950527546440866 0.2825491683891459
-0.74655578416904955 -0.36089557224407276 0.20078582643467238
-0.91425195098712653 -0.030211725647440346 0.62145894892334141
-0.5026411370698971 -0.84356638253620519 -0.070774480031338197
-0.010255563683715038 -0.37125532711166165 0.84789836480687075
0.31133458197365227 -0.13904626957732757 0.81426428735364798
0.4783270488516016 0.96293583789067527 -0.30825514747923255
0.28824262360527364 0.85659219456319069 -0.11225728137117974
0.13122556797476226 0.094122664813992785 -0.25999948919475235
-0.65419026304683814 -0.31547486065952834 0.29107104920401439
-0.4030547221608618 -0.6118177458914813 -0.030990642551830649
-0.45704115696019482 -0.64914029346402491 -0.47833041233895335
-0.21539799436325846 -0.78058481031833615 -0.069101548640280258
-0.42312244702966101 -0.59100901988827914 -0.076549401611627654
-0.92701153308388462 -0.41686853012184644 0.067660411256161901
0.067602100485072092 0.91686135356167087 0.86347096604015416
-0.33854823212617297 0.25243919412647386 0.76594341723665804
-0.015361369656724799 0.36168204063285159 0.53988977199323418
-0.12082211328771017 0.15816503274892657 0.88098286665023051
0.12852108917626981 0.857039667309063 -0.4380914276849508
0.3601816943647928 0.37490912601039872 0.38374360928311035
0.64214894810316947 -0.68796771359555153 0.47456046502300181
-0.50951704599435943 -0.82358154671205974 -0.24686528462352775
-0.61870087475094881 -0.17749028023598523 0.092896068634775009
-1.0360033655955918 -0.93872244032446162 -0.58471114456963313
-0.93369729737569351 -0.17904622608262555 0.73852051524890405
-0.30922609907835219 -0.15096559025789658 0.61145165164071869
0.054735811870150697 -0.22086265964119334 0.86977492014994717
0.39991618347483104 0.43914929329242103 -0.20059689062105124
0.037313722579299616 -0.26159687137280141 0.88379102523382047
0.45707499814390185 0.90362009899502793 -0.41996442752666296
0.46617138461980762 1.0085781737945199 0.42662737133785134
0.38561347636734372 -0.38756537649649947 0.60294386395593513
0.079032874209641446 0.37395545836757638 0.53804332925321241
0.41423871887827379 -0.028207825469281911 0.80240469958929406
0.044634169998030548 0.53914878283575918 0.59896303628190783
-0.10245095688229006 0.24181574315291332 0.7137563450541452
1.1321634754023857 -0.7991121510241701 0.73368635025788675
-0.7895029462245029 -0.98038955608993761 -0.78977187941089844
-0.064424419230313057 0.17598627432711833 -0.67222359465244452
-0.7645704604960839 -0.66635020899666664 -0.53077544633620499
-0.6247181411699152 -0.61620247424178509 -0.13815727030911118
-0.74626143960067171 -0.93266417432326043 -0.67727934546139945
-0.29847814936819195 -0.36002860004182091 -0.34497233873863153
-0.87497641169430906 -0.91587309359854752 -0.15331437533875028
0.068910485369152702 0.41245997865997353 0.82833422046721505
-0.3799377680100704 -0.51775342027203886 0.59388749591547718
-0.041689908486475011 -0.63543290563496435 0.5691367319272409
-0.10090605604466613 0.37702363407437733 0.57604583557523736
0.34084051858738751 0.67123477670889109 -0.156753204955422
-0.24198213295160559 -0.12849841486987046 0.66891992016295043
0.25785078269089468 1.1360735083075204 -0.57437342123687429
-0.40751576315053917 0.49844708948751082 0.91013552020489064
0.1190626610810739 -0.35073865125020465 0.70342661168576393
0.44208198209154481 0.034368070251883154 0.5492726575245076
0.2482350685793151 0.64711674531682473 -0.046110099711054398
0.024468170390192223 0.70627969185091399 0.010300641556180823
0.46713810543563555 -0.36582777643594899 0.51743908348973044
-0.065893703880856691 0.11588954623631809 -0.38014703467328059
-0.18500363438956757 0.52819387524607064 0.59391840519393913
0.6518977595650689 -0.19118444619388764 0.73445018418122532
-0.23613610309489719 0.80254098569493293 0.73221277253323447
-0.52532436274857996 0.45941669308825073 0.04578041305272984
0.0087239174524076646 -0.049524517174012406 0.82467925260767094
-0.12828713014308024 -0.35620575344391336 0.85567245842247508
0.64651704058137316 -0.4497156779787419 0.69117580089310171
-0.65946995741103065 -0.23543089664087535 0.93553471770974372
-0.47360681959759943 -0.10939730479739684 0.92045360922657116
-0.6501822194891429 -0.69061199549569063 -0.4222499411762316
0.03562122246378685 -0.011849589313861708 0.81598447122576312
0.6403106899662645 -0.33809026423496102 0.62511540904992224
0.37840293741776376 1.1152672654486762 -0.42887203659503093
-0.56132303247181059 -0.53324102990254363 -0.029132188484010835
0.5699284190297661 0.46402554952093511 -0.22652647999171061
0.33315426736923248 1.1291082604076481 -0.3299605052357637
-0.035841743662323955 -0.30402245891562529 0.5148857358176403
-0.10745911655300733 0.28827904933016701 0.57549267941334559
0.10723032384369752 0.24489441822853752 0.49977147869660266
-0.77789154700459184 0.10936614166700009 0.34280823310848996
-0.73391838294729439 -0.5043367637368823 -0.23203822651456635
-0.53059197845708261 -0.22756844635378259 0.41704291745701566
0.083403637790643637 0.40289079918224591 -0.31440844499267939
0.2600732450794101 1.2481977211346587 -0.31230028807980736
-0.8548286728479324 -1.1041051454857922 -0.81997262834143736
-0.20823271997225001 0.033402936650961168 0.66498208159534766
-0.080340915946902514 0.67337342735795547 0.19599916765753156
0.17493336936672144 -0.040075319004558851 0.93894183906547313
0.83360614382864751 -0.68154969344692939 0.77904086466926303
0.54938146923405151 -0.28834076237433037 0.70229854885030962
0.1180513991290755 -0.4464579053533253 0.39612666762967536
-0.3233990419628901 0.62591880153383983 -0.23672540195202718
-0.22231422894219771 1.1701371346038791 0.012560810775096409
0.64100337192566326 -0.67261503989400939 0.70260399345468771
-0.61299843122370024 -0.24515536428383511 0.69376846720080021
-0.56155329633560791 -0.26848486020270634 0.70125759943883637
-0.19566917564502129 0.84996293121097299 0.40928109109035304
0.74330145617075072 -0.60962887379973041 0.43442826792334321
-0.63256896687055209 -0.43077267811121889 0.1283750503844609
0.069857526372003487 0.79024586948360254 -0.16154932015311085
-0.18958898290144241 -0.38724903943056277 0.40616685347539921
0.57634343042976055 -0.119659227973824 0.79802568736194146
0.26446754296803432 0.48719904043826268 0.22375195924787006
-1.1917491218089273 -0.97837626900517383 -0.59500385867344685
-0.11022851968144121 -0.44217375487171662 0.6671067721956333
0.59122174627105029 -0.39313351773120586 0.69826853403316103
0.42336567876832543 0.11102169910858173 0.23282568214086585
0.48550019230467084 -0.80841899409300555 0.16933404177372074
0.14499482115535112 1.2875759561953608 -0.51771611863160538
-0.56114943045155685 0.58304414670539118 0.70780381564118033
0.017608040882520354 0.20657827910847426 0.92519708577140269
0.7164532391069971 -0.58423356807793292 0.52952268165908967
-0.20329620250396302 0.83610632178091782 0.26378160975289666
0.18233483778982362 1.07739159629616 -0.63747415833644328
0.37922468656137442 0.037943552957956594 0.37441241907990158
-0.1051124716327953 -0.30533484258779175 -0.34656216864262918
-0.45360104051949979 -0.28960348863382679 0.5722579953176925
0.44859552059474328 -0.26917118243827343 0.22570958377502609
-0.8322530170224447 -0.68661213930495957 -0.35105487308057348
-0.13053064938529024 -0.24916013771590961 -0.4994800328543999
-0.11147675589246908 -0.67317969819136425 -0.07747002153531346
0.51852853829744316 1.257799474002637 -0.48831138630408222
-0.68818750568261811 -0.047350023591578916 0.76080758255269765
0.068827260679746094 0.48736179429055726 0.22352668238853701
-0.56731074404250859 0.38878005194122722 0.35604692647185116
0.35334238381269018 0.98049235623650821 0.490143313434522
-0.16729388750320484 -0.5229236285717358 0.46407926303640384
0.13932272891150813 -0.12792982679682763 0.77467297181568917
0.39456549150935011 -0.14490734339453581 0.57844958862989071
-0.56815903474716656 0.18763484306454825 0.68796569441581268
-0.32541959138549831 -0.31547847301287968 0.73579510428959849
-0.73285650531610869 -0.29980846644423575 -0.4092194842919572
-0.38084846842445402 0.053454029961263583 0.83688792620783325
-0.79648767187820568 -0.082883585416898109 0.55851598984015716
0.43325952633385856 1.0044975699522243 -0.26878108628241959
0.27603565210388747 -0.61261386765670034 0.58015693176950478
-0.043224875384818118 0.35365557661892488 0.58257534815861545
0.81759561125198532 -0.54998262422430244 0.72787776058816456
-0.15491144855278521 0.029073221809529759 0.77904487220989971
0.25801669623033635 0.23892424930186551 0.60476265475399016
-0.22687390261558898 0.45266051984277955 0.42392018617372496
0.11876809980713818 -0.09410975300526947 0.70495515149824439
-0.095909451349034613 0.37238936340000617 0.76320024101163686
-0.46358844463575366 -0.16872006929356509 0.61038544916142556
0.30063942453743608 1.0541626560005888 -0.38742386371478421
0.064418560268958175 -0.042166028280361756 0.80220990915667068
-0.23323515425673952 0.72271004252888482 0.18886250674387617
0.19540372058905586 1.2549795383651843 -0.6345620665662266
0.24439018060421958 0.14248378944863638 0.091938636617577729
-0.16601124771933273 -0.50028327262023486 -0.1112045699166257
-0.32424138079651121 0.31722754402426045 0.84024974236873506
0.16655013439678165 0.034790854337049648 0.81752514646704322
-0.49296828786034136 -0.2417129422212736 0.90855207867735976
-0.24351539233134506 -0.34189539930625901 0.81380839276188799
0.61462214099944956 -0.51548073683427065 0.39208495551256489
-0.56567449115998791 0.11923118365494911 0.75899787478501779
0.28019901964496652 0.7414981486516361 -0.27212493226854362
0.37245524128852198 0.30185111242580209 0.61045583932299563
0.25274796630006646 -0.36390134822987874 0.83166586632551742
-0.35702158746030466 0.076939731000932987 0.81961728467807315
0.39896514127204258 -0.43812105207365937 0.7164350453961319
0.551429698903947 -0.47631329849436232 0.68513142299427399
-0.73682195517802085 -0.41945384324876667 0.669853292669218
-0.29464267891446816 0.15774263851389825 0.71325615884989313
-0.58863124521643506 0.15282769746797831 0.72715474180537121
-0.43859410755272304 -0.58948586283061921 0.50738507619923645
-0.11770782490885529 0.83545694409237292 0.36857824482064216
-0.54218480840066163 0.88897987704527048 -0.45495909404395041
0.15378811109974794 0.72186550005062866 0.66901359124578541
-0.19938604736881987 0.21045811274292969 0.84013190753029554
0.097916277969546495 1.0760407586259779 0.23655316933562398
-0.34336318169805996 0.047193208568046208 1.0394785076592434
-0.87897542694037389 -0.43423137180917815 0.54922071947829498
0.38497516992523917 1.1647360471721702 -0.39644756682558857
-0.59340312079009849 -0.941187220911059 -0.83055626670281835
0.43751085098673675 -0.26462891626168528 0.68654612083759814
-0.37470411459061737 0.00099142199590906976 0.91340574221466808
-0.17923589117417787 0.094059933535024842 0.84267246087567282
-0.085882327855506868 -0.067380628613902704 -0.50464124604888894
0.42680244753211016 0.41767013718805124 0.65679534744471568
0.013505052975490095 -0.058371988423705501 -0.60609165871765647
0.096417455765208673 -0.28045477125382612 0.81815623886169198
-0.02700768216005478 0.87689184349225113 -0.03331324921601686
-0.52081648348935961 0.58545423917621009 0.5139571144296371
0.79670542846811609 -0.51426568441966181 0.68727863693644609
-0.83932781946052437 -0.20197788077170453 -0.015608543740658509
0.3275622538926361 0.3528932668110536 0.27868905695695723
0.39762183965441533 -0.44649684551345281 0.17934612796546973
0.28453719420368884 -0.10867367813833262 0.98982597743035428
-0.68107814508132125 -0.71364121610205355 -0.8207352230988425
-0.16714644574798274 0.17583045852944612 0.79378320062683494
0.79354781449731004 -0.29923881108761363 0.70645946379048663
-0.21117477695369169 0.54251375220326892 0.8054841278253102
-0.47798801790004564 -0.15326285608410384 -0.59604564876722121
0.23749066676044406 0.76715833040864534 -0.31880006576236419
-0.097525185343311616 0.32199076377256208 0.84906645313961426
-0.4667123611245706 -0.25693369222194096 0.93076618023791768
-0.51738282237938416 -0.42687554904439362 0.54774283105322108
0.029915509197799894 0.094093027389614337 0.58899072135518915
0.055452110994288206 0.20647131224653648 0.22571235439353776
-0.4122269318695595 0.14007485700955769 0.88682881186216544
0.0048966629676894802 0.40369136177825604 0.66430619830944648
0.36441460273635573 0.63189526993000689 0.3223185713976936
0.58264948074354328 -0.12920906147126754 0.58249248084790839
0.25375086818621145 0.56174099975281488 0.77500397729084047
0.39374278325058576 0.93189138255881498 -0.22422618590370302
-0.58889578966458345 -1.0060399348506626 -0.34827823595564278
-0.33228707969844307 0.073199755014520251 0.22054046046726378
-0.42323933749902037 -0.56819693255164361 0.51901708648196609
-0.80426896369952172 -0.28296199017922841 0.048291523588265439
0.13305932177065216 0.51438488035568852 0.14724514318414572
0.62515776451730209 -0.003351921788592005 0.0056366750110045105
-0.48687982004693436 -0.32833664891962822 0.49613406220481115
0.73437772873629004 -0.34815658369205194 0.58824492057450906
0.38078602316471932 0.28587141540417593 -0.31986794970114718
-0.43724141939128702 0.59876429552196153 0.63992528232882018
-0.76701478500292697 -0.7313056289952502 -0.27561058510924963
0.42369335671669883 -0.057892408285362684 0.48461008517027243
0.66935308745704836 -0.5121071786326532 0.59006385168929953
0.40406574185227151 0.97551024997177938 -0.17436082608422265
-0.16168404625990546 0.5009347409412126 0.84179552974012151
-0.88331473578723163 -0.77863118985758972 -0.46097184368988403
0.080352905891606319 0.4164248910325743 0.37859806974009025
-0.059099764856496373 0.068020497609444952 -0.46727530831038278
-0.1440417794182518 1.133641205636446 -0.069702007592794213
-0.47658634112245374 -0.015936832144766822 0.66739122586800836
-0.10845572183756133 0.041683982650440488 0.74826175015445928
-0.87342905345685284 -0.24670823386013718 -0.0051333846016635154
0.17279712694630134 1.1317394508456795 0.015527414955390562
0.14807576484293183 0.45454206562735333 0.47550781312250989
-0.061490850345397918 -0.11688418350024188 0.68318747911818067
-0.54684877716827707 -0.39975091035376975 0.47422593785424161
0.12747647686966956 0.55065266729303963 -0.10178032050868435
0.50421039387678279 -0.31345351316366488 0.44177414076314842
-0.30441919097253212 0.40662810383902925 0.67571165567514413
0.076526365165289101 0.64525298640915141 -0.37575185587992799
0.17495051707314002 0.90765148554303976 0.078301423111019841
0.029666501610135065 0.82823753015923773 0.034524457734279479
0.64008167434722363 -0.49722436499102396 0.73018616030321071
-0.037108972295746556 0.41414739039927539 0.72944130190504486
0.07362028083171257 1.0773133319188122 -0.29459888136938084
0.65579034294683891 -0.39269015290102249 0.50526364964558412
0.29270551762803443 1.114169346777393 -0.27000040466121977
-0.090085384719994943 -0.12109320514059418 0.62180820649842827
-0.018207274824149577 -0.29673020655998839 0.35412439483429048
-0.039652645839471673 -0.20210177585650624 0.49638720219819404
-0.27186408300726411 0.57218238453560122 0.60391679505748563
0.21739574916224702 1.0062216281234495 -0.32412291315480712
-0.54769063850485333 -0.90012225846949834 0.06883718403723138
0.26130312828416336 0.42293452933939302 0.72224291059403167
0.23539359687728556 0.59098497563978469 -0.65463192854958285
-0.2646513149938744 0.50453829640023073 0.6700974087901278
-0.27175528724148945 0.019176900462418489 0.81070507933770719
-0.094375533646857912 -0.68280941703054721 -0.35098019065454228
0.79849407171494946 -0.43150631886244306 0.34928206590583816
0.79678180097772366 -0.34770807042398255 0.83209605212714688
0.0075140946073629644 0.75035534898242195 0.22880095327661609
-0.68439094580639959 -0.76960262607393304 -0.31200211721738075
-0.8140900968848872 -1.0954399742303405 -0.89092459045291461
0.091210889062664779 0.91879868743364934 0.47130430243438781
0.30025835268859147 0.28837966210897847 0.32353886589001102
0.5190361149548619 0.64677826377404068 -0.29818992263454913
-0.015687492411906534 0.27870160117321285 0.6383773556032456
-1.0209829068428713 -0.15631841651200373 0.33449088423332929
-1.0558840820294446 -0.65689627356769009 -0.78760319462933637
0.14553962464715364 0.15621664809408364 0.63447953955013647
0.4011939613508651 -0.45449499839475838 0.51254833589813376
-0.33858739143958277 -0.05065598857186937 0.24790597821190818
0.68677430205343382 -0.18101900527981662 0.64134824770708621
-0.75164128465789548 -0.68985753119663129 -0.89997402444573138
0.17921790892626255 0.71857275182884894 -0.41353439615403698
-0.67858994684303098 -0.31419031102880934 0.46241116856114989
-0.23379664310983206 0.42993672896041313 0.58626623250555299
0.27588129954136814 -0.1313134787831054 0.70048975952871617
0.057779278868165848 -0.27367533827872004 0.81023021461707756
0.25014850290631607 0.50218134956416516 0.15182587805887326
-0.01859083958916885 -0.18197857915295201 -0.1605370897808639
-0.0483207276724434 0.059322536442947937 0.85066725029555035
0.3966266822227914 0.31715591715569635 -0.2928843848360817
-0.16328933314781807 -0.45488480249633811 -0.072807089053819607
-0.6401599081140017 -0.50413663606073977 -0.26650005204950789
-0.5984955639316466 0.56950272761954124 0.46345483421592082
0.15803659471476844 0.20679057861652084 1.072307868602993
-0.25533914495195892 -0.2220680678863356 0.93220378670672721
0.23490754580874526 -0.19737433275197325 1.0043090609035352
0.92862318633325125 -0.36159315496152789 0.564674361348247
-0.69774235737503709 0.082254075198639698 0.57020642494224849
-0.27517680171405912 -0.26526724273908764 0.42927289745663683
0.18902758323546487 0.75605736281837543 0.68302997439269741
0.60518124373530946 0.4652742194558408 0.076329002561814852
-0.56176435024404991 -0.76761080685517413 -0.077599953941055511
-0.48266507456952734 0.30047902678435956 0.43001727531131578
-0.49966257897710054 0.58695771439214572 0.54723615126840275
-0.063668541446193161 0.47972785656931383 0.66223118652616419
0.016449434822289777 0.45511335705911549 -0.26375130423892079
0.15648688960979845 0.50670401442988156 0.44889792441900644
0.49244473769452329 -0.24970077671875157 0.33742235908128715
-0.12997102096267124 -0.35414538537227669 0.50335063981504569
0.23482171036539295 -0.3341450726656543 0.67073933626319326
0.56841340881505231 -0.36777946080297608 0.69863568110708507
-0.77580385564346277 0.1842111223727847 -0.13023546853858442
-0.33976549176424209 -0.43479347296348125 0.43940907449405731
-0.41831284178482259 0.19154249798600531 0.55140383785437774
0.23899231665543502 0.56389027768923572 0.56963066247494287
-0.0012160918607735383 0.47652606371179762 -0.35935570641308279
0.31498869931882101 0.78411182911248667 -0.13030217136777422
-0.69166607300256688 -0.76639865830736253 -0.5815456495257747
0.37739793838727309 0.84549775565275753 -0.46567383894687631
0.0071221693239805761 0.032499455200153404 0.70794831009479742
0.79287330044039872 -0.25529916784138185 0.64700640969647472
-0.09135773183548726 0.10435535964209652 0.89192090126660117
0.52357372254776369 -0.4577475506006401 0.60185880557155436
-0.59258917918744947 -0.79713096229367797 -0.33285012931790992
-0.0931989263089541 0.15737893935593017 0.73030960905057851
-0.68973166904101135 -0.18995519171452968 0.57046158790943757
1.0736138237964141 -0.40284140959467796 0.53393967138215337
0.41728773593729024 -0.57226190506630781 0.51003379516780178
0.80539547370948483 -0.11879816269218257 0.51158162070603497
-0.00015413542869127661 -0.23303624888049312 0.4663704888034732
0.082555049606204522 1.4848535016835074 -0.34804852332018288
-0.51983008549359255 -0.75597971427407384 0.014614355799508774
-0.043586791900168009 0.83401326819360033 -0.38915024103109119
-0.41355837106400195 -0.28804130885489054 0.73811557393975413
0.45287113295720938 0.97643909027705411 -0.16147692998452856
0.20990510199833579 -0.092699298385949147 0.89522921904527253
0.070780193084401921 0.12692090441678627 0.793915307805514
-0.64266722714798163 0.39605150921267929 0.40251136122269554
-0.29142077308076109 -0.4660309466636936 0.046240220722494174
-0.4781113782562002 -0.15584300763225256 0.64723343130247002
-0.3472557141794485 -0.070573022922888029 0.94836433298831146
-0.59828544193337263 -0.49761815682363242 0.14605161173227194
0.30265377918303638 0.09651230225174956 0.37681991966992212
0.67065548508537798 -0.25912391857637807 0.65891270104216626
-0.66038735495199585 0.070909405622219035 0.48801307860473159
-0.52365288095979068 -0.16717586311451127 0.36483224492816857
-0.60690018706900872 0.078234815871355279 0.41363738023246488
0.13250382187118831 0.23220588811904896 0.68440640436884637
-0.0015620259237964507 -0.38217235948439132 0.51024170280551029
0.26668791152498861 0.95160139488170303 -0.17787416971507874
-0.39479137691215155 -0.6002454293946986 -0.051257302929781534
0.03747806215051841 1.0924436162680764 -0.35802025559505724
0.17520440294526918 -0.21723199881264321 0.91745069287792635
-0.37041779866478758 0.0041171690446630826 0.53581793385687615
0.10086913568211042 0.46926178616516034 0.7165811431254584
-0.017965503038928646 -0.39287174462580854 0.6047643398227992
-0.046204941474416394 0.83188490511349966 0.6296501764800303
0.28869003109327818 0.62657649806406535 -0.27416714289028332
-0.8406328566588841 0.15386094009969375 0.55864021860618474
0.10549584547483987 -0.19877632120078026 0.46110152344716998
-0.34946715404031331 0.46680376519090827 0.5182489416666699
-0.96972188025548045 -1.0643523543021514 -0.6405755764795773
-0.22696112528390916 -0.014311320370787417 0.82536915008990719
0.67862377587202505 -0.25887818932106543 0.5445406906729966
0.11158524619265542 0.33817073989484281 0.67504832374659895
0.062056229827386122 0.76736143286862646 -0.52419339851355407
-0.55899114357234614 -0.77649956123495678 0.094182373106656364
-0.70599204166442242 -0.14514596142679848 -0.32847180326143671
0.26188766395815843 0.2593341729333194 -0.44361887951666812
0.47785335200981316 -0.00018063774304888369 0.39570924215020309
-0.0015309298563684903 0.95906926977939766 0.22061232644729067
-0.34917278469241825 -0.12104586078163093 0.79980515675031716
0.036144003645994238 -0.51319290179368893 0.79990594820965066
-0.10962982673932518 -0.11762651546049829 0.8871901950856893
-0.73566584003929392 -0.46611334053572206 -0.1546568332148156
-0.72215941578558818 -0.098987086839566363 0.041644533952221507
-0.31104285952545058 0.59378707547388832 0.70729962469736485
0.50669276714552369 -0.27234320584958116 0.75913498851177874
0.14909937918536875 1.2106260230554806 -0.52334848725066863
0.68639185554041904 -0.13735284494447386 0.5439088629718043
0.16952699782331493 0.7976018999969976 0.059449960012332159
-0.03609425952475348 -0.36499856001809983 0.37448403539561487
-0.278488206168782 0.14282273900366782 0.77915094319744105
0.081122906630707425 0.024648858412251728 0.72670909829544139
0.15521951206702228 0.6057717013423185 0.51792595399555408
0.2360103214583894 -0.18621471851219473 0.77062850649079884
0.3165325680873024 0.014783546004320414 0.6285853900741184
-0.079961239259941808 0.36792678937266432 0.49612015034929258
-0.050037578512403424 0.41541648959319089 0.42527859709002003
0.61021932420909719 -0.40484649904542991 0.56337700287741987
0.39878209784006019 -0.33710749622355407 0.73768390689240415
-0.092787089923635324 0.30391994734039574 0.8471807070662668
-0.90500476460442614 -0.96223686406993902 -0.75482901696023419
-0.15408182955745808 -0.16409686543392477 0.93696793200996875
0.0019153043067257902 0.23798817189065724 0.88766434722907817
-0.16755753496988757 0.11656327481757978 0.63179854424406323
0.57618853960106342 -0.3133086528410729 0.40509985057561876
-0.29823597174756911 0.45596417980078874 1.0544148835615181
-0.33830313583978866 0.34698556844214035 -0.7163540683768066
-0.063116127057800342 -0.10423227120999945 0.50526227457203099
0.34402888185700609 1.0305100238511868 -0.30636897592666079
-0.38113644454116646 -0.14706202805661261 0.45526924470246949
0.25115743991891781 -0.46939396523378929 0.59519068556982657
-0.25734103162833882 0.5561120323820643 0.18197755898898749
-0.64138549988705562 -0.79088227873861516 -0.40162505289026773
0.22160852706922374 1.0202381704205745 -0.30941957780287055
0.22026133704293616 -0.32812028723536812 0.5725594287880843
0.19642663962576951 -0.050301465836879444 0.70775903555689845
0.4816452727178534 -0.30268455468331701 0.58139453289230314
0.31438398949178348 1.0580719931981339 -0.72338523083018513
0.44155930013869926 1.0303236353750234 -0.45677580652115757
1.0357420925669212 -0.55839345897756831 0.10682481053351778
0.32898690250853579 0.52919928235460922 -0.23363657432828977
-0.24460491512003296 0.78493179314235551 0.78093599773158429
0.18731499663605861 0.35639109735674324 0.43060899121470464
0.16644303749521105 -0.22994647049187011 0.34934092400585398
-0.69932742670809356 -0.47889940979814827 -0.3290154777308833
-0.47308613390257637 0.78576259033670992 0.70278730553087998
-0.18361428938011209 -0.59911882357872037 -0.43971218884407726
0.41484021384859582 -0.28764643338488316 0.7626744456818858
-0.61130653965815951 -1.0222661176450596 -0.40152923280340902
-0.68944720445515362 0.42186146370126265 0.8943662993217607
-0.7580190084175813 -0.22368597137431157 -0.15528376724940018
-0.035250677135411523 0.44711728732306988 0.87270854949417809
-0.14477400069351731 -0.1129016369433602 0.90678425265635132
-0.499118340312947 -0.97951342102845684 -0.61659788151828299
0.4061017102102939 -0.40729594996976348 0.61426354910459802
0.62548652010508587 -0.16808662052944068 0.38775002140659998
-0.02836492388268852 0.25861857737718252 0.78284156030123464
0.077671168418183112 1.0483521457223128 -0.29704345463255777
0.016128405119349321 0.65324287139306425 0.75951565547671529
-0.027826976139727205 -0.1520705039276864 0.67280811074292224
0.34059402917645998 0.97143385415354899 -0.12157649039181928
0.32346730741189766 0.30357431144818348 0.50240342826963569
-0.15765370405330653 0.051534379207164083 0.75833128658281601
0.68867669753032168 -0.1022140511833427 0.59139538403469705
0.58651877051535672 -0.29336227380623825 0.14668904191558191
-0.15884155311221043 0.57263730618970288 0.68803913829644858
0.29274717815700313 -0.36653763524112182 0.5900437925673846
0.73469596783916458 -0.55051000181150433 0.53050918424663474
-0.21623302565064062 -0.073574636287898398 0.85829244095524571
-0.76231726801529887 -0.43497850677733663 -0.37543720931725338
0.16981518382929905 0.78012928713920582 -0.17014888886898094
0.29436466824259339 -0.23880730934649064 0.78740077365843719
-0.65491160756446287 -0.56670701373195564 -0.1954794630315605
0.37817783761818768 -0.19146252116771545 0.75183493935024726
0.48811201546578875 0.60718195143695675 -0.097160668281825457
0.10314367855788495 -0.21147298750367849 0.88016241698134523
-0.80551177842051325 -0.4435188458789161 0.86218577383485584
0.42658395156326212 1.3481703800383857 -0.41996222200508881
0.68927090829725668 0.68034886149758145 -0.43751711065813725
-0.30410083877736283 0.33650795081991691 0.81667751895496177
0.022499887869814314 0.11886680803767602 0.90605837757137397
-0.13682921405996279 -0.71427496383744637 -0.15828730868820584
0.2177086020014451 -0.091645715114480719 0.85878581700597534
-0.13088390078924267 0.28573738373617341 0.81683644774393727
-0.3695066097861075 -0.41565733258749482 -0.099465628776827186
-0.24941043612772873 -0.28465833723478373 0.86391100424357192
-0.41818677636764973 -0.20649430877727082 0.60259847707914149
-0.53118329320462088 0.16042567943622255 0.73390186231164833
-0.47365971039584981 0.076255822522229399 0.6805386381088101
-0.45040393056662176 -0.38954259552367376 0.91022706117900842
-0.95501052349574556 -0.83774717680417021 -0.25468238000752885
0.71955770873109448 -0.61092305500074806 0.66585089886742144
-0.47843103846110147 0.47252293595665629 0.60206334221176383
0.86207941677049049 -0.47188518204049101 0.70248815511171381
-0.8751615744166954 -0.47043123326492653 -0.19946596658855201
-0.28880152142999843 0.24898574759058967 0.47847635605523386
-0.075348218566583636 -0.61546478009370076 0.74342868230333503
-0.078380023755920458 0.85827860766291997 0.03273173849564337
-0.14441955097582676 0.41415750808444241 0.85871611723473729
-0.41974232437609071 -0.55704449016451107 -0.062202041005532116
0.21278483431466866 0.76573779850129786 -0.29226775316532805
-0.18869629582472386 0.41340620286867491 0.77816598292586647
0.20355082384800549 0.22802558514731119 0.73251628998851204
0.46614144894921794 0.61257139910212699 0.42889761851067598
0.24984865536833201 -0.16245673027040164 0.96176871629597238
0.066519093865658185 -0.33990443736825671 0.03483695674177828
-0.49429890153048983 -0.94894809842919337 -0.40721051165818045
-0.7223117535414143 -0.71862550595304953 0.32785426743185975
-0.35861846798180053 -0.087837430006278527 0.72289270145906148
-0.61740610795006989 0.23727390385068392 0.71222199198819758
0.83766388677159442 -0.45369600625717021 0.57589365696052197
0.49131736020685124 -0.47253847128264193 0.36254280599536409
-0.68985568367969163 -0.6599307182213543 -0.056562960458256081
0.1512137830602367 1.5140915070538283 -0.94571943476877707
0.65472232582540724 -0.057626272321080529 0.69619239455379767
-0.74024656423039747 -0.48878174393172658 -0.20946488643423952
-0.18409513672949629 0.50052418650698971 0.47762238191561723
-0.054613850887459847 1.0539696103165819 0.4165451787476574
0.36629117898315511 1.3812345415456804 -0.54856715693724012
0.47593152203242783 -0.1165847473608066 0.62544999281938518
-0.98690964653026536 -0.67253331752876422 -0.36026379383806989
0.3275798968324759 -0.37887738080645383 0.29734617008000291
0.19180446575855803 1.2036993961356997 -0.4546321587519786
-0.25064710913855609 0.46552596590813422 0.53904999342575666
-0.11344582889581512 0.58424977567905534 0.63307825574924426
-0.70416667017846091 -0.30310058911471138 0.56615326023831625
0.068785866689917263 0.36031824207418928 0.69855683923697975
-0.7800793132768048 -0.37935386746458 -0.35739906178498432
0.58082896004364204 -0.35841617614268828 0.74030214109584447
-0.58611833437154393 -0.20764223292176975 0.8293315353710774
0.21140031465954667 0.99673674697749226 0.1308715451075092
0.1115678276027911 0.43937871905176307 0.58557167957429335
-0.64237665049617143 -0.26430344193441835 0.51503651318148491
-0.029619576856655172 0.20636669538477159 0.51931392735242266
0.35057988872938717 -0.50701907827399828 0.48298838501764707
-0.0084616018180950769 -0.26807554013480606 0.8830326644442954
0.32478466644003479 -0.51212713614061944 0.32895368694859495
0.70859132433284189 0.75181078448609928 -0.44005943964813576
0.22241277680018773 0.4167389932018728 0.56698862902235292
0.016330343777517353 0.23754776639538866 0.79066384497538877
0.30940501565290324 -0.079521420452929537 0.58820114649547239
-0.56594011889481544 -0.43767858609761312 -0.1809465588420851
0.12075383823302072 0.036447567929775548 0.59393244120421873
-0.23482383748786967 -0.22795981208709781 0.76460038062521718
-0.020657673613757255 0.87176766539340411 -0.094380513000777988
-0.68976224559918409 -0.56100937700997711 -0.3678915293167066
-0.43071743943648133 -0.64541437485271924 0.49615786320198885
-0.17704560860170337 0.40555621093857752 0.80535904697075045
-0.26138878102766583 0.14584490551075191 0.82523098682996732
-0.49171881811882051 0.20604367462172279 0.97917896961827677
0.06061131472357506 -0.43141643529361073 0.31089449690189469
0.23044664670700549 -0.17612088581460772 0.8272070886394941
0.34846217337196173 0.7730924862773576 -0.25650418630449456
-0.67919642845310157 -0.98094550961563298 -0.50542333540367457
0.31581234563865013 -0.051032367411761648 0.64112670140504624
-0.13603354032975742 0.13976697170679797 0.80244850865585216
-0.53497668614478955 -1.0205040531891261 -0.33400459266510679
0.19335513543123978 -0.16986605015117218 0.66185325591490496
-0.33993452451194189 -0.099148946577362285 -0.40077233676082163
-0.73094312276555828 -0.32150234116598764 0.19854165524921014
0.55985061095958377 -0.38475731522085344 0.4104896588249235
0.13564946467192529 0.88426789434283082 0.3843974993283128
-0.58389253662884455 0.41329534796945033 0.84453712285086235
0.55182164454864746 -0.18698134147212619 0.61778680217347148
0.72692696863489281 -0.36032842884790961 0.48751521325145414
-0.32981945770129445 -0.61739098481817734 -0.20885873658885123
-0.080039093691123275 0.10300607547520779 0.56666467750079275
0.26508240005696948 -0.51170268601543345 0.56931508459852864
0.26054059334794027 0.44741123383898085 0.47953851948920523
0.27170852273516155 0.52929264908735996 0.089109129132680098
0.85450093739699096 -0.38195051292723625 0.81460534093347003
-0.48679713813797176 -0.32183569576824023 0.5562752202804977
-0.12517231930644557 -0.44091294179434781 0.7932084369637411
-0.59395987008458162 -0.36718797576056406 0.6837333476030969
-0.28661380286146643 -0.5605038286958437 -0.25487877042056667
-1.1595207249472876 -0.77474531234128663 -0.54054835597066164
-0.53946219965959119 -0.52157388864301857 0.28591019082428337
0.7877795140812609 -0.31140123444840451 0.74428340486475053
0.19615281152564823 0.87151845056199884 -0.13504359427851431
-0.46006787585061415 -0.42254787588988996 0.26984793185694061
0.14439207495690165 1.0845621216158117 -0.23168947961818598
-0.2789165007098402 -0.28058789678494889 0.91321246532191502
0.4381402478567018 0.91248140465013095 -0.46107267617559511
-0.28743794939999467 0.79857641724587192 0.4645410738365443
-0.069713944642930972 -0.016479346281704998 0.83184137520439227
-0.031214464766376515 0.36703489459330318 0.92654638212154727
-0.35453777916984414 0.25202376542795568 0.67742429470600762
0.36859451173152757 1.1248036306505882 -0.43792448392081162
-0.098606217031253052 0.62462076906675401 -0.1797093985141357
-0.18823892480946075 0.73578740712575008 0.57120589879959094
0.28573721591700985 0.09472867893404513 1.0362297206882523
-0.45684636553804892 -0.27909388936245838 0.62921246587982349
0.15216637094363655 0.60731461875424575 0.65888571936170359
0.26953449421264386 -0.32663908509875639 0.25289449870642827
-0.67253277659644195 -0.91684962133960579 -0.42874123200359382
0.056510975764375471 0.5866513297939302 0.048709880777082049
0.95300725371401218 -0.32706699315524856 0.45339237154040651
0.029701212853584097 -0.17318992453975057 0.87921083334319161
0.30775448670295513 0.046315075649238313 0.73262876796712462
-0.36254620683901001 -0.42789350069527798 0.72227139751502234
0.4253768481614375 0.69198907258692066 -0.39451919706759175
-0.55918874703898802 -0.3336692042949585 0.27145272603831
0.29360149888713427 -0.11572972764243494 0.66318025214202914
-0.22759208366696054 0.69154896372337749 0.44876853110020232
-0.019789034619799084 0.45756715378928003 -0.11338199241065283
-0.97518318163728979 -0.82200332888037075 -0.33411782641504773
0.056519859491846902 0.93015630493892332 -0.27872402281896025
-0.79921054061474339 -0.71863644289335804 -0.095139392547692547
0.44916721044300378 0.71765095078080665 -0.2531123811321081
-0.99026284436503598 -0.60906888625264166 -0.55723143714739454
0.18550200347930662 0.001296878160340631 0.70877465573130627
-0.26071264891022222 0.25774083138352399 0.86695999016511027
0.25248783977107825 -0.10891793143082706 0.90566824809769153
0.647088367679169 -0.21019705342855333 0.55391331528457277
-0.077458418448955901 -0.44135460594631004 0.28016876683386432
0.38394168699072062 0.093351474714611582 0.82679469549705753
0.65002361172387746 0.71864189389212463 0.041289723572590087
-0.7380157053117945 -0.42649150756117482 0.64357530519944306
-0.32191893131775429 0.4895247065799202 0.63990620072035787
-0.55905644703927448 0.16419001365717667 0.89313561593736046
0.061254744720896731 -0.33579975052039335 0.6869602911060595
-0.85233500195123102 0.042355818893749175 0.26866045037123087
0.37234055220167261 -0.38595227836569368 0.68467610950118774
0.73985925596471536 1.0529248728146352 -0.29506872240200022
-0.36130090798820658 0.40885337819284817 -0.87032336767847707
-0.12295246802020426 0.80465411353876648 0.70357452583519309
0.20056278483237061 -0.031456215564078294 0.66704393367555359
-0.75054466767408501 -0.71081271343629138 -0.017917179294886593
-0.65696552490291549 -0.24371741477120268 0.65755738497413052
0.58694228735550991 -0.28608485938564132 0.57680577572621083
0.11913549915839489 -0.054846910811315874 0.65280136841046565
-0.64089594981153508 -0.11405513044217641 0.76810611031014098
-0.41560677067432306 0.12157098687515899 0.64973336904784018
-0.58654524222701931 -0.75413178295955463 -0.29542092393831521
