# XYZ point cloud file
-0.20825301539179875 0.49978858968791018 0.46891773881908344
-0.097945791123370318 1.0609025893631017 0.44031020862159609
0.34821896208205017 1.3952787806342228 -0.53225022400389643
0.50251512657689901 -0.1013396239151545 0.62139023914182234
-1.0230880611101023 -0.69821462815256252 -0.34001947011647687
0.37363624187716216 -0.37949802967340207 0.25109334573800424
0.16412460896910508 1.2126419114069953 -0.4513770884740943
-0.27804195325434988 0.45911534827090827 0.53342423078629497
-0.13608922581100691 0.58910988906510231 0.64023620306126716
-0.71048259155422655 -0.34292573982621866 0.56747218852771308
0.06710450633200904 0.37630898804345736 0.7049935485552653
-0.83377531738961119 -0.39798935866324125 -0.35397547732269918
0.60430819484607579 -0.36478067586475005 0.75467774340748883
-0.58408563446638906 -0.25141658373089104 0.83944046514102766
0.19825108308526374 1.0264648044722149 0.14090478832877584
0.11029169521553017 0.46099649061259673 0.58654467713482505
-0.6508175037597399 -0.29835192754070206 0.50946434646808991
-0.02670878625391615 0.21282202796451721 0.49829056455190079
0.39652827994441142 -0.5284761809420977 0.4549258214471501
0.013674253299555517 -0.29594751304051647 0.89433729207372548
0.37544212477997241 -0.52550216438459407 0.28659316364978682
0.74774081735338127 0.79705100218245506 -0.45161628726147707
0.22740672129820694 0.44642133893910541 0.57040627065219673
0.016801202911359114 0.24471529968290251 0.79945265570960056
0.33606665267479774 -0.069077447980208539 0.57164976156262892
-0.58534633837178385 -0.44719434176256279 -0.20394245735964697
0.13820341079481424 0.044379279027215279 0.57515546713540311
-0.21710395651255676 -0.2544550485236341 0.75689758973803167
-0.052376916581704736 0.87852804661950046 -0.10594955792461447
-0.71911706018931232 -0.57133734886272736 -0.37767093478302122
-0.39095689126466504 -0.69222329604429267 0.48237929001559166
-0.19421716778023379 0.4019130659447645 0.81787543222134595
-0.26810486741527395 0.13065303004970397 0.82925025441196287
-0.5116721926219685 0.17221496681669091 1.0046581728809534
0.10218190905940627 -0.44038861195273404 0.2645026549143964
0.25064791559745903 -0.18253784118427241 0.83845641976828411
0.35813112912908052 0.80402009794772256 -0.27661865578361022
-0.66534565117098166 -0.98958138453704292 -0.51762599736490511
0.33948116651590454 -0.039135139477913583 0.6324151347567698
-0.13646095365247013 0.13299329649970359 0.80440221165037695
-0.49288462220816054 -1.03910320373563 -0.35738640097558494
0.22006529516159956 -0.17234142789260565 0.64745969992679653
-0.37047737627730104 -0.096311951958129693 -0.43387165947943285
-0.75592898458859015 -0.35034798792719113 0.19367714123389945
0.60323547434707425 -0.38540602024194648 0.38001480267939114
0.1181851990724232 0.91191425703461637 0.4005067917468404
-0.6271813946303888 0.37673183705125202 0.86898890912111182
0.58003336081969947 -0.17404801703561534 0.61489633187193604
0.76309896924198739 -0.35447694415422859 0.47347508133891325
-0.31255051067013206 -0.61756349148161949 -0.25196249177303492
-0.074762698080611312 0.1033157155042701 0.54518772060834741
0.30854134439942227 -0.54044314502366353 0.54921972978316758
0.26812426068859652 0.48023894757921992 0.4779467082919836
0.28306904479881556 0.5600403187078038 0.063851401544905428
0.86166753128440887 -0.37068575477141619 0.86148102116173542
-0.47836122419129601 -0.35203645814457873 0.54121819712866626
-0.092512190662495386 -0.48442217795420306 0.79469003706113606
-0.5830352810109567 -0.41029115868785504 0.68378236632061529
-0.27241926617983681 -0.55651498509334729 -0.30052573253643539
-1.1981801510720649 -0.80391988884312782 -0.50263303217306032
-0.52628957715259661 -0.54793659962916119 0.26387433470850385
0.80310444499250033 -0.29714223452007338 0.77514274365614266
0.18819846180236333 0.89436157012762396 -0.1480845659334471
-0.45114121678073371 -0.44221241908466857 0.24130556410499202
0.12046448088586148 1.0985873556817585 -0.23296484468160705
-0.25989672769730632 -0.32151350748124141 0.92621415944794183
0.44984483824048782 0.94245699529889193 -0.47364016034038636
-0.33861784909382764 0.78643936177782603 0.47450604720848411
-0.059672141650329191 -0.026763989432109891 0.83450309911113907
-0.041175670885099214 0.37284900541700328 0.95764277178532242
-0.37547062723530855 0.23545600663037569 0.67418742494379025
0.36565626396189077 1.1486220551405519 -0.43781363434565468
-0.13008837914574944 0.62858155808607008 -0.20411071753115229
-0.22531333190423797 0.73373014932324954 0.58219777105273551
0.28371152222113405 0.11144444541691167 1.1010081310888409
-0.4480137177716681 -0.309936375404255 0.61692254501224064
0.14343313514715494 0.63679157835031841 0.6819059299408734
0.3127391043428982 -0.32305533823710642 0.20314899793268493
-0.66230053458225457 -0.92671313664759736 -0.44243499856039525
0.047513047239534867 0.60318980236725062 0.022846997210813402
0.9854206192383097 -0.30396688187147469 0.4508474028513515
0.047822073328859682 -0.19083165092312404 0.890236756395405
0.32378317615576324 0.063698031302199976 0.74059382056035727
-0.33540821284968514 -0.47005123238871294 0.71682015225136375
0.4431320214524419 0.72462201543670579 -0.41976749965112514
-0.56589891176257112 -0.35601828390177603 0.25113152953838702
0.3187882599230345 -0.1099733875128126 0.65416993637462095
-0.26671118852138775 0.68634911911355734 0.45006161578451548
-0.033341826339790215 0.46918367118042248 -0.14788646862340271
-0.98919677095632474 -0.8479774229567516 -0.31862299163256541
0.028322846772155241 0.93896345125332625 -0.29078262690890966
-0.80238474838034635 -0.74375650825663731 -0.098240612397736501
0.46928504233723611 0.75465976377179311 -0.27380246533414498
-1.045976647208001 -0.63140534570138596 -0.53131819979911943
0.20317716685107823 0.0087679117317056576 0.7044658314501675
-0.27384535131370291 0.24407204070313937 0.87908362660628625
0.26565865014495649 -0.11001256540574067 0.93377879487121496
0.67802505536793589 -0.1939365875922463 0.54749531465973722
-0.041543448574562492 -0.45164433467596976 0.23434594176732865
0.39320621639809406 0.1197114122702776 0.85935607531535019
0.67930368178984324 0.77841985116101986 0.048517925710814591
-0.7296805183084617 -0.47599731560124114 0.65172249509098712
-0.35544604644847122 0.4763986691184996 0.64352546119710696
-0.58216534380944007 0.12793033376441643 0.91187303859857993
0.093335315012216702 -0.35690982835922491 0.67241041602013119
-0.91385340890660349 0.00066470206193325332 0.28695163818047353
0.40529143335803408 -0.40319403000821175 0.67977318098751638
0.77175783046494906 1.1079553089599867 -0.27740065971291306
-0.44622849402100884 0.39615081373345917 -0.87169266584038696
-0.1584512110272307 0.80822957169061516 0.72979620084999874
0.22121673837126954 -0.024475108557025838 0.65690994440354389
-0.74670219293705664 -0.73699162677767927 -0.025727251612545701
-0.66194225135178542 -0.28377766251571224 0.65989698139371211
0.61943761906770667 -0.28068871658674732 0.56762611571372512
0.13959619934685619 -0.052827745262463921 0.63741879824296532
-0.65172140292426162 -0.1549806529204083 0.77711403946628699
-0.43314642821947236 0.10050640398746702 0.64284953722327121
-0.58208467109987516 -0.76243633538293643 -0.3180064837808233
0.38452098264633117 0.44477642035227483 0.59250748825704758
0.8988076049964997 -0.55547415849148329 0.60405520094030885
0.72776924944378263 1.2819325186987807 -0.466288285161501
-0.17687547261880199 0.26971855795438948 0.89690790515010388
0.58572692351414335 0.55457210853505634 -0.39036462079007028
0.21329406483137214 0.97024338257102494 0.10439205550827824
0.3192536069334706 1.3419458764377188 -0.7292011610353728
-0.23110960988873441 -0.39996303624748442 0.21252121107664931
-0.89619971113860653 -0.36411463480818362 0.41502000042022058
-0.47026252447572015 0.037549560141535654 0.89001846710597776
0.61957492239326839 -0.6534154041722311 0.68392134896485546
0.58602987339073564 1.507349492283756 -0.75127960413674111
-0.15524308838197043 -0.11590704115254891 0.58415248573126477
0.30039691053345985 0.061024974156346889 0.70757099633187914
-0.57646970045294765 0.054457811950958224 0.86821642226891138
-0.9838333330073521 -0.50878022336552231 0.34688322498841834
-0.54478217028472931 -0.15375090414313064 0.44483649342491116
-0.60814749416126046 0.4653524291740746 0.66828945049674437
-0.2491707482546266 -0.20272642673916641 0.87823222336942686
0.18475512667134519 0.57360618655821449 0.4158349694683951
-0.55689683525371647 -0.16275025650726005 0.41188701317162268
-0.055416289728561496 0.10720969012333725 0.80571243927632974
0.02876191204329559 -0.030024344097733024 0.94945607970036505
0.41097445717550696 0.029253422519471606 0.63187088485139586
-0.57093557774981796 -0.33135413259392066 -0.42402792998286931
-0.43255143391627471 0.47002635235066781 0.78059567764431581
-0.16718148723674342 0.087604798177007837 0.72397781828694607
0.50709201543766569 0.6481614437239076 -0.28630023582704078
-0.46985091536562162 -0.3350349822984009 0.68779148901997056
1.1079457037406755 -0.58049651746516751 0.74999896948309885
0.63282693947342161 -0.28527731866183204 0.70093548394765626
-0.20851027353075935 0.53124253189206794 0.66784797981913535
-0.26532010726314137 -0.97126860402602189 -0.22471958732151445
-0.47098149791781563 -0.13356389133513291 0.74612558043487143
-0.42950370436593521 0.61252459521455727 0.93717164583248802
0.0044925118156915467 0.97855115939045567 -0.086371937390169906
-0.48769229029404326 -0.42579875123984667 -0.23583071877757172
0.095650721683151252 0.35433142064286516 0.79327684222309602
0.05051850544313008 0.4639846095347564 0.60622700644295602
0.30951675178429627 0.3177176308745886 0.52937915399711011
-0.44053642650991065 0.038067297208090878 0.89546675384542507
-0.69153795691524589 -0.044569070934578514 -0.24075974897042135
-0.16297901075171461 1.0564354443021353 0.45796908526947261
-0.22657129014297772 -0.17159021925255202 0.92025272954732729
-0.16076939925882727 1.1281468505130166 -0.096714714764547405
-0.49769931789265698 -0.18374192160015634 0.37325025969612202
-0.13697164342857704 0.11640346530313472 0.86551217713825879
0.18637516455858982 0.56865272358398444 -0.21030468353971765
0.34158846071337612 -0.7082837243994331 0.64132204254889391
0.58274150161693106 0.97233913563081442 -0.46094585330981463
-0.22675709481005879 0.52509360609230105 0.91602172641070156
0.065267581749111958 -0.3428375296360846 0.63169272548387667
-0.18902785705539915 -0.58002731045081979 -0.25430521180769211
-0.85959972591573874 -0.058141511492639797 0.80650987836058341
0.45652444660657476 1.0583557427671899 -0.2771909132691589
-0.28247483757150027 -0.24130468495659119 0.70507476913701772
-0.87151530216794981 -0.45726965620096993 0.62097350724013434
0.36285860541498915 0.035514179479276597 0.84533929809977171
0.075504930381710356 0.50203941308161593 -0.26857998800569916
-0.63719827716187505 -0.6595414023944397 -0.12628517851304594
-0.98963789017612702 -0.32719806272974372 0.056569244567856003
-0.53346072040433712 -0.070863731424612775 1.0052600554348394
0.067663385384620023 0.98279964964368771 0.30635750632327707
0.11809936286774292 0.93500655353682849 0.041070484021502374
-0.62689829848152134 -0.2644083047150505 0.59969831566713938
-0.77065303951116948 -0.59254346357090038 0.24998798875830275
-0.40993113105022805 0.29627453892447986 0.74042200131608538
0.1046995679035152 0.81877951209929511 -0.25892074398756304
-0.62696796538590172 0.51611585813040795 0.55945020435400661
-0.46933240462030956 0.20665651148508024 0.7049078151187782
0.77708488756171235 -0.45002530394026019 0.79272065136593173
0.14498530868666881 0.043002255180375926 0.65921621170466449
0.37699422181087661 0.41532215141219986 -0.25618896198409113
-0.5120039270239729 0.18900535309365907 0.77494485795041235
0.15463720893673316 -0.051367653466531715 0.7099912804287607
-0.10135114434398806 0.087028801236114006 0.60084822850889053
0.094356262739468511 0.32061802422560404 0.65795915001595906
0.47215896245011901 0.79092677164220349 -0.34131495875682605
0.23032741843210491 1.0907021911082608 -0.11298291430844198
-0.54494172660582285 -0.63191307440306699 -0.17675459201189767
-0.90867407913316967 -0.7845886154546009 -0.38059282795668148
-0.60044620022771988 0.084691408115089795 0.82714947068531197
0.56030131299159691 -0.50377610381085214 0.577529927197443
0.60620716623301574 -0.20540342255019839 0.38436883716911646
-0.1204200900891812 0.17035312983381634 0.77949712652667524
0.60037450925650759 -0.13853326685423206 0.79735215260397474
-0.66599719146213798 -0.35993731840010024 0.66909214879405143
0.13668663872479181 0.36688435229597505 0.85290534315566191
-0.47245650814983553 0.29761828827639025 0.74042845785610045
0.67305743654415584 -0.6414950348121895 0.58914874635282177
-0.30955695457655841 0.60147361207387506 0.80620816253902006
0.17281493686652838 -0.34283784864054545 0.2935548310959088
0.51185043955474763 0.44295101334984976 0.43601603138124151
-0.72444314219910555 -0.3428155762343692 0.50993620722305621
-0.49080994191296801 0.12305872894954573 0.68600144441343591
-0.16053054619780927 0.67907803109743892 0.77464246643333756
-0.10880388443329747 -0.13962624188141959 0.2483216749340437
0.38845048969511176 0.8727189126511119 -0.27399010577932803
0.034142021275029188 -0.046823530667851943 0.72655219549757211
0.26134255592923394 0.45941603219712834 0.39133752233857577
-0.6852310012217776 -0.57773197135187315 -0.27176066954495093
0.11995652838936732 0.11756185726379975 0.5756622293722693
0.10467484836447927 0.20006842302115091 0.62116427375044214
0.34712088774459882 1.0614990389225993 -0.10956792013629202
-0.24113469759350914 0.1934164308722166 0.59187659324699771
0.23646573387079406 0.6383220064015861 0.60515891589186022
0.62780009459339969 -0.48296808630966304 0.89598179894068641
-0.99134602695203455 -0.92200060486929836 -0.18501328589944921
-0.71032761058912353 -0.54941715171160888 -0.44525147091042611
-0.34040851036567821 0.57619092965744223 0.95362912419997037
0.099169455769482662 -0.47671236767698999 0.46856828982455845
0.025568472722627744 0.61734471143747949 0.75868091463294207
-0.23167841816955947 0.056964811193578768 0.72167200880093663
-0.020477585143395372 0.47792893480319298 0.58488269163352125
0.54122030317874015 0.79713456221306389 -0.39946231554998646
-0.20549334262335428 -0.49185087784464709 -0.10842938082995085
-0.25656406805394938 0.13624570132282865 0.40064079652501938
0.33658078925932688 -0.35107151056698505 0.78874525165480203
-0.0078860758179128965 0.33551555961954915 0.46991232892127832
-0.80786059125311693 -0.14024815889785858 0.11366388676208614
0.37061715533671191 -0.39936787765963766 0.50484172387414428
-0.67864905260148456 0.54264267628261065 -0.082865244956445649
-0.51306582428951208 -0.12103019567216755 0.38853830447638571
0.28328074304904116 0.2895818918047095 0.81734097128226468
-0.47566871258484122 -0.37081479272618312 0.67958560982555816
0.45676395379511359 -0.61075998903005924 0.34479217315415983
-0.23682551318594713 -0.10699518608327452 0.8056623651154361
-0.14617761057007361 -0.087258751859426997 0.9911359158938815
-0.43203684397745001 -0.072387528170518634 0.75898070199097845
-0.29988727886725286 -0.0069139567773861543 0.82848641866617756
0.26765091004277863 0.58511421415096543 0.61311745755020164
-0.95608420653749859 -0.8852793003351902 -0.68331428425185048
-0.22927036629658626 0.36150619649856397 0.42760541112752426
-0.35395416706764049 -0.55496251503622851 -0.46267834096960347
-0.1292616156868811 0.51431073789735815 0.60310697528538149
-0.11581051816615084 0.26974363255003153 0.74925812824942195
0.45282854412737539 -0.1655859218793192 0.56155939938235266
-0.89849563893830742 -0.64578456901822912 0.41348807203625726
-0.09301780141898397 0.15300000745158138 0.38276064981309943
-0.13915327864368043 -0.15178833035476291 -0.73073780807428479
-0.27437860607789522 -0.19361934584663687 0.93033883801139694
0.33880669837392507 0.50881152572669608 0.090444531390450278
0.095891904502379832 0.012520896503179557 0.95975300623060389
0.36924183317496262 -0.057966024565999197 0.96775240996859446
0.62931383974650901 0.45283940984456605 -0.17849822042696417
-0.64762492667455251 -1.2109666669256456 -0.90514002354368306
0.41314701970784418 0.060735104465807321 0.69931445852795815
-0.19601612731799678 0.49414847122598582 0.76192997386961181
0.64289001020296899 -0.35982261129711524 0.53774883824918873
0.3461738521803539 0.10658756556551152 0.22534533788913674
-0.33365565043996193 0.24783235925210723 0.67704136084706201
0.26715266442833063 0.5046111372300579 0.33456154003486616
0.54589919154019828 0.88697951011759679 -0.40728996946867879
-0.82745305461428842 -0.88842764849500044 -0.42411814524265001
-0.017232517844425255 -0.16190041889357776 0.58242768907776377
-0.52794010103838029 0.012778712083774346 0.56003476550692999
-0.026246392964234033 0.10468109812892301 0.68233741519489322
0.2579133349714724 0.77181633063572552 -0.089014784013301984
0.46652451830994646 -0.33923283382339275 0.71129966334072225
0.24962962897402208 -0.35783811948815547 0.57969790197694571
-0.26623241064828185 0.22438559287583559 1.0458952175333092
0.43880200501488087 0.5050889316587257 -0.4133278534426762
0.42912080618648485 -0.45112118454405681 0.66225571084892265
-0.96382511038964402 -0.68525908743732367 -0.45654956500137178
0.43784170567365188 -0.010075196468732894 0.56748272499129737
-0.40708633322424126 0.21322701225797935 0.81404318582466384
0.084659364669085635 0.050250895256295447 0.31029502218652316
0.82086883883971673 -0.251305983737246 0.62107736298058747
-0.037342810531121984 -0.57586542130355522 0.33849607227162087
-0.21836945887932768 0.27696673762105228 0.82072106371286735
-0.63884453414739995 -0.057835613135711395 0.70032573822181032
0.019277303006728363 0.46402464820616052 0.58445911381665627
-0.004874349623873897 0.16170105728508721 0.81990342443642705
-0.32513158754357452 -0.44704050464498302 -0.69621842492269326
-0.12291569189804763 -0.23652637326823589 0.91881143195156567
-0.46906100539605355 -0.6922998747703395 -0.6297691208145676
0.1369958313384082 -0.40881984116896453 0.82889195578931596
0.060296672604647883 0.33113647794787848 0.7650385544721352
0.2300572506040377 -0.075543565574141214 0.67975058187596471
-0.34068661359942176 -0.18546545072201726 0.9243813915627952
0.21850739792311247 -0.30425335232836304 1.0736258750571632
0.085482548971346883 0.84034291220218815 0.40987578067736924
-0.72929224913586999 -0.14467835238026083 0.57195711034243391
0.37316101077332364 0.39169305884740346 0.50275436826185071
0.16212504325918209 1.3738943505085435 -0.40168460021555008
0.11728691886015463 0.27719103720875782 0.65705009270328951
-0.5274858597821388 -0.96185752760916365 -0.16715484703169164
-0.69574819369101659 0.20542594010094506 -0.56026205660001449
-0.16004414070523731 -0.076627989293357457 -0.74489094318088678
-0.3137299859697279 0.10749243029946687 0.9537772814031179
-0.75831982784144902 -0.23468386476243519 0.46594141871741501
0.98829718095302832 -0.41389710699289628 0.70546608425349211
0.71698246609525706 0.42458513613949078 -0.55903923685416779
0.66545612274418897 -0.39544146007943248 0.55775758311084012
0.21870747113514599 -0.35130552558927142 0.62435152996526866
-0.31600037849049378 0.018914856676288894 0.91659127642684868
0.0019595815582906795 0.15895082820543882 0.94970400813404521
-0.94255148537896716 -0.31738948311554505 0.2362790189735105
-0.37034443894440039 0.11690004033731172 0.72145531346492231
0.47827017889521972 -0.24204413419191173 0.48574483971315224
0.83001678828074543 -0.63234520376480252 0.77353356098219617
-0.37300830278005037 0.19683650795197916 0.89769541641605666
-0.656321113555008 -0.61175671071349691 -0.34267033798189339
-0.15966233718205558 0.27630883629345782 0.84660026051823134
0.72444550602560187 -0.51284524598515491 0.66862622492346091
-0.13736303489797264 -0.42790525703585924 0.71788640961686689
0.61346102279497006 -0.79424429720131484 0.76466909163853525
0.424041342790201 1.0302144636956314 -0.19394819156467447
-0.68111010397604888 -0.71716719933693374 -0.19532788446771371
-0.036478600209042478 0.68855443703841979 -0.16503071660279733
0.077447217852048666 -0.44389782674159606 0.48292353989278758
-0.46203268684079046 -0.36083385872201656 0.6325865580054546
-0.025951682278493982 0.30326738896207184 0.52137031919401966
0.6145884507991406 0.49246510341056604 -0.12342755285619977
-0.96995983580078737 -0.8737370634209638 -0.64630044496654193
0.47223603817380444 0.71006782528270418 -0.29564338653253819
-0.22132058096252727 0.13755752254628595 0.92111772893726407
-0.30414837740225886 0.2374526962977479 0.81974329484725272
0.027400242874955572 0.36407491283128923 0.71331407536932268
-0.51540319997662865 -0.87423032654741006 -0.1845472352503377
0.65044748199899383 -0.41451036390107343 0.81961977118712648
0.77532841159181476 -0.40721006007703209 0.71080390772147761
-0.28092711721924779 -0.83338111018990801 -0.30668291126804975
0.18269121168039426 0.7233192175281149 -0.070353026627728021
-0.074993823503656465 0.36334330558803574 0.79468715591000127
-0.74873315617752179 -0.80703019285904798 -0.6654081318545082
-0.35707164347164488 -0.11610998254616445 0.90335148592782089
-0.86924982758346969 -0.695127317577517 -0.36153687014411462
-0.66760228871968019 -0.84608107617319783 0.016064127184396718
-0.14541905552979006 -0.26069057702397735 0.43023394695067074
0.1713089920005626 0.038242988420415402 0.72182674161996241
-0.21489768624211025 0.20616217317944407 0.97316959438853279
-0.50705038626734245 -0.015325241860370875 0.45473181188725498
0.43513012405013662 -0.26247791869803838 0.013270169360002027
0.71137091020359922 -0.97656532247689176 0.78323631418391526
0.60037501794305304 -0.46532291772958789 0.64006507659562395
-0.19374783427068931 0.12553108615294861 0.69161833119106797
-0.78841027363241656 -0.3290202947203531 -0.24451310982189231
-0.12652159372884153 -0.26532614970809432 0.70688213980989967
0.79690735786262823 -0.56701365102019397 0.58954944344927895
0.40544448476362049 0.56843589859647525 -0.0042736525123419078
0.43375128560031317 0.81707198651950042 -0.40787096665281741
-0.34752667609333665 0.40326101253268587 0.70045854816025799
0.39272401833278581 0.27247986220940557 -0.45312235374374932
-0.65323755759224811 -0.55900120945835496 0.30137319912709981
-0.40042187267462714 -0.85419540624608103 -0.19758392872032743
-0.50823899760635682 0.71089838923544368 0.43649440396931694
-0.75403353049359678 -1.130365029377 -0.83255051525084078
-0.041516690607225515 -0.02545878937155388 0.5989517208342966
0.13007482094138401 0.85836324470190917 -0.50962750157542402
0.3187366277871817 0.45571930452367249 -0.061880519837071435
-0.32196381373365768 -0.55787597924223875 0.49271624945781445
-0.33609490492128669 -0.20400699272626999 0.67750990630274677
0.24142115313301438 0.9855279932559563 -0.29180248357998018
0.42553838852299064 0.56239855032258146 0.40621201705921284
-0.95486031893201651 -0.9556070543942814 -0.46984975922101824
-0.35252938232979658 -0.11596172379505143 0.87676392461070229
0.86572413715491126 -0.66498416105399238 0.52512080804652217
0.30395877951902361 -0.72185801374840208 0.85641550525057197
-0.64322538948868679 -0.68602598328108289 -0.6102662247816788
0.82105064613631873 -0.29372611903042412 0.55825237697227736
0.61127133075879736 1.5861109786581344 -0.98878933247088319
-0.32555243703529824 -0.21752782969821816 0.7975905829782588
-0.2155584530705732 0.14468408433666125 0.66570998617764643
0.3133430587845436 0.74631221524154001 -0.015356133831118002
-0.10658227294652778 0.47806035560786753 0.55004145747605016
0.011994296702321217 0.07174140277822505 0.66648170229205517
-0.51777830668005387 -0.89688585107855467 -0.15727938809656172
-0.35141330864164622 -0.72181778894649429 -0.14023372884079027
0.27124635416025655 -0.23300467432958594 0.57083566261878549
-0.78667715915357672 -0.86521813367075717 -0.17176660617596279
-0.5922200650335766 -0.19089279690632432 0.418868489563825
-0.16841694211121339 0.21753191783000436 0.81506968898246934
0.33662138760862126 0.87351394603177934 -0.39217024552540591
0.49341964503747882 1.1807074297151718 -0.2801057067919881
0.13191198047950858 -0.44745848016056766 0.40978116553753741
0.57774542718001975 -0.46153075970975266 0.66559071890316712
-0.61959940802596503 -0.016518116867705324 0.98047124947660436
-0.33406501713466463 0.32615942050350211 0.88202513352336487
-0.58858236642742079 -0.38252563303729303 0.29879868228266626
-0.20963307415495969 0.43125815376866172 0.8640530737640516
0.003034269824043756 0.28046310545755393 0.61441579789522383
0.011039638616897163 0.11690993391368543 0.61692865109352846
0.60450320346990571 -0.31671357059513361 0.69656930792989291
-0.61889809414409735 0.22821502842071761 1.0505626048211374
0.70716494499397142 0.38631904585032362 0.51071890492753835
-0.35772077160841675 -0.450574259946948 -0.21780552494578037
-0.14748385613879789 0.19735724414260547 0.60996764778012713
-0.35115009247941542 -0.80224724628396427 -0.013150805571563312
0.37946497064994422 1.2072235914403113 -0.29527419654071541
0.83152106336508336 -0.21278504226455031 0.53074221142814582
0.13396329931210316 0.18099762151577803 -0.52095189964096511
0.29876902014254969 -0.53500800366560086 0.24378964917655591
-0.025705788958748199 0.95476904110679783 0.38770336739064881
-0.10921383244783578 -0.70531847732469855 -0.31706873645174849
-0.7165765908654359 -0.56063761093248488 -0.20114601058452194
0.077258788466559869 0.49897818055622944 0.65205742090811969
0.19778139797029226 0.1269885725494162 0.49851872351019694
0.61517575843247752 -0.26664654189856818 0.19861984301017996
-0.3261404335691972 -0.23469470407432391 0.78961287141420111
0.35832645804717433 -0.033189329939791179 0.79910802005933923
-0.88399132901561361 -0.9412231674451752 -0.40205669805455213
-0.042995735324626638 -0.76342035224165983 -0.019039689202023438
0.26894064400174278 0.07609410495685287 0.58773181356605642
0.54217471868354816 -0.00092008491900452682 0.682666452865063
-0.15470871960652333 -0.20668932332171441 0.74001171669167898
0.30467709763262607 1.3379458204432282 -0.7013811513783198
0.74985452379167672 0.78965407391371767 -0.14369274202864024
0.59279049672778106 -0.13378311760260719 0.46920202813784639
0.29567569402646465 0.01347276051853652 0.52442982067773325
0.39359553760637156 0.96132780072347468 -0.30843799480677525
0.1931339778053196 0.46236514134465811 0.50173807344911447
-0.52605654031132842 -0.42364506260262358 0.27137299412149096
-0.92814624321657013 0.19334137964648845 0.80705023615967875
-0.4476613282264762 0.24289239517771177 0.77244396039471863
-0.85139115287301903 -0.82535661635574109 -0.39469554301527066
0.14863378304040564 -0.35656550711291812 0.62806895541434493
0.14199707012012008 -0.58830912708244965 0.72693231219359244
0.11554858533496803 0.28922309354161979 0.64806857067049251
0.46760546181729734 -0.089255202126733213 0.75522118476405242
0.2032632712232374 0.083619131371267308 0.75480214965311387
-0.26622567325163082 -0.51018987183342346 -0.43279069994814162
0.027367220164027373 0.7867778046054692 -0.5023384233190934
0.6668376845371462 -0.32994725650720635 0.17252860580657653
-0.069947993305720546 0.13254244553138794 0.47783465908842937
-0.047878122411200152 0.24113594579531639 -0.56189607062691194
-0.78831915577514922 -1.0715104155396118 -0.69329425524945898
-0.74108224574881321 -0.18048502793898602 -0.51742149310600283
-0.65602364639151989 -0.41130141958783351 0.78127644699688736
-0.50432560183883834 0.19997716270696819 0.86499561022303917
-0.35677752527428175 -0.53988089747757129 -0.5266483199896117
-0.33990727263669962 0.37332567094222235 0.52089047926821519
-0.56709818395307909 -0.19148509554085225 0.47603023639306741
0.30908364132714805 -0.58100907454766371 0.14777991571919458
-0.91244931867816637 -0.67097935212894178 -0.41919358070863205
0.047516183684534585 0.06759983177272999 -0.97135022030781237
-0.48043745574432339 -0.32150681296231909 -0.6612164938280366
-0.46569037538811853 0.2275197659976953 -0.82638650637759037
-0.4867869206365526 -0.2715250109747831 0.40437863601063384
-0.48412520146386906 -0.089879090014432617 0.85658785678816984
-0.74720940673577851 -0.98687106146068082 -0.77820825136622895
-0.85469833650377769 -0.64661492464081727 -0.63172387689854348
0.44120529293776123 -0.22744428218611423 0.84041168672780175
0.18691034893686487 0.23083220937117921 0.10190306747460987
0.032637625884654353 0.7566884365378006 0.72844283345443384
-0.89792596978615802 -0.2257228210419755 -0.24195363789719354
-0.40290964291839182 -0.75333588799625639 -0.20432976449555831
0.31114559660618468 1.0390497759884521 -0.21609356925594281
0.43640907002175866 0.5534139694004091 0.47710019350098526
0.53093713437886669 -0.43022610962429608 0.56736088706663901
-0.93558020319560908 -0.63359152043124456 -0.60651306023053597
-0.57850442985469952 0.54453095235920301 1.0134294102478636
-0.61352057188867459 -0.50366248807197178 0.2508175825912517
-0.29560192967104149 0.4809116814655503 0.62151191512595194
-0.52054143684924403 -0.19950076328484401 0.91333001600852048
0.29265377837031603 0.45289560720239153 -0.40316663132115182
-0.074017413577000868 0.032222395129009707 0.64590516245393859
-0.51960726179416283 -0.32883466054545529 0.41892741313840043
0.23451352543780324 -0.21361979449489699 0.39019130863162566
-0.017876711421999314 0.79701399008157314 0.65848638715058705
0.30310302395841693 -0.10762757981927096 0.6446247490622008
-0.35632857960339237 0.5702699350007443 -0.725630280803651
0.10275332216035737 0.38567067155280199 -0.33738147242362737
0.026467851020139488 0.59930581931791282 0.68902995899359609
-0.0045881436901002992 0.13169948680188082 0.64483968286569437
0.73844209612785905 -0.46877064666002521 0.7114469531008818
0.59746066449753987 -0.39017878305030473 0.74027706949104466
0.31554274523526282 0.47352171057514592 0.58791029605516709
-0.34403197177473166 -0.22935968856897682 0.81405076638392182
-0.33658383202497522 -0.80173346430953574 -0.34055383489576679
0.5883328849741003 0.095875968545813484 0.65724729824492634
0.14791172313575029 0.91831580539053981 -0.29253465899122733
0.27259267964923017 1.22218719668688 -0.46719589378042525
-0.82686315475394367 -1.0810470035470243 -0.64891060802239986
-0.60912639465099105 -0.49812864456520201 0.7202214198090765
0.009129107864304542 0.86007753901499129 0.56004096567510731
-0.92885520342514261 -1.0162175867083068 -0.36783666620856259
0.34634037124018113 -0.21015783475552152 0.42533520309699774
-0.19582824421144651 -0.37737099869142399 -0.50971498384269054
0.029983325531898197 0.22361126345983107 0.3394112866342186
-0.78257657714956275 -0.62802817761553387 0.50315967163651998
-0.1384112235874535 1.0449264545709249 0.65222184841511899
-0.3268834114128476 -0.24363617621845512 0.69666769274989881
-0.24404838668267459 0.4540761876971795 0.67947671469481385
-0.72868420692266977 -0.78442417098266581 -0.60479873507803372
-0.35429022019164491 -0.34133369352036835 0.82948005742667918
0.25925687815647336 -0.56890144799298659 0.59894731636761678
-0.64479443937108594 -0.10407140378642055 0.64574046632945736
-0.60842295409171765 0.09212227802091677 0.74296101501385614
0.55639221138592765 -0.43696806483128459 0.4213100199706214
0.16449004883523033 0.42564938804751562 0.62765930266272341
-0.4427887213881303 0.093040541411340216 0.9614125819246534
-0.54638641078134476 0.20662103361688122 0.16380187074549973
-0.41015660577722302 -0.42462339217870926 0.15420106478029938
-0.49864801782095536 -0.47554093337609116 -0.19039736914001326
-0.69332113827926489 -0.86766898969001582 -0.26986006151568243
-0.34091968073402945 0.078527012221686121 0.96154538331994654
0.7403325984715583 -0.023347303930605356 0.64401165905794977
0.075339558246919847 0.28854732693141005 0.44723523069286758
0.0073121625804093426 0.99922600839603626 -0.018367425452300634
0.059898638512653202 0.65524534522994449 -0.54947698059984695
0.36577791375691171 0.49813567637228418 -0.064589283593752267
0.26022838122755654 0.16080041597331851 0.39904012010657275
-0.48922872855381083 -0.46217946756460293 0.0034291045589725788
-0.30797502376811825 -0.13115494008762441 0.86884177166051102
-0.20713646366992622 0.61125919896402248 0.95159947301376113
0.26463187842287583 -0.13950668748621609 0.76347098240365829
-0.7474235164680354 -0.8168545196614907 -0.43988565740007823
0.19808846719288209 -0.11460292894960511 1.0527474040773772
0.30331597405690958 0.015720640319240031 0.73731164245182601
0.042212163624560928 0.92016462044540304 0.59784285435581908
0.29935231252512384 0.34893460741085947 0.69870452633323255
0.097938619678468397 0.74253202602958623 0.35260436535416917
-0.74051262756484404 -0.15705227773660035 0.66109003674234923
0.12825835984073009 -0.070373587495614176 0.30112948197579137
-0.032536217839185255 -0.073147123316015472 0.71154341756889616
-0.71268418745544737 -0.38611445546843304 0.4585103676330623
-0.53449494660975927 -0.43525712252735516 -0.42436874272599218
-0.61302790254061956 -0.58098838274283393 0.41112736896412683
-0.79667907064064003 0.29128270067236361 0.66983786952097446
-0.01367610216416093 0.19898892810108326 0.77767124680147015
0.68903798840723618 -0.42271735968687096 0.63352960822748439
0.6473758598067666 -0.45931485643132608 0.41485075166226204
-0.002372319715763016 -0.52687835971639485 0.42416069941803308
0.6052302446854666 -0.58013779597232462 0.38548285361966345
0.62988395716054191 -0.25993683490576269 0.52853775851212326
-0.56394212937622024 -0.78505634409399327 -0.21363590545650107
-0.50590536185066304 -0.40493266230585689 0.69939532310975072
0.88542231534551363 -0.51682450611537334 0.99414854184459256
0.46908138156796109 -0.82742116962819101 0.48089712636908938
0.10342812760165887 -0.36774199007372244 0.48698916411897591
-0.65918608755275632 -0.057032664063837002 0.78245096747481502
0.62922637899083 -0.58029870834846053 0.54196531503597822
0.031679706085837811 0.68213220871258251 0.32646462654156061
-0.89506475057035306 0.45677186538811199 -0.084985953950047877
0.34402701177878159 0.3311020954273165 -0.37076895075139937
-0.18738435490795591 0.11158957140458758 0.84574068227643429
-0.31857880468389532 -0.042443919264347318 0.47100362910026988
-0.083998366408474023 0.91078905637672236 0.61467526791706883
0.35325325777742522 0.80424065823659885 -0.2929988102295199
0.32941734489328844 1.2624330319543717 -0.58087329077696093
0.030643153288000713 0.2600379285286496 0.68135097514647058
-0.33743663447155803 -0.14558471889701874 0.37274347714853245
-0.47065559330791729 0.17827957780536297 0.84816248881733036
-0.58636905023799557 -0.25569753713129195 0.60949947252353986
0.44227853982056597 0.54340518623829404 -0.47768868420854349
0.11075725520645108 0.81738459352125203 -0.149361483383883
0.42726258344897783 0.66006454390433977 -0.48944136956954054
0.34631439652495377 -0.12683854221933388 0.76407546823339223
-0.010688530660188711 0.61301437406954173 0.75029970644021393
-0.97747023682278367 -0.60191984830443612 0.30621328931481345
0.45932480510467233 0.16094947840591889 -0.22029551648499468
0.56281499150110592 -0.63979609935968851 0.63850622725517281
-0.79688385399334782 -0.37891023510493893 0.74589458398908759
-0.57175839358166125 0.24954411336076865 0.56302476779503674
-0.33999668562468432 0.71018551728988211 0.47868668420654581
-0.95261906998460899 -0.54840166849141836 -0.45093694904268788
-0.53913765092224253 -0.42682869717808258 0.62641632747564602
0.09003358798271166 0.015155074518710343 0.6222108753772444
0.4697272951468684 -0.31052629313880087 0.88417154734240977
0.65278465972996547 -0.6885694691231421 0.73625434812154134
-0.55932563294281601 -0.93045820762467701 -0.39191614397319852
0.1272101287205285 0.49719159793324896 0.86629082518122769
0.66342878862906707 -0.27645614893467374 0.029014612800869199
0.27665204218931883 0.80784736394475876 0.54543172148291563
-0.18049971839530143 0.36043695024901412 0.70427771605091305
-0.86087131847682241 -0.23706954330770591 -0.39586713538302915
-0.53386056420276662 -0.78948401169000637 0.0072541003225627815
-0.31561895963016817 0.10979326626009867 0.71151726884677202
-0.50240838653559505 0.17008229647700257 0.3448399822334447
-0.16141971948396905 -0.43997949648903178 0.91912128333086318
0.27993631308089806 0.85944942202627095 -0.1360655343834728
0.32125233550085897 0.42541844801806294 0.14884207029869834
-0.35990947251935035 0.33746566845196235 0.64792058520441198
0.51043643881887313 -0.31854439764585774 0.62589910693289197
-0.33754422368040682 0.33163675177282093 0.921639955482495
0.68569694736231035 -0.44592189590605047 0.79210507960009813
0.35583285680642351 0.90941886409052053 -0.5413176777408637
-0.51588614425357904 -0.80048318647440486 -0.27139832082867654
-0.80861288958644661 -0.24224864705874372 -0.23009286328952572
-0.31103465574068112 -0.58795904355288187 0.65430915475245532
-0.86332293067320576 -0.79742699104106629 -0.11774939642244098
-0.31389538491549662 0.11658218877028648 0.49082048029879266
0.49377328198077963 -0.61435320360525769 0.81068831802843766
-0.041579008498273451 -0.067194054055865093 0.71513934224865761
-0.85098495805704544 -0.8942808308421859 -0.31174954099411967
0.73919820864222197 0.33365648675342463 -0.13742856222937783
0.34510195815420786 -0.16502026320908847 0.74816641766828429
-0.49848974582382133 -1.022936658542092 -0.51050537037794741
-0.36629493302046012 -0.23255079715590865 0.91415292635876377
-0.91083727724178098 -0.24703991350961196 -0.42201690725801
-0.39922971365508664 -0.55539124013855901 -0.078644192165758936
0.44510629943509272 0.457035220625853 -0.021374683440542053
0.014696702348167223 0.69637473517416471 0.43257820533192948
-0.97770768161098842 -0.26883529084036928 0.4633737443147401
0.49767071421058329 -0.306973722189128 0.75434083416624076
-0.65306156083536293 -0.93290612099916581 -0.28729365418255215
0.80286062747347819 -0.22188015158302044 0.50589399854031503
-0.068150708349730804 0.0078333355214605938 -0.21728566965554097
0.11750253452558423 0.12932048279305586 0.31142670825297419
-0.015640252280076927 0.50273716136225644 0.96187633347270685
0.1375909490265419 -0.29709717961834081 0.80951693117931911
0.28373190703053563 -0.54910064559179395 0.45866993180901017
-0.25507151038687048 -0.074568467996757537 1.1032418512520517
-0.58761360886545355 -1.0061905266112732 -0.25481777454146082
-0.48464690237184149 -0.098197421054471379 0.96507627730722989
-0.59588123212300825 -0.83574651247820042 -0.22355877463736248
0.35157992946878358 0.045546117671470432 0.54722598959843594
0.8012748579454394 -0.55216602789607894 0.72780861245101613
0.35988151952408565 0.60295224543833781 -0.06923053987168204
-0.67931933391343524 0.1974540258019204 0.79443164470424665
0.25539196511997964 0.24575382669673984 0.76516767972920008
0.79067548288416756 -0.5567254540641231 0.64928728535172264
0.4359050239137735 -0.60321441792729602 0.4022683442363657
0.059248526949343017 0.49497867970532483 0.11854091270449096
-0.094732562107267881 0.38559330051008955 0.80843373879422054
-0.87157402632324021 -0.91576952953238155 -0.64122336207944508
0.078599525430059547 0.0065730942071784426 0.78045041247652069
0.44990641915050555 1.0158802859177891 -0.33128141998016192
0.4626076875449292 0.48200611215888478 -0.222649101343527
-0.13318372074135487 1.0790337172355369 -0.13150918112392607
-0.098997097127959011 0.27959770479875146 0.73240152995817753
0.74075304334750447 -0.42460977366459951 0.26691505199435073
0.44555113271572644 -0.24550534708677119 0.74667442976239284
-0.34387093674763292 0.1355149468425183 0.70715282036452232
0.4811623774789604 -0.3325650487635412 0.95558685362225515
0.49831557083686606 -0.49585642728712354 0.85154537111483153
-0.78944944594717814 -0.62212662900335491 -0.0099632191012462568
0.22134984401611724 1.0265882367358472 -0.29509966666776877
-0.71266522302017254 0.34395337846498208 0.51201009738572789
0.52985688143620679 -0.52613855222694572 0.69126656320698499
-0.82321595667258674 -0.85420921290508423 0.15441831313029897
-0.16373012985514079 0.68945619374980693 0.49154078291274006
-0.2900751555107064 0.45510752293004963 0.50623234163540887
0.19826018457430861 0.24461513478329189 0.66137472844962342
-0.11853890297603686 0.065147141847612611 0.57556492615882959
0.16778674502079793 -0.18098678456629713 0.85263899881694816
0.77222941557758329 -0.36204709407095792 0.7350607535036735
-0.44145355143485632 -0.8758706859133143 -0.2392499743537139
-0.73698122703179614 0.11925218013840899 0.85906860009911434
0.50344523986124923 -0.49771542979357708 0.3494139739692369
-0.78829403565669642 -0.54648926061877301 -0.16767814538049647
-0.58715858748051053 -0.35729128185250558 -0.2173489025874753
0.22670741961975205 0.042726119016826214 0.94701137739725794
-0.0052959875060829553 0.36147851346993165 0.70889514430291733
0.32015858533363506 0.027491373743238068 0.80185943039106211
0.15655649656414949 0.54912380117362636 -0.039950088216677671
0.55240982234359759 -0.18391228967734863 0.08108345995238303
-0.25565401952976785 0.57207241642456719 0.68493906287305639
0.70640281518359749 -0.11243837255026801 0.65005482664677949
-0.39369747648181386 0.18721514732610967 1.0796894389846092
-0.017259299241091375 0.81428925163582688 -0.59095908683779141
0.29606408632453141 -0.42546092711893824 0.87387590261029313
-0.43401038104471468 -0.37221744210416285 -0.2430677985575011
0.14285276220216936 0.18393256540661862 0.60247462658320106
0.89484999098262086 -0.5311699629408293 0.42026772778405613
-0.73530934967546924 0.36370490251268583 0.17172920446901663
0.37291285354332326 0.022497795684003563 0.57226212113416941
0.19410496899365937 0.17630716810372316 0.55742811783082835
-0.13978257933063376 -0.15455127601448049 0.31471939082499129
-0.25647370841475969 -0.14845278831840991 0.036662840189861934
-0.83167094411660081 0.33549348506923915 0.34605187129359605
0.10071388540286885 0.17885512489010646 0.61388583792744389
0.36064684772706368 -0.039990850193438732 0.57375741291798299
0.35662366174333249 0.15480629436575311 0.66175233494171071
-0.60575980346279157 -0.37139088150681498 0.032969830941529332
0.023871249691459706 0.35996338638458947 0.90785640748972041
-0.058077948741616314 0.060418794632843165 0.83414002918119756
-0.49305567161190256 -0.26923051261148023 0.64011679303879587
0.31963812502604783 0.018356762333336718 0.8687656818678976
0.10446808428904331 0.96199558577167532 -0.38525709514941964
0.87635685488409221 -0.34278975480417784 0.34337011065229894
-0.65552567305015241 -0.30498427016212926 0.77644771007887559
0.30403086824414871 -0.54320240428628885 0.63874194616849711
-0.42813420049226547 0.71232372272036204 0.3062986280687604
-0.86456004965199296 -0.0075585642654647511 0.27551366962025148
-0.24818890954552564 -0.6258959796995045 -0.044897952408276876
-0.36640477044311037 0.12293583098975858 0.67929008491010645
-0.31395703335778247 -0.062350260666226731 0.85779241262314165
0.23232073601884173 0.55107424717075926 0.14019376249643978
0.04969661338618403 0.99737527398271308 -0.40701948461435833
-0.68093189448007263 -0.20988688822676882 0.89874647707702282
-0.14421476335962047 0.22683940106775635 0.52463108839658568
0.86560152403866464 -0.4826945559465583 0.78028595206222362
-0.6313494741759702 -0.45957357226803497 0.56702621075770077
0.44210919622318512 -0.16988675414342902 0.5763177736133811
0.10246203541280297 0.32253806613266112 0.67622184125295925
0.24095592373609698 0.56827676239371594 0.12982599658905047
-0.0095972526335852404 0.74407857719953152 0.1752568972597992
-0.1371831452041008 -0.5723875219167438 -0.46911066224491327
0.085900984746758668 -0.31339019406334634 0.50136457747677421
0.64228481573340312 0.56452354719053222 0.26192346738939448
-1.1383053980460991 -0.91023385965258852 -0.44003441317246317
0.63981016605940288 -0.48167743301073118 0.69231062077491612
-0.75893181789608133 0.27993939040132343 0.79896433159494962
-0.035752919720212661 -0.083829418564197011 0.85040244813253096
-0.5871729522667215 0.21806304162392964 0.87318561141918793
-0.73583555769139852 -0.051553660220379882 0.63044381544112915
-0.41233386659422666 -0.58452841018079549 0.11700224587978808
-0.69384076923946603 -0.6649936620566872 -0.26219617391492217
-0.037883079163555378 0.56378711132526593 0.55801676783851439
0.21235993821243104 1.3367936884266225 -0.51484375711432129
0.091091593346666055 0.49711743374328399 0.53987414270882617
-0.91465336054045709 -0.97732998321675613 -0.45455972233576847
-0.47093695586642403 -0.27634087809764973 0.86045411941818062
0.0074991908539538965 -0.70881513970894305 -0.73522964110441802
0.48360302067367078 0.9536836399577755 -0.72850195889579639
-0.6346822237088755 -0.17087363179216108 0.93252263021083504
0.45548188333206263 0.64371991686565178 0.12533972125540171
-0.69714688739041442 -0.83977778316874274 -0.024458440968900638
-0.64278709443287796 -0.9129216111970655 -0.82986625104703249
-0.48233303712770248 0.44001032855760003 0.85906081561094971
-0.24887696808931836 0.33009644457190768 0.68352033138017076
-0.55831656281412723 -0.87709216700506931 -0.35929509975817431
-0.35767930643898382 -0.85472569006717958 -0.2888229253996944
0.065210139442192006 1.1544374212601514 0.3191935077362259
0.69473859604412014 1.0369636646756442 0.0048910981343305293
0.32850675441795385 0.24678093314575023 0.77860196063623377
0.28771846255170908 0.31399797686368625 -0.46994507457983364
0.58214848488230597 0.95805394537085042 -0.85273083659117499
-0.034700800398198117 0.42770732254588517 0.82933023225194535
0.38951956310822089 1.0451547002458252 -0.17058280556590577
-0.57161330680428224 -0.42611691396607676 -0.12189092437552684
-0.6625142833484462 -0.85429585439619049 -0.40526006641096068
-0.29740687811751876 0.056934204550123324 0.76865931637169216
-0.65894412784227474 -0.65002287934332981 -0.34773454164685957
-0.13757912475566503 0.58590898836228145 0.83410770443708637
-0.03449452778209805 0.47795279579132122 0.90339565277210776
0.27946845357011307 0.87898354595749351 -0.18286067214529145
0.53189525558523165 -0.11729591392617555 0.71187969473513113
-0.14052462730246895 -0.077015312510498646 1.0067364295701626
0.46082877774422859 1.0567776852610122 -0.48614325308010831
0.31707477840319487 1.1981430678561589 -0.31865294609061501
0.52260593815989176 -0.69259673067769567 0.35071085064730934
0.12453662554668821 -0.08172560473572954 0.55388317077675908
-0.16421170389908024 -0.31817594817536698 0.63029988098694445
-0.0094063734033253965 1.0034970587220704 -0.18563315466803565
0.075790129665538553 -0.13232960648847425 0.76123273113966605
-0.54366485830001521 0.22526554233481666 0.61602757117120455
0.54395765215490532 -0.51571522104733125 0.3574700453175404
-0.65486569212635248 -0.79008125484357716 -0.36832188026970014
-0.25366791546166034 0.67872079980949729 0.81294271475194768
-0.34644600801531256 -0.40933766209422151 0.58873558744200871
0.26807901147646418 0.62530703874814142 0.26441636565809029
0.016179064041958124 0.16389235196688623 0.8447876501687418
0.20430093070345756 0.21006639332763344 0.67732314851416064
-0.68419748238735401 -0.17675816234022168 -0.28325352322863473
-0.11772240402889422 0.074671529509975798 0.45977455250222926
0.23526617195263144 0.16519617470345738 0.51574547963488215
0.095305844584447019 0.61644074536009463 0.37103984296448483
-0.053511217916941467 0.34588632781821271 0.68861192121816872
0.55527600685141976 -0.49240395686332117 0.85029842617287943
0.51741843905932017 1.0887715857020397 -0.68371654728455367
0.58399690118989622 -0.20131402503392559 0.44778939707723597
-0.093169825737630108 0.050281106516039342 0.72264936027864524
0.44318867150356289 0.15597160758684669 0.75886671591803379
0.5925597032508132 -0.11177253282127886 0.63672976124196434
0.14588781508885074 0.4122287832622975 0.39056470111942054
-0.27709210679151997 0.15181124367010246 0.63834538882597536
0.46981935053863322 0.87003678780745841 -0.40497111157255183
-0.37371487464813824 -0.058256267643278958 1.0440197124445021
-0.80292652459055303 -0.35522481201189149 -0.4720589132526225
-0.36273448680419418 -0.1648543385811605 0.98695345349216335
-0.14729225266896795 -0.18818961060172823 0.75554855093334927
-0.29796923285926225 -0.020913488226104393 0.51793290299639749
