# XYZ point cloud file
0.010259847524129118 0.24043042225446576 0.75532954094782634
0.037358084340406439 -0.25396539832977039 0.36338436940238411
-0.68865050609829892 -0.68160997764517661 -0.84180454597684196
0.10993835229777904 0.51634757692158795 0.7510822881704402
-0.49304995381124095 -0.51362369255068041 -0.55609152563271258
-0.39600074469642088 -0.380471842122939 0.011086146193013624
-0.54719105470976559 -0.55394880580270744 -0.14971384373744379
0.01083097248183007 0.37153566745381772 0.63933794006879774
0.34841745833058901 0.77456284764684447 -0.7470039168517969
0.62404449212002011 -0.29714395274606303 0.33286816794913365
-0.34412684751275791 -0.18327663975596464 0.35351084505398478
0.20759242937515465 0.64276269354405491 -0.30816478491818766
-0.3345737084340159 0.31743320338193898 -0.12334788526482243
-0.54360742207353607 -0.53299349665377393 -0.19301985813179695
-0.16481372186845045 0.31978253104574916 0.71013544500112535
-0.14350624648834143 0.17668967465827423 0.94233439632626248
-0.064292311921230638 0.33094682023160604 0.61601552769931411
-0.16173714516978865 0.31061209935503031 0.78043873556194376
0.62269235031159442 -0.14178374350102357 0.50692273272637189
0.045256892034678531 -0.32234196726196152 0.53141453972714836
-0.055707493617449977 -0.14142284028870455 0.6313958217890917
-0.51872025425070678 -0.48567236515417178 -0.058124499915291922
-0.033107599117391473 -0.25033889123317188 0.66107061353055374
0.20568931481354347 0.69523236816615053 0.27822933184831966
-0.61304111835682895 -0.82492367698617464 -0.11138517248767218
-0.21713377977587078 -0.15885412292244711 0.83218523259378252
-0.11875523100760033 0.82230067965793707 0.83917136989787511
0.75900168979209537 -0.38145441812883812 0.52764175921626499
0.55610524275256734 -0.10684132193706497 0.39541137960005612
0.42673658160493588 1.0878799190462467 -0.32236701803649637
-0.32234523457914377 -0.12450835068788746 0.48238064739112269
-0.013391278777780569 -0.061712319485212663 0.87835254200548407
-0.93351152220923228 -0.66628841886463885 0.048362089839143252
0.1990598791350171 0.19905706576355897 0.50501218748516219
-0.57432737726934535 -0.52890152967649939 -0.21535963386379742
0.22412866417871946 0.6500417331821895 0.04318429002951385
0.34935256033045858 0.34570029002300057 0.48234997816391079
-0.65269816631211253 0.23626177508740734 1.0089361836864739
-0.14640385566463499 0.50540590731815904 0.33532366949763615
-0.58877968653918034 -0.1844305042512448 0.34476626008841393
-0.51806944182555514 -0.11943836865438029 0.65367082482613881
0.16263639372071403 0.1062595654272161 0.70381904362241876
0.2037319400551787 0.60387545984139734 0.075223682550108251
0.070527904505788719 0.064402242375765972 0.62899058584671008
-0.77727891146597727 -0.81557166971219019 -0.078269827828236105
0.060077258724101412 0.73464414210274698 0.44372332652572
-0.0060808123514313195 -0.041305424650228129 0.57079115225103849
-0.60833570205892284 -0.31379594556919654 0.62025064176846234
0.14046295102987905 0.6906631157308416 -0.23906276993297848
0.46652519721462449 -0.23451323313408606 0.85129357912601056
0.38372598927180146 1.0892448597729438 -0.30505514284354907
0.2320918722076486 -0.13309559629222756 0.83959269005578063
0.55242279300391117 -0.26937495016140983 0.75486495012370591
-0.47256641618054585 0.23254676947246938 0.59565584368422098
0.088341053932206259 0.63699693054093098 0.30189105350170986
0.67170337129735014 -0.46698992403661377 0.65382983739303158
-0.72175030658107953 -0.77179750598878982 -0.027678499280572755
-0.31799164170148697 0.098398136833435401 0.87939813500691022
-0.030751719114857634 0.4476354005386885 0.34576531593043003
-0.67416686086793964 -0.70849571596657479 -0.048043214891013653
0.23434740167036727 0.75337362346315639 -0.44206581378539511
0.3022033881576538 -0.35947146782297401 0.78072960826854243
-0.46837162467116356 -0.17667983467643966 0.50777624707211855
0.2524627177754406 -0.021202905948615236 0.79147583743968131
0.23232085667636482 0.23746479106335555 0.59493048093119949
-0.14520006936855467 -0.11203799530079361 0.75399694042898513
0.60575725759162991 -0.4549690458908584 0.66612009194191724
0.30555678431494204 1.0793618196146311 -0.0078154710339979339
-0.22043886215136554 -0.089868874126465881 0.61502319190919774
-0.45805882773433648 -0.051453807153681252 0.84398082254654405
0.075752447723052452 -0.12603846383265516 0.6088892237680994
-0.46413063015878042 0.29117300162634768 0.67056378990653154
0.4519919278874418 -0.23798378577293611 0.66215873819450877
0.18726794228099308 -0.22152344594487305 0.43834139005571648
0.20540152445941673 -0.33347023949115939 0.46842666229662644
-0.38448766204454254 0.25521110164221961 0.66246478776242645
-0.49159132023460184 -0.23348930722969036 -0.19643955670602797
0.44977550976868241 -0.54440472845512611 0.53972200354633681
-0.13218593541638701 0.15549357936303082 0.83633004036365166
0.43037145072338567 1.0413808496381987 -0.27424757449820858
-0.57592400804579458 -0.53987225478913015 -0.14236206059786716
0.0023866818984861204 -0.0093813983865559392 0.74128997365653237
0.010824261542705216 0.014606137208622083 0.75110415651944074
-0.41377106624687388 0.20568772065008339 0.67602904266461161
0.19652018823101947 0.55532407224806546 0.51224279050204813
0.19807624358323439 0.71408453102838787 -0.12397606755161594
0.20009550279578159 0.87927028186418577 -0.63686241383946562
-0.022579321392897866 0.21807170853122326 -1.1214513042721914
0.76994126984301681 -0.22099019143187076 0.54863500020346057
-0.02504823033480208 -0.11711227395818086 0.69525280204477502
-0.72390737731196797 -0.63987019105334331 -0.18718151171100575
-0.4963607467411022 -0.49544283207096101 -0.089632438508451609
0.13692819794292199 0.62627318123761955 0.54487983618898872
0.18433686828870377 1.0474001052118336 -0.3967767624591737
-0.72140542313977551 -0.91996690541200565 -0.23801981402565209
0.35354142900447338 0.021184674220233013 0.74797409435616702
-0.26469181026331401 0.23381180962807824 0.71025275896506912
0.29190051552934193 0.16491296743511219 0.4534338920521116
-0.55950125274276208 -0.78886869955668593 -0.13871889830670459
0.24998506475507587 -0.066942328445392496 0.68344906405175543
-0.33012411578978074 0.18406409370973281 0.6277668060203927
-0.028383341542957741 0.83020786433511318 0.37826393368410305
0.15082283853427847 -0.41318264564395485 0.46217433410565084
0.28433374932868527 0.72937921837380326 0.285511151738853
0.532295080041994 0.2302156021709546 0.037967605784530956
-0.64316927007033309 -0.38376436899208671 0.43299187165989328
-0.51430412249913693 -0.56175503270735438 0.14836931095934658
0.28808202857287424 -0.34271500981820485 0.66406321958681147
-0.050595114916071271 -0.25037037355081238 0.5819231910283309
0.42458075431499176 -0.25876587758067565 0.75960357969694925
-0.82227757604007201 -0.84005269649797543 -0.32771037681436666
-0.095023130263519162 0.37552980905791078 0.57077245092375228
0.60801781926412679 -0.46608853301436193 0.63402211844211276
0.12397239866098619 -0.29022334832215579 0.75144600081972945
-0.53002805681313614 -0.098939359830613249 0.82224021618302745
-0.18853440398197341 0.26926308032878565 0.75989824018883767
0.4829930011702912 -0.26868485376579992 0.68344792330964188
-0.15298523909863482 -0.52004562677436639 -0.06318756282375082
-0.31752095621399579 0.21412377787639675 0.16609521573470221
-0.41499745739896898 0.075422474503838099 0.75986992160204858
0.074147381524738987 0.44996250982180702 -0.49861497599132154
0.21544264924838319 -0.34744880348697438 0.59837731798079785
0.32993282283919378 0.48985755704046768 0.044316929346493672
-0.27093518037949194 -0.069342691146875524 0.66989271601175038
0.39589949115348166 -0.15708748505312448 0.6545734527800785
-0.41411030478272304 0.1141356458551292 0.79726887413781489
0.025823518430402093 -0.25637683755215224 0.25001267056781845
-0.53203713024414578 -0.34723005115262856 0.013673539267925597
0.31799024328338032 0.044474521950310986 0.71756120020164693
-0.2079525149245407 0.12418241870736771 -0.76969105098909341
-0.2188998150605812 -0.081526845378499579 0.77036736346399737
0.21083099686390205 0.99524345932823166 -0.41197675727484429
0.4561113317137715 0.061669084722327072 0.53067293342136046
-0.025172772815419631 0.57510148873942946 0.012852765413405298
0.15182105319427741 -0.19592061688335061 0.51397033018434191
0.038646952385944733 0.64188205824516609 0.43154056566105836
-0.14574931353684839 0.13825960111793251 0.85337348830590942
-0.53872866685751908 0.094584572416896384 0.52358744167395421
-0.19842499052961138 0.060037485552113246 0.89930710174989059
0.017999856006918113 0.62648604478736358 0.60299897061656493
0.066738511815960244 -0.1248651232065921 0.80578952231661294
-0.34255427903876345 -0.0038132337118558235 0.8128299744886327
0.080246509127298138 0.33296043899951894 0.20938109443947583
0.16646615190040803 0.22814713616126409 -0.12697431612342491
-0.1421564592540232 0.60510765069245109 0.64773858485585678
0.047097559288288737 0.083898426131521653 0.19952857413143599
0.54069906983980343 0.47587978794235208 -0.13885963647630217
0.10575230194061325 -0.012822768385855055 0.53397738462741073
0.49035284944887092 0.98956821680434204 -0.39093053644662357
0.20217387537995379 -0.23079025653807111 0.62653981516343393
0.0021559092791056944 0.75652873080920391 0.39533009207462289
-0.17008757895632298 -0.071161764743757572 0.63414863933431198
-0.021335831055997012 0.12387422928119024 0.71724016059104678
0.13378368221379922 -0.44600827090096573 0.55966783545218934
-0.000114831352634015 1.0749319218838298 -0.081599997369214083
0.37222752084286248 -0.028436464682934925 0.58572625405899004
-0.49888612774438279 -0.1738847737784423 0.66091582454801667
-0.23514776014657879 -0.50631158109519481 0.058690298396152585
0.33523231865901371 0.55595342474031662 -0.027903781511445791
0.26238330964258783 -0.28337541745628869 0.74242429070153382
0.027010623081648921 -0.027648104820501118 0.59203183053642494
-0.48938993957161059 -0.47873265278846566 -0.097804450541578214
-0.32561943932585158 0.065027428935563264 0.67200396271163687
-0.092801983578006952 0.34496753602209029 0.74634711835535805
-0.50773768538283215 -0.2500717393729619 0.64751324774148655
-0.41727300428580549 -0.18024346730349983 0.6261604723628601
0.51156452216600867 0.4294127044296821 -0.0091091588127993894
-0.4829605967428241 -0.29693290483469831 0.22061049951374931
0.42322674628437917 0.71207458694452042 0.087385604563693153
-0.50368594669379219 -0.45881895421941915 0.094036081546706604
0.47084570576019114 0.11976339223504767 0.44326718800125531
0.20653479409119546 -0.10113958539095397 0.65012492257145471
0.10306073683910455 0.55546201966880182 0.10166229329135335
-0.80745583551786981 -1.0035574208697442 -0.4847877976698558
-0.021336523473358238 0.37728823281625734 0.5674641714811729
0.4018547357994785 0.7726153230921845 -0.26974238296200848
-0.14445847618896468 0.64504704887923481 0.082794116169463305
0.28562390891324985 0.71883924226087037 -0.33900031674360742
-0.33896237840521315 -0.49545333479852338 -0.36228790573040331
-0.57390225288045049 -0.12759975835467016 0.50046819581213631
0.42630618958316779 0.55008707191211537 -0.38510033449732783
0.35303688485971152 0.76718433019077703 -0.446054955931245
-0.16120593472313183 0.45652019920593678 0.5989596578089913
-0.032208046138230584 -0.1493593318123696 0.62565026568255822
-0.3427782747955459 0.11658025960298141 0.67977678689330412
-0.38020941348461723 -0.55766429518652316 0.085141262728230235
0.17950640178141986 -0.22768774973774181 0.68011177950095947
-0.6165709321656947 -0.68840055260380284 -0.30441859814315192
-0.59043570197620365 -0.10766577639502561 0.69526405115273726
-0.30203959680921022 0.052997214798797487 0.65484913183166227
0.3553146842738063 0.7900810694418825 -0.31576368090868767
0.0010663264918544524 -0.30836065752553854 0.4327780417553263
0.30254468914236132 -0.1385000993250019 0.85578846090368599
0.3831131834268835 0.64804937743821567 0.061882000552530791
0.2273515112604898 -0.1275081705813198 0.60237998561957262
0.22695052992041143 0.85594898483065496 -0.2586750462373526
0.30238124118130083 0.99627419438084286 -0.3489584164104923
-0.37479519802474326 -0.26852892580997512 0.43887936005856926
-0.62279707823808161 -0.42699130585781142 -0.41636130854653058
0.28118655444169494 -0.018445249888942861 0.45879189541751553
0.23113986151213917 0.043010846115129009 0.53525880786250435
-0.26874371038121092 0.035008203733809196 0.7764513206334529
-0.66603177153302662 -0.71363480226640641 -0.2377200766684294
0.025893388542455265 0.032928327289251991 0.60643018163824869
0.28316442949123277 0.39621234785009984 0.25370479160251569
0.57517293032815742 -0.44675598207387501 0.72058266385369829
-0.13795172184758719 0.1273391539860706 0.83858825775629353
0.018050172419992627 0.41858640849680551 0.47344379604556064
0.2221868077765079 -0.1757167673030991 0.56775754024558001
-0.24344241830977897 0.13973299734424727 0.77009470324814555
-0.8298779861312362 -0.78889928326440073 -0.22588389928713953
-0.66295613011583332 -0.27439197875674226 0.28631484750284514
-0.20872151282111284 -0.072323263516974046 0.71436930895267226
-0.61046788143827357 0.29010693978061292 0.60233421883742899
0.39826684479886332 0.55721443828664885 -0.24178702561995591
-0.22279993528905639 -0.41830950695031971 0.43774569111961525
-0.5649633288918805 -0.61476016935732147 0.19804567439091006
-0.52749254633439246 -0.62636600105431661 -0.51111696466347101
-0.46725757017567826 -0.64154280330796132 -0.086293908349241458
-0.31129869513507136 -0.17466699772175687 0.35291735948848035
0.26932142617515598 -0.0083105432953529124 0.36642533486463946
0.17961846916693269 0.49458999038891382 0.51654071169596871
0.25909200436366819 0.62860758129327832 -0.051557522804230427
0.5515421328017911 -0.31633552994535652 0.55801859908913376
0.18851398989644585 0.15926454205933316 0.48965282005936528
0.14434186919782954 -0.29882427963233793 0.51821579315295485
0.72546840067821983 -0.25795268651667191 0.64415857538628885
-0.55754399959289058 -0.54222247371692023 -0.0079624993615365208
-0.59043722795115738 -0.22767179666056636 0.60804204788617988
-0.29972696439463875 0.6053077580532249 0.065171786170574175
0.0017423111803742675 0.1114629086450083 0.74735830024712546
0.2306587063300114 1.0957918104413749 -0.32320155551991103
-0.4869337231880404 -0.17569220402590735 0.65168140723626811
-0.68956515477323599 -0.21433481386825015 0.55058671266072445
0.079667596689550813 -0.10489822972052149 0.45960145830031085
-0.044665722375121897 0.48629551454726649 0.7245592155058439
0.26351701536620042 0.89982973074206651 -0.38909649309529648
0.42157071302284344 -0.030314386495074785 0.74263932171314828
0.22318346265676037 -0.1688034155066746 0.73830026506860214
-0.17419093054287882 -0.14836043463106435 0.60085277721013353
-0.32820824994647779 0.033365667027523083 -0.61314086698048587
0.056326884204452865 -0.12921685727101528 0.34875523972391298
-0.37471984715197904 -0.16958818375561691 0.77905812887451509
-0.11536016147996397 -0.1584699761633544 0.38247589498943646
-0.43701931925280446 0.18786257454203675 0.84592145648768602
-0.010793143861887122 0.067650926687744917 0.65530096356730905
0.60743324861484838 -0.18959584000191843 0.45990774879032092
-0.4134738112271763 -0.47507172899175287 -0.033207286248576107
-0.59447303941263985 -0.65591694986968174 -0.47517318197594605
0.45295479063344724 -0.35646130058281872 0.75688791898191332
0.15421808961969585 0.10726906187285301 0.48088182086661257
-0.54962055388239572 -0.62664813414758103 -0.69138368101002778
-0.46505410091987853 -0.39736406678599001 0.23593163635121034
-0.32817004013177731 -0.022935289507805046 0.74219453056356621
0.39756197802466531 -0.28928649663531314 0.75782281797016371
-0.4676459757903193 0.052082650808012249 -0.20624442582086225
-0.48771026183267296 0.01128936826639515 0.40990923859799017
-0.058276883589302608 0.14554347131462558 0.59591185731377427
0.13652568658715292 0.35224366675252972 0.59649850404071991
-0.33121549291962959 -0.24438528735195947 0.23151851081965158
0.76183095009920709 -0.31546566389526398 0.65439754030951214
0.10155871874211275 0.57359322046232508 0.48309186272221327
-0.18078960088313512 -0.1720152596040222 0.68646582714889948
-0.44741786021428909 -0.10159273400509272 0.6644976731131933
-0.57301506131887714 -0.58023704569862899 -0.17640015287493852
0.14194141574623043 -0.016687834281070957 0.78225410112026916
-0.38179512934397808 -0.10498367010069631 0.74503766046920639
0.41524408819049685 0.39400113415653271 -0.34286262760331399
0.35126414245018878 -0.18345111467341463 0.74599447246004769
-0.36020659846054071 -0.1492834060932835 0.51329668089866498
0.28062750753798782 -0.12466158713117231 0.80698553032123521
-0.51539180390928152 -0.077876433153643176 0.81857045631997205
-0.086285414796404059 -0.038309961171124896 0.78864758949046943
-0.55960716492039064 0.2491752358189317 0.93299900261593605
-0.087235240947340031 0.65549292630127087 0.65625272484854968
-0.26357406952958362 -0.33327764915294888 0.34961603954737946
0.040132170268754042 0.26163978369437668 0.66561641228233293
-0.034459422435239251 -0.071427096137643253 0.82347855277597892
-0.39226178743568108 0.60915051355650718 0.76500623460763051
-0.30250414167530471 0.14670167404192697 1.0303990475365283
-0.18922611523529986 0.38925458596753282 0.67793985895913589
-0.53488652837738671 0.48217840533967149 0.66129325661690197
0.23432363220117836 0.77715711082104111 -0.24435991841028748
-0.47751931754737487 0.13670262907672087 0.70840517965143124
-1.1166812988968979 -0.79413436144400995 -0.5197641832060037
0.008414086406770882 0.050332535430821612 -0.58254078685694455
-0.016094042071088444 0.16510563864834432 0.75536987976495729
0.37818764189417531 1.2767666950027476 -0.5588999058203411
0.1168508489133262 0.54518442398224953 0.56214017276995976
-0.38763083634455398 0.15484142861922257 0.52622917233801814
-0.33268827803285617 -0.08846186760937208 0.66648480613095329
-0.41071927234148164 -0.21442375918853196 -0.47330006197354824
-0.40528681394106125 -0.13900863593001161 0.68544861131402013
-0.44034513463192848 0.029301326778822689 0.72607363660134705
0.27617585794119437 0.11411092330152134 0.60040380737590227
-0.73160658215299157 -0.81339930607846522 -0.14364291600142898
-0.17391444621539609 -0.12935849458528298 0.75588684726810829
0.36099760874121822 0.44740536522333052 -0.22743942758741975
0.64817300517527809 -0.27373840192773274 0.64127031061995354
-0.036761930273822685 0.42755525614859313 0.75894112119091228
0.47643171818072738 -0.39672002493606873 0.56779617564268425
-0.24649094681067885 0.20618212439663985 -0.38686114786802095
-0.12000991499212277 0.17726252201099851 0.76060396665899987
-0.0046193197443342715 0.60755511328559586 0.34664080952349163
0.17271855331734232 0.62856526305598459 0.48240116203561023
-0.050979896630592769 0.10570457171110775 0.63421945523677925
-0.44467278150710032 -0.1074273542526083 0.84854080102378082
-0.047458185503268524 -0.10239516707330104 0.70097600073786093
0.5170133938904683 0.68234489396704934 -0.26637243580631298
-0.314046772704619 0.11564718668220486 0.68977321492731325
-0.076044130739683302 -0.1591612973850845 0.026278004484936834
0.032779695611679482 -0.26779667883785213 0.73265192707011328
0.22627346782623281 -0.14579336700725903 0.76917989881087001
-0.56438753013525078 -0.6098570728255025 -0.47440167137459044
1.0503977771593331 -0.62083804487147753 0.58505815236527003
-0.65822333131798572 0.02012721469718376 0.92307059455408191
0.39099681571491329 0.33968040756107654 0.22749733690501084
0.078990866258798365 0.4699719132685819 0.64842290965897664
-0.75355700275829518 -0.6730400557874181 -0.44462731873067374
0.071358036814351378 0.48089889575504075 -0.17180115184774081
0.37379580979585014 1.0894954983697815 -0.35193237273714972
-0.7407110131523813 -0.66352184407308867 -0.023142581906987703
-0.54320646680496365 -0.016070138477828705 0.63642525703674413
0.30346892593355612 -0.2141422803252116 0.70982614088658735
-0.25952653657062252 0.43339434377848829 0.46120472256035105
-0.44124549621502407 -0.17344575587743585 0.15841182377453344
-0.79545230110650511 -0.84511974233446752 -0.34696093317267296
0.30042177622790556 -0.22721366740379156 0.55832304605493932
-0.12334955290474015 0.26128038089283323 0.78076906913296162
0.36960516529925325 0.92421804048564382 -0.13153670153456321
-0.075529300499294294 0.58649787461746183 0.5253971604922576
0.21080616848653877 -0.034200914855510245 0.62480915023850958
-0.23975001920689509 0.10414660238197299 0.70864831561446595
-0.1383104069015737 0.11326833399238617 0.77441976775712518
-0.14076568488476848 0.13390823675237751 0.86831666103204608
-0.085418718643056613 -0.048926920145922204 0.70953045623414401
-0.35859812383012502 -0.30947097631974846 0.025534986099713053
-0.26822804814514445 0.078556016490258229 0.7718599614278161
0.019680635284013093 -0.034939068075637958 0.917791506952917
-0.64939708642406324 -0.58810855757694791 0.052145054717035733
-0.14346906382359292 0.50596625263043926 -0.27706766108964442
-0.31375710433941806 0.43676794021972398 0.79825587523357311
-0.61101721236063367 -0.49847560698498694 -0.5631703897057152
0.26577915852402501 0.79590586355386406 -0.19086077834212933
0.087751442343045882 0.94789948969338467 -0.31638583396785747
-0.2601594402703622 0.24853257122901234 0.72201372703873257
0.24780471807336668 -0.0012269509901535747 0.68796996432218971
-0.81038808439450394 -0.76892114463390726 -0.29039021622851036
-0.16312557314406617 0.3412762756179275 0.72252193946035603
-0.5284826146787982 -0.54152409812956503 0.063526262375473416
0.27522819088369266 -0.25321827438531386 0.57920708561946943
0.17483592839176199 -0.099117363589841023 0.64108444345248872
-0.71531311859720637 -0.78064892389889085 -0.16406925909874273
0.51553472535123368 0.82434949179214301 -0.3446393722804485
-0.057775852865248112 0.85532647882440505 -0.53453057833183737
-0.069322999717672751 0.26730434629642785 0.84442845832063251
-0.11263623918409182 -0.073196327480196 0.62776841005975892
0.7105479207475911 -0.45262003382482591 0.57989407926138514
-0.081139531840322299 -0.21470785251230146 0.54085004337835951
-0.29179871695963366 0.15222167986227336 0.61777998179202831
-0.42379254800319144 -0.55999215483843412 0.060590438401596447
-0.34702960908190206 -0.42508204764399343 0.16421872581023678
0.9843099463855679 -0.48510113982794084 0.71958101725936841
0.30858042197060409 -0.095976291682238313 0.73380386043564139
-0.15821290585956471 -0.3071689444386087 0.38505576130194846
-0.61372497750213384 -0.77479916103275337 -0.41839498745708953
0.13682769119782723 -0.19858746954349582 0.78178861935492561
-0.27469604887913746 0.068591521944295658 0.55357935122941937
-0.34506371376125045 -0.15877426138354267 0.71288450957014071
0.26671265354420814 0.12553838485117286 0.5561458327211134
-0.91661457896547605 -1.0383166091281635 -0.9106209061450945
0.02516529031635617 0.8486006103198811 -0.01652569233984158
-0.55886375477167483 -0.42065832070132392 0.13876092070783683
-0.014654345807812108 0.44403816605685537 0.61555897159559791
0.47409921944672995 0.33169893383577509 -0.098002013706467439
-0.064317264014913 -0.2990303451579891 0.65302576934848178
-0.65896424358892158 -0.84807542521921397 -0.10437606899182306
0.39031396872378454 1.1416099531941044 -0.47474966971146171
-0.51291905698440332 -0.58513487386202367 0.037315045190311862
-0.013428945654269331 0.7112546470592257 0.62523811051616973
-0.046579086671470593 0.0050508252526268449 0.69156999847358325
0.068605709794351322 0.13441354295335534 0.66632328869745483
0.37666268446411399 0.9838242854570296 -0.57733229057130142
0.11409399874470005 -0.27961124042036578 0.77415673207558355
0.024400217572661642 -0.16346698691315742 0.67239582738585713
0.34635307259572756 -0.40788724913825358 0.34732566562191136
-0.42440344245715877 0.26421869506885226 -0.03841102528043952
-0.50836945134728762 -0.051962855195826052 -0.29309411388658302
0.17381927312196677 0.81262932183709169 0.24884133369101236
-0.14986191030854501 0.80750269149797449 -0.20743150916791353
0.080597121201611444 0.91718268903395694 -0.42729662560704229
0.089583829979919649 0.39328370056138917 -0.13873615093598091
0.21541336822759649 0.10797456549739731 0.59526078141637728
0.19844625971991214 -0.3545856473706705 0.56199107241436952
0.42564236427258972 -0.26534595901987423 0.53796887014043349
-0.077633120140742529 0.34214969368123732 0.51572684011715775
-0.38151662524358487 0.19522391419451876 0.24504825349799164
-0.31307283726925617 0.050489170385795479 0.80546827573126656
0.51095036253276038 1.0792545902020649 -0.51126177233093517
-0.023913374892718942 -0.11815283335512072 0.74868374924779024
0.16144552031392112 0.27546670021036734 0.68421235596501861
-0.1875149177229698 0.46794467941077084 0.64099542964781497
0.08948377700825938 0.58883943675128236 -0.36591813138192708
0.11699080739192924 0.68171974907614152 0.35763900268843218
-0.34808864976539278 -0.16814069786496216 0.70432649832489957
-0.67498199723135888 -0.043335996681179989 0.58650452199036929
-0.19128902941731529 0.12554511620825004 0.89165081270888502
0.24757542260529758 1.3118021290471755 -0.70700971651770772
0.082551930119908912 0.53380250713760347 0.01494250646472306
-0.31023135650254452 0.45220378271866829 0.66733624453676554
-0.16570399755040199 -0.21647767721706446 0.57055633162663244
-0.080672231722715315 0.10398813678270996 0.66319392567475488
-0.69747529214290416 -0.6393985799296561 -0.23973911091909317
0.3098408433916835 0.30245088657535368 0.41325230015491998
-0.064528195221423612 0.90369089624955756 0.66403548930037648
-0.1827260099124095 -0.063970494356296648 0.86222465694271777
-0.55129221792404159 -0.66859470647128982 -0.34108115717075016
0.30720077605099716 -0.29730421267275114 0.61869204219304441
0.23264840303309398 -0.080750726277854068 0.75969812982147578
0.69209080784485955 -0.37369708116566719 0.80063455728934807
0.40936857617846201 -0.44441362454665945 0.49633998966341264
0.11710151961159188 0.19523839567471224 0.73539830009628882
-0.69933987102053008 -0.67522499301213379 -0.17588234940024317
0.30185684555222836 -0.14234097841003196 0.54887860276612233
0.11361921109768081 0.50002331612729667 -0.33113104128654181
-0.066586133046671714 -0.063189067725979819 0.60275461939413555
-0.5526239315796766 0.058503711760303223 0.85370864832498672
0.40252872228815573 -0.22664641717633172 0.66220603326190952
0.84270613405108641 -0.41623496639169477 0.69796419510432772
0.37381507346248388 0.090467352989108962 -0.04246296215871348
0.13106738397800688 1.2692108898306422 -0.59780441341949164
0.15306892493612345 0.55578479245172119 0.41291034195003795
-0.60106257576715216 -0.36041761048014864 0.20517443987651676
-0.50822569248567895 -0.52461176939794285 0.18625141707467413
0.60891316592881717 -0.34806692228528502 0.72430877118329862
-0.055179783917396863 0.78490411659740444 0.57630776923397176
-0.059129232934926224 0.026482847465317483 0.65267540043911398
-0.41639133047095189 0.099395108322258369 0.77822881862665261
0.57892090812221153 -0.40097775769677124 0.57581394798602814
-0.18306446526529663 0.17944470275166907 0.60333047538425388
-0.53463190426613716 -0.10153726667071061 0.5642622851747372
-0.37427032402859584 0.30171702020610436 0.19627857897762352
0.26945340512105131 0.50056700345849181 0.52336467265585096
0.28288367837306994 0.094529535247182106 0.69720374656205208
-0.21200779557704763 0.35706429083006008 0.42698097524492701
0.22261410863175846 0.94112142652574593 -0.32477047228281575
-0.30275116491476606 -0.44798214733583008 -0.23191619069398331
-0.16140974015973053 0.33521560869135403 0.66485541281798055
0.20177113125554391 0.21249438927110098 0.048712022399439281
-0.37333054213726435 -0.1097980282830846 0.66631406095407952
0.081075333311082298 0.50456724467815428 0.54063763666974762
0.086770261883500011 -0.13719459876292844 0.73867382111999602
-0.60722023916950896 -0.99534318282424017 -0.4627328802124705
0.21912661643644293 -0.185409742121873 0.79491910894850515
0.18868889912242282 0.67647194685089795 -0.33442502440274557
0.063142447157914949 0.69837368010230882 0.33186795868540686
-0.57092326951464489 -0.72047430396930268 -0.6935333514577644
-0.056970944095106724 -0.011537476704173988 0.52511224071990548
0.30511797792929218 0.48840277305033908 -0.2206226228973317
-0.66350700360420256 -0.64610272420861214 -0.20323746604364962
-0.60286415541355565 -0.17353505489523113 0.61477585241901678
-0.75508381176820905 -0.87054115338957372 -0.29868530996866388
-0.78794043804808456 -0.90750633278954629 -0.61748664661822827
0.22582776328540555 0.6773739794897552 -0.014277154864874353
0.40315651191343416 0.54092153166652956 -0.2362818121198127
0.58339610394638663 -0.18577742329176045 0.70199628882413823
-0.45696279890809999 -0.14215848073355491 0.83788076612516771
-0.72021039726920444 -0.23021225010441754 0.58546331951868336
-0.31922344998807795 0.15213798785388338 -0.46589684373532414
0.30147774211431777 0.18777110858395263 0.44190253875166063
-0.70148916083559953 -0.65314646227292805 -0.19277787791707351
0.015906671737617506 -0.065749533757451295 0.75667696310434596
0.41744860751015755 -0.29255609620298823 0.75744375271645981
-0.2297166388738503 0.45621410067926826 -0.14309522872512648
-0.36493163337304058 0.010166254990403023 0.84920473069950919
0.20569102374293624 1.1955568592697274 -0.37685062227645483
0.30344139998014508 -0.41560279559910707 0.56252914366004836
-0.57586138946554577 -0.54535114507137583 0.29995290712029155
-0.59919370934339589 -0.68355397732061129 -0.59132137240969795
-0.8097490852038367 -0.95916041513722317 -0.86840682043632667
-0.44557845425620135 0.0058216839283048438 0.52245634629988291
0.43692609612018307 0.649014534497109 -0.027551653294686673
-0.01475972773782952 0.69766944148060928 0.3375692380342592
-0.53098864876484453 0.12529497899552447 0.99308625812901286
-0.20817787742803584 -0.37662177081698828 0.58278067873439132
-0.45919875551335121 -0.51421503306350269 -0.028428462249412298
0.36639875666299937 0.92701799241890748 0.14326887060447568
-0.48028268756839587 0.2682964831436559 0.55551571361478014
0.7026603075240998 -0.44404144755280955 0.69167146824527936
1.1793569567921254 -0.49304313297166813 0.63478938726870404
1.1075926453283433 -0.50523871078854221 0.67019390627578412
0.39905253647235184 1.2220076327447154 -0.44633529641715852
0.21368941935218277 -0.35066207363322882 0.81763630774911267
-0.43033635607525023 0.010316351251221878 0.68470520349021924
0.2993425534759282 -0.31402095629200555 0.69865391672935029
-0.21427826041337594 0.485819486763437 0.74540944036883572
-0.27330068014633513 -0.11328562058954372 0.69185882164928136
0.20608654535925508 0.067246918478841844 0.63278988373030776
-0.38278131252443615 0.024125026281764383 0.64859017788298767
-0.16924514634265786 0.16272185009856471 0.72552185356253762
-0.67647067907859215 -0.7447625125518571 -0.67579411798938704
-0.77191849973266846 -0.64305866894617769 -0.5663775607085505
-0.5044274990779023 -0.044995486260366202 0.6809615236568759
-0.28412017842638893 0.1411717551254309 0.70838452450155898
-0.037943483767324704 -0.25609826775143285 0.67476101615787409
-0.11598715014764216 0.24543972113819734 0.80462398416505188
0.47802275736691713 -0.49576668510954641 0.48141040856964479
-0.62421977937377915 -0.56972344290532018 -0.13650002735633252
-0.21419268001166825 0.56026163406148655 0.71120754579704926
0.10706648591413881 -0.32075344709852677 0.69404657627906485
-0.856685669799923 -0.87577724725665818 -0.36448728351942167
0.15502048214146047 0.090220744131767505 0.66734918783822672
0.13517594376142417 -0.25654336275472761 0.53758164370196193
-0.17706145144005148 0.10460710628247338 0.67884287996535786
0.3259366592463685 1.3760385464523026 0.067598868172298543
-0.9721383236808554 -0.91651309864321795 -0.38246057012668688
-0.25115237973166304 0.26032321254571167 0.79735364638464246
-0.4600093703544359 -0.081051434658954313 0.779267603288747
0.25178239575867201 0.81437999150851526 -0.1895278243967482
0.03902342964630523 0.40001535246409209 -0.12825387453634118
0.94936572150255971 -0.40230722806517988 0.56242960622067817
0.62575111282613061 -0.33614700453947066 0.73300524048441695
0.25253267918009636 0.30098501575506276 0.015804451179009527
0.22104095061793316 0.67835718079680096 -0.0037811336619835156
0.68460848653275141 -0.41089251181940356 0.53417061568818214
0.060712341833512706 0.78909605827797757 0.29769897014014479
-0.16996661466199936 0.37643965503159615 0.5840335626790929
-0.015570340258674875 -0.021238400661271972 0.72529758298569513
0.26565528079454492 0.020279998243703801 0.68581645721723161
0.10190569464422539 0.077552581982884505 0.61478436664300928
0.15730610009159696 -0.24208537462227109 0.57359310850251821
-0.43167987751311254 -0.48910053078807147 -0.33599769046533534
-0.030295260653363298 -0.45088826781971275 0.61650507904388685
0.01377189647764987 0.60948172006432844 0.64194297822510193
-0.56518382624843344 -0.81726933699595339 -0.0063265373072724784
0.0048544656864146774 -0.059341607782492367 -0.080057517118876542
-0.13180644227067217 -0.17029846735232546 0.59967134095750563
-0.080995816525598396 0.30948476975287448 0.61837788236516245
-0.38358002593257456 -0.14457488068441421 0.58673849307367321
0.097678031589821801 0.905814742120993 -0.38772193202941951
-0.28700377963401746 -0.0053792357060333806 0.72840188853737708
-0.41292112371646783 -0.032727145682900194 0.74791855994265743
0.46367565873510475 -0.45020742976749489 0.64861985659524102
-0.20829546806615085 0.40087861502467192 0.76847371811900689
-0.70669258727624551 -0.38147943080159336 0.020475656710022883
-0.19666506551593654 0.10455290409667406 0.76515267874388071
0.39659428259223306 -0.20681757631845721 0.75256383761293899
-0.43107192237903624 0.12199675847351613 0.80024721635082963
-0.79807684632608766 -0.37789310131601439 0.51086252849024394
-0.17271201272814407 0.58057227189044047 -0.17356801947094402
-0.43101391914594767 -0.076427205232670825 0.68715446991219997
0.59384340699300897 -0.15446481100472975 0.53331668438405544
-0.034089339844457722 0.48925024065338663 0.56456000900014724
0.049608178653819834 0.75981227071527646 0.19352815963709991
0.037834096531181416 0.58020962124846909 0.33821936820822762
0.13406906131734564 0.089918951073100661 0.73674844236087478
0.29625603601131689 1.2030303225912862 -0.44453522944756385
-0.53243150576988674 0.49146668604590565 0.81444142250253015
0.063849904719164075 0.065790420030391705 0.6356941066412598
0.53598653011094299 -0.52047926361555064 0.57866036371864338
-0.16406359987158337 -0.042117880555284926 0.56518849798067272
0.061742356957318112 -0.3346827125687325 0.73569443542299506
0.67416529159318639 -0.34844918907856831 0.67677504698834157
-0.33680804508247375 -0.22336596710442846 0.31507330399777805
-0.2934551076645755 0.46205517293200205 0.88269242447984597
0.028919711051193397 -0.2982577505779514 0.62922966186634044
-0.39612746477186889 -0.24180010247866524 0.75378695010986374
-0.86034267569458045 -1.2577149477172209 -0.94658767173414171
0.15854233826091113 0.81774299490470503 -0.44714042109131569
0.15234852949697664 -0.28517842097237656 0.7212029584098959
-0.45957540279790043 -0.16721418654062017 0.074560981137302848
0.15364459167470401 0.38265102329322487 0.16688941530157453
-0.35584633679133426 0.56196880790647696 0.58658715253073712
0.88014053255057489 -0.52825284688473328 0.59840053071175048
0.18114728238088484 0.010834790885414225 0.68399547585135978
-0.11022160520971691 -0.27128719237198878 0.85597664449307287
-0.67544641253182269 -0.69463740464738311 -0.68217070795260526
0.22108657678262356 -0.1889294547641584 0.48037425217691987
-0.20213732701941267 0.21195741106798366 0.70429291748447187
0.041563509781361363 -0.095990649667752503 0.29226009008075876
-0.00026669308863014329 -0.18606856021664409 0.29772846729106622
-0.55425579284111359 -0.41007044119091329 -0.40321093973369593
0.12866068889125026 0.83134277567075809 -0.19952776434575259
-0.13472397841026407 0.23133323219482549 0.66925867403072714
-0.57154782392967496 -0.82004132718579648 -0.43199965409266411
0.79953465051966055 -0.27677948969253002 0.66759070071385296
-0.046134620835517559 0.23810329882903353 -0.070214247339760005
-0.81022391498719171 -0.91543324752123989 -0.55832560161588873
-0.53322645009103131 -0.034941176872744339 0.80071929815906284
-0.4038177688357496 0.075557395281055789 0.66108083156895525
-0.33348002081097783 0.28434542571851762 0.78688471652174818
-0.031929059134736981 -0.1009963641045144 0.74588928202799232
0.60614684808022234 0.5805347444117076 -0.13805092437296052
-0.62053182496795567 0.11549197753230223 0.64696829268134837
0.18463503149268745 -0.13391580574888856 0.61170514532396214
-0.452201225102695 -0.7041490010912439 0.10741971194671934
0.24719552245064602 0.58780626021849769 -0.32283085830573099
-0.35461639312366078 -0.12923329810120388 0.78452211600752375
-0.24921501868433871 -0.13376716222968876 0.696452379541592
0.81487840543435475 -0.46359151913258695 0.66919182978956582
0.13149504626536856 0.14627650061271014 0.64330896174152619
-0.67681341169685072 -0.62424141241952391 -0.26577497829680513
-0.13594914682104242 0.86641408690699673 -0.44839867940604239
-0.3490611696119148 -0.74083727336042648 -0.33759522140192749
0.78544376760080659 -0.40195279945941859 0.51713067714591832
-0.20861103451250584 -0.33424759525035541 0.71227673599580554
-0.70767106603415941 -0.79762479054491053 -0.12414786011449042
0.10998009713554047 0.29510577097002683 0.37250819535543911
-0.32078894667468627 0.39588848027291046 0.66804114228888867
0.13187692823652841 0.99523852197707874 -0.36414682369621387
0.094361625357497481 0.3605791478797401 0.60545749612215494
0.35202311756784843 0.55752454596630785 -0.23192624529476558
-0.37905269869978842 -0.20846791742877574 0.64383194797260901
0.39834146300855255 0.21518164278337387 -0.039602545893690166
0.043292623258874841 0.31930300040662007 0.71471533326133529
0.32254405578735834 1.0000357950487044 -0.42477600444392438
0.018812880281575906 -0.068957704874187176 0.81182931601828856
-0.34626915066041297 -0.048702322710151236 0.90130821859260724
-0.060646049685777692 -0.077222437842216995 0.82558168027175072
-0.64612678187383144 -0.98684370034973501 -0.60825220101801458
-0.20877888346561613 -0.20739690646832715 0.66947986319113384
0.27735376973165971 -0.13092715444468378 0.66847367225288745
-0.44594569774391157 -0.68863747740800496 0.030217139747657454
-0.57177030166745979 -0.57265521900369509 -0.10177808341809687
0.53915463146100229 -0.28004790334728002 0.66631473808180208
0.6790541419080488 -0.27206328757096082 0.41579864194766814
0.13398538331285437 0.24280261009169113 0.4790881940074313
-0.43608510190176109 0.37803108736500046 0.45270711817922366
0.040228226541493051 0.44715622526176807 0.49685246908140446
-0.064786479154240961 0.53101089143125124 0.53337536924075368
-0.039021571767298147 0.49949464650220199 0.61867412213631456
-0.52842083407918072 -0.48293834067367764 0.027604179511684729
-0.72169388732017281 -1.031668857071568 -0.82446223361415494
-0.48589762802623926 -0.18831467121463646 0.64059744740496405
0.13263010184859692 0.77171593673311123 -0.18219875263450613
0.24578233711657027 1.0090520990930134 -0.46219381324754349
-0.42288045712087707 -0.079477998405178302 -0.11801338382669499
-0.26853340853335861 0.27832174597006842 0.71031942734150055
-0.50105134260373463 -0.68755922477451847 -0.15610632820223758
0.028548592692620778 0.46791910413089327 0.43369629028447543
-0.10564479543005345 -0.014601605956844566 0.8077149230453734
0.25570914354483865 1.2643592521676768 -0.42120440230736256
0.66990280108031652 -0.45844301794020359 0.55492458841092884
-0.42807923990525243 -0.14433295279657143 0.77025304326102317
-0.01516912230658729 0.46993301915449298 0.82627012604246675
-0.57181222675941457 -0.095176188067482292 0.74522377906173332
0.0023824393146079093 0.1812741770497896 0.69734100595359017
0.024704720107576517 0.35404379319557333 0.52580300468348429
-0.40361517631690513 0.031505354835515226 0.58048193865985609
-0.19873921230104163 -0.0092151235360232731 0.85974932510839519
0.45356009158010935 0.93315945597981753 -0.57278823933448708
-0.71153281000634272 -0.72475398617019637 -0.1072441633690337
0.17583855127699255 0.42097653088112058 -0.071156029402792864
-0.1593030173851453 0.36952101819768352 0.50379825005537959
-0.44094809173775862 -0.57773315370122802 -0.01830733381344149
0.76909511626671279 -0.47945630965878022 0.54119312954640408
-0.56567406793419162 0.030126274731491043 0.84274988309929999
-0.024815547131129989 0.50279950720696043 0.25823596088589096
-0.34779974353135401 -0.10339188381352493 0.81735420349271359
-0.3059116571896352 0.50421150296491291 0.76646966921864901
-0.2629652562312339 0.008200037843363206 0.8523115540264441
0.20517348235599586 0.79704372427391534 0.096231237657193436
-0.088360575938924102 0.062047978163234208 -0.24310114265710936
0.48588217771770448 0.98186998227777855 -0.30794181048317126
-0.28332321981753505 -0.35242515258601914 0.63252306784714007
-0.10797477321930082 0.76020154227316783 0.47098926708193267
-0.1891965268449205 -0.13685730873889973 0.6354349739965035
-0.21589839951809142 -0.046924476270993221 -0.42566985371879507
-0.15032230886695719 0.55194704359741986 0.60131561080603246
-0.11620801792662094 0.63295147989652301 0.48911185679588631
0.032585172098896775 0.83891779192244531 0.17346061020878356
0.01907910021599446 1.1642789283889894 0.33296520162654819
0.23291658832925854 0.11175541489494173 0.74119811126922297
-0.5853074103179956 -0.56586187194320092 -0.18248230097171669
0.80914267483045377 -0.43939088599117759 0.66691155491801246
-0.1381814905466856 -0.21037835489282225 0.69418357844480072
-0.12344969879858891 0.44430096706106392 0.64635827248033706
-0.48601892651102441 -0.48856602863739951 -0.47583863211033467
-0.48513668676678035 -0.41828952695909793 -0.068903507144486634
0.11985567647628637 0.63288957035584603 0.60257410897409436
-0.44332083887761375 -0.42269376077071696 -0.076294936555289572
-0.22469296044642029 0.43190563321395042 0.74960551813013687
-0.058909720014263867 0.2688634207392781 0.72409242282245201
-0.19376705184953469 0.21224741354120474 0.7556963943194932
0.15019526725091348 0.42499842817874883 0.013277343084581394
-0.49007298258966658 -0.33761430288475258 0.19871614167043244
0.57155757225408288 -0.45751264594730584 0.65521018971553913
-0.66781074352652525 -0.073678224208335724 0.60002294333066819
0.067728479341447989 1.2285378053184957 -0.50778695083285574
0.27914142564511291 0.90532911987934594 -0.35276949830612847
0.10104840510198287 0.59507637147684445 0.45493947279389768
0.42903901503003317 -0.32965263243728798 0.70953515869218764
-0.19324004960537167 -0.00098517661427255376 0.5851791471655331
-0.47457433582085162 -0.12813915771789997 0.72171131181408277
-0.50749092530863948 -0.33771809607949044 0.49795016363743239
-0.61439495306294845 0.10974360420066469 0.6828543071382086
0.13652362777547156 0.57229024636374448 0.48393010177936457
0.38923487650002997 -0.36109952120299726 0.67625135040126227
-0.16315584594925348 -0.59720490983394425 0.23762376173746358
0.21365423680201401 -0.38750756089281874 0.66956439004932
0.91336815868616161 -0.38948208085589958 0.56738261759306186
-0.50659252608771421 -0.57501657825460417 -0.40776933953992273
-0.30816540964059391 -0.22393385311245373 0.81831817976135357
0.051630184139010993 0.46126025046326069 0.027621299498816421
0.043820322667572631 0.33223451796590753 0.49166758213562256
0.4848544430701951 -0.01302517768836936 0.50963274239971812
-0.66291377495649928 -0.13092433111892859 0.64730402946318111
-0.15982133827887801 0.011848769223982702 0.86671568086531892
-0.23060353465984718 0.76524522493558922 0.55559471708257235
0.046405865848563321 -0.027005408604684256 0.8573650731862037
-0.48267316139014227 -0.11124687890604451 0.62625287900775706
0.3812451096150441 0.63278884313171435 -0.34541639594919127
-0.022058268410368287 0.26785497661221891 0.71437152413097771
0.08094004768726748 -0.031585991202433716 0.8182715337486548
0.022000548389720542 1.0668063976644684 -0.29966107607934611
-0.60186149204622086 -0.51806246056776795 0.33378128013438502
-0.51861882234714507 -0.56655694178942229 -0.24977334321887085
0.46721975083378919 -0.32389100538974913 0.70473029213194205
-0.12356431245004251 0.17099661185796372 0.64969877836602141
0.086679263671236351 0.392188514297237 0.68997104509205243
0.9884810723770856 -0.46627572526379907 0.56048290535122491
0.10140987225841425 0.22438470677895672 0.064121682760686416
-0.46387588054622997 -0.39847224075038878 0.40169497223513989
-0.11843310301853771 0.39790610588918551 0.75444814502456825
-0.1466591146502354 0.79383333275008394 0.22642617237014306
0.14921649841922768 0.80525876973171784 0.28373618292413427
0.28345657896897591 0.53343787398042486 -0.10156263822452427
-0.084454576500722078 0.33548762496990331 0.66065081205352827
-0.4492460627036392 -0.37722809300208598 -0.26957384074518376
0.40049244596674427 -0.35574961853968279 0.65359744354132454
0.24293809259376231 -0.54283400553784356 0.48365586907669
0.55442231957874299 -0.39731882929722667 0.37352527081016063
0.1864940272799932 1.1119739490006619 -0.69670326249408221
0.28164690782063495 1.2001770277080628 -0.37385774135883809
-0.67923547708361576 -0.34808078197684011 0.43435092990162671
-0.28155627501697245 0.30115462609291277 0.72459266746640449
0.54739231683042222 -0.42508790783578326 0.56617760073249235
0.66641665443567577 0.54904445242920563 0.066913924684379733
-0.36168730526015791 -0.10910464568080719 -0.38682786296352223
0.4035296112226332 -0.31377442234872144 0.58950199122360347
-0.54706993994710218 0.083900641048089447 0.81752086428375836
-0.2358090181900081 -0.0075256895208544172 0.8845564981517563
-0.0057407455109446115 0.2961039018473991 0.70596259689412555
-0.6231227346613426 -0.10978066357214361 0.88441454468612757
-0.57191580582660362 -0.11403405271884037 0.51681788805181772
0.36181069454444037 0.41451707934350157 0.033871649282006699
0.20734244068325847 -0.10556215956433401 0.72532755697809759
0.12341042668609603 -0.10966365598075678 0.57499678739679161
-0.27053796365653437 0.35901463680783052 0.7940090462050593
0.4136025305357196 -0.09237885552919689 0.62331119185316675
0.40034423659372531 -0.36235425462603998 0.7128735059186786
0.45397182792874857 0.12752923366751256 0.47044344777546565
0.37186789637751594 -0.28620899616766055 0.55637859810798829
-0.29035147786525317 -0.53208805044861451 0.46935674683730888
0.14107892494584262 -0.16581434241776449 0.71271378834662591
-0.34102719546650873 0.060798808635553814 0.75181647107252036
-0.67309968057314107 -0.0010262122363331044 -0.024670918133121139
-0.2766315188172177 0.58750924819304085 0.55422273418136925
0.2519563529025528 -0.23998355895477735 0.45905365181666768
0.040784591607480714 -0.049036274586813478 0.73575214410474521
-0.13192688590304757 0.43524835694446784 0.8729356058575628
0.12140505217730113 0.66144210508343981 0.073001352313715961
0.41830904360723431 0.58683411384478545 -0.21698321629251816
-0.35342269279134886 -0.17561997333832613 0.57088933510198092
0.094116625028903611 0.23684179301634745 0.62744519374858387
0.0068878934873894959 0.88564200820441275 -0.58840712563650588
-0.89170789973788178 -1.0357643005413868 -0.48753709549756025
-0.38127882935236013 -0.17527347187026798 0.65085889353320359
0.4483490683715925 -0.26677219922070133 0.59894216617764762
0.35915390914159495 -0.3840940564415804 0.52894562400794864
0.49151036818179317 -0.29044267260961287 0.77100768832174271
-0.1732828981852077 0.30448566753139544 0.59641517435836855
0.43328376670292479 0.64891749838474233 0.0036114535613067655
0.4476940439358833 1.1170510947865633 -0.33150987842491342
-0.2491457745996446 0.2670503434673801 0.83880558759394919
0.051274736577073932 1.1922132569904225 -0.23946202223373636
-0.5014194512501271 -0.57543066618088501 0.16294602357384791
0.20269687271074943 0.16442203529507876 0.64084867872424056
-0.33504102611980402 0.33373520980582194 0.49298089721347016
-0.54900910297197192 -0.26420074717133474 0.4542890227415175
0.10476575920056175 0.41339687639961037 0.40137477575975089
