# XYZ point cloud file
-0.4712615594703527 -0.73722054334712273 -0.21744226074834311
0.6188987413925946 -0.40919925100341803 0.60697437451859393
-0.24273214424885203 -0.2493711483877788 0.69243636994494762
-0.70784010402775122 -0.74619605194930971 -0.11267558676795675
0.089494865382807209 0.24127989055705784 0.38721303927615247
-0.17872805875524977 0.40488026359888296 0.56211209002771256
0.16302993954461306 0.93537269759109032 -0.32492227675852992
0.10777924612480722 0.30182288362373094 0.54412563698941696
0.28309530193226812 0.43082721556929515 -0.039109660489544062
-0.33234828420466689 -0.14886882300180335 0.61008984391523613
0.28737604615276746 0.09774531109913015 0.17169475440696758
0.066303630991617735 0.26925028225245562 0.64309909349058147
0.31009585104384707 0.89178949403440966 -0.31431207553166152
-0.001546969017892974 -0.051957002223918025 0.78283982101840099
-0.29024086477934719 0.0055057248111334278 0.86358381908434856
-0.067796024333049765 -0.050179594981676706 0.79334470304255378
-0.72331893540436254 -0.97372896533055253 -0.53397572047453423
-0.21110779425716375 -0.15872550228807111 0.6469101016439065
0.19887257972743083 -0.13377701267678221 0.67847425227613289
-0.50889285205919177 -0.64269430333609234 0.067272006803373086
-0.53582743216124906 -0.5200669300652202 -0.084060270225686295
0.41847018947646675 -0.26918244867297986 0.69492381047422436
0.52177493633932792 -0.31540248548400474 0.54163358017374341
0.11230786421776506 0.19191304933668862 0.47616194835352488
-0.23720836228267383 0.42207202702566038 0.34682291262848952
0.069418420460402086 0.39259741188348052 0.43512035032351803
0.0065790176218983865 0.48905220590047616 0.43560512184103034
0.022222485100768741 0.44997094275291355 0.51949820984870887
-0.48551941060995418 -0.42861743669972169 0.036814325647994806
-0.78137848104489138 -1.0214004584235057 -0.75207835614242957
-0.40104458726082981 -0.12211796809297032 0.5994692965234294
0.13488982337810618 0.6975585309662935 -0.11633311925418016
0.24555972369538792 0.91944714644746395 -0.36399423813808707
-0.31475467620962982 -0.024002926869675173 -0.12934057277953206
-0.16563724024400839 0.28242264568130537 0.6232105334710013
-0.53812864117451342 -0.65014033062897125 -0.10536256263538871
0.059171992268406526 0.41571652817416266 0.38028022975848486
-0.093803703064577637 0.0032835992124761737 0.76716815683945849
0.29672577625210156 1.1937712550897186 -0.43163558600485269
0.49435439204781578 -0.43068901885789423 0.61356635166490814
-0.36035243750449419 -0.078739900943183783 0.73048296356583142
0.033036236768518523 0.40624630787309263 0.72986051311023881
-0.45165749452300341 -0.024591160519965183 0.7000577977188428
0.015577642278815973 0.15513526151189336 0.64688498043472009
0.04629143029006777 0.30866585286365944 0.47603723556579697
-0.29141462911858518 0.072881533131944731 0.51821617729533653
-0.16584817016938458 0.019949948656158428 0.81565782774543505
0.41567401507978169 0.79449352706366838 -0.38409232787300884
-0.678263485829395 -0.66930855914906273 -0.1012063512430898
0.11947621498242422 0.33507895991899855 0.067078955994699818
-0.080343076053139839 0.35598300275571326 0.42762864065614631
-0.46946660753149927 -0.53765514074701071 0.025260839818625563
0.58941308985580787 -0.4597602614734001 0.61128540960752731
-0.4326357167349556 0.091999819198154281 0.79451066329042819
0.013911420294655918 0.46283687618579505 0.22888433932521218
-0.29510883436944269 -0.046973996569761423 0.77721880198184068
-0.16305164090125479 0.49844197054916761 0.65183932421266788
-0.21141713401683415 0.040650152143855089 0.80366973558922916
0.21877171198762024 0.70827910149394024 0.075508149386277701
-0.14116707829092789 0.030717733331363059 -0.10069694416999878
0.46497099170228051 0.84957400579784326 -0.21303016066005753
-0.30237063831755728 -0.27576946348925818 0.61436761718955624
0.010886636014847517 0.72431530534901545 0.32929664274945042
-0.18353852892022116 -0.10322647904210705 0.6122085120378824
-0.24023620722362077 -0.048062702439916088 -0.2998951615630851
-0.046778574865155353 0.52292058684567155 0.48445072317910753
-0.012799328732146675 0.60062697201630399 0.36972843034074615
0.10268930865244025 0.78528957457935999 0.085747662046464695
0.14566028284953192 1.1079335784072131 0.13504531015803017
0.20507379007728943 0.067215788973435248 0.70674101610989437
-0.53861053852272067 -0.51282376655462059 -0.16408154755889118
0.66065777219520982 -0.40809193419567669 0.70233086863048699
-0.15802628152787135 -0.16337897861298467 0.67491697230655756
-0.043957443614247804 0.41340166931531508 0.54746851517575146
-0.46701156365214092 -0.44633024766859886 -0.41355460807446209
-0.4422552317961721 -0.36934064620269025 -0.048678999180785304
0.15700604100722426 0.5448073686656123 0.4891566898718222
-0.4244502475554055 -0.38089473613952735 -0.041106863441320945
-0.11705363609156549 0.41548797554379169 0.64426429205861047
-0.019329943873020672 0.24014433707718427 0.65330008270965001
-0.12564057353719127 0.20914535694850939 0.68232069309078192
0.10636145404508424 0.34753579124737355 0.11957308428753172
-0.42342558231023708 -0.28134909884106829 0.18788616420754378
0.41223748681263861 -0.39554984244412539 0.67356753295917893
-0.50248778214179901 -0.00054008668766963863 0.54961619183396437
0.17446231026207079 1.2257011247335747 -0.56341234622928238
0.26241064831290484 0.80102450311816187 -0.23956920597744663
0.13390225407643447 0.52146434881565717 0.37290518079343321
0.30876730527172525 -0.28762197643904136 0.72038415658117416
-0.16298098762927127 0.015545301061433786 0.55248647613453539
-0.38507536125081598 -0.064221842238506605 0.67700891903751981
-0.44786168327040454 -0.266318551072531 0.47067887244180695
-0.43339382688175365 0.17095229509212695 0.61841975001294225
0.16119242436080239 0.4927495093385596 0.40277967048572699
0.26017195374537394 -0.31163923848112379 0.68986794432696841
-0.2879509425761243 -0.55043289357669845 0.28193567860101154
0.094913015396435374 -0.31794698946405714 0.67143650351158279
0.76762713999791776 -0.40305720771332709 0.64702666116833485
-0.50352009758838523 -0.53647877861374005 -0.34575552334468729
-0.29591521777636076 -0.14374097018772175 0.79176288237226999
0.0395321752053302 0.40444971233198512 0.092505167240693298
0.055071115282611105 0.28615405573700281 0.45642073944860473
0.39219398793662624 -0.068105189699167221 0.56698988093062974
-0.51786045314729634 -0.054144967227641588 0.60337523026047457
-0.13235813599128354 0.033556385070848321 0.82204518163386697
-0.06314361401905455 0.75393759291975548 0.40243460864953556
0.029891242637407056 -0.01930764535683091 0.82492633131408044
-0.37793772349609123 -0.052176497554498907 0.57660752971721196
0.31563853251504609 0.49751304021555853 -0.13672889439759933
0.0085529225288312194 0.2339965292244654 0.64702609359731589
0.057022906101119153 -0.028425270793628665 0.7883075223981828
0.11927566173788157 1.0509265110757442 -0.3555379361597919
-0.56220307532934966 -0.44089748707708371 0.31788892245372713
-0.50547704893533674 -0.52337973385735448 -0.20629348027128197
0.34574609061733236 -0.28790126372573821 0.71891364549285663
-0.082988311646740365 0.16309821631851862 0.59479042670818527
0.10866181297609506 0.32755795797766285 0.61053136887128379
0.83145635896227099 -0.47098008860779744 0.64445356872324422
0.040003105682149098 0.16303542262735976 0.18048281578611705
-0.4324933388520128 -0.33319783078458898 0.38747227555116115
-0.047820784061198718 0.36427797214220614 0.65950029339653216
-0.00048804812269542808 0.78916099157777075 0.095267502980692559
0.18914776925761095 0.72191361483312666 0.19140945628314424
0.2259618346763963 0.42512542313835594 0.046060425604922961
-0.030824086829990827 0.30581968081699074 0.58235878784066342
-0.41527534421409007 -0.33382810514784544 -0.22561440927019094
0.26841142856695854 -0.31331938381879609 0.67388708475092329
0.070572023917299997 -0.47232334873481518 0.50665506686406381
0.37083402592971715 -0.41515021325863488 0.49442087813165164
0.21275772279773009 1.0576615472956665 -0.61060003343798097
0.30897782232099413 1.1166863085612546 -0.36675223299517673
-0.56633731116372299 -0.26844196462392156 0.40173246360576464
-0.1714540158784077 0.3053215004417606 0.63373148255035805
0.38173988929659303 -0.39264467740156561 0.61490840971267968
0.6214488436416753 0.40942308036850306 0.1525505689117338
-0.30620374334072947 -0.066210562686447649 -0.34015477685987838
0.26972793838706655 -0.29474027338593256 0.63065070016182034
-0.40346631744122141 0.13866558331196857 0.75994337392896449
-0.19540172018826929 0.026672248763106449 0.84113413375273383
0.024504537818070715 0.25666666789551257 0.63596704278852112
-0.5240987887054549 -0.020457590690600519 0.86204682327970195
-0.43076973354230652 -0.048041046785315455 0.46391040650369847
0.28961908977583256 0.3026055841973001 0.17895356730739492
0.14762433112382478 -0.10351715532625316 0.71808825844381285
0.057088512834303828 -0.11167456544111586 0.59386901195091912
-0.16047300045304691 0.35390711495975452 0.6984852162076014
0.32611069321078145 -0.11873113624482241 0.6488857002202667
0.27559500563618611 -0.30605154736369655 0.71913761138547516
0.38283339082478324 0.053131338461456165 0.51447595302385118
0.24086136231349531 -0.27670858515145191 0.60618184517360518
-0.36252687642319414 -0.44211903377159195 0.46046869199054102
0.07806382536459644 -0.14599013632228958 0.70771787417238796
-0.25284319585203485 0.092585430314315903 0.68976334779147697
-0.46458929376657787 0.075453156545548294 -0.079457109934327863
-0.11494200842988767 0.59003831710285037 0.42362865814543721
0.12935374683827361 -0.2447086061377366 0.52738203133195527
0.015065431206922275 -0.042812672793764633 0.71245273717510993
-0.060268106820886347 0.39383197691694005 0.77927603252625244
0.12835295447904432 0.58904771327062733 0.090856387623050983
0.35044357267351117 0.4501481653446186 -0.024707027030186124
-0.30512113163183663 -0.12657712488866713 0.53899846001642149
0.092697913213821537 0.19201846957484048 0.58552022622070587
0.065417892301571495 0.87500746581899669 -0.53969498370814584
-0.92382027650276588 -1.0162824033945277 -0.4714360084247019
-0.32596016714861342 -0.11888486824315725 0.61355972731565733
0.32195382265705941 -0.26096966540957051 0.64223631224857824
0.20809352594950514 -0.35596238447861073 0.57845319718005905
0.38701840110521679 -0.25916629115270901 0.77492468288824623
-0.097785495137664324 0.29426765756553447 0.51968091642349612
0.39227796033802792 0.5241490798588736 0.095043892731440149
0.44511821617802533 0.99963270367330259 -0.28784572915223416
-0.16102726530049472 0.26480257905095261 0.75814202437640499
0.16352981354342555 1.1730808107420028 -0.34200316998947811
-0.50574459700574259 -0.51701577864291692 0.1733345778303983
0.17651342873236553 0.11559838580148291 0.61494745946989027
-0.18759330710813815 0.35733858236260913 0.39655201334284068
-0.44990128322089085 -0.19629659313778786 0.41778772501596412
0.1070112421091749 0.35240212914822056 0.3797354584316896
-0.10940443860175553 0.5609562630247964 0.57103182141516695
0.45721179728700651 -0.24017455450160702 0.67408228030254969
-0.73259835503676962 -0.79029353784807221 -0.85635485267569922
-0.25282768655557386 0.035248118783346161 0.69807569036785933
0.21269160102659423 0.46165709309768832 0.41155626955679242
-0.35111232197035991 -0.1467921191335011 0.52366312449213492
0.034743699188398147 0.30654502820224749 0.67040098256584246
-0.20771185768338141 0.15974595406087946 0.77456190187255547
0.19054474603515364 0.26108849814926693 0.35453958112628559
-0.42997166139271648 -0.45355168509242993 0.32616701965438266
0.43797595224662966 -0.44903716780823988 0.59471281318060432
-0.60575439005340925 -0.83705208396972708 -0.062157985507118707
-0.010069850148263781 0.38300285793834138 0.58266665122600247
0.082197427658090516 -0.14348769497541047 0.4077206940269279
0.17032450592163878 0.26984303319612513 0.63411092423908277
-0.051443208992822065 -0.14582020395871786 0.53676843241778283
-0.39493894861149303 0.016023108013590359 0.54588910736515572
0.098228664653720932 0.49130783286337654 0.406437512387892
-0.39812309278333036 -0.1503763483828654 0.74841464665515289
0.16480803675215139 -0.16614368531495907 0.65857205721376055
0.1068282693520467 -0.19385333037290731 0.7039303036924206
-0.068122722475185915 -0.055767814342896516 0.62017077901074535
-0.11054467742890872 0.10639740499181186 0.62394466558640871
-0.043668766687640193 -0.07127174860598022 0.86076436424641012
-0.62710616367088523 -0.70355212267478562 -0.26120437312582001
-0.61542797208630629 -0.46373563880268842 0.10738077651109357
0.22418782824833733 0.94027164038458266 -0.19094829932816632
0.31034021321984051 -0.33451554685451312 0.54292455283663799
0.015012162334041568 0.58199213964827767 -0.30065944623957941
0.4768135731688955 -0.23344631616255215 0.76661872281843668
-0.41151554039427607 -0.050660420988648619 0.58975741206280408
0.16690228516195837 -0.22656102659527522 0.72202990199453188
0.010199796349591894 0.74066104257357368 0.48172966985736115
-0.52667302828125073 -0.60202096396208593 -0.13054554049118061
0.54669010186340794 0.68904422456087255 -0.063911635843654002
-0.014515789588411265 0.35871903355486245 0.4351801946364009
-0.33966294006847519 -0.31648232246651364 0.088396101507035849
-0.04463858328520498 0.46633140579196286 0.66557914732018775
-0.17759314367835488 0.0068618426999817461 0.87739642398078033
0.13663817304570047 0.74263867263789862 -0.032910824689256823
0.18016502703350279 -0.314479918170251 0.75674337167210737
-0.15435856755032157 -0.15491187128406886 -0.024674387661222486
0.47778434173550116 0.97606742529805768 -0.37448351050009332
-0.82152970156321448 -0.89959925599655954 -0.30631975581636572
-0.65131685485666624 -0.51986850350486247 -0.23640262527079939
0.14048988544562313 0.45862041601907949 0.00582581967540724
0.077644191099560222 -0.13386952488196996 0.66163193594547964
-0.65613220439187048 -0.672036717891907 -0.017676079951049528
-0.040236468364341138 0.59031109224655876 0.59726407478479704
0.13200463566125326 0.24741091152655784 0.43203334481414585
0.57485904415618783 -0.34590372846965234 0.65216615584713977
0.35748198764629513 -0.33045070745722604 0.63990076031185739
0.50802158287779475 1.4228175800171574 -0.70313986097052694
0.06257649993422873 0.91986564172843954 -0.50151039131709574
0.030212408996226126 0.19583173620435343 0.6779276785395858
-0.16486066230891638 0.30048327080218301 0.50915818377342248
-0.2319445968740621 0.16726969192402547 0.63252346136887116
-0.5663264789528879 -0.57759604388978991 -0.65144294713286155
0.15042087678968957 0.53562884147636225 0.28822204592838901
0.012812921248022136 -0.32998354080438641 0.55953818244025233
0.12066847550164461 -0.082555112023802543 0.52913284378479886
0.14141438268714862 0.27072016391585907 0.50786643060688808
-0.3928077299948346 -0.0089382616435222662 0.45274612296407091
0.29720749326023921 -0.26520382969951556 0.76215310511878154
-0.11695113082713515 -0.012134998702406488 0.41379603680003518
0.10571109455344019 -0.026353252775882158 0.8217890913920145
-0.37996398627353212 -0.13317468754493336 0.37551070434057349
-0.10965806569694003 0.10350894097006369 0.90102099749549391
0.31653252168429241 0.69178410631927978 -0.073775972882809682
0.11575861231112289 0.085248629921471863 0.55213097290326252
-0.029782612984859513 -0.15188576497087464 0.74109068248318699
-0.36736819304312374 0.067570754273509115 0.89195174031573232
-0.32239721414751144 -0.19638302369407368 0.66846866832864804
-0.1222261629847875 -0.017530661739501324 0.66994082080914674
-0.43322680450571449 -0.19620351578676079 0.61581546597528125
0.12062289688131522 0.67824196929134906 0.20710423637452979
-0.1658988628462234 -0.19349578316703414 -0.020374707120895161
-0.33603588029938902 -0.0059940948137476302 0.46346373539564373
0.21435340492627541 -0.20989850398122878 0.74363241950381997
0.15514569107405984 0.53752503093368242 0.056333056969974593
-0.35904863794971598 0.29201500613551634 0.54690610578892962
-0.32661558586509143 -0.093761932621908045 0.54115886852483319
0.26752452917501068 -0.36458978514967005 0.58076725290155728
-0.31902159737410707 -0.20926324262488266 0.71350032640999617
-0.40582429102322987 -0.31020420738450494 -0.33157406550698987
0.12647076675017932 0.58247034890548766 0.34617468172472304
-0.16883989017085976 0.3575305051320149 0.48939665215767153
0.36875420167667128 0.70060916636659298 -0.15035229484442048
0.20242782779956225 0.25991102562942298 0.59096728169314972
-0.53122026787216259 -0.6562007996228546 -0.34121063354047798
-0.13270218928372379 0.13366349297342103 0.79778971407288857
-0.1086488370937333 -0.12509715710019195 0.5598165381140382
0.56664280067546668 -0.28852641961880776 0.66133048599226263
0.030150009545085954 -0.17343818011738005 0.64736265489740463
0.15166185927987991 0.88614762815967019 -0.44731322660790296
-0.33219576868004985 -0.01724965223819705 -0.089362600341303278
0.077825000940238587 0.07224560251569026 0.70046918659924839
-0.033549856449820115 -0.23538374329470066 0.65065161618876588
0.20376926342562435 0.26360011494163033 0.1594786028624629
-0.03300092672721 0.70366113988835399 0.32820624720692249
-0.62151847165492358 -0.65171476165650377 -0.31505981568218344
-0.009690960477874877 -0.1362468215552366 0.45904724484800075
0.73035376397352725 1.0743019263024662 -0.50572095726170441
-0.056539116501596265 0.45267430196854452 0.50970535710604703
-0.7569839177687866 -0.87939835041249514 -0.51377384399999215
0.038366275145609308 0.41256700582223643 0.50360559995802046
-0.58159737584192517 -0.62685853242749789 0.048919850273857646
-0.23428707612804966 0.1198148188693432 0.69844083601814722
-0.51572049248990182 -0.51939121200666905 0.20101343001203326
0.20311181308113391 -0.1516940365435874 0.6180536582060373
0.32647234586836543 -0.43990526149150327 0.61872938785381759
-0.12554977229597014 0.52829834351242599 -0.49612676577703452
0.42113552425076062 0.84968564623202703 -0.14673406105948317
-0.45914518915071156 -0.45715411279695706 0.1081231022462813
0.042969208802247638 0.014279841719070541 0.65453896517961652
0.36312050994500111 -0.18696067207032732 0.58181834273027233
-0.085598184983675107 0.47135468528997498 0.48442869349887968
0.56135342441005753 -0.22566343463030006 0.70786979091356383
-0.56544246658878616 -0.53826251990733909 0.10229688085710309
-0.15336484272475226 0.15336764365151798 0.75765622283028788
-0.12435937365489125 0.41603416706674645 0.18791900342481421
-0.03265788245406176 0.082537344610277619 0.20291327689399358
0.075222163613903714 0.40404532757867051 0.074897244344891867
-0.41785821176047533 -0.18585177062657984 0.50561954340234117
-0.37956721833573315 -0.11713735970124056 0.57476964913742778
0.32726186033412713 -0.31087025425923492 0.70105314260557916
-0.11701322185959168 -0.19945162511522627 -0.060693384102721654
0.11345235227985911 0.98124575674206627 -0.16237246071471284
0.1946495373226097 -0.046132607933529052 0.60828779649803466
-0.54414009344232661 -0.59069392431747125 -0.28263203322967512
0.53504827145088363 0.91410720473009066 -0.2438774271665568
0.21240518480715054 -0.20384609346512661 0.67800532919312051
0.23842878847451654 0.77809366636257082 -0.11426424026556697
-0.017580849983073521 -0.12122157184789409 0.62674683193904079
0.19439047614515048 -0.042591922220257344 0.48089926363081736
0.26508208647800624 -0.22677927267144879 0.65196096292264261
0.090001194382981931 -0.12937881557091374 0.70961823809528757
0.20581084573505093 0.4973175847212416 -0.12900530183634018
0.39628927724058638 -0.32713529058672552 0.59973122440693205
-0.39337591129151483 0.056664789922099862 0.63900192186973126
-0.21044692033880574 0.29253767997473612 0.72371450296356787
-0.4488348828654587 -0.12317839529506672 0.62928106114937599
0.041462511187271844 0.50891746208937971 0.28682590127134716
0.14549145745407821 -0.23444432805409315 0.50068739571273513
-0.46335816998045098 -0.20636859095088753 0.17041074577265097
-0.45949984257225351 0.1667747751755711 0.51375036104330085
-0.63514249114122845 -0.68123579743922436 0.011087582583785616
-0.13389136849077865 -0.16652287347712083 0.79203558834476595
0.17108986676347182 -0.1236087980340236 0.7600301531127982
0.39419164187520939 0.70197096671063774 -0.12288696450876468
0.24808404383279403 0.6449783546122928 -0.0026386546941157829
-0.06686508224889981 0.0014386972355392297 0.070077752660155895
-0.42191050946680586 -0.16206967823457863 0.26740879912716548
-0.47668386539804197 -0.49227250884624696 0.084212865006818294
-0.51608089349838271 -0.59687441288542509 -0.30370571524143419
-0.49059803904134358 -0.64501845080574594 0.091059834174110788
-0.47357772622773864 -0.48198248737446292 0.04145322341213431
-0.54490450490154174 -0.26583621994443585 0.014545469515891418
0.16783058889781965 0.70182227534507435 0.55630554198790616
-0.15440292656419552 0.29385224917185537 0.63384970048937594
0.015418392765530142 0.28521299477985212 0.47683652932037501
-0.0752254391013496 0.16982143745965031 0.76123557640317885
0.14039952331055003 0.71913459152770909 -0.25336190783029067
0.24528718997934512 0.18985731890254737 0.43642755635303587
0.27555689839288205 -0.49605581938582088 0.5482199015094894
-0.6187882041516326 -0.71082655126906236 -0.13273520402454014
-0.34449853573767919 -0.069783451061975393 0.084209299359269851
-0.89318528156896959 -0.88392752087322912 -0.59868132841890209
-0.57277270274110437 0.074714358399967123 0.65791734048960715
-0.2550921004594604 -0.031962726375532713 0.58465506427772518
-0.04552204679326699 -0.10177954126441476 0.80528724221356063
0.20135146785802072 0.23270194357868212 0.13281643155996281
-0.066160212956539177 -0.11628091474844447 0.81671453854492693
0.35315902220706569 0.65546094025289658 -0.15962090192669875
0.46359569408191104 0.69306854575997612 0.15641820306213672
0.12648581993936758 -0.28426942623904389 0.65365520685114598
0.070932766241669165 0.26701638683590678 0.48471675658771779
0.28552550911687391 -0.095416563967678114 0.73449883147087425
0.093347168142851378 0.4046006978686375 0.46358408581721305
-0.048211488167805294 0.21870818154650323 0.61539045297086192
0.94510791706149466 -0.65140962763269517 0.68938581517090824
-0.79285006970177907 -0.95527477341657252 -0.71362092117077358
-0.138736134352759 0.11375652268220551 -0.34628689165593468
-0.58939165453522779 -0.59803194157575046 -0.47299557989943408
-0.53709870470313348 -0.4994502575028511 -0.075181687153145382
-0.74707096130154127 -0.88896177833377565 -0.59369833050807663
-0.36117836954443611 -0.32818337884976256 -0.13448638885314118
-0.84110930150771634 -0.75411423407733569 -0.15547475614487066
0.093032619503905012 0.28861012188131541 0.65929281693642061
-0.42689597704377469 -0.26979801401191383 0.58306173491841407
-0.27572059810159288 -0.36096649316067142 0.57422029497269034
-0.020644258728745757 0.32185110971580311 0.48337977915692865
0.22795387544992207 0.45738859287507938 0.067107796672667142
-0.21726841719247869 -0.019731548617292982 0.63563513498699242
0.28691438408889625 0.97726715268516706 -0.43220386621471563
-0.14258221412820105 0.51853445554343836 0.71678060392691223
-0.057208142072112 -0.20691564090004894 0.70157568293256545
0.26467903644228236 -0.066110494385188859 0.60468059412882336
0.17285960254800459 0.46121264621631025 0.1123506705068032
0.077685410012597655 0.58474221637111201 0.053773455371897205
0.18080914764906852 -0.30112665728085786 0.61650665165804208
-0.14880483469820605 0.064523731328066075 -0.10341556154863002
-0.019354767815790042 0.47102419055370692 0.43900368870703443
0.47322890338835261 -0.2414302422045338 0.71394107430509668
0.017977061785382831 0.72090221930173248 0.46578477964651738
-0.10996318832810514 0.50969042147260235 -0.055816325901703143
-0.043592452307307905 -0.001418675885176246 0.75722338477581885
-0.21276427656454455 -0.13904750735791527 0.79854099417366609
0.39678567092082345 -0.35076514108113954 0.69566326171439141
-0.49730379971019945 0.040917691502702469 0.86467964689470689
-0.34187889791950477 0.080862915562914806 0.83491254193838882
-0.57684443546072117 -0.61313657342050953 -0.33068225742378488
-0.017413760990893645 0.014421104668598 0.74616443658236675
0.39046889847717359 -0.3085075443350736 0.6739950603953051
0.35606719445525026 0.90080235287726473 -0.29359233217863989
-0.48228225761285271 -0.41160881790263659 0.034969453714214227
0.34440016513724864 0.20446071015720846 0.14863133190845884
0.33576250062656343 0.92099331950956065 -0.25475226574236259
-0.17430775538758403 -0.19365929601374743 0.56817009638856764
-0.045566945890179178 0.25364035439637145 0.50615924806620938
0.052672701073170347 0.16229019422663951 0.50274256286596009
-0.29094283770465112 0.23509486114772565 0.21972628262900093
-0.50319075290431248 -0.40205889703716702 -0.20243768776416174
-0.35652619476731173 -0.085186423067364458 0.39364911959556903
-0.0055272240712946341 0.29183157085438405 -0.042311952558856725
0.32840437903524611 1.0713079005602493 -0.33357368777140084
-0.91973138559577716 -1.0896934554649842 -0.76788385605289933
-0.15483609306516799 0.088985873752862515 0.61167602466794013
0.0410738532546151 0.57990493815726829 0.14583831436845507
0.097623933867703516 -0.031172099228605976 0.83109254339695648
0.60605518457798702 -0.48148191458303546 0.70330515156147888
0.3332067815116021 -0.25806195701226903 0.70814310882664522
-0.13983090819402155 -0.32432834773302499 0.50980775312759152
-0.041548853377113226 0.62746690894866464 -0.23824845437257328
0.14498077238770835 1.1238331560948269 -0.22906663017547396
0.35983424042906798 -0.43454196182327232 0.65966379455618274
-0.42384113961495429 -0.036438612696443134 0.63105635213815492
-0.41184587192921229 -0.059317705374655583 0.64491199038115887
0.057817060308020474 0.76803967012707774 0.19173603297923467
0.38173538181200517 -0.49064135007042098 0.55970761781433853
-0.45779218314842951 -0.28952619923955797 0.14196699932591472
0.10821372796873269 0.65739649190400651 -0.067474546976072025
-0.2896594388105832 -0.25150423543424205 0.46951325696095025
0.42786753524474874 -0.18826870412349345 0.73666425627402687
0.17648342916357368 0.31100379419515728 0.31172402879723071
-1.0447562372303265 -0.9338228158666706 -0.64462980946914572
-0.24438529103918949 -0.23342602059856898 0.66254027624458778
0.35238291527721077 -0.31362953745938771 0.70333663352994769
0.1987472940406293 -0.020504981249156194 0.44268609750750648
0.013842892300025222 -0.63021258934117463 0.34103622202965861
0.28211354403716882 1.1767859815658939 -0.5158693215698873
-0.13594087118098763 0.63231971891200311 0.49047751067957063
0.023060841460624593 0.16188283199155495 0.78533636642370785
0.389137338515956 -0.45100544233331641 0.60535008660640943
0.05045890310747686 0.76723702487406664 0.093237499812851565
0.23198962437441287 0.94697559692148414 -0.47600142420383129
0.17263954194993536 -0.054313418209454178 0.51752277718600947
-0.29043778480010357 -0.31133922662595925 -0.057202126097717784
-0.36240162492757866 -0.11708156151317844 0.54679863197777878
0.11665975276100066 -0.28874379565754815 0.47080924481482955
-0.62771438551579917 -0.59118053493769018 -0.32975429448736737
-0.28883756283350942 -0.27034230163859019 -0.19027122878382058
-0.40090699424393528 -0.57369310169367349 0.12638796849977318
0.49319313794273667 1.0241925585599256 -0.39786810799014904
-0.39034597208140354 0.13857653494214184 0.66398633856340472
0.059585354550759639 0.36936439386131081 0.26837581981865788
-0.15029289423831094 0.45337932631345829 0.2104946707889363
0.37600000011467183 0.69165396306019278 0.21519953981554615
-0.32322471307343648 -0.32807078685046931 0.51094608698363309
0.024819317891145221 -0.080769229815445029 0.73667483414766977
0.18564338325864527 -0.15973202003505421 0.64035800815137123
-0.24797592402508306 0.29349580069520609 0.55687105931448655
-0.32030463874795578 -0.11732008694267115 0.69814767746679607
-0.40314732277791843 -0.21833251371649401 -0.38415214663069142
-0.23380385677361881 0.15987978177353554 0.73424173959074357
-0.40846198886285612 0.094421264259749699 0.4614561064230101
0.37449589028635877 0.75508245638176386 -0.13245703004301979
-0.023714028096420425 -0.37678262416959313 0.60004440881624355
0.0022008296304798503 0.28650977101067515 0.5025267962854072
0.58472745918969959 -0.43252530500234376 0.70209849642519451
-0.12649233095462442 0.083456941778942917 0.70416704259808338
0.17084978584529853 0.11502503289366631 0.57492786490643
-0.056149120345015957 0.42263029089009418 0.33103950369535262
0.0066069820455886275 -0.062708325438240856 0.68943132686842945
-0.014015492672519669 0.31501665326334066 0.61903071696143219
-0.32287911313991702 -0.019404438587090872 0.56317232487743896
0.29089310227874854 0.85772136341813077 -0.252949394184659
-0.0059183081136297 -0.01180947613962971 0.7420553510608856
0.0095967352420986418 0.67484550411893818 0.075650957238002192
0.29535353105596995 1.1372814050146092 -0.56229377036680694
0.052531255307964708 0.037832605188097224 0.32418222750007697
-0.36010571978392258 -0.43787089062954193 0.09874085916876657
-0.13870627960212589 0.34405009237752049 0.68670058596098305
0.088396897493569493 0.0089657071653327924 0.74004816340569335
-0.39836800107426329 -0.0018398611885463989 0.83690591361394306
-0.28408542596134956 -0.12514950632846061 0.76523265973100019
0.25166623896869655 -0.42796429072040298 0.54820918461305779
-0.28021735606220277 0.24423099391672212 0.63878259023184347
0.19671627286411653 0.54615472392091624 -0.044048661682489221
0.27895879012910152 0.12270917578273705 0.56038625596253011
0.076613614934356811 -0.21266444127005579 0.77772466792031469
-0.21453282638238103 0.16938953542917135 0.71576031086300862
0.1605036881922457 -0.28997513966016747 0.70751653423834304
0.29066159501628264 -0.34073050542620326 0.68861751688942796
-0.56513262475183224 -0.14666545973531867 0.61614422017874348
-0.15890836884127146 0.20596377060804766 0.61430735269455283
-0.27266793307037485 0.27314048123436563 0.60004568257937929
-0.48738238722684635 -0.33409627365313083 0.50503821303859886
0.078729692717961153 0.73026523517153075 0.18321604221785531
0.050858835726506735 0.96693837359875978 -0.61054629746512856
0.19973934465031601 0.51077890675216175 0.44454598736235013
-0.10544661925486121 0.22709550869341463 0.7147186720366715
0.22666362323917133 0.89376785615328025 0.025193226023261739
-0.24289764093018928 0.17383921825896193 0.92909845896586363
-0.62194763539086351 -0.176124613457836 0.49093995693663545
0.3761847086818233 0.94912410526641422 -0.30323760504320552
-0.70560333314475066 -0.92590569039925485 -0.6732477547832435
0.22485290543657888 -0.22301993896049455 0.70047703136517858
-0.25469886452628621 0.1315944482156442 0.81357072255498886
-0.12290678123863141 0.13924185540023898 0.74107947783893391
-0.21724850358409808 -0.10934709212402709 -0.18772297981707392
0.35725442208498526 0.18040694503956983 0.53788164623845691
-0.18467535520104994 -0.13169356865742843 -0.22463078428478023
-0.036105631125611382 -0.14765088329368281 0.77303870297179456
0.10279869058815982 0.76612556410656496 -0.060038331823914493
-0.095858005034488714 0.62225136426305527 0.30705271226588537
0.5503198030271681 -0.41674937166496151 0.68903995899749182
-0.39869930645094198 -0.0811185936063607 -0.074151196459631585
0.19597501631140607 0.18523776603135506 0.39214843793702925
0.019257142030412844 -0.40447716291032582 0.42414211056447615
0.19065380381785846 -0.095185597873472805 0.86544208417297219
-0.59541080037602856 -0.681958121463208 -0.70320250018745567
-0.096219341678442261 0.19081968610890568 0.68609513362908014
0.59907842847119075 -0.33015798338914942 0.70537266930807541
-0.03465513160668332 0.48722564931273232 0.60389977508103576
-0.31791379032723499 -0.1134027801077809 -0.45009298498592931
0.17516539737747028 0.58674698989195684 -0.096922405422182112
-0.026199649330808206 0.27791264834188378 0.69932081632892429
-0.39271821988242095 -0.009487024139521183 0.8585847870589588
-0.44574671442731706 -0.21181687148590866 0.52778729293421922
-0.020169222214147187 0.073987936038665714 0.57948285222567086
-0.020470975160610805 0.14035200440558032 0.34041631899573138
-0.22988819703680885 0.23702357816711253 0.76425891700646209
0.04482405460658534 0.30884867516407449 0.54633604223522325
0.30075960046701511 0.39287228322415257 0.30767696765808333
0.36727825983559825 -0.19413533623604057 0.64671624147263784
0.2474884483354492 0.33712663596390491 0.5680359461293194
0.3298439289479051 0.69122731605445153 -0.076244217553995908
-0.76809363991406021 -0.88793825732768084 -0.26016278364934792
-0.19993882987802913 0.11569913435985862 0.24191681027448556
-0.46962201661939162 -0.3190864246395555 0.51723382312449595
-0.43041581140531493 -0.15275220931461392 0.0059321083788453355
0.092250312168861204 0.37497358172668221 0.23355776633821609
0.30087562608954888 -0.1700588138713871 0.37649190611112848
-0.38663102634046853 -0.15610400177989414 0.4810280566902273
0.47724432941947675 -0.33981822155444763 0.65995877990893392
0.13209035420206272 0.10002313125797467 0.086253258727969739
-0.08526611283996266 0.60987748921394203 0.426905044321225
-0.63793628097622845 -0.62275293675406806 -0.23806630171497634
0.20982442281861835 -0.12046615242283459 0.5883079810498556
0.37279521311533914 -0.39691103106394415 0.64303340142578069
0.35395767695823421 0.72799687586344031 -0.074339675127089166
-0.022986525913376132 0.43612829845026946 0.64771983843146763
-0.70022746305083594 -0.69867741990954579 -0.44307712415018985
0.064675654263502802 0.30389398876763007 0.38111374133480075
-0.16534712661217466 0.013986681645850374 -0.16107461732821682
0.14670041311480386 1.067069907990003 -0.24289943351405807
-0.27901176428195162 0.10798034880003099 0.5869138216964348
-0.098917183815687593 0.078758275297090508 0.68235133244607327
-0.43059030788380526 -0.12032429178262716 -0.066007398746925738
0.26646377223793072 0.94510185158228421 -0.11093465417710169
0.12550716082062763 0.31058015530917782 0.43194244964624917
-0.11809507027777733 -0.043427767323040073 0.66442396413884719
-0.43885323830290857 -0.20666536549671424 0.45832124805240937
0.073018038128427998 0.4132775444527429 0.075591353281948326
0.20647113999123656 -0.2911743259416546 0.585143271098993
-0.095964612396569726 0.40567723105496478 0.52284946951742861
0.057915504339889123 0.52462454653244217 -0.15514739850211157
0.211868650616446 0.71801628529639205 0.042770593372628674
0.11523696765010655 0.69565250904819231 0.01999547226864562
0.39558449341699553 -0.36293295965251104 0.70760251273820129
0.026263957591421194 0.32854316941476824 0.58545060319790165
0.18812725693072496 0.95226627389031071 -0.28002788739211626
0.35491163168300399 -0.35257886986465908 0.61940218528936253
0.30998291970271241 0.91295813027141914 -0.22200933422799413
-0.14072114413258285 -0.04813251717835712 0.61944965360379667
-0.18212110700077722 -0.21826189099485316 0.46466874813203063
-0.14890796101890136 -0.12793859725018525 0.54999667534078645
-0.040018532103721971 0.53588640080979011 0.42182192935304691
0.23242758280350045 0.83117792581536665 -0.21361822923079721
-0.70741664163675921 -0.67047278323556081 0.1016495358045314
0.22710407584790976 0.23534456805913415 0.58012501827036989
0.11169601842030774 0.42759179825985533 -0.28364979906877807
-0.056803476254608132 0.47500341780607419 0.49586465573908622
-0.18974226336280298 0.10685616156417341 0.7234822654501053
-0.42001680674177899 -0.64464149578909113 -0.0690831526277354
0.45160537927125488 -0.43097378278583709 0.55793866697351535
0.64071796876529463 -0.35163115802267059 0.75692466541171843
0.09897652269772661 0.61887929413480802 0.15881629161027863
-0.63444501423573174 -0.6682085440431651 -0.24335654249727656
-0.88875473786845238 -1.0918705801291846 -0.81928643258121947
0.19586047399985118 0.72409591320936406 0.23683352785272599
0.16680276734344462 0.14339667331829936 0.42789162143587783
0.34244362698592995 0.38340365902908635 0.036135764296430006
0.0030276310711560006 0.22108983051422787 0.56272600376741921
-0.50617240292318311 0.019894043307863818 0.23250204476284986
-0.69422696119465699 -0.62077475220317346 -0.81508518096022453
0.074404938277929378 0.089477059808953985 0.605245067817612
0.10019535303774296 -0.33696675652993152 0.60110394146465596
-0.23946717441755394 0.012284049707596667 0.28198331019300693
0.48273967170586596 -0.24668211560845463 0.67496265116446319
-0.5990448539194555 -0.6599516153088345 -0.80924540213588314
0.12480297420129205 0.56309627836423604 -0.16368704257810429
-0.44757679502754799 -0.12786219532017043 0.41744990002429733
-0.062249511833165072 0.40400757737116655 0.45521081395684915
0.11712948282017766 -0.11806027192055413 0.6971629162143137
-0.064795521419111934 -0.13858372873654573 0.7676133332563595
0.16050770697520633 0.32956574248352455 0.26813212691508037
-0.20503092583654181 -0.19746290639556296 0.10871604022461286
-0.05390790192105166 0.082581112607825358 0.75739756412016024
0.15492036129797926 0.1242058506027123 0.10268729864603116
-0.33988463444918204 -0.39391809107617326 0.12890187820638505
-0.48200207031631226 -0.4130947737093531 -0.19947407216870142
-0.11135266248681208 0.6272871858583895 0.25507918398015805
0.13262905054406754 0.11617536907446635 0.90226218913650025
-0.25410028424504583 -0.029422190660345848 0.8558919316711644
0.13347269601121392 -0.11872588553879286 0.88596555820332934
0.69404635864301989 -0.40403358135921769 0.6542916769696171
-0.30893232869306131 0.21967585715026747 0.4526903342863059
-0.28292779638739907 -0.14865296461803346 0.46307618616473534
0.22901393206877552 0.52595146764708378 0.44058056592377631
0.42591677953736196 0.19682769685886556 0.299637588130648
-0.60680212475344419 -0.62122370113576075 -0.0039088503372342598
-0.16526376369533224 0.35653860792276038 0.31488282251434779
-0.094181051444720554 0.61774288367655938 0.33938303078235271
0.024723283628570569 0.39028650232161122 0.51647347241911645
-0.014894591411450997 0.36062920831064665 -0.048041682208101566
0.1400166480198341 0.35034760145914179 0.40040783798041235
0.18509728268636039 -0.26696834942026632 0.5344831660753111
-0.24193931853410522 -0.21663829118430278 0.54789680311851263
0.029320274368710653 -0.22208092001381258 0.68707457091834834
0.33427055913356485 -0.29759912180501458 0.70492995380660106
-0.22188456447036009 0.2815214229726028 -0.23055713121520238
-0.37120578093508283 -0.26170183913823791 0.46795932247120009
-0.18705900052501268 0.25313778283680244 0.45507307929996499
0.22225182947587208 0.36028929380309238 0.44559833648203612
-0.020173207989468089 0.38694774996542425 -0.12988904965496578
0.24404918955987126 0.56885341614777374 0.027986688392406533
-0.6273323124061212 -0.7084349389043646 -0.48713692842376854
0.27693225982711073 0.6250102694438473 -0.18177595055871187
-0.036400583778845697 0.042790361064771937 0.66498509451723897
0.58676089008862897 -0.3117366708790244 0.68087401488663191
-0.06945066494853025 0.12604772963917163 0.78063248044261579
0.23893252152062533 -0.34123193450488859 0.65089312629340701
-0.62464721880278273 -0.70171779986793092 -0.23110012215981562
-0.062831487568389521 0.15512632455263967 0.64754378088113895
-0.4121813053702037 -0.0071741104602518757 0.49992923890366175
0.85987409638706058 -0.47512148467224385 0.64649710700506702
0.088162984046439297 -0.39629619211870581 0.57997415980556488
0.58978131732678496 -0.25120420183394393 0.61882621118946135
-0.13959621407398171 -0.15933657075905208 0.53877511122127397
0.32709795224229599 1.4001401850633324 -0.54814924723756631
-0.58990348592434039 -0.59008188968981712 0.084022375860506704
0.071621647513060327 0.75283319393698644 -0.28573355375051152
-0.35461254300302381 -0.086547979427224642 0.69149309163049821
0.39231885898097357 0.7132627067137558 -0.063320680156236819
0.10965077576656901 -0.070136177822003765 0.8068670370654708
0.03540312143990354 0.091977808152536145 0.70639481024337014
-0.16658922307842206 0.47697674602439355 0.23530296605244969
-0.37895581619142205 -0.3680410364914366 0.17841734487965974
-0.32656966820950872 -0.0013874560679232872 0.59126952466475791
-0.26491938470054643 0.083567987436645286 0.85620500663193511
-0.48109433915596633 -0.34643533880524269 0.17192688800057565
0.12883709850662917 0.0039860764804741516 0.49834279725938646
0.45247056923937362 -0.27804865031145587 0.68766728614326955
-0.28929843014626433 0.19500576031742134 0.38179998251781355
-0.32881321998157942 -0.043566389879281575 0.34228361239090455
-0.26471096434494679 0.18553337014102944 0.32246251753541744
0.08911411780153522 0.14496548459600817 0.61482182290810572
-0.17815196232148955 -0.24791297907423998 0.56983733693618643
0.25481589878107458 0.74866257869068187 -0.089277284616214425
-0.46937504523437523 -0.48735748171323984 0.070658305169570945
0.17808484662379748 0.98693534644342795 -0.34251614419862308
0.059617449674323031 -0.12024403436262454 0.83301037755660545
-0.22858497949655976 0.088801868337997941 0.48955995488018667
0.12019456513186211 0.32485667596282353 0.56409903826999219
-0.17870626702535453 -0.23207917635583636 0.62951917727786832
0.10926248114703657 0.682802672401288 0.37530848564568159
0.16972199578107916 0.43552714731451175 -0.00097484665527547421
-0.33629736909467578 0.30490596494799715 0.41910289488738234
-0.068047781297690735 -0.15328253641873324 0.5500876961032265
-0.08837997999495395 0.46915149808515788 0.37173770258008737
-0.96319973107714962 -1.017211777001835 -0.63458499945529745
-0.17630109478766998 0.075199655166606871 0.74364058160010338
0.4231210608824606 -0.28681190628020864 0.64131035505911149
0.09708868377761487 0.22634753807920088 0.57886308536576703
0.084795323892196212 0.65721218902237066 -0.31177727448395814
-0.62230634589051625 -0.5808393683462596 0.13869826768342297
-0.33487060488086418 -0.060664083036533922 -0.32241123021310836
0.037206957855044631 0.10443017117309825 -0.035570688866032818
0.25114452152811551 -0.10111602261555575 0.54418791982077552
0.14971383640914804 0.81681198475445571 0.059268694920859955
-0.2688987722818833 0.025169653257644031 0.7306563413773437
-0.14309236194066177 -0.24465605347049491 0.74542657534415546
-0.13370076816577936 -0.0082223084251173972 0.81012066119577919
-0.48749428936987937 -0.35535373185206948 -0.13689862069539774
-0.33087808672422037 0.01104004688948626 -0.0057163504244785168
-0.054152458616381405 0.56516276973915902 0.49857231629683663
0.31187140690512705 -0.23694626956072176 0.73487828232112562
0.25834023823919583 1.0909019535366247 -0.47430120741036924
0.46181459648895362 -0.22657056502145484 0.633194479613854
0.17780434144870816 0.6183328880363943 0.085016497124546897
-0.20983587580412599 -0.25970840097002429 0.47558827994803538
-0.15828816773195109 0.19503619684675477 0.67339150903130507
0.011872559218665035 0.02113400347917696 0.6832490650868811
0.16881354566369283 0.42606667477019944 0.39900846729453926
0.086856074880775513 -0.133383993675107 0.74039226430524752
0.1696021900295922 -0.045438793105546105 0.64073176824260547
-0.017797676989734779 0.30920310469213996 0.43624988433460343
0.0027248275863379634 0.34010704975805717 0.38294924730316715
0.32403757484968182 -0.3401920369898942 0.64208845953070715
0.1877208606421944 -0.2432164451445864 0.72553899987328518
-0.02726532174943519 0.26320790972598218 0.70218547546144661
-0.82874697764246652 -0.93268083607397356 -0.72134843905608959
-0.17298131920163395 -0.017161097548037019 0.85428459749078622
0.017652660680869681 0.18733509173968793 0.74934571879222234
-0.11468617895361821 0.13910897311941667 0.57661866246277071
0.26413978098183449 -0.30992764301496678 0.57367812481686098
-0.13288300143034215 0.45362091760701129 0.87885599802639391
-0.13014330470495583 0.36541380292155917 -0.56709542760415788
-0.13269750319918416 -0.054318164553899401 0.54234843685710066
0.31620350377013551 0.81244405458131197 -0.18289231506302683
-0.28077169046766404 -0.038062308551902124 0.44697773914141631
-0.0078126732533442267 -0.30602508785245419 0.63501658016700979
-0.043233093860987282 0.52804308581655102 0.11913670285928241
-0.63228580314299609 -0.70641452542008309 -0.30772213785009972
0.23955708609920301 0.84288672678417897 -0.21066160168290299
-0.0020919721785024326 -0.23312147637945888 0.63087643067923482
0.074566671238371129 -0.053210237584904826 0.68892031214882787
0.22708663280895769 -0.26215812661480664 0.6509469980211674
0.29705059312076465 0.88964495246556641 -0.48755914268042189
0.37466705570175696 0.79347238701142964 -0.250297883441568
0.65113833537861077 -0.62768921735480754 0.46175062597260841
0.17258698067780642 0.33348156609026486 0.067402848799718862
0.0052438212106050153 0.70647964301227417 0.51670128033528551
0.12171780714603347 0.22475095105989512 0.44528418420275429
-0.056230324911474283 -0.19901499562001007 0.49416671545919094
-0.48065171520378647 -0.39147727465842563 -0.2793319467691463
-0.057731039065500922 0.78804515782001494 0.43903260914800474
-0.42543838791903776 -0.57709772000454951 -0.16224721325839137
0.22052848517439805 -0.22186538305708045 0.73871328686127535
-0.78524049985508826 -0.91638063885244836 -0.31308032872354685
-0.27813609223832625 0.53811057581560318 0.72986323849157975
-0.38061878225861989 -0.12111508633691842 -0.17469537306530644
0.033689249744950356 0.34964463325013417 0.68752857315297244
-0.15437169218323321 0.0051299327116683391 0.82493175196457491
-0.70611660818150634 -0.93249107138944376 -0.45220779620116014
0.14344859620182904 -0.29519540803219468 0.65857202000745074
0.34456825818565223 -0.23879860744750209 0.56941363929094391
-0.00041471550104443811 0.21031372247801824 0.66576254010672509
0.18074708156336344 0.92108463628087578 -0.26547443409483773
0.10390304551235563 0.49803284733054404 0.53617200461064374
-0.10857289850914031 -0.073569174127169346 0.66439527954613176
0.31311304135825774 0.74005632169072733 -0.056907373019346841
0.21972991438316614 0.1443446264087884 0.50981384166593924
-0.12267536199741935 0.097946823685520185 0.6841882701519334
0.48820464676613223 -0.2084473939939844 0.64637580043061194
0.21463167425593666 -0.34275118664802484 0.44942497968326178
0.00089995689521205069 0.49684732297146661 0.49970803527366892
0.049331105798064434 -0.26141716111562541 0.64377267537473104
0.41527785698090069 -0.43981282295002233 0.61367052955078027
-0.18700384848782248 0.037996061698380629 0.77971243467132001
-0.47147655512080272 -0.34880725923940903 -0.34922233946383741
0.15249501519693248 0.61464953216267626 -0.033632889884703643
0.12841753207927453 -0.17056847892891824 0.75244709756914196
-0.51727007088455768 -0.46124808277026874 -0.13798181398638354
0.204388606130255 -0.16910183877260071 0.72993351476676327
0.33052626094100596 0.35352327070754597 0.15373390517552754
-0.0045919654614047234 -0.10577809503770148 0.81086618127274002
-0.67637756451254849 -0.081547707971042022 0.80000531643433959
0.45617977649435892 1.1453763853439514 -0.43200929362034979
0.49249200091241285 0.36849637844262867 -0.038772060250070184
-0.12297275881546632 0.35218857478454357 0.66168060256534855
0.008764923338938968 0.10352206740358622 0.78776041052415413
-0.43484064025513636 -0.62312901702919787 0.056263375288083783
0.10978803839732199 -0.073519152128494941 0.78363124694357644
-0.051837534940963104 0.26127000794664146 0.68121769410552024
-0.38734840273453452 -0.33868659665321244 0.036697426881385553
-0.26871460852986639 -0.080727591422431494 0.80304283272483312
-0.31846554530057281 -0.056083047828265509 0.56818210654734413
-0.25018602420316238 0.266837751157043 0.60890209161337716
-0.24925243242105544 0.18130565654601774 0.58193316500372982
-0.43300831781821736 -0.089313461778632475 0.84293112504120704
-0.79812547299009573 -0.71422278756802349 -0.26665617447734069
0.4388425554416569 -0.43663197289416589 0.66069379156076502
-0.12648098999310053 0.51036486782951385 0.42120788173046275
0.64158126847835451 -0.41937158120549134 0.70066744874488984
-0.52778334132989368 -0.35845413660438707 -0.2200526138912145
-0.13002432125721364 0.26706615305065529 0.41095199542860833
-0.26673107186492873 -0.28707588819610047 0.68759252562607343
0.083750171762921932 0.76132886897425012 -0.028761585505793663
-0.033000559980836286 0.36239963232961991 0.68449012694514744
