# XYZ point cloud file
-0.78504467832553049 -0.69202215192417094 -0.41691800472280272
-0.61429687698567426 -0.51091143174296616 -0.22197609661092677
-0.35464543484986111 0.214251000398338 0.73833651962454416
-0.19563141050445099 0.14007564447417109 0.32397364105610471
0.31464666883250114 -0.41294815322905937 -0.35583381406796444
-0.81771328377235708 0.14950050468237558 0.16134241049472786
0.57427901959723027 -0.11246032764168601 -0.21628592638868738
0.15377569157638149 0.52359359552543083 0.497892036292783
-0.09648257251432879 1.1018126060926456 -0.31162976706422052
0.34439516877902943 -0.11464486687035141 0.67970344136043659
-0.35951438638606792 -0.39876236376468577 -0.4885552617887261
-0.24807762999148419 -0.27838054668562257 -0.87500946726687623
0.34026045252136594 -0.51324257032814313 0.5557874136026435
0.56798432425207812 0.14612979647406771 -0.27386104627929742
-0.074209419783795472 0.47756857243592121 -0.0010215930173034238
0.10353097562796565 0.40752495758101681 0.6899824070767
-0.57819870066883983 -0.22408688730662552 0.62010640179185472
-0.03051310965798848 -0.4186504752211524 0.50908593267236513
0.35830195441317336 0.29701091213933806 0.41183483804843379
0.030487517709808287 0.97879928697419483 0.52948063544868162
-0.22310809755256233 -0.43919151119296806 0.089618465480844289
-0.058189412729124701 0.63751263418314363 0.69217509685761858
0.50902352755855462 -0.44165492808466894 0.71608112658936296
-0.31794865746691814 -0.21233514124771291 0.37040980868162721
-0.31147911289899177 -0.066805600695115597 0.30351409717084832
0.022844879717405675 0.7064501686529806 0.62495110423128875
-0.10207148685218836 0.073109699008155726 0.33247734252997296
-0.19552934538376032 -0.36419243523499129 0.67651713877118347
0.46262700398300893 -0.19521223251848002 0.67271782490237242
-0.38771323789591161 0.07585670429081709 0.71115730057637117
-0.08032735368869437 0.96375163902962058 -0.43067459005961739
0.5153443740002106 -0.52724404576252959 0.6823304608827343
0.38610504299612858 -0.11220148205778135 -0.31264040726547515
0.0031162870986469748 0.19368870576983638 0.28481502251315849
0.33501262879757654 0.48824618107297041 -0.24112257546983562
-0.34863665907847619 -0.79748068327552746 0.1254681417534782
0.29250759808371951 -0.11697814818255459 0.60363767357949971
-0.12181727096142181 0.23093050258604603 0.71549216264241489
0.22624329216169548 0.67939284724618332 0.35307747164297965
0.2632538578430621 0.23621476419572346 0.43713499931712096
0.22530724812732839 0.8377912990406845 -0.19092658232827953
-0.13759546311215454 0.46732244597362033 0.70393919987614351
-0.3521300258147475 -0.12625941855814155 0.30959370382032936
-0.25655940360988527 0.33231939361390594 0.75465252298026364
-0.64291384946642438 -0.52439805603444656 -0.26968833302601247
0.49162235554891964 -0.50686211792034053 0.47750719380264273
0.95515640066037433 -0.6522551163502196 0.034008870922602075
-0.305167755755686 -0.16908366628970606 0.72209646431340846
-0.30446540132080324 0.56145456920791825 0.70511183577388081
0.65622581820706927 0.089995838109086901 0.50094889022099753
0.086693524481659789 0.43720777059878302 0.69004137558650536
-0.036375953331738931 -0.11706444696518115 0.48889595596867208
0.40750159435798317 0.59330742241741419 0.73663658149661848
0.011540855042269094 -0.28611735569823643 -0.35215827813374379
-0.16759559707045479 0.36798415112318794 0.66614283576740863
-0.093474522276259187 0.93317418378140005 -0.03341022497020063
-0.4762597109471618 0.62935019344909082 0.044143907791994064
-0.46367195404280581 -0.62465202215390148 -0.01534942946363449
0.6237497401665375 -0.26546108444848748 0.64198170692649481
-0.39161127961937403 0.7605155785319696 -0.38207062209572706
-0.67442807142077621 0.0036796317841455428 -0.44608751428674642
-0.70269861493093155 -0.40368603769491263 -0.25252319606235241
-0.68987499722593704 -0.39131762329465786 -0.24311014960537469
0.57552287719861894 -0.65387752669835453 -0.1860515433202512
-0.43383383401774056 -0.050628881590406849 0.76307718404925318
0.13387331469987629 0.37031737226673078 0.64806625114696947
0.37648610978964303 0.43893937940187266 0.062444993555642814
-0.07167954690965761 -0.26902871745576962 0.47010091224002704
-0.054032438281160111 -0.27785913219764535 -0.68876972923277191
0.61220276887310909 -0.21922468725667044 0.046443836415668738
0.56365493737911487 -0.11763304523152629 0.53670578331739205
0.13583347758196584 0.20671643880588142 0.65299243447476218
-0.13522365321138885 -0.22734906894002788 0.251871546439139
0.37162615774414487 -0.73061258177208377 -0.50913732005726531
0.12752959351781801 1.1355191341985658 -0.0098947455355498093
-0.051335875671727482 0.25870396298644704 0.70143222724368037
0.054863423766851493 -0.04863918042657317 0.75698101420478259
0.97638163363529529 -0.00066429631607800577 -0.59975311455492286
0.17146011072224665 0.2201062978028534 -0.41633278191859135
0.21108961711525298 0.34117022727517482 0.57418366177765878
-0.34914225844743418 -0.077159564534281522 -0.15499635039754933
-0.35553256374680009 0.41996347724421007 0.59563247073431103
-0.59865048755974382 -0.32497285759353156 0.5448488171764081
-0.82825014478806858 -0.23092901369423532 0.6355065583940438
0.74824861809250809 -0.19160434867343812 -0.35515434982094507
-0.72134401200044485 -0.023618640373578081 -0.34423065891206983
-0.16481742544646405 -0.32019181992593437 -0.33814303617282704
0.30247232812632552 0.093076031291230987 -0.14197546091541446
-0.46025732768215377 0.077966666129004936 0.70040020983446638
0.22082183085992391 0.012889685133970985 0.72597253362242542
0.16511900865623508 0.037009030727515491 0.00049252928118814765
-0.31046205324674592 -0.85392116293061615 -0.21552905979012071
0.60385256635712459 -0.36201216219969956 0.62099107726843772
-0.58002575494444297 0.093451156231229182 0.45634565522989745
0.18525416159132435 0.39073470580531744 0.59373439337628486
0.34925716146594787 0.027698665805707234 0.26130900087120024
-0.5498230156484798 -0.014406409732150016 -0.031384516522958261
-0.069034790899522136 0.56454630685311358 -0.41075141731022402
-0.27397801769155139 -0.19240922788170917 0.66609712574903002
0.21962971500084949 0.06612776947515725 0.43138418173928583
0.32536041043972608 -0.48676305692960931 0.086403931927147903
0.2626280700790935 -0.06637286849490287 0.68892074368210232
-0.35875639650338131 0.49797028077683619 0.41479571989281716
0.85755793632341071 -0.34630130173948248 0.6437511683146393
0.27615605341227401 0.27612435930730739 -0.0040305867903875914
0.20994264766504411 -0.54107121348163112 0.66697216051384611
-0.54368556192469075 -0.092635835860754467 0.64778571232362725
0.35217521425534493 -0.24201525748810504 0.41474401025600249
0.48369992332068223 0.81815649724813777 -0.37017434610224287
-0.50277271367483634 0.25356397295117894 -0.11944043533013682
-0.39471790102883464 -0.46551423938998759 0.20193204478529414
-0.0054545499204059489 0.60669685327340384 0.67284415732468106
-0.15420441019077069 0.19837656321382308 0.72168806976897137
0.080910498460644131 0.45244247975500129 0.01998401700787289
-0.60234546192836813 -0.41453505630662624 0.26929205211978147
0.058246441825626771 0.45634789639414725 0.70067372933270144
-0.75872006341388731 -0.15126211687772229 -0.14997358310848652
0.31410546111553961 0.51719467250345996 -0.24653664547108578
-0.54887846228546477 -0.5028826349746951 -0.086423563894719502
-0.44888937155965225 -0.12016175237098137 0.74209678235400411
-0.32934037094710789 0.017953675684626635 0.75210837632777117
0.29562263507655473 0.65357018989086046 -0.35287919512198562
0.38569317019459337 0.42685329626995783 -0.33163878073136832
-0.196263382954601 0.41401009537274552 0.72208398272661545
0.13503953406370517 0.27730016567825017 0.61250139558852879
0.23797818672220172 -0.017426383197184259 0.72279177121141935
-0.45376756051690226 0.069182755590011968 0.22270480493717049
-0.22647975751734295 0.12078001528465798 0.52255961262699979
-0.7755705140078526 -0.59263747601875227 -0.44804093095049291
0.52928177620425698 0.80018482140052005 -0.41689985559895915
0.85409077396574862 -0.35421232075719494 0.40783090507715625
0.30821903302971076 0.43962203627826812 -0.34532013180983712
-0.47496866064193277 -0.70683246257043275 -0.13306391744668034
0.58790435776313199 -0.33149502228533628 0.67017747487634538
-0.51010463664282857 -0.39063695419431976 -0.72914288615749845
0.050295139980552239 -0.21485774346061165 0.65681061216584569
0.40222324739319681 0.99358109152415131 -0.38346655477000291
-0.37439401156636976 0.31534898632500796 -0.48046430773178761
-0.44202056429885817 0.15503585268409986 0.71577020583199991
0.26015569884270473 0.54509815296207176 1.1208301293519374
-0.54401571820738948 -0.6398527891768091 -0.13758732268190932
-0.49869880544728806 -0.67028663345536232 -0.15388838980956687
-0.48169829131311515 0.84834859744342195 -0.27028801385942725
-0.12787534750945673 -0.1098350744620406 0.2133451663537782
-0.42474542264107029 -0.52003895332401051 0.85612537603955208
-0.39922063087495419 -0.41989017399250783 0.39787874411055779
-0.01885383324611789 0.73184971959756229 0.36558961041242077
-0.31878874401765467 -0.22879871270803054 0.62533135476140189
-0.25063643522737733 -0.14539104058443036 0.56676457773790756
0.39708349136133991 0.97789096487950533 -0.37742009817525668
0.21704991756503622 0.77783121016641554 -0.16802791254354887
-0.56614537924053043 -0.66105506966421712 0.18448669892446001
-0.245717412977696 -0.69565042967128754 -0.7695808599213585
0.46460793561771441 -0.50689140694475709 0.62162986735246206
0.14845414758550302 -0.08349135439548494 0.77592533512779749
-0.63614319993307977 -0.60458701034734752 -0.26689370405082036
0.26477623572561004 0.18874176232096185 0.20849232044512944
-0.27517050036364932 -0.082666510313338326 0.74447523189593579
0.076271649696968424 -0.28368639186453393 -0.09007349774828155
0.38450402439714892 -0.11076861986890124 0.32704897169304958
0.27280889304295464 0.61435492097332711 -0.2842049435434133
0.29174200168397757 0.27624769730554699 -0.13332485430796304
-0.15303522147459248 0.22734462463615823 -0.16569660989875068
0.16131203143783379 -0.10798589434947314 0.7602701079854155
0.70730599769398239 -0.43819341629704534 0.62196594354093793
0.21504820695279347 0.11665851623818835 0.44712578201723874
-0.59735505723852755 0.24830677454109096 0.52958656826569817
-0.23070098843578091 -0.050654727523703813 0.73925604745979068
0.31739798409202269 0.48359403991312278 0.44424066234560899
-0.0043208004409027723 0.44701917186379192 -0.1329441341409332
-0.26936802886496514 -0.0015575739820323786 0.72434155932844946
-0.23765975951060669 0.67861670518197026 -0.55656785546306153
0.25030726839486395 -0.012749118449300101 0.99758951664186224
0.3868625196600215 -0.17657792062091571 0.31372201490312657
-0.28062684902304058 0.90850728300077466 -0.31615350181626756
0.12053717359902105 0.47227175693955253 -0.81663537325614977
0.21473785147667712 0.91752790808716589 -0.26239829601382736
-0.26734236956429314 -0.73280407831734928 -0.17514706361782539
0.67432168788357361 0.33103558856838 -0.14113413766979344
0.55852304390224816 -0.34499492745456251 0.6877733467302698
0.248444565502286 0.44735041846985024 -0.84971628697977963
-0.17742735317646963 -0.17633834448570729 -0.17668753264451142
-0.57158745205107264 -0.56208971019135789 -0.22943180509378447
0.55067018478756813 -0.0094396978792209429 -0.046960714901466583
0.12435700622790291 -0.74087791228654432 -0.30656874622735009
0.35242875454135092 0.24593311962476816 -1.0959076708555451
0.22929921854107871 0.65538923288043249 0.47898445780622922
0.42328330102866829 1.1201683716742941 -0.33005081012812632
0.35999971451142621 -1.0040943217484219 0.15971771661736822
0.52317816020354124 0.39663408631093494 0.066641083764233722
0.82721762356031947 0.56487935671026523 -0.63414050086887341
0.22565487900421743 -0.11868944029057926 0.35253647213837747
-0.049139790948250273 0.14276283161940018 -0.12901678846283104
0.16079104778473807 0.36754763195744367 0.60592888163770797
-0.64773528455386487 -0.097822564762267472 0.62172881529584112
0.31353900918407041 0.94722583502423441 -0.30422161168442163
-0.56378115680060592 -0.012773538366322612 0.61492442288381688
0.2731343332367544 0.69238721973133233 -0.27818458254594569
0.713350867850707 -0.37353707474128606 0.61987906835268447
-0.33685883436556852 0.25329832809398156 0.59965426924489473
-0.027516994943056705 0.22305180150975551 0.19004193816191939
-0.60697613739617795 -0.38298373503832039 0.23411914866108563
0.21145695009149534 -0.08330774605132818 0.74457707197349055
0.57124660064240596 -0.38311329225583579 0.67099456230715782
-0.26253720884374765 0.59558031757234953 0.58473717135529779
0.20013510464134621 0.058250758693085491 -0.62680510161848546
-0.11662025876843307 0.0070811804073487306 -0.053968053919485115
-0.72273072616588752 -0.62635901214338763 0.33357078594328149
-0.64752389616382633 -0.58618789721012909 -0.28026585181843378
-0.22741046768138284 0.060040710741267933 -0.17689025659601132
0.06655629274790309 0.44412849470031002 0.20867524313057451
-0.26101610515731499 -0.19363975331001254 0.51978392703227239
-0.4532058029762025 -0.065541039647709243 -0.59089405042530085
-0.680456210667993 -0.65785931417926036 -0.30002860309200763
0.28301080758848851 0.8099734316928916 -0.28255676961395793
0.66558174217255006 -0.30479720994338588 0.60033990648759361
-0.29579524188623418 -0.1408891957943228 0.73478708382883062
0.27148701820999976 -0.33108999418234941 0.61318872452752449
-0.7517282234849203 -0.80689047500117173 -0.29633585925508954
0.6018608684474791 -0.31688707009697681 0.67114227355586742
-0.29674911291430606 0.24515432938498488 0.72532187938606807
0.24528787029706134 -0.038091537193023273 0.70027716259871453
-0.25202918809345443 0.14289958593244523 -0.31305558800668143
0.22729595688630333 0.6716181667977974 0.1984645505382816
-0.34048314584261385 0.10131591355717895 0.72484555694831942
-0.57707833196796443 -0.39511431187053214 -0.27300023293210174
-0.3002678364720075 0.49838393019787941 0.27871328815851859
-0.058671900489810191 0.38689395736790766 0.75244403815516603
0.072557912921460854 -0.78424440068891288 -0.20336496056713038
-0.47221615087819702 0.087694715958989533 0.63729361627714787
-0.44383463729238093 -0.56435298322618865 0.23111641174836728
-0.11985466215140095 -0.23876502618779111 0.52962003871799701
0.069874212153961945 0.35467998412536983 0.72860637111287474
-0.25614672000442029 -0.78158867472614602 0.09774891866291413
-0.10761193113664635 0.13448762084533322 0.70798751774899271
-0.51368802203149855 0.23384976555013315 0.13421287045683061
-0.26222035818852074 0.34970095267092449 0.67954194288786418
-0.66759257703686381 -0.4173090441805134 -0.17266440658511417
-0.55849655757526451 -0.16979879933065367 0.58587402570184755
-0.94980732774369958 0.22295366823980606 0.094771558922882804
-0.41374958377827697 -0.12281188377929181 0.75804051932965333
0.30249878176585643 0.39284706452581414 -0.10717792166167306
-0.55877905083814072 -0.54266312222324198 -0.20111902305330398
-0.6748563164461463 -0.43662077860054538 -0.22218256409805037
0.39589226990139359 0.58007036541012713 -0.32846279744171802
0.25390682099627115 -0.077738054422570813 0.68720195088802027
0.36621630139101802 0.39990890425421138 -0.7486667909959861
0.13917528623350739 -0.6349195219578565 -0.26226072406188727
-0.049122750832305329 0.020929714763555152 0.28290438050364419
-0.12692250004592331 0.3362290425150577 0.71014847604652576
0.31441057805408112 0.7753411851546228 -0.31395519033354291
0.1771095955522104 0.12271440991887139 0.62911157847071042
0.1301844093533262 0.66945526788581478 0.60202201483334372
0.21909582925857407 0.010965253808357833 0.70053712741569818
-0.49607808727482494 0.085176373729265231 0.6827399638212841
-0.12370394957649244 0.41533090572521553 0.70825837085941257
0.50772663382511585 0.5345523727835424 -0.54273072202416661
0.52114682961355019 -0.50250069495409866 -0.45033851168355521
0.23004327655015322 -0.37126622081317706 0.42457456110863023
-0.10137762584155174 -0.33529041221291911 0.8963625418256409
0.27604610098744509 0.91682098409581647 -0.24916622176522329
-0.24446771935024492 0.2406724915454424 0.44307133618777939
-0.61514243677146441 -0.52356486684973325 -0.24487501394409006
0.50002771006846825 -0.29903122533430077 0.33220890428719829
0.65825641765240617 -0.41908823798055184 0.66728955923328348
-0.65827995474194134 -0.71353408829579545 -0.26619308806497366
-0.20339397254305558 -0.85761437934331397 -0.74805225972558897
0.092317036543858588 -0.067069659557451866 0.78295816868852897
-0.30519494333397823 -0.50488779725359623 0.11498584291040581
-0.51453936077237317 0.49635266273959006 0.79123552732215252
-0.49846641563043992 -0.19802594120618916 0.63294146308244015
-0.1787052314699058 -0.089738226273366362 0.19155019106791782
0.38009996206055252 -0.21375255379740332 0.0091741112457837115
0.75071798984243143 -0.40057009742211713 -0.32906039939098086
0.43886308120352258 0.10146759938847777 0.61519700936115385
-0.037623526611095137 0.0043886995786095451 0.36320325290850564
-0.058886328284942557 -0.39613307140264437 0.55825488162426429
0.4777705403728425 -0.53902514903092547 0.67322318763293065
0.23315885582234275 -0.059703710039172853 0.729015049068507
0.55590646101057484 -0.53488758751555321 0.51871653076485713
0.36879931407753164 0.26706810485451754 0.49013217150158361
-0.12411442491171254 -0.4210552422081385 -0.35196598030998327
-0.048764696130568996 0.60352717074109474 0.69641511229975217
-0.22936546503505362 -0.0038967484075693171 0.73640538751077012
-0.43991275100776628 0.023200902678387925 0.74577134895172614
0.48201654008006578 0.98868767026078563 -0.41973196019341286
-0.13493971085743173 -0.24216907220884876 0.56433933522212998
-0.076661087914128068 0.99923451695936549 -0.62918108395712458
-0.12854582765446398 0.50628562801365962 -0.62948133130834982
0.30651781262362388 0.95351164247548681 -0.28962916927536653
-0.77526354897652139 -0.15081455073604688 -0.6595976967488788
0.1718974258822934 0.4789067966865031 0.58828015754874041
-0.1419230955406583 0.30827497836899931 0.72159087910994191
0.49429256186434278 0.67270156053825791 -0.40513840537197865
-0.065348239431324728 -0.32098594284763604 0.61700082560598934
-0.87834495069008112 0.0011033053865620035 0.24922671668309992
-0.38976200704662256 0.15740588041675385 0.23414964287259976
0.77354019521111317 -0.42728317315480102 0.39229253018231169
0.37380789336885689 1.1588051319553543 -0.31440889725045884
0.32675026249032157 0.93899323436262172 -0.32776988257763739
0.32090924397257981 -0.14391420121989323 -0.26009019949554024
-0.075561454383693327 0.15470962388700804 -0.2685314716792595
0.64427230512624378 -0.29235159788960502 0.62074632092442994
0.13246889437925669 0.76073339532563755 0.37524900738902356
-0.09501593738687264 0.23387728318900625 0.71332548972282805
0.78815663063345465 -0.39886368647183446 0.54493830241591823
0.38952594563394083 0.42345076807844284 0.28178964042377341
-0.1628829617825871 0.26471391447802006 -0.47570174814668897
-0.13258457740596352 0.698482259141878 -0.15144374501484981
-0.084518304900118135 0.27963391715881669 0.70544041533649615
-0.31434641732662083 0.25949673619846464 0.6809265755447016
0.85203629320515306 -0.35802972156302337 0.38042649611800883
-0.44950658324932258 0.29490409025835695 -0.16556584443596201
0.61380788734757052 -0.39829323182579701 0.65238223465104195
-0.035546951790381254 1.0417244754024897 -0.1986249733924832
0.40046101588205651 0.9235797895719069 -0.36621043766041272
-0.095270283279822898 0.28866480574380071 0.70690815747051183
0.22826428964552647 -0.38767139099742154 -0.098468043815588047
0.43897430171716989 1.0293098722272744 -0.38966420486900577
0.42551738052596777 0.96892272608122654 -0.38957155105332575
0.21906664675206367 -0.22253271615088116 0.72425612187501076
-0.18613670287320039 0.74703584579227378 -0.52223331569605369
0.41558304881908992 0.20246698355787629 0.29350649910949733
-0.72339273274757554 -0.79796000077059936 -0.32969558298033519
0.58105484587299383 -0.24668881580636054 0.31242749180547968
-0.79898396349957657 0.16689944405276685 0.062172674646944426
-0.36726387860032927 0.20577326061015544 -0.6462165545429408
-0.56198523991326388 0.6992510362535066 -0.6712298667209502
-0.80850402172370806 -0.78045910086950654 -0.43029970098775694
-0.39216303298522348 0.17879626938688953 -0.16818030855963473
0.4936712526365481 0.2745753514372386 0.13019631485540639
0.086182137133167025 -0.91820062205208042 -0.49718806743885269
0.32393626678772725 0.84241884469009221 -0.32150013283774403
0.11020207192866227 0.5327907130321734 0.60776124389435138
-0.5697704892639166 -0.15786649993552299 0.6352961207901715
-0.002733871401842336 1.0372514421196783 -0.19461875637180226
-0.3663394319666442 0.31888662396290507 0.52607425505249927
-0.60900216263024465 -0.15114949741336675 -0.25961362926235321
0.095437966667187624 -0.034282015555214762 0.72961446384040696
-0.43735625829632241 -0.22807607232491223 0.63607203251133049
-0.084418265469865972 1.0468830000190978 0.0083118574909679666
-0.35293907448266859 0.19929701855822174 0.74647516252592006
0.42628023699168649 0.7368663305012747 -0.38690480384079029
-0.49399073489746081 0.23682635993376921 0.7125369453885122
0.49345277723159064 -0.36989190657410886 0.72122391106042461
-0.02717452467965753 0.70515876226042007 0.56016756196400652
0.18956783159228552 0.40561008797999532 0.5248007438472635
-0.58809645349682094 -0.46441839703241627 0.71457555598015032
-0.851746299757282 -0.52241540200551917 -0.58120750768594953
-0.66912770900661456 -0.0019076123482563156 0.62022702623714476
-0.11248276975842675 0.49334944507328865 1.0567993402442872
-0.25624507605098623 0.39872501793252224 0.63977324745412933
0.27345604929580114 -0.22869651443669242 0.7246082794344233
0.56728867811184225 -0.33310818027815609 0.69100080002519459
-0.44498110043243022 0.76783535878875442 -0.21593817227251932
-0.28939673947745215 -0.69619315209299892 -0.14077170400714567
0.26901228017337786 0.6925820553854527 -0.26716489213573058
0.7106917927587193 -0.318717153149633 0.61362512718921591
-0.30035161677031885 0.033769063540027733 0.59215164049837643
-0.48905582117686208 -0.52590745661207605 0.029442600955421394
-0.28413009604118544 -0.15022790448889733 0.72730508075219769
-0.46094779966167776 -0.1936606457432537 0.66606644748039634
0.54173306439732283 0.93124598495202904 -0.40650573476716811
-0.021471178700154248 -0.3255741323547644 0.34448197824119564
0.0989483320514295 -0.36683935572460957 0.41943899642654969
0.70649442128444617 -1.2075307428588458 -0.075220325343788197
-0.64441671180332349 -0.15358429149804004 0.60509194099204233
-0.15420808693872923 -0.60861499672394637 0.30484055952510891
0.26219934024176306 0.49739972617090711 -0.36788951071585108
0.20280880179244809 -0.31612476182466709 0.92053715494287536
-0.37047528475101599 0.07814698795436037 0.71804151670982685
0.70798150456926745 -0.36278324615209268 -0.41958713570645401
0.53298575050591479 -0.47432618611240146 -0.85583407168635972
0.096561080176139846 0.72399352672727213 0.61278514396625949
-0.22849963536369655 -0.15597878131700871 0.40123051182070535
-0.37876035748574433 0.17259009157515959 -0.10179126849026776
-0.31994972193415894 -0.4172988794221254 -0.49183070014647567
-0.67495108029534423 -0.85734505229657532 -0.28198350091757063
0.23672431443165021 -0.16235242047489956 0.71736708249949177
0.14663642752706263 -0.054631963687789997 -0.21569357626513641
-0.049201966712077549 -0.83605434060638617 0.20857975517884397
0.10884280477744079 0.26145170253880989 0.10033947306052426
-0.15948593271183853 -0.26567640138365151 0.39181647575584244
-0.12889059870218311 0.73754202319006301 0.33734814682073089
-0.54128814256989477 -0.093872548142521384 0.43306084438630976
0.1739086701467345 0.98298768185979357 -0.37919251225981054
-0.23597798139465498 -0.085440938425865476 -0.59893846267725381
-0.13278467955054252 0.41801470421978504 0.71278527943687742
-0.17712364366576283 0.372641712787525 0.82366436065228044
-0.037457899203564349 -0.19034051141832647 -0.13796747964794376
-0.44393535053594357 -0.046413813482177324 0.53490541005705361
0.037165850237963483 -0.078852285529251165 0.73761150761906036
-0.24217720658078967 -0.41923323923766109 -0.42042090766068085
0.8134354243130284 -0.32205113214203346 0.49549574458460088
0.46456006497310431 -0.36941467686697738 -0.11352703438798217
-0.35779151942147847 -0.12278403116690628 0.75921849860764379
-0.29722512831302605 -0.38778268982778291 -0.46127026933616877
0.011528912745226272 0.90019141940052361 0.171808325641579
0.59442762166115592 -0.38077008300292531 0.62801908291906883
0.36325833189947687 0.20248580090865131 0.26485061664368037
-0.18951308808540279 0.22807843610558309 0.7324909071775989
-0.72321469682493111 -0.13177746383813332 0.56293754261114493
-0.55265172791243389 0.37166490140767344 0.61597390032668931
0.66057848018775545 -0.39678813446051775 0.62655739886112838
0.74980942232426839 0.27020525401042494 0.25091913662881682
-0.58226621533143064 -0.20464090958586395 0.62206940276206057
0.52186270022785752 -0.1752540331249276 0.32816560135504602
-0.47467506948364413 -0.068433973391319181 0.74059303587089231
-0.5792634179938605 -0.60300958925034343 -0.21955079578202974
0.39447777186090072 0.0332832332584313 0.1442420077662121
-0.85660184307528819 -0.67600816640975159 -0.46877878602432044
0.29134439082717511 1.0261243119915471 -0.24731905658328346
0.52304959347012847 -0.49715563584476397 0.46249425460055082
-0.46205539829464071 -0.56059924037545528 -0.023139288230314303
-0.10353113064211961 -0.43830692056972176 -0.010716294307878238
0.46255654152944636 -0.047053737338020152 0.49372015070014741
0.10538748001217035 -0.034476547396007695 0.73794202387044172
0.24768353537620813 0.18428156436133858 -0.19714182616455123
-0.36056568446305759 -0.23191766765188959 0.63760386455427964
-0.87010524809621148 -0.78445770207578258 -0.53029549654119079
0.011925016101227648 -1.1135158374984382 -0.45747583278162418
0.32761172076090883 0.98332109165014969 -0.37677953745267656
-0.69496179320302898 -0.78476571373192883 -0.26528606738932292
-0.07042499939206337 0.97179484645542102 -0.23778687538865606
-0.29433215637218435 -0.057416833831191227 0.76376586475008712
-0.085867013276834214 -0.042167164774925547 -0.17776447406746687
-0.25045508119451343 -0.10053531001438593 0.73549015394714279
0.23446611689385799 0.043488878239198558 0.48379418758022119
-0.60428251713559877 0.18728067910643437 0.49659086253274465
-0.74249840263629485 -0.6274912977180791 -0.097559449618507044
0.67427025679661057 -0.36553083358146132 0.58885384743873659
-0.41464558924256867 -0.98350329822513416 0.1658205610697574
-0.59723151832994148 -0.038376645668382448 0.54096137410030076
-0.72327590968880284 -0.60180271112567096 -0.35787839046458192
0.083924051985130088 0.32669547553619382 0.71755544209521882
0.30658701570546798 0.40035713427082842 -0.15057794953135284
0.2998576047142385 0.83490046650356053 0.21266134385841218
0.37530197137271726 0.52414811548346041 -0.29504157138526033
0.16130819581378875 0.23768989829884268 0.62923996372362523
-0.2929251167066198 0.44191367204555448 0.74713778215933768
-0.42426147981426432 -0.11607693810356451 0.9970803807341283
-0.14701795068156365 0.51887234304140151 0.71324831864166693
0.79650702002490581 -0.36684715282793268 -0.035178584219804687
0.71990580139561144 -0.37434493760211057 0.62035552328902122
0.40227388594109703 1.0137869642222348 -0.3819811398257229
-0.06162765259413483 0.42437915758275047 -0.45709293895847525
-0.28718735571078957 0.26117519668772676 0.72646957457607297
0.53175551290560952 -0.5541091086095481 0.63767984149113377
0.25624679760801516 0.96002948104320518 -0.31241531244943666
0.27160378630652726 0.86517657095983203 -0.24997139274641023
0.2912313665417412 0.90435813549866639 -0.2796627715857305
0.068555089856447982 0.3181778770985707 0.72846299736511666
0.0070232979703428455 -0.92509290804866406 0.031891396480306922
0.38380504754594424 -0.1356107263751859 0.67568563727951481
-0.28410705536849878 -0.28172154155834545 -0.23515964846383541
-0.59666329939115093 -0.47897511447336977 -0.14588342869231008
0.69637394132727204 -0.35686667451395548 0.59531704130846186
-0.69480649282346763 -0.56214766917632253 -0.32948350234349411
-0.74028422633367574 -0.50997665430281724 -0.3677814332896634
-0.28158323788324013 -0.56031523929178895 0.12059832052985109
0.12354900979069594 -0.019242880479144908 -0.32891822026344419
0.69244841599131801 -0.58707901054058076 -0.31067323565178051
-0.4745485758723218 -0.076426397498379262 -0.18142759942068531
-0.36395858959944727 1.1722506855474335 -0.18841496860493878
-0.34590260162014719 0.02843795294077256 0.31529878387532007
0.095856397663293791 -0.025677484920689442 -0.50440944117638065
-0.24802832971077926 -0.47163920967323181 -0.069172099034417123
-0.00015758196424942028 0.22243186241690016 0.70165412203260091
-0.79854047988719379 -0.42670029531787579 -0.44223334237009171
0.094007647626868973 0.57868148105339379 -0.49137767943365773
-0.18903798087459478 -0.040558181241275193 -0.5681089860032178
-0.040336865262223576 -0.81866863026980086 -0.52835142893798426
0.26941177605648159 0.37812429598051411 0.30908383740066281
0.27009651987346617 -0.35278047515329242 0.70949869150893563
0.55123779119125382 -0.15115223263251365 0.45627390270674439
-0.58021169849947407 -0.039459391431617363 0.6438856405007225
-0.14843631718290151 0.98717330545181425 0.057733938178902378
0.0073984881539477243 0.47136645351895834 0.70917208624765826
0.14145320503911307 0.11487338582009077 0.26185434558963516
-0.62540303291889954 -0.43360717759902401 -0.36437610189155256
-0.01425855265577658 0.24412233350296941 0.70414139728564096
-0.018650925394098294 0.44382921094456701 0.73421899054196982
0.62379842581675238 -0.31069025183351406 0.62472313563158766
0.15932844148591574 0.60182738170401306 0.35793844144897058
-0.52550644931428314 0.018722261651899774 0.68220552264859302
-0.40271170882862917 0.07680175329293637 0.70881227684324011
-0.85810770236886857 0.27267585242945613 -0.52040358252856289
0.0014098680181269252 -0.12519427356388779 0.0050496634743417701
0.41777509688180103 0.34136411194356447 -0.66842293130303143
-0.26367019306258399 -0.067788153628757786 -0.91896519686136835
-0.14475733243400768 0.33129061136803339 0.87766436345002496
-0.36894182721585 -0.097011207869823202 0.77829788548027068
-0.057339037901608325 0.81693147418803114 0.074152626565728852
0.43099146359470319 -0.3318325724281358 0.72414724925614604
-0.36032517282883658 -0.24511495360406582 0.61596061381696177
-0.60567825154447075 -0.028922554005194001 0.64006950773016658
-0.81102245270842066 -0.86204662941617294 -0.36073775955681198
-0.1289304792014514 0.46234703331813687 0.70503521271074421
-0.63053635344155468 0.6090098332773457 -0.53737866277962065
-0.22541508931089949 0.63155015976829132 0.59469900265460396
0.27534464666337621 0.011868120322665043 -0.64616959215154535
-0.83739504616423366 0.072675407191971797 -0.050110206224721843
-0.37616869544258114 0.3581578152440853 0.13110835934658183
0.5361036203147771 0.80121944634258524 -0.41486602431133401
-0.25852578011761107 -0.11891175616081279 0.71687891838997819
-0.20181025988482615 0.58515408271364378 -0.60422273314706354
-0.14433240152501448 -0.43543580059435827 -0.41052477420253308
0.25355774130786113 -0.23558967534863662 0.24098556748103461
0.4159138691721278 0.26110985797737873 -0.26330849005835244
-0.072296458268908292 0.47768929143154371 0.69506987406795129
-0.4405771637712752 -0.97152856011264743 -0.21235364685917024
-0.28043889193201377 -0.66652262935619233 0.21150849146959394
-0.21213877439403683 0.63520188797478028 0.17218101372606465
-0.65377356622277372 -0.59884496537804066 0.37455010945324507
-0.19985450423469953 0.045954369894341651 -0.22228059407860634
-0.30410489570883037 -0.039612263444358975 0.78145820498905239
-0.61488049854248539 -0.5176326408722417 -0.23409999979821339
0.28525772773779723 -0.21433167180894119 0.32082882374581545
-0.57919126480700189 -1.226726009210684 -0.61709226497775616
0.098089663536263583 -0.12994866187904364 -0.3772534203995539
0.5058574114213612 0.40677736565499456 0.074534552348712424
-0.084147718696730767 0.40963199435214986 0.72513299972778045
0.44333652101298915 1.0229013955088031 -0.39928594113496074
-0.28347745253207535 1.3076558968017924 0.051721766871348329
0.15618272013109458 0.71673962568086458 0.33084499688104141
0.055864674354933364 0.45102878057108653 0.70648920641463353
-0.23943540501851723 -0.16935403665844284 -0.1906491808208246
-0.2558071689876158 0.76355241196805013 -0.33149164761277827
-0.52102920665925057 0.56467004020959655 -0.67236162246464648
-0.37748774373261185 0.63504304019545921 -0.41957956792346085
0.54147087355749424 -0.13771434764986923 0.59188340554380381
-0.41339778485084278 0.17862814103056018 -0.62537285988539892
0.39185827723041866 0.78831696035443277 -0.3619745700740824
-0.0031496332654521453 -0.36251057038118306 -0.33500648910672015
0.26058223701656269 -0.20015803362782381 0.1923655162466158
0.35665299082173041 -0.34420357785662159 0.72652497031947072
0.37932416833726412 0.30982322532646933 0.55285282540652569
-0.30138111525973166 -0.039847684994938015 0.7767736740873461
0.52397618918725763 0.62984997178484892 -0.38491362987811728
0.46112421735022036 0.55562801024424857 -0.0078541171662775966
-0.45322246033473235 -0.872914842573984 -0.24212103362669901
-0.12974426862887434 1.1082846022288328 -1.0550122807244418
0.041435898426997131 0.27991512783934863 0.70568402993557111
-0.019620381360345718 -0.18792963067530227 0.97505804880517144
0.56092129206065833 -0.49264620172304968 0.29255568468954496
0.086284974485807631 0.32378731261824406 0.70507571803836511
0.080126610218578698 -0.30279986998916875 0.3870015460747509
-0.45121023694433582 0.38747983145119846 -0.38262349997303824
-0.39910692926013702 -0.017251659940290875 0.7746381775441693
0.50256957235743993 0.94717228937399867 -0.40255973552059277
-0.068289529723311038 0.20006092384701929 0.63057353162881924
0.38205272685622926 0.23777896860820436 0.29696355436946242
-0.13341509678033336 0.36429685362152026 0.71063196253988403
0.50912949122876272 -0.23679627345916698 -0.30274950982271354
-0.24124426186846959 0.19429239685086541 -0.66619370413924672
0.32152598682524225 -0.15109696605987322 -0.12117520785814206
0.27302997983420418 0.58930746989236749 -0.26504365898941074
-0.21274184429701348 -0.65587694583382483 -0.66510620697914336
0.62243692183445765 -0.38522435865014648 0.61690803913004988
-0.55914331211229573 -0.12458282424878975 0.63040897122835293
-0.13965735199502971 0.51844253059098699 0.60347860486298344
-0.52164572410659149 -0.018845651509843964 0.67161895794764415
0.3533742971861269 0.7101893642560041 -0.33445804496702469
0.41075312514157902 -0.76471725252155431 0.12542758201094428
0.77359890088409022 -0.45430941714298156 0.47815218018728611
0.65256368287959265 -0.31205836635504552 0.58693813998629984
-0.11198850178836572 -0.41848958171974576 0.389988042118109
0.21732995756762996 -1.0833505290885503 -0.72521704438820689
0.85058270257571511 -0.40982269864480209 -0.091240870842417721
-0.13191911380045518 0.88508026805129036 1.2178191378886805
-0.081377179783092224 -0.13423998094943668 0.40073978851012493
0.18103588008174842 -0.78030191866550169 -1.0721529685636353
-0.31380363630329278 0.31604836740946957 0.56297845803576285
-0.19406429050116847 0.13959129118234259 -0.58708014120847896
0.73967137264518001 0.47588253853362011 0.039643648265927922
-0.20155707500758435 -0.17752193675671735 0.72649913832854662
0.26378960332405166 -0.022607209654756155 0.66782118992909578
0.46629879648407258 -0.14587152060366593 -0.017594967325583966
-0.10016487587863621 0.024548064634956512 0.68064002250188582
-0.099796599218334503 0.19415393293137212 0.70933688701330366
0.63882348490720942 -0.090630740871563864 -0.27012163834582759
0.80134717688077961 -0.38620499760183852 0.53005519808805945
0.22007858155951077 -0.17390603654717973 0.72106107577767964
0.12101301755367588 -0.048149556577685715 0.37982754236475325
-0.14211984605671768 0.32768443613105369 0.72132539534925066
0.14408600215482803 -0.36413764888715738 -0.58271023390546839
0.038892893115566984 -0.066463055100456303 0.74672381198598936
-0.23289415309457961 0.42193862234159757 0.7437455579020833
-0.1687606542049731 1.1819183913542795 -0.47904774639484726
0.1976422121570538 -0.0065048507666525812 0.75407276545280588
-0.8005170501615515 -0.6899357383256618 -0.44628773175191316
-0.12414106444151862 -0.081964721460645318 0.41553565463360687
0.24885680027093482 0.64579699980597394 0.34404620383436235
-0.024092552168609505 -0.34184544726631955 0.25424091078046707
-0.018047350897449022 0.37487475102396589 0.75250600599173101
-0.62435935603807735 0.040857903567968978 0.42989624798034409
-0.45518577930878967 0.021516961670299484 -0.45072623026257697
-0.5980038758715045 0.10318801405825168 0.04981746419556865
0.064839423484978287 0.99461091940402702 -0.078131277542232924
0.2723695448528245 -0.14146744997699512 0.29017244827943367
0.22912693962066211 -0.61418726710492644 0.28703943446679947
-0.29554056539530915 -0.12294747015569235 -0.045283811427388354
0.27216740380498594 -0.33512013746050712 0.55410293530181032
0.52705663994879703 0.30983935607229285 -0.18494550574998359
0.42217399275629175 -0.082949805674891186 0.026599369305833731
-0.042955602048189601 0.86677681899157299 -0.17245120620797882
-0.28293108856064197 0.28198168063188417 0.7280572777562706
0.26452852104927294 0.010921660711164294 -0.42068033594395482
-0.61374225259109672 0.12189158776405873 -0.29123308876174692
-0.58920403535821153 0.14705507497359277 -0.61554118763149157
0.0055408443423918818 0.48076733451609982 0.69431553332854845
0.1229144677227878 0.22838193315072647 0.55813428149771349
-0.70941365274074752 0.0087596058190489434 0.10501660389199041
0.79401453601562055 -0.27369473081469703 -0.15248860818399401
-0.080367146337231965 -0.23424952497708279 0.51997522341074554
0.65991642574956755 -0.48362957606033996 0.63376999181968796
-0.44585284617295606 -0.075963585619435281 -0.46676913332958847
0.067612444919723735 -0.061150478237801398 0.77659436607059962
-0.55338525213387868 -0.40157112633121661 -0.32181906111821723
-0.58476919242554892 -0.63329262495729655 -0.216408320942576
0.24172905239941667 -0.26567414227473107 0.27944289397325361
0.28096074341034249 1.0646094944804787 -0.2475900125766024
-0.011497484290468929 0.21646666867355591 0.14807920815009723
0.13182563511386647 -0.33730429752636026 -0.14693933888793831
-0.2134283391702092 -0.12454987985840249 0.19043374088972365
-0.41368796365606242 -0.15062737203473014 0.12862292537296494
0.005428993927142578 0.30082813044204304 0.7467058938504294
0.065036944740628932 -0.3922850559092308 -0.0070975618296804655
0.057791689897992882 -0.43563087696878028 -0.13425491889118013
0.34707133329973017 0.45753191565433138 0.26784656035589927
-0.13765738730099253 -0.11803556875858418 0.42576596106464892
-0.43513771481083863 -0.16449859596460692 -0.2007941900326542
-0.078479724753924174 0.88274720916223626 -0.20482112149776466
-0.098124537909077603 1.1886619216461272 -0.15612823469582193
0.087175655133916674 0.33878620552772576 -0.27094277970513403
0.27225796994204021 0.66427430402105181 -0.28041611389107657
-0.50569115631680139 -0.34466073636030875 -0.45898662244177268
0.53610384027251046 0.2280726489794398 0.52317928671520209
-0.31321095451379266 -0.32101417524288606 0.5964516210641011
0.020781869265684705 -0.55637928241489454 -0.32245471284784277
-0.023071311681432505 0.69864816294885435 0.61621095829520334
0.28090386084578745 0.3302506100846237 0.46332950504983117
0.55949803444073387 -0.54728617165790716 0.62877331171657525
-0.51450743268874399 -0.18912053053753186 0.65493927154569476
-0.026990302726324966 0.24127133810550622 0.70834880080875107
0.25110219995444449 0.037330618485360401 0.50103441782251301
-0.55533117248897668 -0.20133184510878127 -0.0010188529504127075
-0.57754443660377186 0.20661486989850569 0.50681800933295618
-0.26337084195998806 -0.061663407612858712 0.87814246539568419
0.35459006351779543 0.50076219288612112 -0.25654249373004956
0.31800513337441494 -0.37558492843280172 0.39910619388244317
0.097369434245852204 0.70500458302929725 0.62573545388272467
0.058999531532220928 -0.8090745664816984 -0.17935046857216541
0.39051807876634914 0.91428856502573663 -0.1001615786407144
-0.32716361062164756 0.27191595449334444 0.57792772768133704
0.26747282364326574 1.0257993761581388 -0.2973051650805516
-0.022738970291488858 -0.003123643857125713 -0.76206310006475375
0.86411819850387106 -0.80896762435657454 -0.26161070744940407
-0.19251458949130384 0.50193832611735689 0.22490035182365609
0.50621797059301787 -0.25759092327775124 0.26818132940351491
0.37570972416324944 0.52826785786815356 -0.30467647348965543
0.16210506459569762 0.051929712774526071 0.69233704952046549
-0.40614034836811985 0.061608893000190013 0.71077852092417904
0.66152933565669025 -0.31570697380868795 0.58313330920184558
0.13650586568783885 0.8539759178454096 0.083070928651546749
0.39593315059512024 -0.46835287807053172 0.70147324667535682
-0.17500914653592403 0.34856999879946077 -0.080365932829729481
0.24469967546450055 0.24962185631835776 0.73787667757165143
-0.46471555199911485 0.058296315213790195 0.69501619475854448
0.84156526258477538 -0.36026705530793673 0.35517152801373797
0.34772163596483541 0.53528736905249774 -0.29799767156860479
0.01445549236093413 0.51225353740110213 0.80105435281916537
-0.0039355391017896757 0.32034299830059354 0.75210643793060128
0.75597293209310701 0.021374475148429717 -0.75013859108688741
-0.23486522698979773 -0.089327517144071278 0.084944895438341383
0.59611362024254921 -0.94573256434869357 -0.28023351603675617
-0.2281864254713537 0.96245616495748154 -0.28308473360379116
0.68751300797126502 -0.39508133204442963 0.64041015420208813
0.2054432059567568 0.74972728112767961 -0.33470013848985447
-0.416831117948953 0.12690436778903519 0.71083968730783487
0.25686291207894829 0.48700868011100118 -0.20746231323045405
-0.45435370269397302 -0.17776663116985608 0.6851133501966753
0.31944512038234452 -0.45400772848354404 0.46878276398960805
0.134727269376266 0.15957587105604376 -0.49778472337065605
0.28922129774870475 0.33967872363543083 -0.022062159862075381
0.73388858483839892 -0.32017057461850029 0.59562579219677048
-0.29459552903553643 0.31160145837602182 0.70906696351217535
-0.47915670658760989 -0.10339186389130045 0.72651602328870291
-0.20210215160635192 0.44615194953472226 0.35351270313918315
0.13075468723029404 0.50617445076926937 0.60261838162237114
0.020095649002573879 -0.26990220788208663 0.78750706095399758
0.45974574992693018 -0.13524327370021849 0.64274923035497467
-0.66280706131445966 -0.15678240517444691 0.6039260980841259
0.22926825948318674 -0.10220326104014094 0.71133959184787598
-0.3663914081551618 -0.45173518860938344 0.05689780198404315
0.59511276571238847 0.20284645651556232 0.33150104949149717
0.079956270818529518 -0.34787750525569905 0.21252305835286456
0.65146194486790909 -0.1895535555943092 -0.037227191249564084
-0.43174068836382062 0.40696502724732081 -0.32593740337727173
0.30257466520683751 0.10590671785722 -0.090048682468327534
0.26339101401195997 -0.38694578154003234 0.39162994102673632
0.026278741256068106 -0.15992834206652318 0.69179188574341199
-0.31042725888236067 0.4497824430624045 0.73112009340742645
0.68840881851306612 -0.37968746931783487 0.60616298315363415
-0.36565821381737207 0.08996716091274426 0.72329591745796584
0.16222385878329382 0.64899759097482312 0.57079403551562047
0.2836655706157214 0.15370452116744321 0.59370647962082201
0.5026565301088568 0.11697064529468609 0.31528964285540129
0.38887146071269774 0.76481938127720406 -0.35942949803671098
-0.23356703897619147 -0.015719208569903609 -0.069199104090016395
-0.56677684142794904 0.13317781852827049 -0.30074754703103057
-0.91063539626506662 -0.55673724611162134 -0.1426029856027613
-0.60561644430488704 -0.13703019724794802 0.085167579197251708
0.16522540085569704 -0.053877249055740317 0.40508069915970846
0.061922858491826993 0.28788229132788334 0.69892562013634718
0.40722060101908575 -0.38016742978874984 0.37543981890353439
-0.15308491467060792 0.37537310738310042 0.71981640165976812
0.30229713918114065 -0.4646474189843563 0.48995521695428179
-0.67059340230477971 0.12384509722072956 0.49163268867696197
0.09840602420219513 0.42495222411541717 0.68237016788629767
0.93457482103519629 -0.079960535538805055 0.18097197061052994
0.1285124665206796 0.088129209523149732 -0.25805302574612954
0.28814328025515668 -0.28756628740943013 -0.86016279771102888
0.083517274940761332 0.54330643167027326 0.61346172544298461
0.61600830437758169 -0.31256340918428038 0.65136717583322112
0.21750272292297135 0.11480236615225492 0.46048213520656489
0.083898273583034477 -0.64912868818596514 0.12405525737965029
0.42960870356698955 -0.15930050105919175 0.669363260229908
-0.72512318168692991 -0.826068038231485 -0.24305630360849761
-0.014069181677170306 -0.27384463384748903 0.34658822031275527
0.2164123135962317 1.2191481053386062 0.054975902004712252
0.30099635673125258 0.15899808518721226 0.12885674638098643
-0.67540804452501657 -0.44462126764413162 0.52865126252389461
0.1262044905695463 0.4824388717496213 0.60127298374324023
0.31776526713232967 -0.011827378938860544 0.61130249318750929
-0.36831772529172557 0.24277256072696252 -0.53081161883170402
-0.19886127886642102 -0.13153300750632008 -0.27375644845578107
-0.025852879538660556 -0.22909741812302453 0.53490531172234768
0.64765572486415834 -0.38816588071778246 0.61031939098679211
-0.48823828855705198 0.022924449895772359 0.42051472614856622
-0.063882269458598984 0.22034551774638661 0.70803421427650126
-0.6960782480669061 -0.4893972268576226 -0.28165890655389858
0.18017984291355083 -0.25734943756247231 0.7124462114243908
-0.55367964589266561 0.32262220366400068 0.89511258990435649
-0.12885862891033195 0.36588529391388475 0.70582438239115342
0.2099774066484219 0.017841964990079395 0.0039880360256567826
-0.046388961929594519 -0.84890578218515156 -0.40450188251438446
0.11006656537485426 0.93901372313698706 -0.23845012870179882
-0.14643494661836831 -0.12945787141977438 -0.53768047112639428
0.32417158990799022 -0.51117207317679103 -0.15134337188728142
0.66800740426212535 -0.44139671165632804 0.65404703344521264
-0.29510620245495067 -0.6602528449137709 0.60857869943752418
0.60266701840308112 0.097173068134133844 0.54342563759901363
0.64493838739347042 -0.46482962159698082 0.046264114693419733
-0.21686974133959369 -0.15646181481268823 0.7202944890128411
-0.57145833145263225 0.061220080458582404 0.66314106182311039
-0.51522866504284082 0.08512048207940065 0.67550499391007857
0.1182123234852277 0.35694367837411944 0.1909779215809202
0.21756192886831238 -0.030942022501310174 0.74633787314745414
0.29223166160504377 0.50363354776297331 -0.063064074406195436
-0.35038120578829535 0.022322894938396676 0.08963868090993854
-0.58822004054587174 -0.35616753144559987 0.28687637358334461
0.18292099905134229 0.82827563837677953 -0.067000199030059715
-0.25124585084942286 -0.15583292245170577 0.11722066188823366
-0.12737486284279909 0.2887332123687405 0.18500232236809944
0.44552247850730398 0.15229669996792816 0.38704940698659929
-0.77973708279825971 -0.10406434109097967 0.43116273076298817
-0.85340134551619418 -0.50860095529713045 -0.50004962470884595
0.30620873406144611 0.42897134164816947 -0.16038657630970188
0.18788350973839041 -0.20360364395143443 0.72283726825568539
-0.2377581849821806 -0.73692917691966564 -0.19595144434747347
-0.17950588996603356 -0.20260620864685358 0.68507268281958611
0.26184347578866385 0.55072954445026867 0.23046639473688368
0.26408114332547017 0.5379324847858552 0.28365082856049262
0.22113709965216266 -0.2128120311642539 0.10609194819116485
-0.75976413157599954 -0.49540440077949494 -0.37203081541917804
-0.80995711665601711 -0.79653736019972299 -0.36149470634618419
0.21241764441684641 0.91520268490814671 0.15891280470339497
-0.30035858265813742 0.26037670211478936 0.55769813522755385
-0.50923411901383497 0.19362601395994011 0.71387441978431743
