# XYZ point cloud file
-0.19951063431308011 0.15479345671230899 0.56705644010875444
-0.15081634566155527 -0.027685553593088358 0.029840264013291207
-0.086481065318413833 0.22119061422349343 0.43312290073505216
-0.11939864847498197 -0.19744973075216027 -0.046008073885398071
0.0033646134644557124 0.069165715677109857 0.022051854539205884
-0.45966175385808383 -0.24951403858977522 -0.29529193357112782
0.16358990991230471 0.42520653428668326 0.25574315505152806
-0.089959391196141075 0.18857747032347985 0.22039676585904322
0.14646352739802787 0.15275658031549522 -0.070620367549630025
-0.05599333498628456 -0.17088723325176874 0.32721708110419384
-0.18829607315858421 -0.018025955108646186 0.16385014086276539
-0.062889580251955568 -0.075999883006179519 0.25437702875057461
0.45891809732822253 0.33580201889839056 -0.17677603646726464
-0.23235533286170124 0.081728304456809092 0.39165982630120816
-0.19407814602635939 -0.081085964524466508 0.19739566572488432
0.22435620683687293 1.0126149786369971 -0.23331964214969159
-0.3851345480979721 -0.26708272792552318 0.018567517412868328
0.30055274264460435 0.38436966935912453 -0.083803771379778624
-0.28812445595601954 -0.12336002769817138 0.080165158434823525
-0.46338796868535548 -0.47882984041765808 -0.19419548621131855
-0.1095531512929333 0.31415580657397379 0.064340902654839716
-0.0059887995852801468 0.22540638381535993 -0.112922937235441
0.070896640141773826 -0.23031893555222924 0.62083726050684018
-0.079018255660241177 0.14100123839792605 0.46208950558191952
-0.24148779446084506 0.021456458588656774 0.41728978176900389
-0.024548914822637158 0.24569044697479483 0.21523354526220717
0.083557467056758039 -0.2244846592034945 0.62703957148440681
-0.1650634670929213 0.15910461568830292 0.25287550039773143
-0.60589141369632882 -0.34084422789869961 -0.39004376652757156
0.096043345175802486 0.29118896031519997 -0.053181775943220377
0.086096524141826281 0.17402698775950387 0.47885335361086229
-0.13862364904274971 0.094575154967004971 0.51556707453444073
-0.1053133800221983 -0.12963673365492306 0.40415242298681964
-0.50552494474721787 -0.26373152457599125 -0.18455467670590098
-0.4071880126968197 -0.3121218809002001 0.039182799303521421
-0.26611086386697447 -0.51512071937121073 0.10199511564307173
-0.18992106861134772 0.15363651500612108 0.39456365589236386
0.027979955577897814 -0.19034552893505374 0.62491193579940596
0.20749463338464635 0.31327918951886879 0.3186616760249868
-0.35868017613342396 -0.1387299130178147 -0.23341002233734864
0.10510105480892962 0.16942514819043997 0.46147758415100376
-0.10844806177095662 -0.17365676477822223 -0.12478778208991359
-0.13612870930297483 -0.10312027740899296 0.18569730927139394
0.12554771407718923 0.20017553521842069 0.43018867457699356
-0.063494329960997048 0.35251112022309355 0.34257424595197378
-0.059598789360323978 0.15047870784326292 3.4205946636944873e-05
0.026449496069870598 0.26469996856389955 0.43418863027717264
-0.018891833808974912 -0.0096461608116022307 0.50810091675856284
-0.050018624886195462 -0.21707967904914863 0.54823307113877351
-0.32141351154117759 -0.091286230836484045 -0.37069138174525151
-0.060168293541730977 -0.034639441984962535 0.52089025440421732
-0.55093926252133929 -0.27651766880825357 -0.37330434782718769
-0.68194889436417272 -0.48547049068048309 -0.306422177809622
0.36962412660271105 0.43272355721439026 -0.15332209822489162
0.062470563725568223 -0.018897066954601548 0.56555293783505933
0.16859729110404781 0.69035150108558319 0.055117539106642688
-0.41114063061869865 -0.29752959496241516 -0.019592556274892203
0.30726737106503788 0.7963334071814997 -0.63633713477038789
-0.11467030985794618 0.2826078993675426 0.34069244688885925
-0.404153193663083 -0.26698762238396667 -0.070612712446346815
0.095097803245042467 -0.4184375796250091 0.034919078550244675
0.12682224371145551 0.15384732757986286 0.44507467159568159
0.097760630559163147 -0.19998795342360559 0.60416731327572426
-0.41447457319107261 -0.31312858835731605 0.030169977347657251
0.069500016509921436 -0.040663029473804041 0.020161019887544485
-0.10301468288566143 0.11026398445264698 -0.39897275321439596
0.0085864879796621052 0.50596691030910956 0.25617084487119662
0.15526804872294925 0.1319079896800083 0.50168549740153701
-0.27261157970962285 -0.10729932989640659 -0.29532641418792671
0.083516070949826382 0.15905450040875452 0.46646501405123114
0.24659552334749585 0.35367332015246555 -0.10265803920206079
0.13857302042537389 0.31932785622525639 -0.064114297731291792
0.24565703797047278 0.38639983778920639 -0.010828395281412606
-0.15442724925419124 -0.06699972576352442 0.20895341635588471
-0.11800715959814628 0.17760233551070517 0.21650474896835625
0.058398834857043003 -0.1617532216175081 0.41767154171097282
0.047993880038089937 0.027722449451536506 0.54391145033297028
-0.14463029474198663 -0.14776036751567997 0.11437969634981093
-0.54034184431664067 -0.29238117133348684 -0.34400027419184942
-0.056167285658049015 -0.017864118681667401 -0.44681704858990245
0.24946507439676852 0.13455305368160522 0.0055977480466293805
0.049356592546019429 -0.10522957012847836 0.38831434618999461
0.039824824153748356 0.47394931071459051 0.0099143511721869748
-0.48230120338263488 -0.3690020000467108 -0.094455305218899888
0.034443070768656187 0.031299479639199469 0.56387804183681411
0.04075135289239365 0.38464712578040405 0.38521074928571214
-0.52287097000701033 -0.31036551791196482 -0.29964123197394543
-0.66200612020789951 -0.4314548253046081 -0.38889518494775854
-0.013880798440991382 0.0099628633032759831 0.58788723219368921
0.23193672172618962 -0.23554927510261597 0.58411263844776062
0.23522182639907152 -0.28178911171518739 0.49548209090508177
0.065154025032308382 -0.14279546992991909 -0.10502164667315805
0.17184023273468779 0.13583872574011419 0.28532789786345053
0.42727265379641832 0.1160020388696809 0.12081528431991612
0.38772748597472284 0.44163411927172525 -0.16692676751534835
-0.35393277440973636 -0.11669228134191686 -0.25940052904316346
-0.092272626814494538 0.33390868107317934 0.37979939437545585
0.14434819438658067 -0.23764233084905745 0.62010601330455239
-0.060412023019082994 0.0022650785395876838 0.22148070165991479
0.002457705609818478 0.28530058412471898 0.45222390961038
-0.069968003669123563 -0.73451612555512813 0.060801991579310044
-0.070308150542191875 0.31647984483724934 -0.065750883016253647
-0.10902931486629459 0.2513586676218334 0.39813052988965814
-0.42304030072035381 -0.29046050273604684 -0.10913284352594887
-0.4090142937554665 -0.26508661041441284 -0.30163127140018298
0.19679359272160457 0.39045967483889654 0.30602967055676156
0.0092702937613720893 -0.16047488595228754 0.61647805992132942
-0.28961251904077523 -0.42876054537960662 0.076819923164812121
-0.1004654958593612 0.26184370677864743 0.40148099103303198
-0.15035682409882956 0.21934708156064556 0.38262418986841756
-0.17672713558321901 -0.13337871429263767 -0.039140251449211183
0.1091226917200821 0.19027036934658176 0.070190077582868382
0.13429642444323386 0.07989601780447643 0.51704502600207203
0.04786430193555602 0.34642040701419663 0.39338508378934695
0.20373231755421578 0.19585288942605228 0.015246641662119365
0.058548477397263349 0.40879807823037217 0.37632235877073206
-0.49920349923429114 -0.36679956441567174 -0.14047156556718154
0.057431847060984892 -0.17792647052831073 0.63413013690114861
0.2295801452116466 -0.27290630521814041 0.40252682340190366
-0.24106962524019901 -0.16538322632311384 -0.15342235746489163
-0.046349788031850525 -0.44549158335849826 0.18325844611097986
0.013550567440674899 0.13960877239515196 0.20128997590705983
0.15599379985255726 -0.27165251099148185 0.57988866486963753
-0.045491655398828407 0.013815838189557242 0.49126402957758958
-0.67736635455965311 -0.46731721026225537 -0.35969170433150988
-0.31760260030921106 -0.30308004483110279 -0.11073895059136518
-0.024123302845386219 0.26492973490152449 0.44581083600127613
-0.082530285568530676 -0.050781794064313671 0.46962527875935223
-0.17722212103525942 -0.11840004623441494 -0.24748782924403601
-0.076308438210102858 -0.16589371625481755 0.26218830826134182
-0.31648954948448038 -0.22744602042331286 0.31041362778604714
-0.23558713789139871 -0.42410426414146113 0.18511337942451711
-0.037405294810832768 -0.2363912773674326 0.55493203431499794
0.35188400873099523 -0.33694542682157674 0.31629346858633745
-0.43272010432416863 -0.39813298342676706 -0.23651042157406377
0.081835304435186662 0.56818850944644383 -0.26696190123993202
-0.1459654443340829 -0.082981857246246127 -0.083995221662467867
-0.017986392249250804 -0.09012601681836481 -0.022811108155279647
-0.3495120677852222 -0.09317497506980818 -0.048821508034059491
0.46900240561564166 0.22617952234169425 -0.13260506760330792
-0.12053025637887875 0.1483106217479816 0.49682305402034055
0.12977970796129595 -0.20491621559763418 0.44613166958122225
0.045398944244909867 0.30651318345880596 0.29887309992355149
0.22470291369355438 -0.40310139674680567 0.20067521551670769
-0.31807512670537141 -0.16621167686751098 -0.2673320608761951
0.048876637430863457 0.049198744323147789 0.33026865587222148
-0.099858117325550291 0.21291313614720719 -0.15395746229286011
0.011494660512492094 -0.21858290528854585 0.43287442839885415
0.1135379596334537 0.53056239275288719 -0.15913240825014208
0.048270454403214674 -0.14045358186963572 0.58447984787583951
-0.039131263228274316 0.115273139828431 -0.18294578311874388
0.16948675712181888 -0.17780276288131325 0.18687065726267532
0.23568223924560594 -0.22843462439759651 0.57257583791504996
-0.45416478330359134 -0.34282944809156957 -0.060321721231718417
-0.07802926655198511 0.075793636692488273 0.44776575035046584
0.34048043817219853 0.4728282009599678 -0.11710689026287446
-0.24517246104409701 0.037642063897517897 0.079246112202688623
-0.60396903243139066 -0.38292667820295445 -0.35443223673615831
-0.48772866794854752 -0.37022738912214437 -0.070430242517516506
0.23969282314546964 0.71050628995618914 -0.18918696959193981
-0.075424384063124572 -0.20388180643091941 0.47608664122621003
0.17424402223736901 -0.2279803975249263 0.61387603254002299
-0.01460245536698504 0.012853592736483135 0.58444942418426504
-0.44406416313135744 -0.31616442520361626 -0.10046338035188163
-0.032946720680111397 -0.0072218623368057455 -0.18282244817040516
-0.15916630974383553 0.17004643678552661 0.43423522670242287
-0.050944754183707974 0.27998430112127065 -0.37662388272910874
0.046596381155488115 0.024517112571367121 0.54481301352692868
0.16623892026903145 1.0913470660443452 0.041593379302054756
0.10418443571566577 -0.05235338128142674 0.49416997582341904
-0.056755514970071766 0.069045458183134595 0.70786463457403781
-0.26368975898767499 -0.19842957078885787 0.19521735538630336
-0.45674706791740205 -0.32812698237670407 -0.12161432113260684
-0.58186885545559186 -0.40063539353027511 -0.26298662481971169
-0.12408957719598622 0.035347465359370125 0.50537623228708917
-0.42509713922227621 -0.3371806665109558 0.026296452537985848
0.22846461365149451 0.16626106163173543 -0.04072865931238473
-0.27196141141667396 -0.077491639578436494 0.35058706823711244
0.13487584460949925 -0.28519310519532537 0.17196651705628124
-0.18283403724565439 -0.39139575000781013 0.22382312617680555
-0.37805775920695367 -0.13461305481500752 0.41288642794533736
-0.074189837900397487 0.29736712621981209 0.41637128533898854
0.065533570707036942 0.33490399059466747 0.39947371865735853
-0.24433051744139564 -0.30349384075252894 0.042907900491135909
-0.39907342327863216 -0.12338086791768596 0.045617278135306694
0.021896375511579608 0.024926699040342878 0.56661114562179549
-0.10605132446026969 0.15331895701571249 0.48873872957377201
-0.090348405323497596 -0.078742911681641992 0.45908626392363816
0.12186728330002972 0.38079477495943476 0.36914572680945623
0.30121212086530641 0.32634745092991463 -0.085519566382465828
0.046878982770667987 0.1795804687948534 0.25842841035196235
-0.30612943799621439 -0.059768047807004482 0.33439078207346717
-0.22755288837770743 0.10120602308729895 0.3814022910828111
0.10622680517674427 0.14740435259847459 0.46465827432905177
0.17927327019867084 0.27767991918786411 -0.13324643742193687
-0.6404017183556584 -0.4449061068577963 -0.31536774667573564
-0.12499855459464837 -0.37272705907414833 0.013092311144465851
-0.3952047086862599 -0.16040140062922978 -0.20495597229022211
0.30749643591249071 0.39520216714001111 -0.15126142029634265
0.17517945234015092 0.24366453287021478 0.37515684484761969
-0.270533365540085 0.045791583036790262 -0.28819883335169816
0.1804877869478656 0.28787708400843176 -0.039791531052068951
0.048069584730755011 -0.11304085671790309 0.29566987226735392
-0.040817861866052629 0.11446126988667135 0.063444172265931076
0.17600530810640869 -0.20102499229943616 0.60736589326354462
0.074523771825123319 0.1436213057310475 0.20882657823446421
-0.073694052770904184 -0.16978533305552751 0.40298907108358428
-0.14866235182094789 -0.094947795930791612 0.0055098061290101974
0.010517722338069996 0.44038446379570317 -0.067036632596079171
0.2433309114875104 0.66920781974137933 0.17083865050756541
-0.19808179545678606 0.043620489700060133 0.51667325002295217
-0.17969966649513094 0.23115113074307372 -0.13636968298257801
-0.097408006647756631 -0.13386746715753933 0.43567291190049923
0.21144647241246117 0.20073113760282285 -0.0033194165882927673
-0.34506240763053792 -0.31429779865354868 0.30687436025738463
0.041212051948311512 0.10615148486927489 0.38492687482649024
-0.30113997121902425 0.055268431994039469 0.22087142189575348
0.04229236406661227 -0.052982908337898191 0.58238705620389486
0.042159719087456804 -0.26336116900122281 0.56563906953534659
0.23611256159648131 0.58776705567679555 -0.22985816784509122
-0.08517271379924253 0.29902741715759773 0.40888522807715
-0.63726793281159522 -0.58318522673988227 -0.50691194192695532
0.51148728496528884 0.28376084405434882 -0.18659934658319194
-0.42268743578665829 -0.47905422565886763 0.19565086617700506
0.16778024016126108 -0.2166577683952968 0.59177503186232128
-0.25964226515585576 -0.026961016840424942 0.22277714171463447
-0.045565566272414482 0.28015277867934102 -0.31419807062022065
-0.42476360753759146 -0.23930641155198543 -0.14847462561054547
0.094193607495114351 0.033455757113348437 0.38591679194677181
0.00059007717929329684 -0.26649152125896003 0.53432391774421018
0.10535364451776907 0.46967961178812229 0.29023893654261157
0.048094962558710597 0.45451157562973388 0.36648374420613955
-0.48665675057011615 -0.36852492894948041 -0.11034387340667273
-0.2973859258374183 0.088059152993452988 0.25296321838355146
-0.16446368903845227 0.062135418919164763 0.67764376374884039
0.058411105165537824 0.2651731120456019 0.46056449488122353
0.32911501346512712 -0.066766929471856307 -0.070185534361203672
0.071029251083606193 0.1137098263414924 0.16957392152876299
0.012260174477421226 -0.051249757611257614 0.37398550430994382
0.10802294600245904 0.052930184043232902 0.44526810845700515
0.10924171677610656 0.30552433112083455 0.3857483808227391
0.05985054926939945 0.011393593918309922 0.56737460503928427
-0.48362890625889687 -0.27511705936378994 -0.25666477012267108
-0.095219999880351194 -0.052502550711243996 0.44671790372297193
-0.02506692950655029 -0.0083304168983032029 0.56991936856133252
0.063768604760723074 0.3606780749263816 0.38381809677330581
-0.033963901364885501 0.30037989283598554 0.30540438084405869
0.020286142069385754 0.18849080074577074 0.46923457767174886
0.019592710040077621 -0.18175843467814554 0.41407974397678138
-0.43894502127239143 -0.27260826018014128 -0.21884381287614452
0.10796712734370947 -0.19445949784389979 0.63199932837247097
0.080289086953641675 0.36380674758326492 -0.10730903135665504
-0.02483152820664794 0.00098491365843093176 0.57404535578492921
0.1060352171266804 0.13409287583855695 0.40676956992371899
-0.25953780446462033 0.082779334558642406 0.20824512774307136
0.1166869597690007 -0.035370852526647401 0.94434297367499509
-0.12158319653865444 -0.1575472671235128 0.35132893124341374
0.097253502473679476 0.18871574202863384 0.47816515156919509
0.020089857793960358 0.094042739426269784 0.51208211424273808
-0.32259511948022856 -0.1332705801536585 0.20113350690696374
-0.051846786948247181 0.15260833071942825 0.34198561668923538
-0.004653662353748228 0.53502691520582801 -0.40720802510402687
-0.051221773719295483 0.30965347605657983 0.35573225450270018
-0.46204720147598488 -0.34787991688765546 0.0016891761290033225
-0.022794823878735521 0.62460963252100576 -0.60988574674877349
0.10137649436937279 0.10298002143126082 0.30231280336523209
0.022060279376590497 0.33021153334658931 0.40796611195016547
0.13637887493154005 0.32260926762285402 0.3676774793496842
-0.065403215618058258 0.36510228892165431 -0.6635811957293698
-0.51109903361545217 -0.2607850511805076 -0.3179650743862027
0.10589426090569176 -0.025413118635290305 0.38041558445013812
0.075554511731500129 -0.012990676904043111 0.52961011836057481
-0.4038432203431882 -0.73249910348598279 -0.30353711136121042
0.11263084766891079 0.22268892365553847 0.44440094024238852
-0.06628695469536261 -0.15487302399698924 0.41867454766761464
-0.21723420080097386 0.013686671105931164 0.44533814983417652
0.037236051591745867 0.026219583126468937 0.57324252712458823
-0.40646907217718792 -0.25133586115241824 -0.094588961394330928
0.0097912010770029589 0.13735585022999972 0.59231973930059856
0.14019574208291247 -0.10912806194134786 0.571513820806823
0.33478289897609764 0.092866242068390822 -0.057259039378086851
0.13784285031742438 -0.044401949912041973 0.52282455767566116
0.044152610773974366 0.14497028329198122 0.31120345266001637
-0.14189943301313723 0.060109386443962742 0.49330001261557765
-0.43084603996600324 -0.17141956180074999 -0.26192288662111129
-0.035196274062813282 0.13482586652663642 0.48211734510632542
0.19907417478034839 0.16351134065072301 0.035120948794661322
-0.00068228680331156033 0.011632674946666054 0.38435780615710408
-0.02518513440820086 0.3713927131542315 0.28217065084626264
-0.219093198216674 0.095260952282977027 0.39265442753735424
-0.18369592004914934 -0.62490076928288141 -0.45437258992164253
-0.077036133677698404 -0.14585888484300724 0.17423458495669431
0.10591552555585032 0.26012738320794682 0.4327227680442165
0.10781861717549113 -0.19025837540250551 0.43654261616503942
0.43395913391285584 0.56213942239351122 -0.22260444465432333
0.31360124530704214 -0.12420414714460049 0.44100100256759656
0.021304086253908339 -0.25625467419889819 0.48106464848666236
-0.74262165522597323 -0.45902095598354714 0.17527193385585665
-0.09966208019433101 -0.083513238063717354 0.32492469385867501
-0.24040519042353437 0.11403794985976484 -0.028149803607230073
0.18389802373766978 0.2714322306527075 0.35853811594723134
-0.54656570202905763 -0.32208372411157771 -0.34060060505048373
0.0063025817367176606 0.23129471635522747 0.58826269022293398
-0.16886854353210606 0.022428666206913257 0.48333137295996415
-0.045904186379182144 -0.16557052520725862 0.34847181720865744
-0.39624961908274942 -0.3057225525137921 -0.048749678258296791
0.15278691678214751 0.24887082894755813 0.39069127440992807
-0.052076943342881377 0.089047994573498213 -0.12714920249233019
-0.56204376155262881 -0.2938550742013803 -0.11475090359966056
-0.33888923613004374 -0.15585758747318196 0.15784165263119493
-0.18433187345890484 -0.090453060230738819 0.36562496306557846
0.071550208896730055 0.32851861908335578 0.40015573260460696
0.13732606479063519 -0.12235703982051688 0.42598960571386768
0.026926835866335097 0.32209999932523448 -0.03473816765528237
-0.017480660207757931 -0.0017905072822970089 0.59178799568087737
0.26539946518923979 0.20475014746409445 -0.039498960264083394
0.0037315750282963522 0.091534528156887562 -0.218798780685724
-0.03976777612953436 0.24383614752779534 0.12020998837728508
0.19137695810222627 -0.29132326432431288 0.47341805949792315
0.17267841204980588 0.026173511461727812 0.35750471842559528
-0.45969252040380998 -0.34366768462770475 -0.017656580516641762
0.10876702814049477 0.16612584354507354 0.45405724979294804
0.29673152799633967 0.33589422063019492 -0.07472940390708227
-0.016686830171498634 0.27535271700534397 0.25755200194390848
0.10600074025384615 0.045159570203785186 0.41126201400895407
-0.41211801406489196 -0.28742726737568025 0.31873824966906528
0.090243421261954004 -0.062891534723454962 0.44553086933431768
-0.018756207793287349 -0.13016733271697731 0.29727116733844028
-0.014308746623547752 0.097907835154964679 -0.04207030636437048
-0.063100215979115387 0.11520872775174179 0.43477017433700205
-0.17742523092230397 0.1385835050668649 0.44105581335064625
0.31217527703559961 0.1430553004683312 -0.021221339744687429
-0.40189092973927609 -0.32622921689878653 0.12035103764701865
-0.0012125308920304945 0.09442280961286631 0.20272527806506924
-0.39956617345221757 -0.41326718507273269 -0.013229491456598685
0.049515994995678242 -0.051569437618255123 0.58062779854622715
-0.15650898526292167 0.23598013314346425 0.23609616415897278
-0.071199353235311125 -0.084458649914469289 0.26884190964857674
0.056340832281295355 0.32451009489771809 0.3931775923583225
0.24733517010799139 0.4982547917312502 -0.041169135236553134
0.21096376583326093 0.23381191724392886 0.014192107110470975
0.063105747116825012 0.40374589967822744 0.3327072731456443
0.14070689450894158 0.26274394536925316 0.36545118197587478
0.076566080139800458 -0.15329753911915492 0.5861755515783158
-0.33030056293736743 -0.29467007251030808 -0.087937849878721996
-0.16415005682756881 0.2946839454627086 0.29991974286754941
-0.1671676970740959 -0.044663952701383625 -0.1770915164425807
-0.075685190823638226 0.17786326765766011 0.0070714447840016792
-0.39475088421649446 -0.16406742039987027 -0.21892288598421339
0.16737794974960191 0.045118033619351572 0.11834584146314886
0.098172245242112322 -0.17622756981122487 0.63696374833863922
0.055743809669613731 0.21936856534779028 0.48334173059366675
-0.0066198624223167135 -0.077890068683497057 0.39444502723814456
-0.1536303053218781 0.011332641499623416 0.46080890709813177
0.1268808306484227 0.1790765290576834 0.43124302291126598
0.20954097453718673 -0.2640356605631588 0.47767301586104322
0.38799071184869666 0.32950239582401919 -0.13033670335284475
-0.57213146616728572 -0.4375708628653795 -0.14440784186852818
-0.21109746189710515 -0.015272882575198474 0.45461842941252067
0.025858519477635761 0.2438146930902636 0.44091752487073588
0.19305591465594474 0.50488700787703933 0.083927037387078351
0.034373936565100349 -0.053297898388174836 0.58355985682175748
-0.21156099886994401 -0.27832807435936568 0.34244808538584504
-0.6598361634856994 -0.64201591398141122 -0.22474871642884997
-0.46768026505724658 -0.54578711261506663 -0.38243869552389442
0.016061914313395848 0.019295630867060209 0.56145777006029707
0.50456266208505807 -0.20329650452788522 0.61807051559541948
0.11612237984908547 -0.1373333124255765 0.44645719192823186
0.092604220476286137 0.25932439901522414 0.45006819929404929
0.080710526621070505 -0.23406477697167488 0.61931053094645372
0.21183793354686814 -0.30036807236523427 0.50133457625376476
-0.18368137316200225 -0.082599176510523814 0.67316187176326758
0.0011939515273102774 -0.17438346590428933 0.43932615850134882
0.13824931390393197 -0.17753362972496672 0.45341857531620644
-0.40438483667079517 -0.16734685365826846 -0.31729840055393821
0.37665482938748152 1.3217812418071362 -0.72358611514535576
0.1086638315907168 0.93064278234335807 -0.35386673021615245
0.10820239039847407 -0.2078565701251576 0.61197584648044878
0.087064742629367087 0.17139751707124468 0.60239725564116897
-0.23344631269886307 0.15153015758490312 0.04141376296202004
-0.30639199477529711 -0.013323279963476486 0.13288351560171546
-0.25580810699456391 0.053202331583955056 0.99100303051104321
-0.36540245420441242 -0.45688555092437166 -0.026761919565913228
0.51615064478304151 -0.06827249431777882 0.41840022001478588
-0.098083534059089136 0.22806644778218368 0.42277263163771744
-0.059208990326135302 0.15775561420642675 -0.14870390910479969
-0.35316390681395149 -0.35474982962718915 -0.09933845711564715
-0.23251838324410226 -0.50045750186002924 0.01187260887174213
0.41495496929651621 0.39019629959814994 -0.08673643387027874
0.13229886556430759 0.37043832088855155 -0.15845812391248393
0.0044621012331571563 0.052813734903076441 0.34083467355991759
-0.036958842903734523 0.0068109013206311825 0.40981169450077004
0.27473389770488665 0.80504975610345364 -0.44474409361396583
-0.1966896658683932 0.043408735130576928 0.44829409964387229
0.10103815250998563 0.5499976099523104 0.30556909544268684
0.13031005867399675 -0.20566165384066432 0.59735163046699857
-0.15693856458110655 -0.070007998393484538 -0.066509231285916126
-0.051542735014425883 -0.043802261189178772 0.53826124714978796
0.072389675746645898 0.49356629907309146 -0.38094114335615303
-0.69884372376940529 -0.97675494169766708 -0.41386827744036475
-0.25658236771932053 0.084972677347446832 0.36157954099888578
-0.068636174934624317 -0.21739000705339304 0.50166630592692274
-0.44824456390304157 -0.27325956064172935 -0.17627070563040059
0.28083405319343885 -0.24794306353141732 0.45317720424363012
-0.43170663034122925 -0.59261396755508111 -0.17095370253608089
-0.13379624354112804 0.19454530997802555 0.42389714609020163
0.037708074995472574 0.38813922649030624 0.082220422926050085
0.19273664754917019 0.17273253575848446 0.084396997654394734
0.25940375811044969 0.61714364856443105 -0.15384830377549358
-0.29357463194886996 -0.11525764218038548 0.38761455567698744
-0.40358092492711833 -0.27807683149415285 -0.30224676633663627
-0.052631319020074063 -0.24214362922662908 0.48811922884109982
0.14103840148371272 0.088004888596051781 0.31823785780805874
-0.14186071165011466 0.22952961649316558 0.38303029716278741
-0.16314301871123679 0.10838160935595711 0.49379088237643592
-0.056125682876494887 -0.20126263255500493 0.13705485805206763
0.11167203595653896 -0.10487443622684992 0.59303771290657159
0.38935849724506644 0.43594141373812711 -0.16797415401383936
-0.10954222039608441 0.15296986864164852 0.49401014955611483
0.041230515973735421 0.30760258960337228 0.4137441385476921
0.1471887510822012 0.58813932690756421 -0.11527940045832236
-0.27579656801887142 -0.16510086378857525 0.27852635064648179
0.18993366124133593 -0.21301461917408365 0.44247709376596828
0.42017781881387661 0.46883008521311831 -0.18044091162228743
-0.025964153408829405 -0.052409774386472326 0.34049744555981371
-0.34767154736421002 -0.08905443015677067 -0.1084775432194639
-0.18186825552767763 -0.036954244839690953 0.067472075481387894
0.045974975579590432 -0.21622877022066248 0.75943917266438676
0.16657231693144231 0.64383116671963758 -0.39941473608306244
0.24862764103781548 0.21255384506744016 -0.036402407642517953
0.17522483943836809 0.14310257621195149 0.16712855808240795
0.14779963977545113 0.30975526054053087 -0.12642684608975885
-0.095539172366659736 -0.026353364631321423 0.49054894277449479
0.059083491653669107 -0.014912848653991582 0.58197988793425037
-0.45148426877092518 -0.37089290476855802 0.19342479310468874
-0.53142785184803665 0.059933299749029972 0.021612711539367391
0.030585237969972867 0.33406088594460587 0.40296834768200779
0.4196888250584761 0.20006507782741451 -0.095385916465803189
-0.028874602152007461 0.006684213502871704 0.5590118288527377
0.26116698697590118 0.69470111043450089 -0.41663164357580468
-0.71223945898836949 -0.50057405222049234 -0.30726168659160746
-0.4346414516637982 -0.30274640041616008 -0.12116468447185869
-0.29941237201077442 -0.18176026082384658 -0.22715602900125786
-0.036150949804720556 0.083613882698268083 0.31097937603857462
-0.562281138449368 -0.54155463994394604 -0.42602321571203483
0.043546081020483213 -0.03216934341191649 0.58370733363487481
0.19371093292477576 0.76966074260306094 0.0067761769697807783
-0.062854779947203746 0.29221419502649515 0.4182933028838654
-0.092651991705920547 0.05744294145500653 0.51409419921451871
-0.29763740014925821 -0.3566542518218343 -0.20113872710731862
0.25274669739191513 0.34715230992609325 0.11132068647760729
-0.098339502222698383 -0.20641424363363892 0.094266747137153939
-0.26161753762190898 -0.041519848905248499 0.40488451940165787
0.015630851885729047 0.14275313931524852 0.48347543524005693
-0.14324555615982082 0.21561481021764328 0.39510493116928402
0.55721209990128906 -0.55965576566433228 0.23955616438323807
-0.19240764615186609 -0.22188577628923739 0.0039499219374218297
-0.032170455348194432 0.34052424572537476 0.14749187654505369
0.12308954936058494 0.7273510892155014 -0.06360294964496338
-0.35712142867315955 -0.13266938157253097 0.050795855572532078
-0.19933330290508466 0.13724337697697869 0.36652573574606129
-0.17719255899967534 0.16879603896710432 0.34996031558675461
-0.079143368804963324 0.16982414934173043 0.4657639778301812
-0.058869282469984185 0.29877705406850796 -0.063610261072198249
0.11584910948676203 0.29016264594518826 0.39037298208177229
0.15589366664358972 0.23350864257039045 0.39426327594268612
-0.032614763165384975 -0.056278264676184409 -0.12134136973556153
0.057374613518543616 -0.21875054814497938 0.3177963327975763
-0.15455045717798793 -0.26073571977512311 0.15761314122249115
-0.094333052015115493 -0.1232841423547047 0.082447257543595276
-0.64120530613193771 -0.40273124730350984 -0.39121169280215196
-0.056975812461312614 0.11337222742848652 0.28039486351252857
0.019064902611802437 0.012367812865379448 0.58548683976055083
-0.05214741406193632 0.048041155052793938 0.10920867038160126
0.32243497795930304 -0.13314890282470621 0.44728437117571296
0.04093829974230348 0.42180106279731455 0.28077915349995558
-0.60331282574016343 -0.46297045392751901 -0.19396940394758888
0.055864599916786939 -0.030851584233992584 0.5723317244026781
0.0079098825896045388 0.30492342943590811 0.42465610156602962
0.047904759383218171 -0.074421187790765952 0.59369220010326984
-0.60417865423693351 -0.42430175595296338 -0.33752365895853242
-0.21639750329770233 -0.077614480373184913 -0.00044046816473219952
-0.15818173667677871 0.18761173481438773 0.40438210781487205
-0.21957277779810341 0.18944861774884392 0.26585551989816136
0.11577450142742901 0.32574748615803051 0.38084340416552775
-0.13175872863611904 0.35439498521725599 0.27481311701248251
0.079742693748438342 0.024594003579539052 0.40903479742256926
-0.24396995750221506 0.1671057666431186 0.29949012926324309
0.0869171607489167 -0.043930275864852465 0.45735868807217106
0.29531600649442707 0.78782248547190181 -0.33115742153669403
-0.22166317255811202 0.19467869575798236 0.28278212303239852
-0.066564995813969491 -0.26589762968884395 0.10032893739876769
-0.09284627765682768 -0.14080471408568612 0.46325783886217509
-0.41247121952742427 -0.41516257727757622 0.060091900239812424
-0.17111635412873205 0.19291799972134899 0.38056158032974108
0.045079085195385865 0.72388629317121367 -0.36405189540130112
0.23445397920871419 0.70420230513968329 -0.15261264709661443
-0.6292573693746506 -0.74880359930468665 -0.18065163637145454
-0.64192767007511042 -0.41262489289840765 -0.38871512663066499
-0.11190118005298311 -0.22456697691874697 -0.071397494925654503
-0.94234893501535644 -0.79156782794179414 -0.14736867452898944
0.058040338091116528 0.050057698374093476 0.015068221949280147
-0.06246928069804758 -0.19683186170156347 0.17160850664449823
-0.32887500515920531 -0.27959522072622223 -0.16416522976274173
-0.003606524317019133 0.15733253133242861 0.052762395348113666
0.15616740106180854 -0.15641336156779867 0.60599445895187232
-0.066509587980479679 0.15646880157586168 -0.26917186320481346
-0.15185150338162096 -0.19118782856785344 -0.13530411165624612
0.048301996713499856 0.58200168366586003 -0.0003776864804594382
-0.034956230396850668 -0.032265172439380874 0.55923338762582775
0.23998942797923301 -0.24168275681583734 0.52769765352867481
-0.34282267503646735 -0.24814082981929036 0.26409744542993047
-0.030010420099835955 0.019269350713197131 0.55504865422152205
-0.68371001005965948 -0.47722937809054344 -0.33432652307853594
-0.017372485683962824 0.18982786115497044 0.098034307535707688
0.16609088825066903 0.58698247023220396 0.10962312934740931
-0.08440581172135346 0.064899840352423355 0.42294605788857204
0.24213786877009746 0.17003631239171191 -0.019539174789619973
-0.035406528142041482 -0.16033758869217757 0.50113389603839376
0.035745759468284788 -0.060369754274194241 0.14900147463538682
-0.030591293611600789 -0.22457117771254254 0.45526452893621544
0.1004845231016952 0.37115512293396735 0.37042797281914108
0.13842671665838913 0.03758527254029298 -0.51458198591005733
0.080311392250459301 -0.036930919398707733 0.32928436637569108
0.0024503303103188268 0.0086589444107038477 0.51376796983081863
-0.026614601554292239 -0.36319510803328758 0.13262678807327155
0.067992194841256404 0.43689381959993245 -0.032650382105654518
-0.27145194142456197 0.013895728844446661 0.3849814080961263
-0.5743304623646186 -0.32726910595552106 -0.4273562616001535
0.16467008535080924 0.34616774604637413 0.41609315987178053
-0.10373459832363989 0.38417365000452053 0.32644573587398573
0.25109615092120546 -0.12050213458038378 0.41919785664051712
0.099878621849986415 0.60975181797598343 -0.17945588031675519
0.44561348643297938 -0.4680581967897558 0.61020464618885728
0.21235697212989796 0.42951560958209034 -0.18994004176341739
-0.51725478334601283 -0.35286138284269697 -0.20525983828808803
0.045835545650885823 0.21327629569118811 0.48153706493016246
0.54435952721529235 -0.41205442129709619 0.64299117937479955
0.26143454415964024 -0.12303834737896771 0.4360274618728619
-0.10857410988646263 0.080562135455448672 0.0061766837719884338
0.22400217228045849 -0.29651322159848537 0.48891331205619926
0.019745283881951459 0.024678289217475544 0.56214341855362648
-0.080774077998424301 0.18691408383343552 0.35903441161455552
0.2151213366693519 0.42357392547703104 -0.11797996103311864
-0.085502833702731637 0.15778929550664411 0.46678474052421837
0.32432770677813388 0.24558255131060058 -0.079880800779394467
-0.32762211481365644 -0.047062500017370335 -0.14383918685118124
-0.011363352897095641 -0.2743589576795667 0.51121083598332695
-0.093716922457983312 0.22272926413890193 0.42885264867416417
0.071905045972586679 0.17951133660858468 0.4893920239216823
-0.15433511170150921 -0.29137735083648103 0.32916049697464317
-0.084240353778412602 0.1896954420798152 0.42929796925105923
0.18108292055444614 0.21476231394816786 0.33207537770637874
-0.27766096046851807 -0.23325599091569246 0.42458405429009827
0.046166874965368587 0.23049825637540133 -0.010790989531919815
0.060022016230667524 0.29271492466201121 0.4400238107983106
-0.29590674360315072 0.20564107490555389 -0.090415466964781754
-0.11960554833368101 0.49594316097329882 0.32711952677646028
0.057466389857471434 0.0078875856871267053 0.55062420695104475
0.22713895484580071 0.75551718664897427 -0.19863292404679589
-0.083086767682106669 0.21223877541808436 0.43979251492430022
-0.25249278826442334 -0.25476110751701442 0.19692784705235078
0.36637931116636674 1.004114428014709 -0.25822887106103815
0.13046310783407661 0.61584081500971521 -0.36092649545504107
0.40634320088093584 0.53668358641586877 -0.17136836005904682
0.22209278173807651 0.68203623877596686 -0.043045961841949365
0.16904184297638919 -0.21386168128651162 0.59310453965159793
-0.21435601825391787 0.13327824956386572 0.062481586003768519
0.080191549473893675 0.5569429086183173 -0.20886877481638289
0.14358822031229473 0.50235007734327142 0.12416360054406189
0.042792048696568469 -0.0018354506493368297 0.57226706209291267
0.33788047226087109 0.15840941847325266 -0.053330278515016649
-0.3608998649838937 -0.52961299963914155 0.045511383225143032
-0.66802525870062923 -0.49905224970566742 -0.27913400610181915
-0.43822215841557433 -0.28299246166529279 -0.14815635249225456
0.041880442261887585 -0.020851590428661915 0.59320472859250839
-0.33648674829751857 -0.26968383496150766 0.31895536785243533
-0.057846031167138268 0.23105524973998282 0.44881899169041173
0.072180730196520548 0.48624939757688557 0.25951726330857189
0.42992443867698021 0.24598208585039058 -0.14419358297445378
-0.10753762958396926 -0.29805759742547155 0.48942912790786708
0.036680070749390115 -0.26640101687678314 0.4866715568071906
-0.14304213121641368 0.13712990238454165 0.49516522157323378
-0.39462422661822794 -0.22033114694834915 -0.088924162813727836
-0.14329058058501395 0.19936236263041587 0.40464535151191067
-0.33165911786148788 -0.31329987767284739 -0.1602550575014533
-0.032080962765241972 -0.18995189262062659 0.41905492305318526
-0.050445159342657087 -0.24999725341268453 0.50658115880992716
0.1861064708693842 0.12701777314049925 0.066207300864519647
0.027619689985168672 0.50544960872801759 -0.28350582579377981
-0.30738619505876108 -0.078851301442388999 0.28415771655108824
0.33605410836713495 0.15475118947469621 -0.044941980012819516
-0.14519790928986748 0.1478488990407254 -0.35884197488277114
0.035147161156027118 0.38545684841063299 0.091712273619935891
-0.54743460505756347 -0.12489345360507131 0.13487295107518477
-0.49893667054189494 -0.21839097654172501 -0.38431284559810031
-0.09550505713514551 -0.049882687115063384 0.35072841264336307
-0.078080201385842429 -0.15153969320129954 0.5190494312983398
0.32297600252159581 0.30351597314095941 0.1044428766546377
0.0075291239962541612 0.019765820477055468 0.54962702778075401
0.16484853238865355 -0.22719008355280393 0.60358910022209034
-0.22775345202597186 -0.11698922586377296 0.90060393716318166
0.077955114733929548 0.83042243562994766 0.042005854170436563
-0.059801524733122557 0.42615175488091506 0.047897364472463622
-0.23346213221330531 -0.61144891746280827 0.0084853689842384616
0.051058265836967959 0.24373067429821377 0.47176221620884023
0.044212534159439432 0.3397016166717518 0.35704192893052505
-0.30407584642070051 -0.39544364293486001 -0.21535333716852167
-0.12252632441678657 0.016892335887731084 0.50960333033031968
0.3618169862702984 0.45050969279019593 -0.14055881436807421
0.20444132711595223 -0.095677094170461621 0.7431790876744041
-0.16338402873867156 -0.11753049865213197 0.18976054490404948
0.33343537791075967 0.20779164799649191 -0.079768415047632157
-0.045963439807168022 0.19188026287635185 0.30665276137182995
0.042374254634193587 -0.0091485650935305696 0.12882689276791665
-0.082261288080084372 -0.17809996786540042 0.48331917274993313
-0.109587741939775 -0.09017666072775421 0.34386166534242146
-0.30419456303509818 -0.13994701816546734 -0.0078427696638178057
-0.38094136679393875 -0.2340540231969577 0.51563250598022492
-0.15568381302647538 0.0019656132390322781 0.45047917049188885
-0.39106645637798598 -0.16212861130678183 -0.17755553025080073
-0.6182668048532256 -0.41313581387160081 -0.32116188100698173
-0.4235302695315587 -0.26342936927920124 -0.12639636199465143
-0.055958790129480476 0.27953487943686312 0.4266308032344448
-0.034128522315744869 0.13885406099021896 0.26344401572800741
-0.13112739333062803 -0.37142265966820948 0.025987090420305614
-0.17013377840549521 0.34413571261599984 -0.00057854055561912254
0.12191483273810733 -0.2458916006597604 0.16840406569083
0.15190703383563914 0.24015514566198562 0.35094448741663253
0.26210212659760201 0.80882460530107791 -0.31483145629708215
0.078041488867060027 -0.071575351429798428 0.58530046153026416
-0.34046486858754987 -0.26706072213714754 -0.2211500790723383
-0.29719873475636438 -0.2445577055034571 -0.47827302704850749
-0.063081903722197297 -0.22920020024382806 0.50774816110919163
0.21099619372813827 -0.13279517455904641 0.12028142577905532
0.070789457309346715 0.28318024327791746 0.072804494082700066
0.10864508618605384 0.21289110231261482 0.45840375095417163
-0.25059638017842867 0.051736831514516926 0.38909157435021696
-0.16661884525765072 -0.15880532708280198 0.43057662999022434
0.17807941321159815 0.053675712932378487 0.40896886592382237
0.20853282742465901 0.62657594476422829 0.17394540997093505
-0.26177683464214696 -0.22093526775449301 0.16306999377654957
0.10658319832123975 0.42591273746533304 0.35241180910315018
0.05423972060098628 -0.19858920411839082 0.63125353489523284
-0.17050235292151117 -0.029271594156757175 0.29665860522866366
-0.12068277880968592 0.046938761511065352 0.25043736735101552
0.14541701109032246 0.42553210747835823 0.31837711105475136
-0.032807553060891725 0.0747118752267526 0.30091167115825823
-0.19155783763663353 -0.085948223553770992 0.50007490774196661
0.10747842931612384 -0.12132801180979455 0.6057388640742315
-0.098400971383522079 0.2004960294351798 0.43395734337553776
0.22772197476243955 0.68297509120980526 -0.32290815663654793
0.024042128015717978 -0.23345383729769809 0.60517861134003759
0.019138031117988952 -0.21640747911389702 0.079460548769553607
0.023165968169870987 0.10434571580442077 0.28650606572087178
0.20546528810617404 0.12433460843298696 0.045471187548138559
-0.48350200885861921 -0.42664186803251891 0.1162685262493055
0.05223864925295052 -0.070521344886220277 0.53609325505369398
0.0062764659912568355 0.20251718032014271 0.46081689142399562
0.21486466458885273 0.28992544077481536 0.26064014978086164
0.12443604325582536 0.058665615679438475 0.41068366719102517
0.26670414079016336 0.38918465654565493 -0.046725296725438459
0.053050377282377326 0.34960982285109943 0.39081625015253241
-0.1491081161665555 0.021581474786663099 0.24922470629170063
-0.0064952064176383439 0.31900927265154222 0.42743029732820087
-0.44504402611126026 -0.27642560050267373 -0.16673060620976476
0.0019587092852600685 -0.25932722901622862 0.49026192575353478
0.18540591915275095 -0.50409478819093456 0.32279295588657281
-0.15242254157340238 0.039062425528133347 0.49468619852566453
0.035166796639911319 0.49814398791627634 0.32377004791371461
0.27863534785005922 -0.1005975298189021 0.53717158784210317
0.10913985704731066 0.2353543925000606 0.44681148609316945
-0.063838026688688182 -0.019804480311233198 0.4135689043628204
0.2706878868984483 0.19652542065732645 0.50392055154812776
-0.18897877870014892 -0.24275473043314427 -0.027673448203901829
0.027319404421279864 0.29527796292321501 0.39145696255555573
0.19539181922772314 0.63218971465808393 -0.095231147087869172
0.062595264484479357 0.59705403278442948 -0.082994531750649192
-0.42399370126372349 -0.33063358658309316 0.034144801067131914
0.16486426916131935 -0.17748139599995308 0.61749076471892561
0.11758842804236225 0.67816657477031173 -0.33440506022873473
-0.21624101981432123 0.1375041623786086 -0.31751625077262513
-0.39621189366019222 -0.16887877290465919 -0.17165282941675553
-0.38461374804071524 -0.16042005257297018 -0.16141389164886633
-0.080621055455085133 -0.49619750558354764 0.13507276023992765
-0.15381418859674181 0.14311740063176981 0.4795141191325199
0.11170501400697863 0.17882863302161064 0.4542423669149126
0.21389575025651675 0.092237702421084977 0.22325250262009555
-0.12444285443491687 -0.088540882386408976 0.40359641155214665
-0.23278989611317999 -0.27344856121962502 -0.27179482543777278
0.12280850320973102 -0.25267259222950439 0.31366906072425549
0.17027478462191376 -0.13512275713433486 0.55115819265105925
0.077085187256385856 0.10107454059645779 0.49121262966491597
-0.14127544005454684 -0.088234499742951888 0.27435754459796413
-0.24912603102516412 -0.60545842184200194 -0.10258252625862085
0.30747543875055511 0.67089938493899259 -0.1011737740178294
0.031409571125111474 0.19163543854722281 0.46326519221875312
-0.010160525566233536 0.022477069203257719 0.56766552602127951
0.47726951049091426 -0.37537858536919555 -0.044830348871885306
0.044858516430701545 0.018574559875794081 -0.050738047171367207
0.13268348428601245 0.13199336800104228 0.44347828662582411
-0.16390304981397752 0.00074359831228820727 -0.010486779028318183
0.0039737940375310921 0.40544726534776115 0.29504129053414913
-0.2964089613290255 -0.019874139955103051 0.34755906218370641
-0.36673078092657663 0.10233993987306975 0.36043181783266515
0.19760619701280763 -0.35320275757984199 0.1134334439688785
-0.22980731879015576 0.13473315869113467 -0.26186810677033623
-0.24609691377876872 -0.22826563859493659 -0.064625878786647606
0.064570633407084188 -0.068424500806284122 0.1516768909357834
-0.11633141143561224 0.2240458463139246 0.41287262413972536
0.063329034350071672 0.005339486366925654 0.57536707133321774
0.005959218883871964 -0.045734375811585279 0.20147079236778842
-0.53800633448310609 -0.54694272898697882 -0.088820696600334426
0.12201777286038837 -0.20409492550494232 0.59921009658093916
-0.12555185477025244 0.24793179990587763 0.24230360888630986
0.13415103554314595 0.16611967051646045 0.4357074493164495
0.092784738071006512 -0.065852822786911042 0.36903372686274183
-0.16264729965887711 0.11478866722638066 -0.0079923035230500261
0.094346310149680979 0.34575491708727685 -0.17694944269341606
-0.14962502831944519 0.012699944391785047 0.46987555864733632
0.064502376360821234 -0.0017421012854028917 0.42150137702668683
-0.10792186928460495 -0.31099283076306583 0.26089066750465212
0.058165231282543528 -0.036939023754994471 0.57174896253179086
0.032055702171775169 0.44851671831213175 0.17972625528446612
0.27610138384511007 -0.25084492116258772 0.65754086722870908
0.11915286264003405 0.042124202509926212 0.19804612616083406
-0.12213365443183091 -0.20773483311424387 0.54848324499136181
-0.19106041169550847 0.13185126779682246 0.39520798586235151
0.025112285124222755 -0.151239647421988 0.45226366381317573
0.40570803491188057 0.26973584972833831 -0.098842375429898932
-0.062498109311638045 0.29668736402576984 -0.084802598091086701
-0.30570167797628411 -0.19480669371078513 0.18804114645003367
0.11563374493993417 0.37633806501234068 0.36644685775499347
-0.0096177573867562705 0.19626773318143675 0.46401895031282203
0.10293356567426648 0.20578795727464116 0.13209689115408108
-0.33482660415942556 -0.11965810309847152 0.18195060822818254
0.10369779918638722 0.25843185630256138 0.44006243297936687
-0.280094058322093 0.056275541813115837 -0.13440443042314321
0.20523982766360072 0.14889223515362746 0.031838135292353242
-0.38694473502900495 -0.24630833306436434 -0.021901658629882137
-0.17958483542988599 0.10252278032186712 0.47474432541341399
-0.10240308379320313 0.15285892484927938 0.48035265427298218
0.24413936595703373 0.24207761910717487 -0.069459508620226262
0.20995630870164422 0.06934871883286467 0.013783697712372145
0.027327132570774348 0.34286085097794505 0.40138339837334019
0.092151198243648869 0.13032978387669936 0.45765078354994682
0.062260407600143119 -0.010245540882275202 0.58039827385265663
-0.1043256072290798 0.16692646563818606 0.15150886851001877
-0.041878552176244865 0.15579338437233012 0.35858924001100195
-0.55670811369716067 -0.33698635206513755 -0.33437129908591068
0.43253319505629223 0.24221973706776206 -0.11826690196218298
0.25154268198110957 -0.28870354407671706 0.53215664879684765
0.17702091905458789 0.10497593947534556 -0.01181561831938871
-0.48633874473197547 -0.41032400612776931 -0.049496575329934567
0.12743501410673164 -0.1852510191162545 0.62472683715814425
-0.40209675329836603 -0.25807793811205759 -0.44748835472261261
-0.061183500030545318 -0.057844681534550649 0.52551259272450945
0.41796220110898952 0.43377261573262571 -0.18264155394770876
-0.041839287828239868 0.28819853469634271 -0.27493487687082563
-0.091408852162715964 0.2701688504603269 0.40937631409365838
0.16980081130442953 0.28089485456917374 0.6974206567039255
-0.46679905018284112 -0.35504848718995785 -0.061785709416825929
-0.47357815638058665 -0.38561296844811066 -0.063729496869333935
0.13554974469536579 0.80733375906602711 -0.33322821351310949
-0.10228922974212362 -0.030973954313011559 0.25155361585564334
-0.36016045665791091 -0.11160230722453521 0.58614489750708521
-0.2764118073052233 -0.13354694721873978 0.30112802719926524
0.14905419351367033 0.44210934826709936 0.18206923123126162
-0.17417406984985792 -0.0036347039506709547 0.44098398047663434
-0.12644853064602679 0.019866699006267363 0.41357521832709904
0.40910067277845746 0.42352633811176676 -0.17347415036651792
0.24417967693707882 0.35092918264535405 -0.016489629928223781
-0.46327221713867883 -0.30720586010804646 0.12978110872531085
-0.4978806803623016 -0.55973102545683395 -0.41548783426169178
0.0017879574495171802 -0.22980182839512414 0.56474755710853919
