# XYZ point cloud file
0.19888962033210356 -0.11264547389867119 0.68863221640126371
0.48662792668954102 -0.48061932304147509 0.5815205111582431
0.12760455285082428 0.90486877513657205 -0.34788931283436897
-0.36488741440648031 0.24412332156924405 0.67710119273237646
-0.63381285242817831 -0.75103893101229047 -0.69438652273923296
0.58418518860636026 0.76055969457851991 -0.45957934495013797
-0.17617945280518155 -0.75005860387283807 0.21437858140317134
0.59999014585518617 -0.34281087635751256 0.57501456212785063
-0.51789593302048176 -0.17746820548699455 0.32697548285316613
-0.23526027689255213 0.32543782436776264 -0.50363432467944902
-0.63020650071702322 -0.40817450167006325 -0.20913653184652292
0.19633575548831916 0.11341434185347832 0.39050740916263821
0.41785595436579137 -0.48712520901841905 0.55134752336421755
-0.052920221541594037 0.61861192252631669 0.55324060147832754
-0.15287179555906216 0.53018880474921559 0.67233983953357623
-0.61383389267734079 -0.55799336888469897 -0.16723318477649929
-0.65188509177048459 -0.080647375423792467 0.42456708684853484
-0.28103032756211532 -0.071566064030660737 0.93865667408897291
-0.036489414674230058 0.34817470942661821 0.70394705634963362
0.56153522839770553 0.21982513769739448 -0.47054285660342188
0.10053977439242767 0.25435194656870025 0.062395298270566224
0.12795293863762147 -0.060894056497252991 0.3575373512829374
0.20163229042953557 0.13402353539449191 0.50601551990247207
0.034806608300307573 0.45472258966857837 0.59852037165561089
0.15874483466358491 0.004343490472823841 0.6989505895640179
-0.68785126446027678 -0.45012376226952977 -0.3381520186490925
-0.093178082107138405 -0.15222020532700992 0.54832531683485053
0.02068211956288013 -0.080380396119314801 0.72421526619043608
-0.082209092887132629 0.46010154555097504 0.64318780233704032
-0.28513220502138914 0.29429281139626995 0.51194770130654632
-0.07006311345669558 0.2243692876381394 0.67876738353134392
0.29711620966328267 -0.27270065060362852 0.35815331269345108
-0.61474794320737458 -0.43449097820989568 -0.31685118694462711
0.50070548792377179 -0.35147480990089247 0.67107254734895205
-0.042682490846862597 0.54046881238664057 -0.24013337900147436
0.011697254236626042 -0.067716374910816723 0.7355884236642829
0.13346249922579889 0.25077217432122978 0.50205030300968423
-0.59902891854617113 -0.069886428732927136 0.35125165003549208
0.36137459869351374 -0.12733224211605115 1.1534891691550626
-0.021565589905984561 -0.27963370936920184 0.3552324877560088
0.082722914273943848 0.294806205154304 0.66934226695217514
0.0039167896443406125 0.10293358386705159 0.68313088505915176
-0.53608523717082779 -0.30875744957093754 0.2816375521831247
-0.21827148994926415 0.13438691531540697 0.48636752302670577
-0.32320150040673279 0.53116137776366534 -0.50070161335561625
-0.31590302184633368 0.28411596267382055 0.59885811790989008
-0.58246652046754654 -0.54703890763757934 -0.012930444312056366
-0.35472435382813328 0.58085845849574991 -0.72592672027732474
0.15433472999431341 0.23449941623549914 0.28578333358819852
-0.15386930688671274 0.38112908058216688 0.6712265901841461
0.076295417540631405 0.50347288224546327 0.57438794529420456
-0.26645840694552181 0.36593459030130093 -0.89369740543370702
-0.7322357235271072 -0.43925934469976724 -0.4009536884817424
0.27109765241884465 0.039614867224586958 0.33322899410991375
0.20847017502986454 -0.01175208007155254 0.61613899243099657
-0.034262893165911135 -0.87936158675471665 -0.62590469736104093
0.088749094820037566 0.35594462410421146 0.63466398090323317
0.10236157521037237 -0.27479457074981029 0.43097921982174892
-0.42252716433674908 -0.13428377098434474 0.63778399853052892
0.10381407830063027 0.0093564348085439231 0.72604805300360065
-0.58732716868610546 -0.41846994251464098 -0.15077480769442531
-0.035913554311668427 0.13711307069177056 0.83151766548121131
0.42171219335292176 -0.14556303779253266 0.59958926029037651
0.48592862630087619 0.43391387742012594 -0.38369110914962046
0.34276649337008314 -0.016974191766113089 0.5590405690226492
0.0069141164116686138 0.22942053583578242 0.36672706715703035
-0.30399473326895021 -0.048851457424287092 0.69900168696327625
-0.67962656803042498 -0.33625058925137413 -0.33728670152204099
-0.14724049809218842 0.11206244670632343 0.68479248500822365
0.28009022627860758 0.43583389377103193 -0.18675945034399843
0.03366942020778052 0.011198779275393977 0.42572632671941474
-0.30607389304436738 0.36706111857406537 0.51233494198924867
-0.50454949476872646 -0.045409527802281024 0.59962979557223162
0.17372384823066289 -0.64181654803282284 -0.90419262757855379
0.052692209438182314 -0.17233621089987966 0.015186436516022139
0.055410085274653298 0.39432990075710028 0.64451513859093224
0.45063335418767392 -0.2486165271926401 0.34571422784290151
0.40315446360357332 1.0398872591744948 -0.35044639546989531
0.6425261893801153 -0.003549977158883777 0.31197997352119067
0.41551699439843115 -0.43467705536483009 0.45350017136707377
-0.83514911372107559 -0.71591879568274164 0.30462434756036738
-0.075329078415055761 -0.16107269665806162 0.33451233929370539
-0.59053921470309423 -0.018323133959911114 0.01202950037571815
0.18183058617003023 0.49452194824763451 0.50750924236181205
-0.7384774965620805 -0.50397079122122346 -0.43332363252553008
-0.096826766258456987 0.24862659551720936 0.87836990787706914
-0.32549495078549362 -0.10541487155758295 0.67673584617494786
0.14757314428710844 -0.25191952380669647 0.2912405753393611
-0.50016063748326844 -0.47184552447387051 -0.12143480743036883
0.1427410861324625 0.43428219319553046 0.55296706738543633
-0.10386322407901072 0.16475962951028938 -0.35612918145717254
-0.80571965770660836 -0.50335008729929664 -0.10377527980246892
-0.54997573963803847 -0.33274381772116923 0.21861387605478433
-0.2583348072540872 -0.22734364647711713 0.45901420887807293
-0.049219466424014646 0.43557527488336223 0.64693269732827385
0.41806616635198957 -0.10942409241516693 0.34286336744042423
-0.14399093468672031 0.43087237129976885 -0.10471447705193793
0.032227867549702083 -0.071202640111569904 0.75668648332214394
0.346202615415792 0.53452641887996821 -0.29196813131599775
0.015512558297080981 0.2236402173881209 -0.52427938391410311
-0.26852555355938312 0.25781151751432968 0.1703536548695086
0.68493450594541527 -0.40388336536992697 0.34399964078132361
0.33041940946156445 0.17038247454602823 0.30135451725990869
-0.58556008643277235 -0.53898419745281156 -0.040999606928656451
0.11652535680392262 0.28237977746095699 0.60902914702317745
0.32168683976894563 0.71065078266706772 -0.26685794809702013
-0.23627959187644931 0.29555340305518646 0.41059357887231696
0.2056789024479686 0.13130106379323686 0.4400420421813141
-0.45316437375296503 -0.52176284934820216 0.42915642931691755
0.28302246150642163 -0.051704328810643574 0.43348749201046305
0.15467501672113437 -0.16308487706187519 0.19709704915951953
-0.037968062079720033 0.19910710906290574 -0.25140160805620326
-0.20016176665290164 0.073114367311791439 0.61366011592062519
-0.44562794293877273 0.019293686565513057 0.67218412310386344
0.43528378283063218 0.48521462850146696 -0.30222737308851433
-0.46007047194886364 -0.5280048792280434 0.12774338724106193
-0.036791383749772422 0.1572412796335112 0.15944130644666066
-0.34368865965769035 -0.59237749377727855 -0.12054967312683185
0.20962285131213076 -0.10545234944284509 0.68380344480093769
-0.5064868578024786 0.12983179267838019 0.41870561186115784
-0.0083902844837506763 -0.12514264628564981 0.21218771906504352
-0.08058183540845465 0.41527100490061636 0.63679092122795322
0.17852089284435402 0.8440343673389894 -0.077308352159436211
0.25640758346538561 0.52972534245346226 -0.17781724963832501
-0.11147570440739751 0.50348012730548619 0.58857730157928434
0.11329381636800773 0.4440382112002938 0.52226623443933073
0.38548514164492631 -0.27026170210084721 0.62825758661454256
-0.35170352435628705 -0.41690167414309676 -0.24529102346695753
-0.53064320355939121 0.18160371391162383 0.53290159337332632
-0.23569506909097671 -0.052928350829567983 -0.40217510287195923
-0.28228441652097258 0.18250858424267624 -0.04114468708832808
-0.63116955670352137 -0.31904157405437572 -0.29801772544150062
0.31070543383770799 0.25379001769971149 -0.11306312239611704
0.46179720760756626 -0.32325939970661283 0.68882482871805761
-0.01426461247758426 0.29135923000172753 0.71012861486475254
0.12103719515175992 -0.11849912858374934 0.38992636998593866
-0.29022053711752316 -0.10793483236411172 0.63449055605177718
0.1396924074115391 0.31948128723675795 0.57458867746216657
0.6764975505432933 -0.34380155786716221 0.34827759095680211
0.4346583826218573 0.75754042991350867 -0.35957048121089596
-0.69520264343673088 -0.6451649428921673 -0.18467421774263038
-0.37947725189191583 -0.16510350001033741 0.63577766694442284
-0.096105739430118575 0.29427376887474227 0.66858629294615091
0.085053802920265653 0.78314625804667259 0.18378631795393796
0.18546821455272022 -0.11819873078125814 0.69350030737148971
-0.026162921003078932 -0.48327717008746035 0.35661226162749682
-0.60854675454623974 -0.86158917007474833 -0.30994373191396762
-0.34465767666657487 -0.67005335116552522 -0.65319935155191189
0.069491094099780604 -0.012460579596365595 0.71186923137664526
0.91961020454160858 -0.094132369501748414 0.5349057347845535
0.40476562575304942 -0.15727232247485512 0.38152001459556095
0.032426752401707226 0.37743407796261674 0.67531451494856531
0.51705633373543458 -0.43470628685713142 0.65285679746226344
0.72842745192931946 -0.42630707868201845 0.38237652722353127
-0.14694384059042798 -0.27324927018263356 0.87481483520557368
0.26003519100716765 -0.28189773220582831 0.41599898699701771
0.4826613779275204 -0.21648773454814096 0.3655185428076464
-0.62433413984002706 -0.31399221476435801 -0.43389626117550928
0.12181653922598401 1.4775136184220523 -0.70120936349381235
-0.28360518709953442 0.91945527210260436 -0.25872185774147072
0.51481355835116371 -0.36845567421859904 0.63585991065521119
0.089009983556368688 0.24181092924759004 0.84914862675930369
-0.60320050429023364 0.014178449818044503 0.12768539383667987
-0.61994077034928707 -0.17805047970258017 0.22599850285015854
-0.27166147154198617 -0.12923254616984126 1.2691859622326627
-0.1999619710361511 -0.62688455300952728 -0.19078408105315225
0.78850288535914448 0.21723241903909812 0.29668979700989334
-0.35302485789313875 0.16332738677010611 0.66785731483271182
-0.18417722416931559 0.21406742258851907 -0.33384253433982158
-0.32421947947109708 -0.4860528576448167 -0.27285576868712969
0.12481654244602902 -0.65373434370846617 -0.23850244182009273
0.43878874716383431 0.84717241891010786 -0.24281500456521898
0.060316584452072108 0.605887313359741 -0.3473785249164435
0.0041758250957102394 0.078873690188132339 0.37477560390698866
-0.039077619304339839 -0.029081409905480027 0.48943730521696305
0.10671600709683493 1.0840045139995038 -0.55650818132932978
-0.40948986595776959 -0.092451825617732186 0.64795892074767492
-0.080450949268191296 0.68136528112173422 0.6255379776187453
0.53782048475455291 -0.34562760435945006 0.60363568278381963
-0.19887327404083266 -0.0844765367928558 -0.26262522936287147
0.0040477456645837684 -0.13922257476585592 0.66889962326567809
-0.12232695864610221 0.61361986639602084 -0.55915810548682376
-0.31589081769468424 -1.2007492090784413 -0.60301777920446065
-0.56760049892595632 -0.071252437149208536 0.56231440577206537
0.21489818179722309 -0.41045879912264349 0.54452541176332314
-0.6380791601172533 -0.4450253577427018 -0.24784106563230168
0.73070362288534252 -0.25280238403018507 0.2814780525034799
-0.1916909849241033 -0.76270177056153354 -0.39770591180088932
-0.40331268082215033 0.10356995136635466 0.6624849332914835
-0.18552376011402338 0.47657746317847738 0.15309718773648595
0.26421067599863557 0.43727869397245606 -0.095083047447921509
0.15061045274022233 0.96260742531239252 -0.19366850641523536
-0.44785805942512591 -0.30150286950705818 0.53485373833704075
-0.51814406422346126 -0.40753523992876456 -0.47353155563154981
0.27711795389453053 -0.44175872211485662 0.50843592372591129
0.23311801522470765 0.24336157862560076 0.28719201693404739
-0.44712125920157297 0.13334035693426582 0.62172316731378241
-0.38329895725866159 -0.0067883851572731468 0.72725566796651941
0.1508477684602143 -0.21755355542270921 -0.089028139977105791
0.37675564639172987 -0.16398656650941729 0.64780467210175641
0.39433862710530088 0.87928911307627455 -0.35103911199174209
-0.31091893583096231 0.074599227072690011 0.73470419210011428
-0.10108836317127157 0.37952488579037225 0.66220131127252813
-0.046234613944007297 0.79615059652005193 -0.11432842267177301
-0.38105745963660587 -0.33625168409512418 0.35023221490215872
0.58759195330659275 -0.24168087430573199 0.30962894705231214
0.41777922405497026 0.93380892673333737 -0.34615709354412205
0.051362182282651769 -0.077179076871804309 0.32354885548804646
-0.62587509996592461 -0.24415664072001372 -0.13445647886856538
-0.3298048886973256 -0.10957931731061754 0.012660931736289349
0.48662235247104624 -0.46158737613287626 0.86757009110666816
-0.018539775856925678 0.83741611419990925 -0.55010885199618342
0.32046643108841755 0.53294691502238734 -0.28064714659931156
0.25435058888364126 0.37519582503409332 0.036234519596688997
0.12175932754274199 0.56350181986914705 -0.34199430712880041
-0.11778683234315257 -0.12787153338298096 0.62959438489117003
0.1856365009178651 -0.040771153845851171 0.70477724188412805
-0.45814497696236212 -0.605688930580774 0.24862111270815501
-0.92731511632892627 -0.15111171829667186 0.14067214774535863
-0.13822584373310631 0.3947420414003176 0.66397872157756965
0.52541355609101204 0.61637017728179921 -0.3807181893253756
-0.0051043736927549599 -0.058852108250250335 0.71869932612802645
0.12885615839989795 0.98852947331009733 -0.57743329039497793
-0.85237606081580697 -0.71443665067447837 -0.35359262846624262
-0.58529358725946223 -0.47412513838408077 -0.19315155496663394
-0.39969296753568473 -0.26968644774843342 -0.41707033934831639
-0.11786196332442134 0.084774405989875179 0.37446103571559414
-0.54243689088823499 -0.69774339067250502 -0.63012517316761729
0.17727134132352429 -0.078609392162754921 0.70266488292765017
-0.010115009165271527 0.98306721647160722 0.24739973534989146
-0.31486993736097901 0.25679571841690496 0.68387340958170761
-0.19556877411038864 -0.024843770068457727 0.7088437640371319
-0.19173047338421956 -0.43235404081685058 -0.47922618224366387
0.25076644599849351 0.68245990544978063 0.087164434400349711
0.072891092853214712 -0.23276935835134682 -0.13204637028438038
-0.46468864713865154 -0.20956361232737164 0.57566920310208647
-0.046297263799820909 0.16471442241610373 0.67260390487342858
-0.43966030921809574 0.11866467574818002 0.63320709319052071
1.1431386135129897 -0.5156518076219142 -0.19159156374410113
-0.11219657815608297 -0.27922020331694442 -0.20563529183906837
-0.32476881132302959 0.33615560489271307 0.28179856550484639
-0.17305511557270381 0.83313202187642332 0.10297549324294553
-0.61545838612695147 -0.30528039207181429 0.084767482265158067
-0.50319885128548747 0.0077563246603065128 0.57520893709845999
-0.48669494047278328 0.05162034702605578 0.559267623447532
-0.2684146877868403 0.11653932192345839 0.69548272730712046
-0.34385657636339229 0.29191660366266692 -0.077997486792504733
0.055223920383971281 0.44448981115602032 0.59338888225703745
0.15645775268091322 0.41859693083241106 0.54605452093383589
0.058277143837556222 0.037078603140500654 -0.43949539464871501
0.38394128241976677 -0.2629036482385983 0.15073871722676402
0.024881367478899685 -0.3593484273742068 0.00062307815924278476
-0.006696822163895888 -0.12582912683006348 -0.1156111210389893
-0.81251983597337507 -0.59802014099341272 -0.47574638109746825
-0.19723240382147345 0.10106018610408951 0.36026278480453011
0.085335987038089645 -0.026137438580992267 0.742344020659649
-0.096739171653611677 0.083911937185290164 0.0023768119639084873
0.6609685832094121 -0.015844980262549102 0.31566404678188698
-0.17985327323497646 0.49290614408150163 0.52069618969515474
-0.7232732106242894 -0.67090452785009103 -0.24412678773761287
0.19625248244507798 -0.065490847336108882 0.68101290130906167
-0.16915456946875618 0.33977345651487745 0.68516442994610893
0.23617216879466341 -0.14854947343640995 0.69127925545885704
-0.74953022179476947 -0.61586869508849229 -0.43005600578946668
-0.35947080141948506 -0.1600211757450799 -0.088965694594181577
-0.4496038429900765 0.081155519994488889 0.63776631463102018
-0.58253298629557593 0.050421659285392773 0.45877837819532113
0.037615403561739313 0.48328080586338573 0.60349351108939076
-0.50277682977605709 0.25766370592491267 0.51436419650956733
0.17789825358600631 0.082944710266137589 0.43279604251704273
-0.60342518550920632 0.017537508012772374 0.50224202401482254
0.25781944621314379 -0.02859224124900267 0.46785192045949975
0.14622130017057966 1.1213548400360196 -0.38644082535613111
-0.58498801123459021 0.054522765895438502 0.48435801505215981
0.19153449099803854 -0.2957400660886253 -0.16497070503955291
0.037192705759585554 -0.28106583823386688 0.52614189829068425
-0.35251418014484082 -0.61944869422691284 0.0059432306334348262
-0.4813398915637106 0.078918380020497891 0.60956362558896793
-0.33310591988308746 0.70606237570167285 -0.35581405807768973
0.073822006890910785 1.0024319099697458 -0.116353595918255
-0.36800680519491547 -0.99234520207101673 -0.28478302727500626
-0.80721125435209018 -0.6078760687764565 -0.47485470091442783
0.055028737191742172 -0.21201655085709031 -0.38734854062161461
-0.84559245307473796 -1.0493030021177596 -0.08698074711335102
0.13643921603961195 0.20123649574582264 -0.23576241897162542
0.1370873533499668 -0.22921478632735992 -0.023562562953041488
-0.36098575199114813 -0.38529095345041603 -0.35380380471763417
-0.081333198414328844 0.24901462890775306 -0.059015916107411193
0.50822078023670736 -0.23859093994044228 0.62541377807141985
-0.17985567437448546 0.21468938623575859 -0.50394553929589225
-0.054593003810279983 -0.18523141941154569 -0.43690838154470557
-0.27966114186310453 0.62072909750157612 0.14764589147972051
0.026935521040415411 -0.11849185986384281 0.69888341936599074
0.69989006741462245 -0.31094847953193133 0.42864618284395262
-0.40558990486661761 -0.45114555322641758 0.33296862813090478
-0.021259939461176991 -0.041214093320062262 0.72084609214372775
-0.82770235506619005 -0.68414232314209877 -0.3979382962933895
-0.15467440216823625 0.25083977459487405 0.06221512805540963
0.0038236737540267018 0.81093638414420954 0.30738761165089723
-0.20375825957640625 0.0022894620373262731 0.57594671066769121
0.33489317658244167 0.47643111309362507 -0.27850681118261245
0.18712521905564561 -0.30178472009534701 0.54527904273240868
0.18478927528295697 0.020683023975317849 -0.063798607550818343
0.27752855646599039 -0.3882911840507226 0.44584524648817409
-0.012732158524621617 0.51364336560036894 0.621069671938
0.25020896813440729 0.24068868347713024 -0.93058716581054779
0.23950924033497056 0.022794710371145999 0.24529462106174016
0.048553834528858308 -0.025417157721624117 0.63742857035213585
0.35390596770786953 -0.43071234447094858 -0.15516158365636357
-0.13661309142811673 0.56891797123450394 -0.039016908491455116
-0.53722908901625477 -0.15182095132680848 0.57276069453074518
-0.75931467333010749 -0.50698869954278858 -0.53745945263438688
0.12236942083498836 0.5458303296586835 0.66691557016277114
-0.45165329777957997 0.30798183981355953 0.59588330450347893
0.56584213921787629 -0.029135113705897331 0.29064678197359789
-0.16847249722833113 0.72643946784679803 -0.1777549058138006
1.1628586966797136 -0.66627673763701645 0.4581963174050403
0.16330490444853552 0.73787696421341309 -0.38423968752194393
-0.68352514361124284 -0.53989021291674744 -0.27446360200048359
-0.030944147693127144 0.27517555408121652 0.70606789494422895
1.1887264741281482 -0.50573188973424477 0.47925560151013946
0.5822332216173165 -0.03362149239967932 0.3161173500329964
-0.26269411160788336 0.072919274043482807 -0.085205504917880259
0.73307445556905626 -0.40325946197950341 0.35516409360045276
0.071245382820666059 -0.0023539164791275824 0.71487229380720851
-0.30730619908411283 0.13924313099800856 0.54884206871843288
0.16728669192023338 0.73960439085246876 -0.27107118644536921
-0.27319089691919007 0.098646723628985078 0.69267235397960025
0.39823142790539157 0.62090905954521025 -0.33375853407363376
-0.61745763783552476 -0.19365383399066205 -0.18033658284522902
0.40212791861987585 -0.49445623321084892 0.51898133740947849
-0.33982023763900759 0.16129178760804486 0.6729889880255141
0.041640600660791893 0.25854451641230497 0.68805741512163343
0.10699022559982319 -0.48161957196338168 0.29304167540633569
-0.30107264093661779 0.13519683782661907 0.65506932523915418
0.20842399875873108 0.43255345769837478 0.40980666166022039
-0.20839831811756127 -0.45596719362904947 0.53138048749897926
-0.024303319214590058 0.38021065695133371 -0.15401201593685476
-0.049898832518496805 0.3817538958964013 0.68930536163746026
-0.70533913849648244 0.043487614269357711 -0.021237201855664356
-0.49888449442671323 0.40517382036165672 0.63217659586855157
0.15656247574387927 0.0017531338454140899 0.67126527847157691
0.038167435696490282 1.024838948077349 -0.16055152559345243
-0.30954029711987385 0.15888632032275402 0.68091039683148891
-0.20399393275270505 -0.41242320846931779 0.15817416967655451
0.215348589017754 1.3635462804020797 -0.082762185261014087
-0.080873636126747028 0.7729829770109492 -0.49051107032780195
0.37799843411252354 1.0006215958899161 -0.28305829296552354
0.064834989821134448 0.96842436015761424 0.081884500703484853
0.5982021075600219 -0.33721483860934282 0.57749081181420003
-0.56219340390039829 0.0074313198044951845 0.1417513807988442
-0.17670765828256063 0.6652353060316204 -0.25395798427083049
-0.0076795517867098706 0.71406028202943017 0.27129299136430685
0.14190177546663763 -0.028640619017714086 0.70442795767077548
0.45648282009400121 0.52007276330411112 -0.3433730352885519
-0.058766085438938021 -0.75107438962524642 -0.084830765658074014
-0.79114778736524971 -0.70900279617791828 -0.33666834642267107
-0.61207350909014113 -0.45356070246290819 -0.21965151565395902
0.1629408762534712 -0.064257257767113385 0.72468506782334696
-0.32751076565828563 -0.48884165262505519 0.39942924271271585
-0.26567187071277099 0.19930981967467851 0.69677525894156944
-0.1384411179209768 0.59005539180378963 0.51856049902164369
0.5159566195449794 0.67705568563701757 -0.42711323863684159
0.27387287439847929 -0.55147376678147608 0.53020401642385662
0.45464924921013194 -0.44905818772388378 0.45304311470014968
-0.36486542220049156 0.035919184160279782 0.73683676757989991
-0.59704953153343832 -0.3856890010323113 -0.13592526879736566
-0.42883174579691175 0.10233383703946641 0.63986027713528215
-0.32427400923826277 -0.41881499387439736 -0.36508777034233053
0.21695686590646046 -0.31438505285843577 0.39570566888445236
0.30028525808583617 -0.46270920870363352 0.53539298233628119
0.28369773974588686 0.37869521448346888 -0.15513573769290046
-0.25555747673410556 0.5541605944490009 -0.36393635320101692
-0.54573427011562292 -0.25531066106334721 0.41372265669560515
0.45636889033481554 0.51428702441163754 -0.33262901267079348
-0.3424351237321287 0.12771084111380807 -0.55373536055201966
-0.19043833137507771 0.46968641488801743 0.17003560928278616
-0.87501890614557654 -0.3451955472110525 0.26208043504183021
-0.72818556217717145 -0.38946581882569165 -0.48456807252794398
-0.10758806050153691 -0.12427476268060306 0.39569115928942999
0.098180083109192573 -0.31081900394506901 0.59925768343091412
0.36439428453287093 0.6835995386181889 0.032296939176042927
0.051158505572475255 -0.014812257622112468 0.6976779434247703
0.61363558225442771 -0.37129629572969147 0.59261037583268938
-0.035888503192459176 -0.36345757762082559 1.1155456611076713
-0.26617402804968004 0.84930553744025272 0.33889819861207493
-0.43396230005717917 0.37293752290054943 0.1871640645085163
0.23712923931339247 -0.81167553296782669 -0.23798328202267038
-0.038638096443293524 0.31584562683865824 0.70929058296253245
-0.12045513764760996 0.41920004033963559 0.59178010691185357
-0.16379252883758988 -0.47332913170249996 -0.50874421757684685
-0.21821719908014003 -0.091066768671180798 0.69261775704911832
0.35527866112357764 0.88051180922978323 -0.2968186104989653
0.51316438556669763 -0.13809382950863569 0.85067927771307172
-0.18546039293418048 -0.20220329634100842 0.13995131063544541
0.42698803618843884 0.57967095346514963 -0.35579454357585261
-0.23959608488568351 0.18256395504381712 0.45187635577544638
0.15290102687043006 0.095425826678248782 -0.073804593614067215
0.12079052440687565 -0.34261440704558627 0.53586949810508977
-0.088628612271260732 -0.18124847091188528 0.3703650237644005
-0.50010345351520336 -0.2775798842619876 -0.047536893203397823
-0.34790625948107279 -0.48496833704229153 0.68552756176107499
-0.28743969277854908 -0.1185742241886017 0.61610437887134017
-0.63351989376759221 -0.32077802262833283 -0.23960117213813448
-0.78250836029588422 -0.61055551871389346 -0.39565629195404317
-0.60584573013782461 -0.43250914954295683 -0.18983935940725249
-0.29256552463139385 0.2504936088348465 0.68852475883032682
-0.16537774002261485 0.15250518512024047 0.33191209069054095
0.16912428811970259 -0.43981112410001921 -0.26883268550481532
-0.58579474379638996 0.22219171860562614 0.11786518166738558
0.46921520637166081 -0.19606101393191083 -0.14469779458611742
0.1451098190909319 0.43225676935053386 0.47423627171548971
0.081032470533674905 1.0972849004532259 -0.3384291489480219
0.28208120650655744 -0.1230985461668323 0.66772151835434013
-0.39772289741491162 -0.37110810167603381 -0.41721463954320459
-0.28703508219152918 -0.28767971279196408 -0.78638024937645423
0.24602909578073096 -0.43134598602066682 0.54816821344842004
0.48964692275568411 0.034895614489566906 -0.2087513308625043
-0.023454537352603611 0.44436983617668185 0.019316663210006024
0.088009998074954687 0.33800785070214046 0.65163741069046643
-0.52920954720396896 -0.10417377705942527 0.58645792740798419
-0.099900322124807817 -0.32501517515508027 0.51110910959797895
0.31456806243787905 0.19901077857344157 0.4164627446912571
0.085786355939074355 0.88528765723967817 0.44832151456934743
-0.28510588963871053 -0.3669525617583641 0.1294621099412675
-0.023342469204411964 0.57479416343759604 0.62652965140872374
0.4298553298851 -0.3841506105568756 0.69095176962235261
-0.31527641431141529 -0.13834550229867132 0.37927291135539798
-0.28506584715294558 -0.016660640504377877 0.3155887204756832
0.047142234211118739 0.62252882101738494 0.56403357636021401
-0.10048035465173855 0.080782414294721272 0.3476147164114004
-0.23794787104549886 -0.25013123827173994 0.65698464847248772
0.3931702840738327 -0.20146113060397935 0.66086122536289893
-0.33525239741113444 0.13490703900476964 0.67093302193701532
0.073134588916777599 0.95905651245451806 -0.43317301516722473
0.4297331828927593 -0.4498896962848305 0.65619238432038618
0.28400527480313054 -0.17404657834351173 -0.23247338014850272
-0.00064078714713233786 0.16993302111674402 0.30266865731283565
0.31242497943238567 0.39091649888626273 -0.19533361991744758
-0.46659403180214315 -0.6611694214757502 0.13822966790107338
0.23180942147001304 -0.12067432842859466 0.6009776998854196
-0.10977933941703899 0.22781369702328802 0.67938536826151696
0.22026213847245657 0.56307156746979337 0.33383083410930298
0.22547404554467221 0.16470596906324242 0.44187142427236697
0.2560722134200657 0.74896262581536055 -0.17812427562278621
-0.099072748501798813 0.43640494656876561 0.64960176810036319
-0.32636165508043546 -0.064124551932471352 0.32018303620707211
-0.20572191551590824 0.33843849362927447 0.69993040519018779
-0.63004192893578992 -0.44786980050651848 -0.23801294398130823
0.39305570850557014 -0.45288098252672671 0.47924257075720356
0.82270751586840296 -0.68181999074142841 0.073733521232826615
-0.30528864737144201 -0.078922044092587074 0.69432058898832527
-0.20661073594880008 0.55231444981909295 0.63076818202217266
0.58903343838643574 -0.022624031415246382 0.50316434723933923
0.075616011182000786 0.36685806604343085 0.64891074853218056
-0.06798865647925223 -0.082497610381442488 0.49581889233005844
0.35200846031278576 0.43515153369898929 0.68329101700056716
-0.080002536518429146 -0.29085798389362794 -0.26918330703932891
-0.12929674699853799 0.35368459675255537 0.62324195366549817
0.030962715473984659 0.89829157090296707 -0.058264061111276244
-0.25736911245505534 0.6523389326187724 0.0084801187897358687
-0.52159786005547482 -0.52289141602533928 0.014236431941655137
0.54986901497360541 -0.27955007428722384 0.63142649768910919
-0.15467724121387905 0.78815028193030634 -0.39482437284097605
-0.50536685611962706 0.04696202311770184 -0.42756648524735519
-0.6380477940580177 -0.32981311339456931 -0.23041058892593469
-0.62578733046623336 -0.31823699584084086 -0.22005636548885266
0.40393933970452212 -0.66074745562999349 -0.12036949147099496
-0.39380716411967442 0.036475385002974148 0.72070646972494035
0.11366605638505689 0.30063658291457518 0.61822646858383701
0.3425537585801417 0.32625098373796008 0.091465156012545568
-0.11760187027521818 -0.20406520586533294 0.47900048835000558
-0.1406391680282143 -0.29703519092555108 -0.59329599448441472
0.51047240091849022 -0.27866408602954973 0.099586193391735356
0.49246454866729383 -0.16541484427149811 0.54014948292053855
0.10672083010178612 0.16325382554738721 0.63295575174768115
-0.17033401975549589 -0.17859272229765338 0.28144559395442503
0.16091665703455016 -0.74813044644493176 -0.41799894224347067
0.20669011555085226 1.0569518040519341 -0.046735032828356227
-0.049823878528482579 0.23935658140844648 0.66778315011049894
0.016710545293679768 -0.026632258232332173 0.73337802043329647
0.87365053215311361 -0.15697923210833853 -0.53430973785393177
0.13781347919072706 0.16515640150978017 -0.34584096701665168
0.18157342229981355 0.26190516478689918 0.55651279355691918
-0.31480023341067986 -0.045312277504996418 -0.10907234046360603
-0.25343747673119088 0.43128540160840056 0.54317717338818694
-0.56246107836716952 -0.19419064790894044 0.51775988864523581
-0.73010454783750034 -0.086598341952534824 0.57827742738996368
0.62613887180766947 -0.29664505102412608 -0.27884216185226973
-0.54486281176117068 0.027940877853523088 -0.33488678618785361
-0.22984677527499398 -0.30323687922583792 -0.26255117943863637
0.24023134674140234 0.028576560167302423 -0.0788405214233594
-0.38908394764466137 0.14560642943532731 0.65609814754062223
0.17163565478099896 -0.0045785503155026941 0.70608464740099175
0.11549038680459334 0.0017824139610544965 0.054553741539931422
-0.46336716673734535 -0.76310327202734562 -0.1699389830080934
0.52493074079906532 -0.3480128231230622 0.61071686093881539
-0.45607727189978142 0.16260469453063697 0.42318378336962736
0.16076494659627394 0.30872005015979431 0.56992990520142051
0.28859920130923 -0.025634173119736259 0.29327929062141611
-0.4393249185307917 0.039301944018298174 -0.016683663762874779
0.0060557850738429675 0.54277710220361586 -0.37311228810457409
-0.28083844822590176 -0.10535425014441968 0.64617167712183132
0.17521705998734971 0.03040714179064391 0.44401648876717892
0.20066592198495958 -0.46013368050927744 0.13466351586887881
0.20696850902708563 -0.073630493876387038 0.67538861728520061
-0.23179011137680838 0.5040854906350325 0.37285173432963636
0.78570592674772044 -0.37679808262847592 0.62864247559204411
0.23945729900460422 0.19841257909773741 0.040139791005170622
0.12097393623333463 -0.42588124869469463 0.64320986221815801
-0.47843787480469846 0.0060116395591262584 0.61048068632603436
0.27426643347212454 -0.23684555167219512 0.43369839779975899
0.47938934210085704 0.69648186412908275 -0.34575837082319127
-0.3473174412586908 0.28824915833631509 -0.11084616091805732
-0.42640128643159236 -0.36419893267433751 0.22129005217492725
0.014709016085932891 0.53597220460029349 0.61518435183704656
-0.13904808095884458 0.20554400161479269 0.68562213680569239
0.092664496964457221 0.39318035601052037 0.047260411054802831
-0.57598939080410327 -0.29739700330560859 0.26656392503405013
0.052843929007171608 0.38898358637404695 0.65585481585212646
-0.60866599622831818 -0.080919343040551595 -0.14879191470438724
0.29744055847753703 0.4225341096901572 -0.20259724236379062
-0.55581341589392541 -0.41589386759383212 -0.056347661610818944
-0.41554009723512009 -0.021102659967276949 0.70328682513316554
-0.30058133131930753 0.080105393371801281 0.7140665489729241
0.29947258960633683 0.56529667333073497 -0.31476460867034728
0.35102267219947558 0.32761559747261626 -0.27750922720567073
-0.14942897648595621 0.39973473660799758 0.66735387308487892
0.11119956855368351 0.22186086428508806 0.59312531591528506
0.1861367254581543 -0.03088384651438697 0.70413015959020553
-0.36276912881823176 0.11792190832912852 0.22398491563220757
-0.19630681318750964 0.14495664497260063 0.50948296782793601
-0.74428247862350583 -0.52145996247406778 -0.4239079655207354
0.52017816863653765 0.6752826461749214 -0.3900879342148581
0.76875652695963748 -0.39783035609549761 0.42001479886351734
0.28452059148672881 0.35351702088910347 -0.29114947550610459
-0.55417107716983061 -0.60983857509068085 -0.097494641472452237
0.51238917639995063 -0.31997214478024333 0.65490884193674592
-0.50183292689988901 -0.36921042562182821 -0.6642006957900416
-0.00021130368377431097 -0.16145505310911845 0.64674181824421129
0.42820955169729125 0.89245292157976497 -0.37376246609642683
-0.242035939068594 0.33294498095325964 -0.44451748649411049
-0.36440621457885169 0.21059437943195142 0.66639041263506216
0.19502726808689852 0.42399410146564959 1.0227784920910721
-0.58895733793119009 -0.54568191954476952 -0.10545370249419228
-0.56312003793035392 -0.57809233275514316 -0.11731439793576437
-0.18860123535699957 0.88280824965658455 -0.31178502122948093
-0.14716799073885101 -0.080301923530633978 0.24511512276486125
-0.46919942528912473 -0.33175949650392333 0.80054461822601131
-0.41944380862339203 -0.30481118460526513 0.39880176997156536
0.033775963973228018 0.66334678488214704 0.32985404384236494
-0.32237022822967554 -0.1333270974480168 0.60807439889314152
-0.25256839814079413 -0.075899556433178805 0.55796651685264775
0.42182550537045072 0.87644976426601506 -0.36650532067006969
0.24197885241680983 0.68921834948154315 -0.15119866284874395
-0.60967489532430574 -0.52300062553383464 0.18666708311941926
-0.39101853023712208 -0.69046677774674725 -0.67678453960366369
0.37554136088680856 -0.4346127769112057 0.60519356458161844
0.09926957603565123 -0.066275120500534412 0.75159623687839505
-0.64799485560989112 -0.52216010906987376 -0.23490295149086748
0.22365839378316821 0.12327751145805721 0.23902034765070745
-0.2697302109922618 -0.010522344729058664 0.71371198342346365
-0.011556563362043804 -0.27605232324599249 -0.023841235282823559
0.31264687906706534 -0.14183698644606973 0.35514180325758782
0.27377757441960848 0.52614529145287681 -0.24609774374717719
0.25177467030544065 0.19700171198220828 -0.07998512493004073
-0.11704330216810366 0.21920180568860703 -0.12025152981764375
0.10989997804783203 -0.087626970750820155 0.73824601787331234
0.62711707922727 -0.41883255792594992 0.60751390346209588
0.17471553615124713 0.073176898141415037 0.45604584988476971
-0.44306742026407764 0.3067715587931788 0.47674210442318221
-0.22887929766238857 0.0097620776815185439 0.71003329286442385
0.28493577000961401 0.36586850734344056 0.43280809517123892
0.027405995459089949 0.406452619952197 -0.097206795188716666
-0.25373385265943027 0.054570755261642567 0.6932285836926001
-0.072639059175073184 0.69212307878333168 -0.53727597875039823
0.19161764425101158 -0.019389070304902223 0.94443254803913068
0.30883711200166708 -0.19582714943090623 0.34367893250715797
-0.064562817167640008 0.92444390561278067 -0.33675934351589698
0.15150523785908154 0.44147120278731072 -0.7565873109134702
0.26072502250939222 0.83805372146836032 -0.25350704702891802
-0.39633308914009846 -0.65277755567769069 -0.12392730413581954
0.61089976372822696 0.18228798608938629 -0.09542510195394005
0.48294666618822624 -0.3240483644665394 0.67013302934344854
0.25127032481038536 0.39999869842099317 -0.7867090717597871
-0.20683692393050757 -0.15728053606420628 -0.1143893485449754
-0.58915789286443687 -0.48335707224235958 -0.19236320191411926
0.46539660315684017 -0.096893054768005638 0.010889006137658086
-0.062801653015060022 -0.70837710759970207 -0.23285551600566812
0.31876338035657759 0.19318472465093592 -1.0221629906601684
0.21536202001485627 0.53555749007997222 0.44791396346370316
0.45503147000311861 1.0135017342139256 -0.33444653760966547
0.17391160004592565 -0.88132612243272779 0.15527801327624774
0.47346258072832348 0.26142271111151283 0.097222555891279705
0.78385773701313433 0.41575629067230324 -0.59575792744637468
0.16381190711514604 -0.12486152751118929 0.37811103306594085
-0.051289800249673334 0.12520491531386657 -0.075810438446176964
0.13822729009581347 0.29346678622555128 0.58185670328549266
-0.55692413464981116 0.010358928388091326 0.5781026798775285
0.34511442966179517 0.85281778613235304 -0.29422320529845281
-0.47612790275345951 0.074863405652787318 0.5754032824471208
0.28264842980583604 0.60230374919309515 -0.24682205721894335
0.63581462257594024 -0.37340607087757194 0.60825090955459338
-0.26478035111802567 0.27879583295480886 0.56257250253836943
-0.021827350586849592 0.19977640656555357 0.21419414129552616
-0.57096152892026586 -0.2728536217628218 0.23386691321334374
0.1580093854956961 -0.076714666430866718 0.7243856917510626
0.49339447651570967 -0.35464110056271808 0.65394969504500444
-0.16419967550265957 0.57732764487061661 0.52271909034654562
0.13528060423851818 0.0041969730217523149 -0.54065285534884078
-0.12466826422135946 0.010579250845264843 -0.002906928351429694
-0.72823290828064424 -0.46455646559331121 0.30979270891892041
-0.65095147203631964 -0.5058857432530145 -0.2486426487279364
-0.20073456906178366 0.069564852733638716 -0.12624559505826605
0.077105070876118287 0.38388712399276903 0.21948999617137754
-0.26747412943204885 -0.11801149327239929 0.51625713110690741
-0.37973181842437365 -0.04408971395768202 -0.53580012751649098
-0.69582928650991482 -0.57209666039293083 -0.27175552461513108
0.30398124390613468 0.7176796229945086 -0.26118559360213922
0.58892790550919227 -0.3173604135886926 0.59359705548512087
-0.29409121439931374 -0.056183181120140202 0.70555650548265725
0.19693628441596855 -0.28069832231164876 0.6073116778087907
-0.79491721228815582 -0.70388049055103552 -0.27991632984963499
0.52707677344396386 -0.31150948210673601 0.65603846959577827
-0.2442721853143186 0.26825979237296932 0.67823611439345077
0.19213690942278672 -0.048773801575673903 0.6848285244873118
-0.20216629393219154 0.14886013670377873 -0.26104646135490284
0.22711141734768381 0.56272557091539133 0.1957917308910192
-0.29631504297834355 0.15083038971852547 0.68470904822574885
-0.54862249545441621 -0.33221341545002481 -0.23447990142999631
-0.1866571628279734 0.49667948275551499 0.25564422405682197
-0.048563239637855471 0.35096489658413554 0.70305719451124471
-0.11109434929511652 -0.7277087174017125 -0.14264660289899433
-0.39180512973066495 0.15274304545821482 0.59762609999917249
-0.48756645008338384 -0.44225381211017478 0.24172308873228632
-0.15490508069049902 -0.16976957079717248 0.53072163071609513
0.055143062352384975 0.2992204633042238 0.68869987209299888
-0.38463076949863451 -0.65749413268305834 0.11863163749889349
-0.1067450524460416 0.14412163327207589 0.67908525853756174
-0.36713652821202625 0.27503138797127169 0.12515658186937528
-0.2025806329719706 0.35371869727451044 0.6311925508031685
-0.61801712496095929 -0.33760199388527967 -0.15039752414174024
-0.5007826006195284 -0.06267627576742546 0.55571253123888287
-0.6557257356717453 0.29509907903541449 0.031882926931492417
-0.3888153029520266 -0.026167977361311545 0.71979514314509208
0.27358950077835131 0.30220642971459488 -0.062733635206953076
-0.57436880350600839 -0.46342172229599154 -0.16441743083662186
-0.6280954009203088 -0.35960855518877893 -0.1977026108612
0.37682461695317571 0.47342935835249428 -0.28567660417184315
0.19820374430837906 -0.081141475993600498 0.67403957452112073
0.3381019453381513 0.32696844781871337 -0.68316431550365486
-0.026235309490984404 -0.61007992491471141 -0.187458715673126
-0.063667168509881744 0.026598275700642104 0.3071252468641068
-0.10382437454522431 0.31909336344087202 0.66681622029696863
0.32752632799832249 0.67977838404224267 -0.28774020612552009
0.13921900887597816 0.087359658610330293 0.61658191295041864
0.12872775339091214 0.56579073844764405 0.55210101867091599
0.17031177419006482 -0.0065919603773783031 0.68378758262352135
-0.41327858255818428 0.15550089758499386 0.6369898297624117
-0.093870989761439372 0.38771435838030494 0.65877446587963084
0.47661583163690291 0.42537270687252915 -0.49193105118086233
0.34968197204030549 -0.5518215961313464 -0.36026204213409885
0.14529245787511913 -0.32267273847904809 0.44010092227024672
-0.15150256942496632 -0.21719505919300142 0.85283454800597236
0.3082784143493682 0.82362475515938138 -0.23960774209680114
-0.19158316890935256 0.25129807962441386 0.42964355809829641
-0.60999771592261021 -0.44645832117367523 -0.21144186510975349
0.40951961211287102 -0.30729173902182727 0.35843635450143935
0.58023090159775581 -0.39381796717602024 0.64839917563209493
-0.69613521193327332 -0.62060467093837968 -0.23848095635051036
-0.39790012772420591 -0.84596759518350362 -0.65662900886124975
0.048770258315309123 -0.0452052342665481 0.75703733301306331
-0.36471309937002161 -0.41455232231530348 0.14687027685440845
-0.3691038401223885 0.52674871889333785 0.70000801707524052
-0.46214652910997001 -0.08889436192954947 0.60359643078061231
-0.18545571096323643 -0.057901557101602164 0.22247320583801211
0.28255218120011549 -0.24458639168930152 0.068381664582181423
0.60500609194539723 -0.47916330357034054 -0.25125865068950504
0.37994501204957887 0.026121113803942053 0.60580924334061081
-0.055615013364040067 0.013751572888507424 0.38032665846881453
-0.12133564889544712 -0.29968522119929802 0.554822125034234
0.3901049225165627 -0.45450004501377755 0.64764401024386253
0.17956298427104156 -0.06249745122403999 0.71042983425363848
0.4592197472041748 -0.47783049758366813 0.51306740822831864
0.32167752831110619 0.17152849214084809 0.48782197620305551
-0.21858754837213434 -0.40201698984088607 -0.27302070194713524
-0.019704289748677883 0.54171767116991254 0.63424464958515903
-0.22211469327553779 0.047880919105283026 0.70589594665962851
-0.38572248586227986 0.098423676885874306 0.70142258344388264
0.4976413285424568 0.87700318152983892 -0.4084001142296626
-0.16829392476401939 -0.16834085630021833 0.56110860542382557
0.10282748822596766 1.0148889048033509 -0.6292735882029441
-0.034473915001026256 0.50143327161110673 -0.5841701657577929
0.33922292553373912 0.85907189808066087 -0.28103818589577934
-0.61044522410334989 -0.11196456213007802 -0.6407628868644617
0.15375765315346923 0.38749284489265989 0.55816592199411308
-0.11878998337671831 0.29759755814786432 0.67841589790746959
0.47579424808261384 0.55290295537785994 -0.36790779891813929
-0.11661860094282184 -0.23451233330133836 0.60856739675763993
-0.67301005156964133 0.093239673257374561 0.2023464373425321
-0.3024567080017011 0.19164335176609881 0.23504803833685028
0.68061365513885619 -0.4407085638307463 0.40517769373049362
0.4177916504498147 1.0620880478264731 -0.32406040243602285
0.35640207870947815 0.84435225331911112 -0.31574909099809245
0.22133196394115795 -0.19170875720196767 -0.18175189243617229
-0.070848389195065975 0.13801986930282872 -0.2086270777782564
0.56874425215415036 -0.30362981665487626 0.61203356167566914
0.1493378202480653 0.6579765804125649 0.34267881237607156
-0.087874331560229946 0.2258402727884154 0.67833787097394915
0.70727842251790829 -0.40950881242528425 0.5408041927652254
0.35072821939478094 0.30384218171680127 0.29211980478680666
-0.11311238151668102 0.25654975313592943 -0.41819193829625179
-0.026518630435714785 0.67592643697940424 -0.14420572571463397
-0.075113667286437646 0.26291673392978765 0.66866009640747359
-0.25253086380248635 0.2825129186351682 0.63637703963181125
0.76470449150504427 -0.40233155920403013 0.39556595191541699
-0.30395020837651865 0.32234891929264914 -0.15105809505468926
0.5349726616623951 -0.37334309063850524 0.63668478210627544
0.097091651164503912 1.0116642414485275 -0.21973571307704642
0.41816302460722765 0.81859342695970971 -0.35074061533684886
-0.083002708526031199 0.27251496671381881 0.66888694556737682
0.10921876843726697 -0.38443403388384134 -0.030504765579774107
0.46317205125292871 0.92333606751884101 -0.3829520120008677
0.44551283331589198 0.86324881256776176 -0.37733576049140682
0.15705040154774919 -0.18438528690762129 0.70685243136915754
-0.029047196053094249 0.75482245148683136 -0.50630511444966553
0.36280431801426305 0.10995583997994762 0.31528854639976456
-0.77082045599549986 -0.70168448877852818 -0.30747506183070639
0.49294309044259066 -0.27918363389777873 0.34044051052972246
-0.56212407790742203 0.2334229991229988 0.026146527143438569
-0.25637499325777469 0.22012249778517307 -0.59705077843528886
-0.24303520054277283 0.74367920780586261 -0.68972244114577475
-0.82857874945052401 -0.6928334849492731 -0.41241507259327093
-0.29173173480150938 0.20299095561841402 -0.13887543841994987
0.43866746311443094 0.15857877843138868 0.16294701700968828
-0.14630557989938975 -0.89143243024023933 -0.41719276872992761
0.34312646072771491 0.74603938867185149 -0.30085252579876443
0.10455880390562089 0.44693091788217276 0.56917022080375701
-0.51029487869987777 -0.047725866723246413 0.59928587267585776
0.11707208045704753 0.99993723845892768 -0.2130525639595412
-0.27173445286414022 0.34067137597182962 0.48900063545275391
-0.50732299556315263 -0.097914599771316058 -0.23249403836685589
0.05464736505868828 -0.022373772846067785 0.70950027178323072
-0.41913022201459982 -0.11982296264106918 0.61101929372524444
0.053519741606431248 1.0100835555778245 -0.034051279868131501
-0.29393823012913423 0.23751927479414042 0.69699967357274772
0.4217516514107591 0.62720176046999043 -0.3546281173724446
-0.3888884006928669 0.28917319712412048 0.65347707186459003
0.41777207340348244 -0.33002950765145422 0.69896180782497708
0.014231830731399331 0.63366037550508802 0.50450907971808445
0.16782536628224443 0.32149676249722364 0.50805642207205948
-0.59402934228033333 -0.29227557752114758 0.66981203240704223
-0.77662289437121035 -0.4635180771740196 -0.56327998982126093
-0.55296428204418913 0.095650069464973231 0.57012571412334101
-0.10722174205313206 0.4574220020575786 0.96208786248013134
-0.18955151755061084 0.39610198155827731 0.59185663190699489
0.20864844718827102 -0.19626481469262935 0.70702889119254009
0.49239411302373659 -0.31657450449364227 0.67325766456896441
-0.19295583054697774 0.79509158868481111 -0.24550350998719461
-0.40425057101523143 -0.61417088659932384 -0.091946597576197719
0.27887390738397744 0.60246251422114372 -0.23640756060324131
0.63479828295873797 -0.33386903292211795 0.60442728965217052
-0.26777651772703581 0.082486134788957277 0.57197101661778682
-0.5158824197213685 -0.42851274864302785 0.055771803001797959
-0.28540131948456604 -0.065639865501316341 0.69959447887040294
-0.43333503155405584 -0.086480701673579963 0.63592012886985683
0.54308166228776078 0.80509843197454023 -0.39107713990984083
-0.084284208467514832 -0.26581097897723538 0.36757628040796675
0.022320046437130925 -0.305283616094012 0.43512308188642707
0.49429501479023252 -1.1342358129110079 -0.064497891458443091
-0.56480500148165991 -0.039138948297227916 0.56528977070184849
-0.24962893910956552 -0.49119059445742574 0.31820133671004791
0.25259425264279578 0.41848206998253046 -0.31707758746666403
0.13790124889164601 -0.23710205920898486 0.87597117750007203
-0.32217155641144712 0.13486953424528914 0.67808578372640871
0.56020971811035647 -0.44694475477072981 -0.33589478722579402
0.34903198670665869 -0.55668911499145712 -0.75072401788448118
0.10518238803669 0.62300941839709212 0.5547677784907542
-0.23447173354860773 -0.097608306416702373 0.41098916108536709
-0.28533749829782085 0.19682736348069474 -0.074897798081548617
