# XYZ point cloud file
0.12242650447123959 0.47043573084289431 -0.23972834085147854
0.00061471396042944715 0.056749185515140688 0.36306731871698666
-0.04500924781498189 -0.004262938950613665 0.4496903568509375
0.25672753312331764 0.95055189526601414 -0.53262623053359248
-0.26205443121735766 0.01919603686298206 0.52315898345202438
0.052711592674495211 0.57527690575962809 0.39868489218876135
0.2506246565532359 -0.25679352423131152 0.62035330239967734
-0.17638912803977336 -0.070423783018101052 -0.11856339648779601
-0.046869759636301078 -0.068396114268333169 0.5954101685013643
0.051491331259175488 0.56316689123775332 -0.45955162161519092
-0.67226824138189523 -1.0548580436066477 -0.45636646331509967
-0.33766425649802639 0.054148588159466743 0.43263292638999318
-0.0047607609060821843 -0.26112902129091836 0.53243677654660271
-0.50353600334670867 -0.33199066313919845 -0.21150391357586917
0.42558534044895768 -0.27941884618183854 0.42713164865060999
-0.41751865852170872 -0.64983179806232039 -0.21959415300281981
-0.20469639069906823 0.17595301629028756 0.51359519408547305
-0.0077241778952958917 0.4245330226264159 0.098104774179510357
0.21693129224386565 0.2560875031625951 0.015047175095595611
0.24036145058338654 0.75507220506343542 -0.21629117601848602
-0.35371001259900686 -0.14639525114101459 0.43774658424957041
-0.44098993836467754 -0.3283759543523298 -0.36223111667035401
0.02540814504219735 -0.28930981271471468 0.51373348099427751
0.17008920754356083 0.11919431228193345 0.30885022110285809
-0.21716632261329383 0.20934975248264481 0.47178854526282255
-0.2285588024606818 0.087030044860146372 0.58236544602426976
-0.014844970376839406 -0.2094857750056805 0.09448774738221577
0.1887643917980586 -0.13855750771644543 0.62681506262026565
0.39678798162027151 0.60287271435611778 -0.28241995978478934
-0.16867569481604913 0.13626840874458873 0.58582011589459149
0.0011141455893697305 0.31701449391674125 0.49650248018617815
0.11445442000185024 0.67790131012556776 -0.14390085912594353
-0.32443806820767274 -0.19878816334693084 0.30637302033576391
0.31099286753403943 -0.24376873017020434 0.42826250919835596
0.42532933381275684 0.64373870363709451 -0.29597771738457829
-0.012845765558621047 -0.061706161475875973 0.35262386686726221
-0.4092224233923456 -0.13941721608304214 -0.12631509589534262
-0.22580084616506518 -0.053345084158400002 0.056725112520195409
0.17042592133363976 -0.270112985937151 0.79943620729247922
0.14740099090550984 0.74885777762717232 -0.48153351190856464
0.27308106232173246 0.324443083533967 -0.13519145797356669
0.20160045265979465 0.20879757643063496 0.11760746334852973
0.14692588925175221 0.41201598743725459 -0.21402441029225072
-0.11375309695884622 -0.048444538136878129 0.54952892458641711
0.091621312037495017 -0.036501667616724742 0.63453370301891288
-0.49259744110158787 -0.41452840175037919 0.20232163025630712
-0.60271474375465695 -0.0053861163108761406 0.043169532458473658
-0.015558616199630948 0.34214318915549252 0.49070700422308189
0.4562530231376436 0.34410420587520707 -0.22335539366613971
-0.030916884767233366 -0.013942934160537573 0.62485408696045086
0.24685134228940231 0.84168016754502706 -0.51620839846226596
-0.76577577269628594 -0.57881790529134824 -0.35413663413053509
-0.48852166780388101 -0.35739091222192493 -0.15263134428345626
-0.33241199287574302 -0.21270282748428038 -0.28598835384271348
-0.061856571234874647 0.085033516507673809 0.34180347999636007
-0.58756720556332964 -0.60802666002909889 -0.49611083835872904
0.076957354763648123 -0.056451408168796249 0.63614857587814211
0.15081942486509026 0.84296494201152294 0.049342382104087257
-0.12771746087479496 0.2828506969278759 0.51589464557184539
-0.1299725647835705 0.039255384207708618 0.59087622748836688
-0.29827296558960281 -0.38542845343437721 -0.26980574841613325
0.257539256478169 0.44703555567592501 0.068528088287881816
-0.069777054086313073 -0.21590546948406272 0.049819207324799386
-0.32857721364930631 -0.070501641931891207 0.46553499829089445
-0.0055818145968100086 0.13940570309741623 0.55368653731455431
-0.21778396430957275 0.19553116528388259 0.4839219115534924
0.75223763090898921 -0.58420513503746496 0.15501778375476882
-0.19218562124141492 -0.23873481743385655 -0.042006624493347577
-0.092898423710838285 0.34595141959843168 0.19213274536787522
0.075032452966044827 0.77650570422199927 -0.03029861438628878
-0.42685655929272054 -0.17918744490994648 0.055088753763696374
-0.27698121304411594 0.11120305188901664 0.44305095509233378
-0.25399124978268256 0.14460536191010942 0.42702787526114744
-0.13386172534605201 0.15717693151267412 0.55299892786368043
-0.10962662038284332 0.30683330106938184 -0.072638199577761298
0.097801359100521901 0.31530299626350283 0.44761776461768177
0.15647485313399712 0.26324852481870625 0.43159971338674252
-0.017611348276695415 -0.020616372808929043 -0.20826334637344168
0.1431586690940897 -0.24264877412553695 0.29676268396571431
-0.12912727903594928 -0.28895819311353399 0.13440448528946269
-0.084444764964497487 -0.12287862665367319 0.040034290117517579
-0.68701865784531557 -0.48321059708676523 -0.44589734822386617
-0.096232660994070574 0.1133636854518621 0.31520419743503569
0.031658061430246132 -0.0079654861619619377 0.64937089865991848
-0.06772650880119041 0.063890858784535473 0.084720714179373879
0.43768346654388079 -0.1349071247487382 0.41573410101666919
-0.011867683677280083 0.43969779916927421 0.35698329061790868
-0.65908109501626622 -0.53092543032376505 -0.23143987352877959
0.092179588552969038 -0.053655269787971985 0.62121498891913729
-0.040781843188326394 0.30746930098892705 0.51547217248664157
0.097161173267657219 -0.10484340942548898 0.64056528162019388
-0.65219804337004006 -0.49912444764727043 -0.38991615690088643
-0.25965948086216017 -0.098792600253012161 -0.023452172706409868
-0.23301304257900557 0.16609149033002019 0.49153956269519272
-0.30052463423486842 0.15745607153210256 0.33374988517942167
0.09260032030032006 0.35214163409553184 0.44322102356899873
-0.20915757204400545 0.33158228724771649 0.36119812241836241
0.10665328375233685 0.027824243671010787 0.42694730540504744
-0.3267895915892341 0.13385533801546451 0.37074606050118303
0.13462881661071513 -0.054756155669971884 0.47568330160393013
0.27339935595932208 0.94246979472512682 -0.40698625298729407
-0.30325839616710026 0.16280887028665417 0.35409984176915837
-0.014381361509251622 -0.27975713593716312 0.050543132784787725
-0.072632144916085273 -0.1726244779394108 0.50002430531215591
-0.43655772945552784 -0.46481991672048151 0.046247073418179574
-0.24840985169361668 0.16951255516384028 0.46539470596513771
0.013304968847044518 0.73577582758448423 -0.37955312892499971
0.20561953169983804 0.82630805798326501 -0.18810154977680249
-0.62553357315711877 -0.81591742132443046 -0.2122970006742565
-0.68785318769585979 -0.49274713818828303 -0.44360442221789098
-0.08644770494404791 -0.22183815878278138 -0.144937995057424
-0.98542207202957832 -0.84318358466882415 -0.17764620581680568
0.07663825777675648 0.10268308709645217 -0.05768380330834344
-0.02320121828688404 -0.20934047688471638 0.13798623613457017
-0.35679112033384264 -0.31548630043767673 -0.21761846172258148
-0.022153309019312895 0.19394880980729326 0.019098828868446383
0.26298530650576207 -0.19904173107457671 0.63052750165480786
-0.086077645101813149 0.18878763492699718 -0.34766909044062144
-0.14367743884531192 -0.18870094728954323 -0.21090367068972193
-0.0068007891500282969 0.60547800731066759 0.038219597833168972
-0.027361534899661699 -0.056571635669380754 0.6191438940695404
0.38556805832250085 -0.28758146577091609 0.52307218366841612
-0.3879868718829495 -0.28636458420896027 0.28612922034313282
-0.036056908014911959 -0.00014842618322601087 0.62270061540068622
-0.73458909855522958 -0.55610190238157009 -0.38429171563689402
-0.049408829223952955 0.21605696747183667 0.088367369968234133
0.12845535096992677 0.65522637185525268 0.14450513200911974
-0.12365079322182215 0.05125329475827442 0.48498889716342641
0.27193967403728525 0.2748195854019268 -0.11831911124595806
0.015068306414183774 -0.19699663924254729 0.53402536968133762
0.071004340036517233 -0.038772248468341819 0.09981105489403086
0.043212698669630401 -0.26800461710041223 0.47503485964048608
0.067876909476032976 0.39557683209584327 0.44324603873996316
0.16383780113441992 0.1285811962910281 -0.65085957076941181
0.1237419564248301 -0.030509932683717794 0.31804420223513347
0.0089436037733566787 -0.0073599602775172718 0.56752447914613358
0.060652329802512783 -0.39261196543672494 0.085815634199367163
0.030536903269011262 0.49442017987972225 -0.048806064147186468
-0.34825524514373651 -0.016358877578900848 0.45080248572328696
-0.61538034891621263 -0.40472406123983762 -0.48615338915672923
0.14892697273614453 0.37413122556529621 0.47983846838076988
-0.17975552012593438 0.36621144347409007 0.42452449676295667
0.35323348392468179 -0.12269834798495116 0.39297182786441986
0.060918251044667415 0.67132421150996258 -0.20056955065134274
0.68855860855683682 -0.55523069403870728 0.59921283633657829
0.20783854933231738 0.55779830361421856 -0.2848683919916406
-0.5721786318513935 -0.41767724456882943 -0.24390395654848052
0.021148518862950327 0.21601429753894352 0.55896247020586975
0.77520184823899529 -0.48607897890728263 0.61947114357956545
0.3664924377704144 -0.12749957894625941 0.41189458370108634
-0.14633751901915337 0.085497075274902648 -0.018785104888339177
0.38130987854192921 -0.34932366337426868 0.47984092624348612
0.028473228844030918 0.0072705348812687337 0.62433359880137518
-0.14028194329862143 0.1774865216020903 0.43058038134971077
0.21010774867685789 0.54753743408551836 -0.20031630669254841
-0.14021118785081166 0.14426555167185073 0.55289648549988135
0.35047436009041733 0.37844876807501915 -0.19255735079279102
-0.38650571327721533 -0.096249662020929688 -0.16523292252164723
0.094844517708384313 -0.3282809975825971 0.5339290951761384
-0.15903560358184166 0.20914761346915539 0.52037230680854496
0.060577269869714456 0.18343771000025172 0.55670110666659989
-0.10717959277058381 -0.33563749322327258 0.33909225418253303
-0.14383046390736448 0.17758462328432145 0.51450435924236104
0.19178251383881806 0.25826916126324673 0.34252099898583277
-0.28869017927849377 -0.26805522653121072 0.46149188092736904
0.032322140096294971 0.28979843458163862 -0.061673653411382645
0.027194974802465466 0.30267978175927079 0.52140767196267057
-0.35867408371475945 0.15144753316486076 -0.077338802500372839
-0.19656082543893305 0.47247350197372506 0.43865130812150405
0.082220817836228921 -0.0083727484604005087 0.60164500569311241
0.19602180444132777 0.87326640814535139 -0.2320277496837686
-0.14468189133311066 0.19995701978770575 0.53032766656467856
-0.26660856167635932 -0.29097668366288104 0.19785063834350208
0.33422636395563865 1.1505224163338201 -0.27714084012989615
0.10703812745710395 0.70322208593718749 -0.43121714349871743
0.40402221735488386 0.71062719559937182 -0.27396527983113084
0.18937169534265685 0.78562934719316768 -0.046758063015313822
0.29956708234993973 -0.2655282984978643 0.61030405661327392
-0.28511733414818596 0.09956468918128579 0.086672664071040462
0.043949062582488208 0.61630589593758822 -0.24331694365538192
0.1094697565561944 0.56806712755878874 0.14791195731732265
0.066373728592552805 -0.021736811366320691 0.6279187483819606
0.37670310739689095 0.28140019579579473 -0.17001614343822757
-0.32592672125361172 -0.58722375923816128 0.026114716677796745
-0.72138083771660844 -0.57376927527358834 -0.32473947160722316
-0.49324695622977821 -0.33937260334721714 -0.18137859347069352
0.071515778193401824 -0.044586314939585189 0.6492335356070551
-0.36646444608520623 -0.30711967200890877 0.34481719302819547
-0.11509377600916232 0.22200149454545148 0.54100342472819407
0.021607463753384182 0.51195347949543213 0.33670362537826926
0.46020168933510397 0.40115344047613233 -0.27671776293915257
-0.020048560910715607 -0.34884387316116838 0.51536728763565021
0.14857412403943715 -0.31911831282260217 0.50175272305902063
-0.20773161855322303 0.11742873722572791 0.5871082901309298
-0.4534862070389396 -0.27195207505566155 -0.11232819503277458
-0.21658264921239764 0.17952811581673425 0.49266517469585092
-0.35348180702985765 -0.34937088039424319 -0.21536775413175158
0.025180751602130125 -0.22538151195359013 0.43498404571102522
0.034003444606299449 -0.29891224470396749 0.53358513943322916
0.21648050402986974 0.20717563019569635 -0.01143830574419058
-0.0073424162036148655 0.54213636600332271 -0.32574725573440355
-0.38033088403363258 -0.11396406796017018 0.32643332382740547
0.37548233013430998 0.27614999895304404 -0.1603694972087501
-0.17351730246116498 0.14741217599451381 -0.42862351629679551
-0.011099941356351062 0.42001356325883349 0.1105915357488525
-0.62979724331330766 -0.17907105719067101 0.15701739219163241
-0.54235141607012127 -0.29018906543460909 -0.4370680968670756
-0.11026219280943905 -0.066764702064862957 0.38027590266917377
-0.044018393248844934 -0.1871469397925464 0.56036475606990943
0.34140508163493266 0.41463537512029081 0.040581726836209031
0.01340430769787837 0.0023046957622369496 0.61080787811254278
0.3008132577652386 -0.28229897083340633 0.62220604651604061
-0.19408674136982287 -0.13695940342496207 0.96085649129322281
0.023071813516788831 0.84193743401587584 0.13074594801485689
-0.12441524144180527 0.4166310693320765 0.092023513951824842
-0.14466778311180878 -0.67477543524465122 -0.022652041123339406
0.022994188835904206 0.2487160257753116 0.55200600207234374
0.00065494436064017503 0.35466581081966203 0.43326509031607358
-0.29858156629334776 -0.42610118037324407 -0.28590336504758429
-0.16008104995235506 -0.0043889963630623086 0.58204954228702055
0.36620896199115816 0.61056755159685727 -0.24490578778473626
0.30264431595078994 -0.1393072619919182 0.78663119635710377
-0.18450709568802381 -0.13688489241540719 0.18836676328274288
0.36494152390317536 0.33829478246198158 -0.19655963507810725
-0.096129147788446556 0.19206239758203825 0.36135651610628605
0.068567219621437081 0.021899739730836254 0.078077975663900068
-0.041743141023905139 -0.21556402688980639 0.51719126666030513
-0.11778604972003243 -0.11100209714150013 0.36853659951403223
-0.3609969865149536 -0.17883291491069711 -0.021835167505517172
-0.4060434834599721 -0.25982249550137615 0.5598347322248971
-0.20278719297301737 -0.020448203141399141 0.51573276238936372
-0.44745971695120285 -0.21717075641672051 -0.20896343737909018
-0.66891713073839276 -0.48907354174626733 -0.37018046216122669
-0.4798474016154522 -0.3181424560909511 -0.15630846321642289
-0.11809427865317151 0.27122621052131463 0.52285426877273899
-0.069741455551306508 0.14559921202612708 0.29309332481787681
-0.075852723366825969 -0.39800204453823268 -0.027977755569812079
-0.23654349461777049 0.30878442612249596 0.035254653668341129
0.21485533462680406 -0.24407783431796748 0.1046255913037818
0.15134247515101262 0.27667719531276325 0.37862158237227517
0.23634918418519446 0.94587022079804317 -0.37456633885203661
0.13442748565856405 -0.10032310433423959 0.62695640509234241
-0.37068457965865548 -0.30445619084848591 -0.27991332401929503
-0.30443732473438928 -0.26538692385223356 -0.57099719863762899
0.0085050739593840463 -0.27490328614456949 0.53764132852716151
0.29097815894965484 -0.091900969818243111 0.035066011481547366
0.051526734699310572 0.34152837633456634 0.04740697931754978
0.10106957411706585 0.2261942317959835 0.51773543261481492
-0.32813348046358648 0.022645696492677996 0.45964246327404534
-0.16915648416437301 -0.19097674158753647 0.46906539738672459
0.22198857880822864 0.071776127780250915 0.41161181529211066
0.17345541657877284 0.69142910500707044 0.22611728930092173
-0.29145168172387181 -0.2550255788857293 0.16254642666437874
0.069443924910170485 0.4523537700188322 0.43073371603611749
0.15805441946511628 -0.24935030284983928 0.66644256832644577
-0.21905526703945344 -0.051199930391894431 0.333121561697726
-0.16833019393244059 0.03505869636309978 0.28089660042556452
0.11672284419114687 0.46449550911644849 0.37940611667338819
-0.054909161593509004 0.077360378229949581 0.32651577887533262
-0.22280232481474374 -0.11345061001683665 0.56031560934681945
0.1902269894374527 -0.15894888631022641 0.6402155262314394
-0.16242840951689796 0.18630708961953202 0.52323863274119375
0.20749288630586771 0.81565598808790385 -0.40230581185257008
0.13324439913579561 -0.2865625512367953 0.63708213358347188
0.079983062676624361 -0.20959466499363649 0.012754951166066064
0.015264867979939867 0.12079232526036832 0.29906327012908673
0.23868640050261314 0.21030922865138252 -0.039769128154782618
-0.52173895696799266 -0.4749011611420963 0.11425156157397331
0.099412880862653541 -0.095577020699066331 0.57332637766010242
-0.028687669043715003 0.20167699170590403 0.53978801740435545
0.21971641545234821 0.35389214844618611 0.25887673125581784
0.15492907641773113 0.070622784894852103 0.42525590944892722
0.27018329546048758 0.51740076697367465 -0.12725101793059923
0.011007286253245818 0.36293577654429932 0.47443211563382814
-0.20113589260475367 0.0044202851566152723 0.28100393361264581
-0.060279815903794998 0.31866214673200233 0.52364358789582344
-0.50035399157575822 -0.33438767881669512 -0.20124761106360356
0.1027369300126329 -0.3106575187711913 0.50983615995106313
0.3699762988302176 -0.57323267476336581 0.29888634712311696
-0.20417246891511956 0.017365461786401484 0.57174189890550409
-0.023452372333096605 0.50784941062505473 0.4242821412479782
0.38314018907353831 -0.1158313370744927 0.53440889868049513
0.097838168188141172 0.25088089442843653 0.50783855699969949
-0.07457019125659875 -0.035619185873126555 0.45493901951150556
0.29563440958312548 0.2179813866363384 0.53796180708977204
-0.1821894862392906 -0.2579911164636905 -0.081518577669561165
-0.015385147577006986 0.30420401196499919 0.47002790083121471
0.16530431722665861 0.73824630704133198 -0.12170224733857593
0.012995420583461204 0.63034241151575854 -0.067033734125806599
-0.47665023805837142 -0.37996089729007854 0.022661417892263946
0.28230979630826891 -0.2248371586004945 0.64098985019497856
0.087530250316168901 0.74569677761287068 -0.38027206235208377
-0.25711368430810921 0.10639007836893505 -0.36328558916163511
-0.45321763044918228 -0.22439274136749882 -0.20220203677520443
-0.44174029213095206 -0.2142405975055218 -0.1910028656364533
0.029179871835292082 -0.55176940364703442 0.10419585583915103
-0.22199688923025371 0.12259156117528824 0.57088205632220901
0.11133844469845466 0.19181242650152391 0.50520148276958243
0.2563254576170152 0.15045170439600178 0.17471119378709388
-0.13763948151763228 -0.11306861982312319 0.4424589660938959
-0.22970120896249197 -0.28403068187142183 -0.35578212095188277
0.23134167486291479 -0.27643293010003339 0.28133759400324143
0.26928725981621893 -0.16710757027799816 0.56576200099801632
0.083529647683446839 0.10100169351187011 0.54291610086634889
-0.16308420198866369 -0.10794666719713748 0.29098341094282237
-0.17976280160135755 -0.65814565896329558 -0.15409519829738494
0.28570823119683142 0.81109597900070451 -0.14466269820699823
0.0059044484099431971 0.19373785814667965 0.53573233096316741
-0.010171262363246447 0.0032680545917604664 0.63493198860286437
0.59697711330955527 -0.3224075052726853 -0.17255440592866611
0.065316367157632227 0.071764879074951882 -0.13553259727469535
0.14748455087176005 0.14643621387011313 0.47817337736357518
-0.20425856451959101 -0.0081093262761347991 -0.03691926363426512
-0.056140687069438477 0.41238479430976371 0.37886254262582153
-0.37380676471823954 -0.052620092065881877 0.40508327433374158
-0.45517297895320891 0.064173573164290412 0.43238584049178963
0.31577855632810004 -0.35340346854798615 0.033510366859172303
-0.27682337121753881 0.097927011403160791 -0.29554910261466349
-0.26198631325801802 -0.25100404637111229 -0.1130899790394736
0.1086503573031784 -0.043550720789433589 0.097153126404755819
-0.18663310455687296 0.20748210240230458 0.50395600187199774
0.090932945779258478 -0.01318668598361275 0.62943470957119518
0.029683407213772606 -0.034011083910276366 0.1723156062487759
-0.56643701788286016 -0.60638893046654185 -0.11867101789626988
0.24017190073283545 -0.25513526994272684 0.62353176245898434
-0.19876947955785051 0.2294948341145566 0.30750165770942428
0.14214505032959424 0.18391255998889675 0.47478190428143024
0.14747667254103147 -0.067728574947755901 0.36236219103189976
-0.22057561862546518 0.096886529904268617 -0.011267937616578294
0.081256903979078587 0.43286737668622943 -0.2560645861423978
-0.19640696025274224 -0.0092965611793696043 0.53901144451659233
0.093736756117028697 -0.0047394953584681543 0.44160810044671994
-0.044673718158857789 -0.35307833513021863 0.25181180613309684
0.097067767477344413 -0.060380570382264159 0.61922666687223282
-0.024140563165650053 0.46894392759178599 0.23911962288034672
0.44202593820989561 -0.3127163437119227 0.66916459082902213
0.15378405172293275 0.083205210242287414 0.15406273627815026
-0.073608775365819668 -0.2484183177856924 0.58891287136684589
-0.26683986548388849 0.1072412975945897 0.47492859577488655
0.088538732114932128 -0.18190012403301914 0.46893796578079627
0.43302689378704429 0.41953921520078374 -0.22070890053615522
-0.11222181962441802 0.30428364953292292 -0.098106317159374123
-0.35781805414885876 -0.23194490301663978 0.20141433082669974
0.085970083895633431 0.40397330224050793 0.43588953357247812
-0.048340716755883584 0.19290704126066244 0.54531349126008266
0.10339795776448568 0.26532156162365117 0.098750335455294769
-0.4068294412596179 -0.15990119184064772 0.20629920615865344
0.08727586293860834 0.27455330652777499 0.50533701752637528
-0.33958459870821511 0.011001684406145018 -0.14786157475101336
0.23446631727490064 0.23899174267549514 -0.053771339003745533
-0.44499017841513 -0.29475614706459041 -0.038393556413750085
-0.24835714773798639 0.079919806968198004 0.56083568162915431
-0.16030464253520443 0.13712745998705655 0.5695222989940375
0.26392198600338801 0.35894754785061211 -0.17068186312447819
0.25128453629783987 0.15348874143775915 -0.082352739898268079
-0.02060608658324814 0.35029611687617135 0.49107226969085227
0.096568607510546856 0.13793220627212149 0.50408538918994128
0.094263654828156129 -0.031030924100189664 0.63294013130431059
-0.16385212300887048 0.1592809192631397 0.17930130751988305
-0.085053973538771588 0.15379023184264889 0.41677481753608758
-0.60511540630224225 -0.41020218382866386 -0.38474481377227387
0.46385701361616916 0.394950732690801 -0.24766625223939909
0.41500117217017857 -0.34431729715920656 0.52706316123444152
0.2080522314401192 0.18998959071472615 -0.1052808813110796
-0.53588773489327579 -0.46583439762600953 -0.073180733783173912
0.24119419904359962 -0.23500595443384845 0.65315832845662936
-0.42876509494390852 -0.30712489922995007 -0.52320520817351024
-0.05588115122029419 -0.083323367840390683 0.57974958548673217
0.42672165467677992 0.60664939388701256 -0.30267968889934521
-0.071117797385937376 0.31851574338721961 -0.33863354227715181
-0.16053584844863161 0.25669931346389668 0.5048014658849207
0.16636783720572546 0.27019896226919771 0.79426557111775697
-0.52211032056851603 -0.41035226287478527 -0.085278031612845973
-0.52487454573639714 -0.44097054560271198 -0.089050743946712418
0.10293485933470797 0.86163669153383926 -0.3529231387264824
-0.12391245335666123 -0.040992156721018254 0.26329597604551197
-0.41501576717239225 -0.13423648604024732 0.65248251745960095
-0.33242868294772709 -0.16633007911274633 0.33650978111421481
0.12150065448418135 0.50395003255499649 0.20710620991177087
-0.22580373408301044 -0.027190062019059838 0.50583679968020578
-0.16988295967989187 0.000921693787562336 0.47248035046410464
0.41860737341580279 0.59349653948382541 -0.29230810034490184
0.24974770169874683 0.46910822944429842 -0.092438859737846713
-0.52815464488017949 -0.35446944412115733 0.13618731929735961
-0.50757040944068266 -0.61667431247381543 -0.4899668177687927
0.098894960370172147 -0.28023217757152563 0.59506723516145188
0.030672655263180526 -0.033228051917665188 0.66239209782488673
-0.54359179339442754 -0.40001828688227381 -0.20245490343285932
0.13614537033622243 0.039016425902919816 0.29748077876140111
-0.16662898911981988 0.062822549304297953 0.58432232363039871
-0.125602565611729 -0.22742346831600826 0.11042023769296361
0.13730639345276074 -0.13851753552565765 0.41719784143587402
0.23844774009455039 0.33003964881236669 -0.11266146868851956
0.15651675644894725 0.077330484585518861 0.073310309094543502
-0.048047406427190298 0.17688198818178522 -0.028767802031976375
0.031970692778958643 -0.048124494456796549 0.65569178427655128
0.29550357555618817 -0.30482725720062293 0.63257236963818242
0.10342388198685648 0.023010752472462551 0.44372767239688898
-0.16302736234081022 0.35998979278956161 0.32903321059763602
-0.13916610243908573 0.069863355866017621 0.58377348558886066
0.2334539413016512 0.18926270728901451 0.38172903411638892
0.065730714601350715 0.29631981006798752 -0.015639617751682433
-0.14045076516573274 0.10661697504264617 0.56182160533481662
0.089350393003991391 0.62099986975276744 -0.44622203542144689
0.099357770411967361 -0.012194563383690474 0.81582029298445335
0.11929748821119512 -0.17116317046919041 0.41191832626590252
0.14573722486337382 0.83999205211214134 -0.35008995793906139
0.14112647399329692 0.32456759601043278 -0.5340395788220893
0.28923477243461526 0.60069623028472452 -0.20668394758054803
-0.47672300542853774 -0.51024844343878106 -0.059246427969916082
0.43449787876548307 -0.012014078434906691 0.098630746559322524
0.21801226994794309 -0.23071760687282911 0.66019366844338645
0.19708710897519821 0.26279888657160094 -0.53869327161266511
-0.19462413104414961 -0.1203156314773443 -0.0029113116402156303
-0.49459171131209495 -0.36521760701889117 -0.15296193079744791
0.24368808940423858 -0.16292917450860273 0.20371964184310398
-0.31436823927721336 -0.58226215930603975 -0.068108981785897527
0.20705005793525455 0.077154525685509817 -0.72841577013564174
0.2125690544451091 0.33276803429897989 0.34032371602470102
0.46962483272155864 0.7032630802348776 -0.31402793052902089
-0.22034657350598785 -0.64121798106561512 0.19633778481096548
0.34351464532252729 0.074063776327757846 0.20409232872865818
0.65643730585295323 0.137226912047751 -0.35051814812458593
0.045272935416364457 -0.10470123397796884 0.41057327187596587
-0.039004743953769183 0.085061451132220842 0.033163849475028595
0.12543727571848873 0.17962178981214588 0.48406115472067357
-0.30792477124589906 0.12338874910759645 0.43931005172063631
0.3535036637472373 0.58902229107140369 -0.23472480235391746
-0.24336031008969547 0.16323158755824646 0.43854973196897712
0.26021014602749493 0.3901529629144036 -0.13194955528021368
0.31821327498917296 -0.2851248500992245 0.63582517452178311
-0.090712459089753561 0.2826679029223278 0.42288642275421057
0.0070844968082215409 0.14557117994698954 0.23009129277024354
-0.39281460148707836 -0.14257433436552544 0.18063793365475367
0.065258201127388449 -0.050768173212006079 0.64975151981281443
0.21513199720583148 -0.24850410669493087 0.6495024983021116
0.0080489366097744597 0.51125966479937268 0.34015406572356971
0.019072086956631651 -0.065237427003255508 -0.27250146676261133
-0.10075042735048279 0.010118304829797886 0.083428704856737368
-0.58042565045381267 -0.2860928242057561 0.2159117579302437
-0.53794446937380058 -0.38645190286518349 -0.21446564814388391
-0.12441208834281658 0.067942244181409345 -0.032427158171164483
0.098094729082248366 0.26112515437312656 0.21344215856586513
-0.18954962775770712 -0.031102428496346285 0.44218577031707251
-0.24682577344662349 -0.010671938627913602 -0.40145042014943677
-0.5943206994206639 -0.44598544557270259 -0.24492320455270755
0.29796825955312378 0.48171336657739044 -0.17263698204394584
0.29930637265013799 -0.25289912972685236 0.62015808411392725
-0.1920419510260242 0.033045970286570026 0.57987589518879912
0.02984810454792719 -0.17908299457759538 0.57948839434700328
-0.72066452333589881 -0.56253465679165082 -0.27919938045920045
0.25520698952796289 -0.23330699802606003 0.65580223872442256
-0.089914762740030296 0.27152368132763216 0.51640678126641371
0.093623734804126557 -0.043300371100672794 0.62168280950678612
-0.10778787631427067 0.13405106405846071 -0.14666473770486821
0.22264498699108348 0.35481295486282266 0.17110938071042409
-0.13994658053250608 0.19035731199135297 0.53606054809602111
-0.411319439685146 -0.23706838958118104 -0.17980419692976457
-0.0047899450955642964 0.44329346502693223 0.16516440009215505
0.022940178645842191 0.27850205785917004 0.53870394717219083
-0.34986292138100017 -0.57920734981176347 -0.019398133753394164
-0.18143885844264399 0.21163867682857246 0.45560372980025088
-0.42404431160729156 -0.28760273939793968 0.20382257959950933
-0.14659444242020897 -0.080713547291971555 0.47322203456435896
0.074884614052068255 0.20857574656674696 0.54985751966284258
-0.47383987716699832 -0.47573435530069247 0.11540878683680122
-0.042690356526919493 0.13933625075696007 0.55493079718539784
-0.12173566554655846 0.30021194637915455 0.077779762247847439
-0.051586850180857402 0.32845614614253182 0.46777545989051184
-0.44374859174678222 -0.22753301025899422 -0.13148201092346845
-0.29538842926873587 0.050401871654040115 0.43448171481154407
-0.26465757491886166 0.39287227537329528 -0.053964918659894612
-0.2364594394326168 0.072477741532299925 0.5777505373242583
0.1958039309821189 0.15059669844335963 0.068349250627697755
-0.47757417442274558 -0.34585680930458368 -0.12713559685993781
-0.45954082523450795 -0.25043347991184872 -0.17133063877410004
0.30319769086040049 0.26177573376170726 -0.11947362606343148
0.089434896150264176 -0.063182792363396412 0.61798976489765856
0.24034686717455311 0.1694361250795573 -0.41759575161398477
-0.25420549740976778 -0.50033205423610216 -0.019291256807042356
-0.050702509287353148 0.028523429241805551 0.31163559605238056
-0.009786429341117564 0.26972131210188088 0.51272017859195596
0.30789654574901026 0.44448249590802968 -0.17926951041379202
0.088690413492981679 0.044785773270847817 0.54811455997180925
0.15889030692502237 0.38597831883526856 0.39407433652217527
0.08932553873059601 -0.015214245173943555 0.61334607874300329
-0.19531880276953348 0.22095965812463667 0.48453583135078859
0.0062083685433717561 0.32117322596702436 0.49286475618798015
0.3716133610132375 0.20863572767922189 -0.26286357998267762
0.019495654029008991 -0.5129043948352463 -0.063494819673843628
-0.021964724945090608 -0.2180111943434008 0.45456689886998514
-0.1720016398552395 -0.078654137971707602 0.72557346442851678
0.32071464288347729 0.57008799826628787 -0.18890191834972886
-0.05912779794300882 0.23457170187009885 0.34092758517494504
-0.48877535604549377 -0.33236912063915824 -0.17438863484458522
0.15824894913710441 -0.24786209471196446 0.43806651532091945
0.26812681334427302 -0.28053472617154596 0.65566037297921465
-0.61770898548329789 -0.48624334877139053 -0.21869073838509911
-0.57595095272501196 -0.7525405246744713 -0.48029571675802185
0.0045439503101202261 -0.011992198362741374 0.65859893259885782
-0.34926908437384413 -0.28452943883898552 0.15799677128143619
-0.11597959152510146 0.54880977574663037 0.47912687151797162
-0.28636192356883589 0.026444133933252005 0.48049730879821173
-0.13707023076284824 -0.019796702809852976 0.23773251395688405
0.072930818537334408 -0.22725753100699481 0.22579465357462797
0.24564429245698394 -0.47220753266446136 0.057323864093256571
0.23793769041135682 -0.041523734230682049 0.57636918699885975
-0.046759357434572379 0.021852073396933985 0.36552543120385311
-0.17218593874925892 -0.16761592692429639 0.49851121089495165
0.10222557455126702 -0.28589780557922928 0.62518116539135005
0.082529911669980582 -0.047332110708119671 0.64042528375453767
0.1430997964117805 -0.32596514813972516 0.54008094587056865
0.22385020852697313 0.053612119764991417 0.4650384411382939
-0.2916210336125819 -0.33518767000552946 -0.11641100765053547
0.066984482270414314 0.42238389828123735 0.44512214214699958
-0.12598498457423529 0.096003927366068192 0.5764012706824938
-0.20013264680524367 0.16976104132909065 0.54785916082297659
0.48301572158205242 0.57634354509252628 -0.32359578056750871
-0.1534340304741782 -0.075363849333732053 0.49374621179791933
0.24380749062542895 0.89093496912159975 -0.57211184049171604
0.05442399561431599 0.42229442976245818 -0.43098549383080564
0.35012119180892454 0.59514264532936145 -0.22756685188437198
-0.37900714812843611 -0.039497660613858204 -0.56047153725537147
0.15006140217485986 0.24145747754546643 0.44734525896514243
-0.021522816491270913 0.25773365443079332 0.52427493613725829
0.39978774248484283 0.30443785697864484 -0.19675614121639967
-0.14672081080732807 -0.11991862205299164 0.53880097058054877
-0.32928075494396292 0.20312338541610087 0.10707431239925846
-0.11974125825810755 0.20877095305491816 0.18910989349074475
0.32638809041209249 -0.35253946752173659 0.50404977785939864
0.44600867914875353 0.75964473205223748 -0.32319567136163219
0.36065740082060715 0.58012261953805355 -0.2470590021701522
0.033908356845303023 -0.20901761848182271 0.040045641193501735
-0.051482390955242874 0.09595558610401983 -0.07074306542741382
0.28858396750621435 -0.24114443696211085 0.63023686989007133
0.18727849131094954 0.45457596235248965 0.23014005754470879
-0.017335696074920692 0.19430362642853594 0.54187167918793255
0.36225542317210047 -0.32271173519117202 0.59864777265607083
0.26516655217394425 0.13130105668167172 0.31135035473679884
-0.045493982880511985 0.20864110379892445 -0.26422195237278112
0.09679291805342316 0.55453833336196678 -0.12603750397584368
-0.003845095438304913 0.21817909658959528 0.52883442854127416
-0.088522117132085298 0.2844353521050676 0.48027302374349468
0.40946545966094722 -0.34906202823402166 0.51047199663780352
-0.089094433803091788 0.3232140517909825 -0.12259010482214383
0.23991162240454078 -0.2655365399578643 0.64224186600541122
0.22161337829318128 0.83259449307710232 -0.25831601852264618
0.40510065191926936 0.54187940644424903 -0.26256738683955727
-0.0064676982038576192 0.22765987096608004 0.52618242760156875
-0.087351521378471353 -0.31830305515061685 0.12850164132024439
0.46152776284902064 0.62469987187740394 -0.31930104728406883
0.43589977811764169 0.57581619959610764 -0.29585560265118294
0.035298537101537908 -0.11149121059314938 0.64477152938212579
0.12041777603097048 0.66293182602386702 -0.42517531648729501
0.23289330715385703 0.0034984326423224826 0.36683579728193028
-0.70433132975952084 -0.56444032567956159 -0.29553308194852168
0.22757729787516978 -0.24581658463172912 0.43753030595505094
-0.21716259003414617 0.31261896854657939 -0.036019834564186448
-0.11362547368274967 0.21641913524098921 -0.4530845063898894
0.057139432669628398 0.76203206217558173 -0.64098861864465606
-0.73994058167918597 -0.56568369515350292 -0.39673671855002934
-0.12016935379443106 0.20765035096374782 -0.087487811370163149
0.29429158546133216 0.014785581939831829 0.26586807859541373
-0.43970374886985025 -0.75980731068068552 -0.23756623842643543
0.33234220213162091 0.49721456092947308 -0.2070137812307572
0.12794302244638989 0.30082482646085573 0.43511050823735531
-0.29999429582389664 0.067333378395843885 0.46755595178927539
0.22923706994428117 0.80989451853036265 -0.2466665410541653
-0.077854802782075683 0.33646123906573638 0.35437808479124872
-0.30186915204724407 -0.026481338980754499 -0.18485979305045175
0.013760035283328531 -0.0022373220093284824 0.62090263669489443
-0.27355315619491671 -0.0035765219686060973 0.49440022720361848
0.19507382773998372 0.84027260468098197 -0.13882120160797196
-0.12196474583302352 0.26108882852438287 0.53174682726185984
0.37056051559266967 0.37875775329173861 -0.2089183568924135
-0.15632082815921783 0.33202134999238775 0.47936625972382396
0.16834281988729977 -0.22090388469670172 0.67256724277751623
0.1023707310508446 0.4865293834026268 0.33147887173542956
0.14820422236068864 0.19042061662264603 0.43056333912452749
-0.45382760651261711 -0.11297002734539981 0.5306172977894803
-0.61035641061077617 -0.36355832346077921 -0.514983509019592
-0.28167987569473296 0.1972625374395397 0.42379325612333119
-0.017759948057966657 0.3949381360198268 0.72101767455514931
-0.036050834505399199 0.35921791257494967 0.43051779823756298
0.065547891451417539 -0.12487628419812266 0.65155922701249724
0.22767907073721977 -0.22833451199083662 0.66364825189760701
0.075184495347058677 0.76159003153925464 -0.27803874619471336
-0.46218952846556172 -0.47393535552980492 -0.034720508900529357
0.25769812857114927 0.3907359921362985 -0.12483465781043324
0.33062872199678739 -0.26735048855051707 0.63344697579942477
-0.13562524897612516 0.1242029499827611 0.46232992446819365
-0.42995859067736103 -0.29666099796486667 0.057406107974124487
-0.18970152610929167 0.024340079590167998 0.57707328535203506
-0.27230394603661084 0.026479674312448461 0.51002570892350585
0.51018707930575902 0.49872977048542011 -0.28846636667027786
-0.14222580113462657 -0.16980768344109995 0.36932023755603349
-0.091961922282240649 -0.19716211356560681 0.43326477812499664
-0.032360794533072779 -0.90208312771367916 0.084942910923805959
-0.32610910717001584 0.081300784982164365 0.43260267382579193
-0.32183071391026935 -0.32333085153986346 0.29800269557193526
0.19950207553466037 0.25102653587839613 -0.1426705583520127
0.0044261678134197013 -0.11997495052974784 0.77435237929791945
-0.15625370601482996 0.18348313051957083 0.53039898799120855
0.21812045487360976 -0.45695432474185005 -0.010942517800130891
0.026889177122477848 -0.57367997491887412 -0.37870971899738104
0.15119721744371972 0.44217545387650176 0.37793875768835455
-0.16678754476474217 -0.02896416824843747 0.36780747724840757
-0.1179415649803246 0.20126518136785837 -0.036144673926344462
-0.36828111172274741 -0.32621055936191717 -0.27155825853012749
-0.72033546990540365 -0.60506345804590811 -0.2547696450400625
0.060489175443326104 -0.091564216142866195 0.64041668036689914
-0.025588759247979653 -0.10684829324064291 0.034608083080722496
-0.39382146806646534 -0.49103490433800601 0.20615909954351941
0.070355732080612854 0.12691398299064685 0.19378190259182221
-0.17767517566061014 -0.10779459133556912 0.37744168076556489
0.090051965557371827 0.56252626946622941 0.16653550849395149
-0.25052930650915739 0.080499203460813282 0.32265931232347506
0.29596090529499952 0.70006957359179312 -0.32138070806194946
-0.2038952107550539 -0.076131427838342744 -0.3399784640299246
0.0030649579462440624 0.32688877823620599 0.49373755462093272
-0.031379575631907242 0.31995124829138399 0.5731038134113231
-0.14587176271636149 -0.15209861364824356 0.05562861954029763
-0.20634375437604754 0.10241068491121733 0.40751758666875648
-0.025944183066428206 -0.0085029168664357835 0.62276953835259352
-0.33861687932270584 -0.32804595191288771 -0.19605551076924665
0.39952008284528723 -0.31008727328560159 0.57479031439573469
0.061280589871623992 -0.35105178877107512 0.15849507950221214
-0.21360190839081825 0.060147054989898807 0.58664184383264051
-0.3449841298036791 -0.30104862151441836 -0.2408633803431115
0.17655660402467122 0.63753329867800423 0.038594645555823537
0.2287069842465298 -0.2585616989108801 0.62579045210075235
0.1991567294245371 0.01876091203616348 0.34296954194160917
-0.056173380567632214 0.22390099420844278 0.54127297914390593
-0.34681282139270947 0.1068986624444842 0.38599748522030225
-0.12648521869767126 0.4495663208458619 0.3725787645817869
0.2724774758059848 -0.27922976167122326 0.63217647984279601
0.49032886008577892 -0.072159016915810253 0.36410137549373994
-0.32214975744269592 0.036638273416503012 0.45922200358799475
0.20852416007962682 -0.19941683247995465 0.43839282699720328
-0.24144945905722676 0.11849212607534937 0.55060396186040861
-0.51934426886650686 -0.39504397727700363 -0.15099914774847167
0.16766922954927566 -0.08423497340202464 0.29749807571591602
-0.69746181009308539 -0.47964783189165994 -0.43261056167687784
0.35733908160246819 0.65971852235431072 -0.22851343306673427
0.12602376778636304 -0.31490265359726677 0.50603505879380506
-0.4422106278145615 -0.33504307062786765 0.024040302815720893
-0.25439593903802432 -0.28765411795859214 0.12032075319437141
0.21528748140643761 -0.11609534783109417 0.52290497946836256
0.018828978094882265 -0.0041164119139724814 0.6276133930229767
0.10230228810510344 0.028424365477467961 0.039168885380486573
-0.24422635317815142 -0.019731491966141809 0.50789764484995248
-0.78411420569702273 -0.58563561222412175 -0.49641265898217823
-0.57602914973068375 -0.89104090076850173 -0.27403703038072302
0.37681937470880678 0.62878531187118136 -0.30014398205383891
-0.67858686060303919 -0.54111864623290129 -0.23696697902925279
0.19548365523835365 0.78747422671540057 -0.26485669170812276
-0.16844467190959506 0.084168081918255352 0.5923337712423169
-0.11546248916754848 -0.042211898536921547 0.010940529049581649
-0.16115938515770306 0.045945843486916632 0.58342795919736545
0.098858701256561932 -0.017018180688762499 0.47808487543757405
-0.17998029021455864 0.31166191940925347 0.31562799606640313
-0.58819815369751849 -0.3753817746269632 -0.10669653705314464
0.28804813914834299 -0.27694043210704811 0.61239094907047775
-0.67355083804865767 -0.59112931083402687 0.083346017004444772
-0.25717437043360625 0.14484673295147138 0.3824101033710221
-0.58144625146432105 -0.40654730260787081 -0.29782726171699436
0.077413315727051124 0.18673183650922526 0.55129055109133174
0.1989999014365238 0.15531674283701355 0.038743035697199391
0.29451295280564627 0.44225550534669289 0.13520097974193857
0.27354770995892885 0.22524033768144891 -0.082090135004148301
0.10242427919984409 0.10837439611866259 0.52602595867073332
-0.049106839071173747 0.41189345810737205 0.48667928213814904
-0.27108763131144875 0.11124644819071088 0.75567561508792969
0.016208798290843651 0.40476016950267896 0.46515391323529892
0.3193608911786483 -0.40789597112907638 0.25401966708691109
0.32305109013548783 -0.28696693649652971 0.63689560829450431
0.43214124873871751 0.62466835293947398 -0.30966947322956967
0.038733970016735619 0.31191996024264695 -0.25559705302555147
-0.083178448752105283 0.27913527967997387 0.51532958953150776
0.13200115142330809 -0.3074931962386051 0.60768099513129503
0.32541135523549003 0.62784264085717045 -0.25238470425981685
0.30478389541939055 0.52807839382644495 -0.1709290784228531
0.32773181888801717 0.55742727596597719 -0.20363073400397624
0.068269447682384743 0.187753447654192 0.55791165999651215
-0.4281536462289578 -0.60202603285944623 0.082232234879161259
0.15382250423434074 -0.11811766204437074 0.63036965997946504
-0.27452034559560479 -0.18712463209031421 -0.069079160086217284
-0.45166672506163691 -0.28125419719299888 -0.093367336109677401
0.3076978597284763 -0.27855278438907793 0.61942171430100101
-0.54480942329797544 -0.37084649351658439 -0.26462395708509967
-0.53453052282833036 -0.32862722525252952 -0.30591725280971105
-0.3663024684865076 -0.32247121189488609 0.16105730447584643
-0.033224262743593802 -0.086938907807337637 -0.051278170335085416
0.13253526691076345 -0.56560737866242539 0.051590686505268213
-0.23456884286483573 0.016974251162932809 -0.09141755295908649
0.21663338926160414 1.1492097155600851 -0.3843439756713305
-0.14786591003741845 0.10928880239211165 0.27110983789831095
-0.058370571268873683 -0.098270096287664865 -0.186606077101376
-0.3296202779418152 -0.30363007795526165 0.048521265793258328
0.021026943395728082 0.15543121502510326 0.55085166825099607
-0.51598430982340515 -0.26180881952409985 -0.38162829741288762
0.14630160096429567 0.39029494735318532 -0.28666379914404183
-0.17096546718279371 -0.046622429588611472 -0.30527277868312752
-0.46101857997538137 -0.68231386346334999 -0.26835718539422804
0.18509772302116334 0.14667016224500284 0.32160894096095716
0.028354597347664323 -0.17413340334383731 0.639972222220905
0.24620656908142524 -0.18370255631124838 0.51769966771856468
-0.26203506477562866 0.1517776292879274 0.46021394694668083
0.16204953053045668 0.81264755642231545 -0.098770532569002589
0.067025289031914403 0.30533351809254972 0.49911937616080243
0.056937955826850462 0.033839362185167712 0.32096634898204285
-0.45282523589935353 -0.27677337638241439 -0.26506706826560622
0.018817270977427469 0.17269187947298692 0.54604358537385667
0.050031198585496206 0.2988069877576815 0.51847914008407425
0.26903650542830593 -0.24185661651941157 0.6299184792228939
0.17157155497505794 0.32840686578183098 0.27497241196027822
-0.2263541252463408 0.18276979151174741 0.48938993090726307
-0.1673034953219929 0.1910209779087253 0.51909608013988817
-0.19754305567392647 0.38787937598150335 -0.51608601718150926
-0.094429423686035296 -0.099294476358372893 0.1559417974869759
0.24872722228799116 0.097235524272426391 -0.32647641370120906
-0.21044307527491896 -0.06938610625246891 -0.63047020798328191
-0.032028213539026074 0.28353922543871224 0.62475950616074583
-0.21175160416601846 0.080334559844794817 0.59625228532583718
0.14007785381053872 0.60570057766707519 -0.0041492963714918618
0.13701396604548011 -0.1946525059027005 0.66873008973331649
-0.24808068613040551 -0.030649950189008714 0.49341841011444187
-0.26795136425175231 0.16484302796130629 0.45202477166926008
-0.79261978443222381 -0.61952206350578776 -0.35315272369144546
0.013074258602360445 0.35581694610302089 0.47781853979740196
0.005623377931172735 0.67973409057835854 -0.5291045714282937
0.024394244923006458 0.52369753505862393 0.34231622933181033
0.042462612546348533 -0.12184603000566013 -0.26947619002534096
-0.26607596567779845 0.2287199883961665 -0.11645817913201373
-0.055782565418072694 0.35700289517130818 0.086331524265653714
0.46918625979360717 0.39283011301942583 -0.24619779404132741
-0.16899107931583757 0.035249183840352069 0.57104179417332479
0.065029300119388345 0.52152743613876762 -0.44943901960100496
-0.31122843343874235 -0.35330096225905766 -0.16449888502027998
0.016492305339059543 -0.18232324415075804 0.3492863390106492
0.2219073277540603 0.028094267998273456 0.0053773971233758155
0.037233153241683636 0.34232722595715748 0.47613837130405184
-0.69474979170569284 -0.6881924614554491 -0.17081037455396508
-0.41301953339019409 -0.37124140646711545 0.20737967682234826
0.052400684537234787 0.51915317611879153 0.080282551421497983
-0.53227278341241691 -0.26335909890640957 0.26145381613785768
-0.12417535500389265 0.047385872177986607 -0.055629326161291792
-0.16872229470604666 0.098971047014460162 0.60134117796061559
-0.48461546780179682 -0.32566671479289938 -0.16590672597598155
0.048550109080879422 -0.16746506496614055 0.40256666521978002
-0.96866398629539341 -1.004677367272133 -0.55568489856527103
-0.087488231248903814 -0.165186516254438 -0.084054730157591684
0.33408163312635986 0.085764868589921689 0.20477085373203041
0.018774248987970532 0.30223227635093675 0.51141091723843968
0.46358338378209352 0.61908711119290905 -0.32372464117912003
0.2394629811007149 1.2409401126245099 -0.26227064505483427
0.19217333614532706 0.41213687922757736 0.22284004173942856
0.085035884634448444 0.2723011019893784 0.51003278338393621
-0.21239432730176683 -0.10477190393307367 -0.028194735134681181
0.1013870099846077 0.68610988497061032 -0.30467614013079813
0.0095976212193094601 0.6119991207960408 -0.59585875226065022
0.045883234905872983 0.6190420548440384 -0.36716660344492968
0.25259597308064041 -0.16444874534568948 0.59755987721520476
-0.13360904740544693 0.20312595844047038 -0.44586671510224252
0.36147022990440991 0.43048852406465032 -0.21076549960628954
-0.21709316679075935 -0.30787927645170265 -0.074177776268565254
0.026438671898665556 -0.17155389514206681 0.32044754573664669
0.085505536499866475 -0.1842368933599213 0.66127289850947601
0.23900995797376756 0.072059785052516631 0.49483110876225977
-0.16731323014674904 0.09763325630797709 0.59844628709086045
0.40793591736993795 0.25791469368640457 -0.16588674843425322
0.33917989055481979 0.19705090929076208 0.11020385973193314
-0.63776417122692064 -0.6198636181916386 -0.1729992861639511
0.34285863081958756 1.13834267334265 -1.0064197723181989
0.0500836041353665 0.17440201316112197 0.54784231476353096
-0.089075778642922043 -0.018938326865084648 0.78721743884345163
0.13430815806761759 -0.35217117766692507 0.40997808655481149
