# XYZ point cloud file
-0.36565306178881607 -0.39741909427023031 0.34787818115967029
0.63404366627897213 -0.21055385973691365 0.2914775782232395
0.40820098724838161 0.99000585920017758 -0.34603264955095114
0.076516331010486827 -0.079189094151221995 0.30914337277198367
-0.68322113666771211 -0.28491520666807635 -0.14155970586913158
-0.34451005251039746 -0.13397195733293077 -0.0078895595220118686
0.52875526129820161 -0.51769414957816795 0.89949406714931701
-0.1116689614352977 0.83680292685315105 -0.55679998264594555
0.32694979088182441 0.58418052256192698 -0.30228224689492666
0.26606470950500372 0.42576645521554879 0.020845367302377182
0.10414156915735662 0.59128248814097473 -0.36423717146116097
-0.10092364842191781 -0.16255161455728229 0.63800575695344053
0.21424789309965631 -0.0346197320990701 0.71740665830558248
-0.40434624973871358 -0.68936756932999577 0.24940117038262333
-1.0354932967167523 -0.21662767132324445 0.16917259206387292
-0.16110657054948097 0.40738636448681043 0.69397570431959044
0.53737423150537644 0.6836231845085935 -0.39772916436732597
0.015382559392124406 -0.076607691388864696 0.73270993994740996
0.056670277224172283 0.99508477532799655 -0.58108453477732347
-0.84134964978573201 -0.76878530626988262 -0.35867893885796431
-0.58231600252528137 -0.51757933328222794 -0.21219856335806386
-0.40178025244488702 -0.28478903534334743 -0.45299496893079283
-0.1223432486677154 0.078915191864771861 0.37079296219327906
-0.48557246918125241 -0.71528239955697193 -0.67053709454434718
0.20701560742924707 -0.079317407354167702 0.71442149649196973
-0.0797207052995621 1.0154295792896821 0.28978627384612377
-0.35612582237930535 0.23780781185340588 0.71180862978480264
-0.19258349004887054 -0.057326946950062685 0.72532555493111417
-0.13009250619019785 -0.43393947105402669 -0.53204191964275593
0.24856401216626134 0.7448922691305212 0.093091010284708231
0.12449372895003963 -0.22632676648905503 -0.17557009638042542
-0.47297500748461108 -0.27902925061074829 0.59035014587393897
-0.042574868542937683 0.17049430269339105 0.69041252843248202
-0.48959031872118541 0.077707125552193723 0.65715848648323094
1.1988130534734676 -0.43903276535941815 -0.23254279352938001
-0.068044251280876766 -0.28489806814328167 -0.24908347838534906
-0.40114773777047863 0.32269582440113709 0.29363513304871658
-0.2884117664432635 0.83944730292530967 0.13224616611390205
-0.64890903489244445 -0.36072917145183142 0.082621997481428178
-0.55131892412622063 -0.045176502034929344 0.59550166368345625
-0.54007654979919395 0.0039119627936101686 0.57948294008245804
-0.28742035020600798 0.091529310979725442 0.71678347035705925
-0.43182019424864682 0.27806292139210165 -0.083058798622472452
0.055617583384495628 0.4869697480759036 0.61984559092247715
0.16698253798913099 0.47261048371607495 0.5675374117314862
0.086016809909310155 0.057578029671067843 -0.48682410771094631
0.43765985495527682 -0.24688099290065268 0.12102243011738345
0.083347868201204101 -0.37135339671280077 -0.035865669401914158
0.027294189945541447 -0.12115648083909014 -0.15503381867603627
-0.83004812099835168 -0.63721494056018835 -0.48525923766917778
-0.21466104574394507 0.088655217918818918 0.35870023505654425
0.10948275507337524 -0.029940206532821145 0.75815481572272447
-0.097836920299987806 0.086382212063865649 -0.023080081917085327
0.6970148115192969 0.052907978837987701 0.30480370026042136
-0.22734926572107761 0.50318727440932065 0.54883234734292519
-0.69933795845469948 -0.72617361941522363 -0.256120650691261
0.22600427646067178 -0.061468131323940356 0.69137830674480438
-0.19219127315783213 0.34471972751205682 0.71390541850000555
0.27039819870881399 -0.15412957314422249 0.70134434184049732
-0.74955553569013644 -0.65593698305247616 -0.44508028237003905
-0.37195062176089855 -0.18422054566617763 -0.11354392239576039
-0.49564019421859373 0.03631701609527177 0.66095804341034581
-0.66004695493722543 -0.0012682362429879412 0.4801415984210825
0.034704485031590959 0.52587258113732516 0.63315098383644508
-0.59503877435597308 0.22216460551098172 0.54266607320091154
0.19957767857978093 0.1076222124124131 0.42938245616203941
-0.67497768131475189 -0.039519492301980319 0.52522504858778551
0.28821853332365643 -0.0083158735356345659 0.46343224990580634
0.073767927699968538 1.1370727481067415 -0.37526995271046903
-0.66155224534685764 0.0019236490914285587 0.50697610346702027
0.2555930113446836 -0.28229333526046108 -0.2121139171276154
0.075677765713708656 -0.31786065573515399 0.52549014732007204
-0.28633716681976407 -0.67459948098397482 -0.015419867820776645
-0.53432246615991508 0.031933671923402351 0.63277561379830505
-0.52016764608735078 0.69440977259894288 -0.33921827489750234
0.010300037493767622 1.0291583347511892 -0.098746204668404669
-0.2368979342122346 -1.0438173012453493 -0.31261726201104034
-0.82116674861445782 -0.64718854920532964 -0.48516576803805878
0.1096171508646353 -0.19639415092922924 -0.44028227592309355
-0.73410739480254028 -1.1496933396343307 -0.070580646522162005
0.15311135010479049 0.23029097850351887 -0.2717577645397522
0.18835833107483468 -0.22250315720669628 -0.062279268861513692
-0.33339158176436645 -0.40304744207697457 -0.39343231159009129
-0.097930932902386747 0.2583636661584614 -0.081143581938324383
0.54832345858134879 -0.22805621328909331 0.63037100620926811
-0.21650582322962197 0.2159949734036084 -0.53697965573544137
-0.0122598054684393 -0.17544974152607462 -0.48828075631085532
-0.3953070140524817 0.61649413720376922 0.16959243994017492
0.052501087447034411 -0.14104864536031225 0.71054871403173525
0.74448039020854795 -0.28313440521172623 0.41908929392603822
-0.37389913133748309 -0.52388888934761113 0.33239098832821989
-0.0027819628468126467 -0.058246415315774014 0.73543583725386841
-0.82255564142950333 -0.73259700985582965 -0.40614582891192619
-0.18443761599560604 0.25267298238203384 0.048872198578569614
-0.039350714754012639 0.84928835789071244 0.33951741765291221
-0.20785156240516178 -0.023797427851730113 0.5847259566567391
0.34593663998737112 0.5286982306750756 -0.302873625078802
0.2307362448499517 -0.33031964867717578 0.54511149279741034
0.21741112851010724 0.047087494693882292 -0.099338628631104431
0.33058142100980992 -0.41577380251918539 0.43896027922184366
-0.023666962266064129 0.55078567880687324 0.65413904585617388
0.26990895918930247 0.26591287155013288 -0.97526606448301756
0.26879905871730969 0.050037278519037831 0.22717199016481415
0.069329910614711832 -0.030626178343047261 0.64588313671372377
0.43205886780059899 -0.41444354046003917 -0.20332999550530184
-0.20351365559518242 0.57646266984791794 -0.039893823385055871
-0.56419932503465287 -0.22075652570741494 0.59099150327382954
-0.79205796253454652 -0.5375514868662965 -0.55058129107888831
0.13199822242737991 0.60663098188404718 0.70527776722124569
-0.53338226284112578 0.27832860186954772 0.6274545485331543
0.6030053818502763 0.027161159506300381 0.27618454490392819
-0.27703435891001527 0.72640484415229178 -0.17102569359059472
1.2038886739898109 -0.64729313185032056 0.45406576549021116
0.1352511065345654 0.76628751469946665 -0.39852546575202652
-0.68610572159484717 -0.58529854078959298 -0.2891919902412734
-0.02963453333210575 0.29365094888967214 0.73115098348195595
1.2226654247453428 -0.45318031798900549 0.47533533482909313
0.61919737663848773 0.02384043390390056 0.30341332465410398
-0.29210374167055919 0.062267087540295529 -0.10757665859937071
0.78343586438466573 -0.3830545130313695 0.3403203213801701
0.093179252470152463 -0.0036656725797660217 0.72929536721482313
-0.34178776998975402 0.11487633753195148 0.56388577610595458
0.14270332746871039 0.77417349300126159 -0.28100623200714514
-0.29126383897877228 0.071541536296583164 0.71330042701006358
0.4042200508055882 0.67814246447178583 -0.35155398373548596
-0.68609218078432055 -0.23010491086999396 -0.18755346019427765
0.4589808812183136 -0.53507391843504482 0.52141310995386381
-0.37564294414715227 0.13272306223411318 0.69686703643168402
0.050642781891717448 0.28510360285731717 0.71076794336742899
0.17129777224258347 -0.52247781567601259 0.27823567263293314
-0.32886757902865593 0.10908821985820388 0.67568910895112699
0.21902240151552554 0.49094412493050804 0.42223025751661603
-0.16164115119862044 -0.53611492474320821 0.54120992590904815
-0.045470145192307854 0.39688385250486879 -0.17578048606140428
-0.056681721909943139 0.40623234163810001 0.7191697436310367
-0.84017659786225007 0.0039740898715744377 -0.0049340760046538978
-0.59992796307372265 0.37541911731338423 0.67202660107029644
0.18207508362978819 0.011535281619518001 0.6824647593243981
-0.041738464933582797 1.0435980507012044 -0.1421972548927346
-0.33973217951948365 0.13327129016634942 0.70416444663964661
-0.15871163799263788 -0.45502119936037766 0.13761854502552762
0.14939317154101839 1.3991379765860747 -0.036523489963300904
-0.1812381592196346 0.77111544692463807 -0.4965069051044031
0.3632004631228436 1.0559475190014123 -0.27645505201299136
0.011857729624133118 1.0051274815376241 0.10945581396936932
0.64195213541381269 -0.33316058881298538 0.57921597447563167
-0.64817779537012332 -0.033127485866612572 0.14826005010269538
-0.2808383750663459 0.66347502083795318 -0.25402003917928928
-0.046843357758222126 0.74851813993073724 0.29385916142162238
0.16829911252986518 -0.025591095862528279 0.71731352805071813
0.47108893045582967 0.58222324527714686 -0.36582513099465697
0.045290547642649059 -0.7918303840190587 -0.1168417816652767
-0.7714064727590102 -0.76160224348363992 -0.34668785262830104
-0.61975351392994638 -0.49587578747867184 -0.23701694437016108
0.19176716508262892 -0.064839992089783305 0.7383289314639514
-0.28273499626702492 -0.5675799229516264 0.40263563282272241
-0.29205267247761957 0.18165932894178782 0.72139698731147517
-0.18560490285157005 0.60943195915245352 0.55192111662541854
0.52400423525261308 0.7403201929630302 -0.44257535946118587
0.3357663068813701 -0.61389721645993478 0.53859309707571734
0.51029565568759661 -0.47135543949102782 0.4474022899326191
-0.38619008737881 -0.0079479900549494498 0.7605937138481611
-0.61542693245682978 -0.43001559839514902 -0.15003713581670164
-0.47424309939318987 0.061010683957696654 0.66305613440064015
-0.28445226728317419 -0.43447863538683057 -0.40780469412305709
0.26542570427119738 -0.33268953012125013 0.38385210645350198
0.35569027581549495 -0.50801202401467516 0.53878581047804652
0.29752183327283577 0.42778088060482267 -0.17988034318290769
-0.37447208250608699 0.54620596535858801 -0.36807454977406096
-0.56395746576600891 -0.32419980731237563 0.42308913052398767
0.47132082107291318 0.57690409985963786 -0.35502059330148095
-0.41125559176701998 0.11991269471949917 -0.57960330449028241
-0.25296443598526031 0.4734454315681107 0.176412737947647
-0.92504894568045226 -0.42895020238947401 0.28546224717623692
-0.78341905137614476 -0.419358260330501 -0.49536911910731041
-0.091118276290241607 -0.14754711061517201 0.38802540137713759
0.13981578458308408 -0.35202385988817603 0.60433990540061155
0.37082916860385895 0.75774450076349875 0.035947680975734198
0.072269029617443969 -0.019734893071189363 0.71066154529182479
0.658076161885363 -0.37307881967762152 0.59601539558340422
0.0037298009985227143 -0.46934643046537422 1.1699415030103879
-0.4025544554356062 0.85220635555321977 0.38681854079396616
-0.5539231318415192 0.35171860333666871 0.20522014858690429
0.35435235871226012 -0.82381726977842651 -0.28463392641176033
-0.039907700561223169 0.33688050980595052 0.73675778935805059
-0.1457721703510344 0.43505847286708843 0.61833881539914071
-0.09257084574290686 -0.47245028931423383 -0.56400021816040158
-0.21175466566759882 -0.13312104652094725 0.70751162582100946
0.34411664537822917 0.93408869636020886 -0.29866679176782429
0.5499641616728459 -0.11298777578043484 0.87405452968615882
-0.16579517929369203 -0.22628041851324332 0.11761834089387491
0.43678897625395896 0.63856280409395683 -0.37608910858224842
-0.2707407770902206 0.16964349328491179 0.46065421566606912
0.17760482139871003 0.12244485651179371 -0.10713302468024222
0.16644113749029499 -0.3825797195704369 0.53641809396839579
-0.064705599261452473 -0.20740715522319381 0.36006385021791343
-0.51964078098143407 -0.31724910861938771 -0.063521099952621007
-0.30201563100329221 -0.59384860667120232 0.71463208496164987
-0.28696692235868904 -0.16649083621070992 0.62751849753325573
-0.67777104219599305 -0.35860452017301669 -0.25178639043370699
-0.78910480537385563 -0.65448275220815 -0.40641281003225882
-0.61650334756290937 -0.47566635802030993 -0.20622135660674035
-0.32889532845316394 0.23363882414821674 0.71575435497425022
-0.18356609940043733 0.14692260818484099 0.32960199031953197
0.25035465018210368 -0.43006059335620211 -0.32164408975706871
-0.72282957534984782 0.1889734963676003 0.13697467831084031
0.52744195324959797 -0.15546501482046426 -0.18896767378032142
0.15168982150638044 0.48378098712016959 0.49118701304946011
-0.0055704916066270371 1.1089591192731492 -0.32467982282024277
0.31628918847728515 -0.11857693863849172 0.67624413205529765
-0.37969579790376917 -0.38753431804638733 -0.45609209817159835
-0.26542761576489848 -0.2829929949651625 -0.83584260510446629
0.29910055094972532 -0.47681820338227277 0.55177481930067362
0.53316373693960584 0.090844762527467759 -0.2482887141902026
-0.049209514613968164 0.46476310281283606 0.0092265496147505566
0.097797485022973252 0.37797628483740597 0.67598021113854689
-0.56227163890144172 -0.1689450755027464 0.60573969463892741
-0.063066275401610916 -0.37751259803395082 0.51216234335678812
0.3383936679361752 0.25154245258593394 0.41731569286977166
0.063460308058084447 0.94247774447593158 0.49507044623918728
-0.25395492417980026 -0.40897030275039808 0.10945362186927743
-0.038894978379916845 0.61336043184552125 0.66405705748300103
0.47505971116871626 -0.41499680212512957 0.70373085862395768
-0.3206902231735631 -0.17914763653661403 0.37683882429200377
-0.30315172617842778 -0.043615245644078149 0.31098393309038364
0.038064845143193082 0.67247951157118879 0.6001000013883897
-0.10262123288661096 0.0768357968022787 0.34169108452026342
-0.21708324819379299 -0.31286438495689828 0.67022311833815462
0.43160216495966885 -0.19830232384675139 0.66842150026869884
-0.36749325483933371 0.10478650544203494 0.69349816402877817
-0.001733019623123333 0.96909808792524166 -0.4329880667764614
0.4789869087094194 -0.49159469637315012 0.66869367252525491
0.34137330993813109 -0.14472878404402828 -0.28080531966789013
0.0013022736122767498 0.18311769745145423 0.29526138613160435
0.32740994553245129 0.44220147240367969 -0.22098019923602208
-0.4039017056222638 -0.73913707354256131 0.13301589785813128
0.2650259293266819 -0.1191490215498926 0.60448709525698707
-0.116771544799529 0.23170304426771593 0.70116479636090112
0.22614105959024622 0.62802613699691534 0.34898780731407797
0.24627676530427056 0.20325175002637796 0.44244366604805763
0.24485432841593546 0.7990178992167507 -0.18330946191816033
-0.11871392997394836 0.45695596308059588 0.68058148065992985
-0.34467691209853291 -0.09780584128183939 0.31641140253425681
-0.2340639382662888 0.3384526534669306 0.73016778447833608
-0.64321514997917606 -0.48971444818794768 -0.25428346672894442
0.44884853476593056 -0.48356573383966833 0.47641854959630892
0.89672601318747391 -0.66965221550165499 0.04205482798121174
-0.3086114552911785 -0.1276119809346179 0.71156903953545658
-0.25898415662985563 0.56254822245163982 0.66987281175318114
0.6240812746307336 0.036565771763041655 0.50410135948410084
0.083209054908368163 0.40751273579258213 0.67469527486923409
-0.052096719827253057 -0.1018463496351637 0.49468572327176408
0.38295473051034445 0.52241952705819483 0.71810418749958393
-0.029760555202638317 -0.29168528212325345 -0.31640097485945118
-0.14993887271390216 0.36463184702133428 0.64817901455443705
-0.029863100556445588 0.92417816278584963 -0.044012980651695122
-0.37817984517718095 0.64825045567620376 0.024751670111968327
-0.49405433026802514 -0.58096819706799141 0.0001298600235557501
0.5909377707045822 -0.27242572257373254 0.63699060004860408
-0.28216232093832305 0.78284429561182511 -0.3913857400078915
-0.60568635885773081 0.028934125912077169 -0.43974794346336554
-0.6809321392097466 -0.3686521179073074 -0.24221354284550523
-0.66831311160963924 -0.35670152704997266 -0.23234132321255263
0.50003861892768819 -0.66172095809985398 -0.16452655093254109
-0.42005586777129311 -0.0096263604893771504 0.7445279547986865
0.12569360232364701 0.34023019388097275 0.63810753283501453
0.36183271036076103 0.38583128536691114 0.077430615987572837
-0.094208863136455712 -0.24061379078335071 0.47667384687193715
-0.091947275525963601 -0.28915856051218386 -0.64806213432374471
0.56649350806094878 -0.25052636561503561 0.066931836253602439
0.53126910294615115 -0.14079420014085386 0.53913893386319822
0.12283290727618201 0.18790101957267846 0.64716195589332881
-0.15336341760916672 -0.20669159093127187 0.26742777063929934
0.27887414895945462 -0.74396109917596587 -0.47611780332183118
0.17309435002469442 1.1056963994164364 -0.02314380058838994
-0.050556575295591433 0.25195631650655825 0.68865194859690981
0.036962334096527272 -0.03788775278678036 0.74884507667878819
0.92875654895637938 -0.078854862104945356 -0.57943090128067121
0.1590398087221101 0.19331478484169062 -0.38697841141820066
0.19832546835167797 0.30591363892182527 0.56997446714626876
-0.33714284644615877 -0.062223304374770305 -0.13368167029328504
-0.31024068983104724 0.42966206538537727 0.57114974029841092
-0.58865383838589058 -0.26548789264722339 0.53396674961549162
-0.79200313800264932 -0.16393605784609472 0.60793385105979891
0.69349634600859389 -0.24528421209605888 -0.32874457029935966
-0.65019885114234932 0.0053497835301247187 -0.34221058405142912
-0.19565358419556866 -0.31505118687165101 -0.30433673229938885
0.27532550083637464 0.060638575267366934 -0.11498443242648548
-0.43236822988838552 0.11104344307713226 0.68020510666805034
0.19844172813604555 0.0054616985088288272 0.71967580480461124
0.14299538540134105 0.018729692759069327 0.025028927654195732
-0.38077129835679235 -0.81697460723761384 -0.19437266915472495
0.56940347978146422 -0.3561092866508308 0.61536886307146066
-0.53014289666402736 0.12817598505393002 0.44034413512405457
0.1750925480283092 0.35464842266856861 0.58681374764140504
0.32177014267426873 0.0012444427018124538 0.27689097336503721
-0.5061486604748664 0.012821959386764281 -0.024955658090733079
-0.030600559311445785 0.55778886273684347 -0.3949372184644746
-0.28030414048210073 -0.15264524622905301 0.65943866254973282
0.19938886752234009 0.049065178164003465 0.43962375011406285
0.26989629911787638 -0.4783453355470163 0.10583696342711746
0.23736594070560058 -0.069556841995824681 0.68518593587357446
-0.30166434715643686 0.5061598719708329 0.39505963260316801
0.82551969744271347 -0.36092524151724154 0.63491226745473028
0.26052703600934457 0.23885243440913106 0.016454493006816895
0.17087565159954887 -0.48886988494899708 0.6564029522277719
-0.51999995784564779 -0.046371604599833915 0.63120203965091426
0.31723438073119015 -0.24147885062727115 0.4239361584790895
0.48577216839527537 0.76136069537569162 -0.35822256071847458
-0.43678236137315696 0.27438553850792624 -0.11697709348294594
-0.41344589409500321 -0.42135011038729947 0.21314240688411568
0.0068414112188497356 0.57832639972128974 0.64915257120534187
-0.14814304555191504 0.20376415424010663 0.7072187228847524
0.088298229204828882 0.42612112019389703 0.03380854783311138
-0.59699089249352166 -0.36176540296906234 0.26985745054853938
0.057523932458443117 0.42829075732731359 0.68343063668025072
-0.70009875155478318 -0.11525524557229505 -0.15095110390619881
0.30948955841569736 0.4727032596452434 -0.22708022579665799
-0.55764294352099864 -0.46449202021458919 -0.071148915318275385
-0.43845694060241702 -0.074126746076750571 0.72549193880539864
-0.31944132259605884 0.047805010907200074 0.73603603137544993
0.30201817566658562 0.61299442987794517 -0.33614863050156774
0.37265292918233239 0.3791924392855307 -0.30901819543372588
-0.17444652293701113 0.41115394122772952 0.698033221814365
0.12470002340685671 0.25315778051345617 0.60713742949202232
0.21440985628872822 -0.02312942292863851 0.71693455279342344
-0.41737553588755016 0.093755275215251566 0.22384728329906611
-0.21479062423571782 0.13334937400611069 0.51868900486508729
-0.76757163617765578 -0.55894674964836943 -0.43660730297719375
0.52892161573803476 0.74138552265459556 -0.40434610473050236
0.81572391201057304 -0.37658150342737218 0.41009792782900734
0.30072437832094057 0.39866981175368277 -0.32251775658202475
-0.51438375606317166 -0.66566639454501086 -0.115139435440897
0.55486357760792226 -0.32639586322289782 0.6627339080913508
-0.51011115593272582 -0.37988681106592015 -0.69951306703146554
0.026621003804474075 -0.19076284561588241 0.65468027207635893
0.42085312381795958 0.9483654251651118 -0.37706965233146006
-0.31556894418276871 0.32821762017357281 -0.46596488838929218
-0.41059609078590387 0.1830966287307243 0.69289407232680911
0.23313720692769246 0.49299945431352699 1.0779849355907531
-0.56899686906015812 -0.59910282331346765 -0.12121150591550522
-0.53187250865497893 -0.6309236554206481 -0.1355323253480567
-0.34804939387577738 0.87587403109606465 -0.29442157949120062
-0.13859220242770109 -0.097408745580093159 0.22973689713033729
-0.44771251642484211 -0.43483679421520582 0.83265093806784485
-0.41283090364550667 -0.36891491996939596 0.40095425552353081
0.0092939211005917954 0.70504713966158361 0.35209417180305791
-0.32411458484161115 -0.18542383001713059 0.61990081335859504
-0.25460249689962122 -0.11366475190141212 0.56528079625467531
0.41498507997267708 0.93246180321589955 -0.37057657314357151
0.23330156331587748 0.73879912376423928 -0.15875613123100885
-0.59047571510114172 -0.60054700562019481 0.18792818980565262
-0.31117993242710873 -0.69660974293618194 -0.72840403250057872
0.42630529091477265 -0.47417342088109915 0.6128719284350983
0.12591853886822912 -0.07497467002238889 0.76730114676389793
-0.64698677786338044 -0.56790814905487075 -0.25106355523231327
0.24643149153622446 0.15742368981556315 0.22405652135980181
-0.2756559505601468 -0.048937647757315572 0.73241345845226857
0.036256649733988677 -0.28360724138187027 -0.060801834312170788
0.35204714978960494 -0.127130679730596 0.34043318601284134
0.27726198006576963 0.57376319809492848 -0.26712629375503427
0.27509203273610794 0.23790906500476383 -0.10984259211231961
-0.1366596784249352 0.22466534724970932 -0.14508900592534557
0.13779951135074331 -0.098175478014791095 0.75264173671657741
0.67275922390238541 -0.42968141227630413 0.61315573770344023
0.19672125034872234 0.096315845439499004 0.45392344807610363
-0.53311815870728441 0.27946296604211862 0.50296501244238889
-0.23237069486922035 -0.022173073969625645 0.7280276988365677
0.30334459865118468 0.43017884903239467 0.44352761717156319
0.012468089606161747 0.42981812330409475 -0.11640189766217457
-0.26498137931515608 0.025275913691115592 0.71197629868399692
-0.15848605357273571 0.69175137332823755 -0.55021257006805513
0.22394522270247808 -0.013809824243961377 0.97507207252907913
0.35176326224504439 -0.18771535952851515 0.32751166379731234
-0.17699666885781973 0.92547453333994456 -0.32815817036525452
0.14207013020079473 0.45963938036704355 -0.79267181018401289
0.24258953300812847 0.88382824232370449 -0.25675769571005858
-0.3274071067007378 -0.70048274517721953 -0.1512669670431448
0.64424597105637815 0.25844610741248242 -0.12169186840174873
0.52556858335887036 -0.33542366770219645 0.67932221122562464
0.25772738025426412 0.42584738314892839 -0.82516587390363716
-0.19258814732702767 -0.16930759976334342 -0.14815083884871005
-0.58483066911496318 -0.52744683767915435 -0.21121711421589051
0.51214477331991182 -0.053547053832042613 -0.023429308535805937
0.040855104816256205 -0.73113410751897878 -0.27713160257187752
0.34654036823490575 0.22093631241169792 -1.0675079545582462
0.22540207561408021 0.60266547109357049 0.46976031669695217
0.44521685735309413 1.0731576934116638 -0.32832870948493986
0.27923173623091979 -0.95042360708401175 0.15040187522668236
0.50001520651845777 0.33199706902556514 0.082046542881783813
0.80858024318446575 0.49176302879581851 -0.62000346516557103
0.19749244650224762 -0.12322128165607438 0.36562779617116559
-0.049882150146509652 0.13428861751870846 -0.10480620059561829
0.15144703610190824 0.33515314395563212 0.59872837651357758
-0.613662343381421 -0.046872583992683126 0.60130041357816921
0.33455299596865151 0.90572407331495541 -0.2977714006574208
-0.53012330348348624 0.029172394438695959 0.59667680677968071
0.28197755111526668 0.65143963580722331 -0.26364430433209507
0.6794767890016522 -0.37402080600602916 0.6129338318394606
-0.30632240433095426 0.26802565632474795 0.58335602817953647
-0.024913544628931916 0.21283232537344721 0.20293011329382105
-0.59747686222285212 -0.3331117797559352 0.23561243342802718
0.18714709384262607 -0.079840136880221846 0.73780567793918328
0.5374913622926254 -0.37016287914917584 0.6624053455639809
-0.21619082352701913 0.59270189927362793 0.55615431686192895
0.1743348547601431 0.031061294678138229 -0.59211901491558838
-0.12134588470563634 0.0078646204515266938 -0.030158396559378131
-0.73084340968281514 -0.5541496241096765 0.32470367775702114
-0.65476887049520349 -0.55019362931645799 -0.26471243406466338
-0.21687895238488797 0.064798406453040913 -0.15378763572517085
0.07293287813602678 0.41782843199824626 0.21611153728471622
-0.26722683393078617 -0.15947734140420433 0.52076877326667292
-0.42364611857748802 -0.053181967021398047 -0.56675714486423101
-0.692689228704229 -0.61955377089703811 -0.28590751876702281
0.29798091890880185 0.76873050824978817 -0.27181750292367024
0.63166160038454633 -0.31135037075811323 0.59642370103052389
-0.29827586558800068 -0.10173897274086857 0.72352299992445923
0.23821336862027898 -0.30875108555191716 0.61165722245876197
-0.77519362305254214 -0.76117986423899886 -0.28743665881940084
0.56904620931517913 -0.31462173490534018 0.66382496908940125
-0.2745845459731926 0.25857702428666318 0.70447208277790785
0.22112549820698346 -0.042702079629828971 0.69580963511746674
-0.23041523799397368 0.14705850055960146 -0.29006867084402121
0.22989091518224392 0.62311902773415706 0.20113031047512075
-0.32338874783994198 0.12594286240930247 0.7074609900794544
-0.57030610011802718 -0.36623808011250081 -0.25476956628035907
-0.24858825118108152 0.50255044566243401 0.26841825532476671
-0.053019940331501703 0.37343735877074752 0.73208677514482967
-0.0096355347643506395 -0.76337066768255801 -0.17889286245752434
-0.44036742737649992 0.11974830720360519 0.61922938432189767
-0.46796813307592 -0.5110587544104469 0.23849266287161641
-0.1378059162093066 -0.20809280321753998 0.53280993908031005
0.064203358948263123 0.33155835829788649 0.71355458221704726
-0.31566984072668069 -0.72897300470493454 0.10845923752452191
-0.1081146132943398 0.14047786373830079 0.69719968323815751
-0.45215832871842232 0.25712932496385615 0.12909612297818218
-0.2357410414212604 0.35501553374744688 0.6581588650296778
-0.65233293008504956 -0.38032943825116183 -0.16187338298993637
-0.53856244041213586 -0.12014916943562509 0.57300939265033268
-0.8287484581622051 0.26422396643421459 0.058675042430984536
-0.4067463491730845 -0.077935953003104852 0.74189288652616181
0.2910922363005497 0.34980324668567242 -0.08693235228106877
-0.57117488972961694 -0.50781488163131128 -0.18303664052406665
-0.66076468393224941 -0.40081890608818721 -0.21043508664869481
0.39048495088846158 0.52968319122920582 -0.30991949415425557
0.22861877841356426 -0.079183194254914269 0.68360850324481004
0.35993626318783489 0.36501224605574667 -0.72364743636050854
0.065208329343967808 -0.62846737373430228 -0.23178757019579432
-0.05680752962209068 0.023043853198454145 0.29608914808015863
-0.11613477731150201 0.33125155312211785 0.69227596358130561
0.32548256322102853 0.73201616274228087 -0.3014544131645307
0.15989345611262262 0.10705561359170607 0.62654223643794704
0.1328809047751025 0.62536304197710746 0.58340514226459728
0.196876676483841 0.0033615266286829426 0.69568413401632512
-0.46334552210617086 0.11965950125999336 0.66151357203407524
-0.10917717329959364 0.4060611195071237 0.68740320055659443
0.49763483239519868 0.48203032183041444 -0.52284319689185144
0.44580321727810013 -0.530370246985991 -0.41819022303635056
0.19194415785184837 -0.35096641458489514 0.43235390750205838
-0.12528763785411923 -0.28087628286013011 0.8783488139184914
0.29700235334250058 0.87606579976012355 -0.24281406523824978
-0.22193782341639423 0.24791636819349955 0.43863302082618516
-0.61873311458142077 -0.48894309808451475 -0.22854211799029533
0.45975306499203406 -0.30528188363929482 0.34297992383675224
0.62466325900412167 -0.40754497126770584 0.65703817832317857
-0.68005641531116545 -0.6726705031992557 -0.25208015586400556
-0.29023147467199673 -0.85662612159284168 -0.7082149337295911
0.07214001343076859 -0.056335212426800618 0.77366924065760223
-0.3355119482123361 -0.46641210866704969 0.13155011076359524
-0.45072549135621309 0.51550548839277166 0.74483483087300673
-0.4874786138995606 -0.14784351166514498 0.62097708352451209
-0.18410572794594304 -0.075934984957406582 0.20750384235491581
0.33653606224765342 -0.23157930326224535 0.033842100591767066
0.68593027325038314 -0.44200694123080875 -0.30325794679230533
0.41171202306884513 0.066622698469376018 0.61383629769529446
-0.046900886196810543 0.0082848464164341218 0.37342672616943773
-0.088518880206358341 -0.35342129805000178 0.55905153229275406
0.44044645374742486 -0.50020637051165384 0.65998302693646838
0.20880478122656632 -0.060580840677701309 0.72304026395259735
0.51435237912139842 -0.5097629184375343 0.51367850618602995
0.34723351079105802 0.22294851993169446 0.49262544560176991
-0.16786427037564966 -0.41575437777169688 -0.31698845650763596
-0.032463422489866556 0.57950026526180665 0.67008171791249638
-0.22842309651266568 0.020889007322852871 0.72449191576063021
-0.4196069448855142 0.059278766138864736 0.72592054284415886
0.49515490023665132 0.93769864320252816 -0.41256292976908004
-0.15221312278079657 -0.2091617886764775 0.56557798499506229
0.015181674685746716 1.0148426042375998 -0.63128763703564528
-0.08142060281448571 0.50801255662951372 -0.61110517875708581
0.32807298030691578 0.91212539721061536 -0.28367656495805393
-0.70921944834318795 -0.12697724329805188 -0.65300731127393097
0.16518906998996385 0.43900506335439615 0.57866576217665555
-0.13140707782886896 0.30614458019872681 0.70369640278782786
0.48927571829885474 0.61589204000528641 -0.38903964099775146
-0.090063545087492702 -0.28232225631543761 0.61568974837656842
-0.79605326683366795 0.048064177797606522 0.22380531633269474
-0.35376029052689528 0.17563038941548764 0.23525491410637067
0.73265017480864292 -0.43559395234069093 0.39450872695368122
0.40244615750984991 1.1173583913820599 -0.31501152028365853
0.34685482414686053 0.89717334298097207 -0.32061216328915965
0.27706336740137205 -0.16980226257126874 -0.22822651090392942
-0.072801870344569863 0.14690504093989709 -0.24204343262977912
0.61083825274207126 -0.29816442890620509 0.61621148464125919
0.14420362039371604 0.71706541413176994 0.36470199508788004
-0.092028783648323786 0.23232925386636194 0.69967640310464696
0.75266660253853557 -0.40487676081893154 0.54046522733759872
0.37200346383850658 0.36777338337843574 0.28992099995961662
-0.13888769962058789 0.2627707908512017 -0.45112887402881419
-0.080182193228355292 0.69317111810807064 -0.14820428958432807
-0.080158258311735064 0.27433363448037162 0.69099566158363679
-0.28807994140652848 0.27304118334863753 0.66116124774372831
0.81277748367440505 -0.38088456180318375 0.38381718960086675
-0.38677877884763001 0.31229681549699939 -0.16027274583217066
0.57968945193462162 -0.38706482560099342 0.64399650021229038
0.033939989646780688 1.0353713559587403 -0.20771754478515625
0.41445922203645758 0.8760582442976661 -0.35763921493159234
-0.089597298974193773 0.28371903534352205 0.69180677812814895
0.17496063934083583 -0.39033768080349429 -0.070052242711085011
0.45674026571664639 0.98171969504558187 -0.38416563962308659
0.44091487974988519 0.92115973020533493 -0.38217870755203465
0.19107120776095687 -0.20499711273781074 0.71823484783682401
-0.10922085794088754 0.75745497564539965 -0.5171348408630041
0.39136542974806865 0.15840351370759964 0.30547966041871766
-0.7487452073698142 -0.75540114720307405 -0.3181492487070412
0.54157275254505288 -0.26424965767656328 0.32371710621221683
-0.70170922714617912 0.20398194391251134 0.041347639753347876
-0.31817169975141724 0.21651949578390883 -0.62565986463798628
-0.42018728358892821 0.73186971628283726 -0.68529054192092032
-0.82170779431847862 -0.74051767094480692 -0.42115469378494552
-0.3496879051095485 0.192914745928918 -0.155347325991952
0.46824012740187904 0.218837030976753 0.14622427465619792
-0.016983798690546115 -0.91134643229226275 -0.46619280510335481
0.33831697965246921 0.79909307816725605 -0.31109016374140008
0.10980091948425663 0.49616545131661188 0.59398780229823123
-0.54903145103378437 -0.1067449472824672 0.61950025356911187
0.060863288740462984 1.0270324084754121 -0.20211674125625168
-0.32550772470687961 0.33262277205024132 0.50928530652007709
-0.57004084962711832 -0.12425075827678073 -0.24774780816379938
0.076501709532127204 -0.028255500801282807 0.72314500129897696
-0.43392987206352629 -0.17862930901214835 0.62656665775795439
-0.01300831008867398 1.0382083630397205 -0.01023095042950839
-0.32864972184842856 0.21947613053053394 0.72411333510894726
0.42857917154956704 0.68570526716507074 -0.3724131933212782
-0.45027177926696305 0.26421328903386587 0.68401258827215716
0.46059891185071677 -0.35139526688571709 0.71085214086597825
-0.0042598941209939234 0.67714664686859616 0.53732535154657768
0.18068475721823685 0.36834974391750741 0.52109626174363433
-0.59576456037043091 -0.38684931029647335 0.69598510153148629
-0.82461971095106401 -0.49227460703599568 -0.5734404286213588
-0.62374497360589976 0.045037877403978577 0.59582082844636419
-0.10778227195825663 0.48074086612091066 1.0125610546991821
-0.22613426104269929 0.40134167842845792 0.61857325504436811
0.24439915501251086 -0.21375276929125386 0.71828624393695117
0.5345711678505034 -0.3255497499090958 0.68255738557637158
-0.3298562169605006 0.79044420722454389 -0.23333811085813738
-0.34350020462662467 -0.66271484150140125 -0.11763732463530752
0.27796639737880824 0.65166158585568312 -0.25280649335637251
0.67712598868319152 -0.32637687973677498 0.60828986939832264
-0.28861475048043017 0.057334733502132362 0.58478609970217388
-0.50620770165689022 -0.48346417403106468 0.043446241577969502
-0.2878781433810782 -0.11120928244499084 0.71682584502607249
-0.45345054783337302 -0.14441043244339141 0.65389468886299484
0.54677748553841177 0.872522826607673 -0.39761341618326784
-0.051263474579234414 -0.30031576877976141 0.35695210988871595
0.063799137637681635 -0.34064449772294747 0.42807783939466559
0.61449469212564978 -1.1758638161800419 -0.085181933524625886
-0.61540765995318036 -0.1001908151443866 0.58688742264551208
-0.19894748573370813 -0.55802845326870743 0.31271881557661607
0.26176128877655014 0.46047262994278138 -0.34637631969409433
0.17400417654422751 -0.27868618133381534 0.90126055509057923
-0.35193575598452709 0.1059846518537455 0.70062049505224788
0.64258435621290877 -0.40683678725686667 -0.39124223178384954
0.45404380507271891 -0.51704624819163048 -0.81857611234795047
0.10461997952373414 0.68176726006993271 0.59012244024698024
-0.2342134352837153 -0.12983732510301138 0.4081708906547592
-0.33942726511668542 0.18644626518521878 -0.089742239215448771
-0.34651570471737436 -0.4078341435923411 -0.45790286895604693
-0.7133099107734906 -0.81183016583210832 -0.27018465337814135
0.20988827388223186 -0.15280756321280009 0.71206658487446961
0.11708467824531876 -0.071890506405911159 -0.18459277091480897
-0.11765908610703901 -0.7775549775961903 0.21102217921757283
0.10311229590370496 0.23853775704419922 0.11731749677462178
-0.17757797514610663 -0.23616394125574369 0.40101487966824911
-0.084772306516507356 0.72249177639902484 0.32035583024555936
-0.51279785181736237 -0.053736504555868758 0.425907465270702
0.21556495654617169 0.96078715983782426 -0.37532736933446142
-0.23671846512467609 -0.085158696683924451 -0.56570607605668455
-0.11730105308925443 0.40942924463495645 0.69126837915607808
-0.16282286314270578 0.37061930992502778 0.79634309781923962
-0.064540031890130578 -0.18962275157450803 -0.10821970383675139
-0.42341270816378085 -0.01114693587285126 0.52677292398987807
0.019118247790858689 -0.06458529546099423 0.73070165312569779
-0.27640316094827599 -0.41090465247414898 -0.38589771720984034
0.77758479527714908 -0.34169898329489057 0.49488822829451068
0.4077954704804434 -0.38669959334304399 -0.087264694063257764
-0.35510004710415943 -0.080887588895751539 0.74475078134220984
-0.32295531616666984 -0.37881896756123346 -0.42746078900335172
0.051079529604031393 0.87345048370735112 0.15978027574334264
0.55981712758329838 -0.37154410067648447 0.6216404065754324
0.34106479167412163 0.16264065706063435 0.27804894707041927
-0.17903539810561386 0.23445439991266964 0.71547071833262943
-0.68301713107540252 -0.077350763910603526 0.54161656728825402
-0.4862354380369347 0.3967575111417519 0.58215103364225995
0.62619250852380914 -0.39013802061592351 0.61916380022387418
0.71634427664672851 0.19148859464278573 0.26150611297213866
-0.56425701064810152 -0.15047597051960121 0.60713214558258521
0.48523757578707549 -0.19516229738738966 0.34006615919277516
-0.45804027987310936 -0.024612306823953489 0.72201922751341452
-0.59641333923684625 -0.56633755438050881 -0.20208328782648621
0.36443886194782538 0.0011399161794100054 0.16365551355480168
-0.84994512298958347 -0.63854694501324227 -0.46204069111700985
0.31737044362726641 0.98573973842068918 -0.2449765134742905
0.48030482767013383 -0.47757353587230039 0.4621700894848596
-0.48580674885654629 -0.5202992407270175 -0.0065828586527245658
-0.14397095897963674 -0.41815925176807706 0.014352762570110311
0.4323390034621184 -0.070995415435644804 0.49911188765305692
0.085987168657802204 -0.028910700629213193 0.73105157535971477
0.22814905264521013 0.15232941567404712 -0.1704093799639026
-0.36328300152297044 -0.1858148245269845 0.63044991482339763
-0.87661554418258114 -0.74705774154828464 -0.52297050389355815
-0.10481523325739817 -1.0925859032747329 -0.43619737475322495
0.35232827197472938 0.94504114606814926 -0.370707273547765
-0.72175772422584938 -0.74013198240167632 -0.25388284450865939
-0.00043552791826995119 0.96849891458515602 -0.24361310449386187
-0.29225111857318464 -0.023958148466912688 0.74974648951833456
-0.09786086468108568 -0.044265045029596939 -0.1493641339874594
-0.2535887084912356 -0.067091581694757096 0.72476672620253613
0.21295425312344562 0.027972734496960361 0.48987079339235295
-0.54376775503159291 0.22052936560462078 0.47367824915193113
-0.74449857207281034 -0.57781280203193719 -0.092508358860095674
0.63941079073861684 -0.36547328068075674 0.58413088853332829
-0.48451716829789659 -0.90813213254779312 0.15995417084915653
-0.56014164798996213 0.004748093431459155 0.52490522665171868
-0.72317272189404025 -0.56599008331794476 -0.34492967402072838
0.076607344822722911 0.30411024009044019 0.70425791562147499
0.29551076376985375 0.35723063580029291 -0.12965168539924066
0.3018784308631921 0.77521819300802386 0.20990793273505726
0.36770765743253531 0.47522604057827544 -0.27526469363094797
0.14802824443949669 0.21425222490921325 0.62422631679824248
-0.25896196723021903 0.44609560050239661 0.71652262891895224
-0.42343792467482189 -0.06289661983581224 0.96801647847422767
-0.12447099206835333 0.50729608218336519 0.686591221014901
0.74289969576282133 -0.40194771598835766 -0.016603741628363311
0.68608914208047045 -0.37519162674589857 0.61330079849185515
0.42205299410028863 0.96899348743261027 -0.37627933074086983
-0.035443467853132127 0.41612464398313803 -0.43548419727158483
-0.26502750315340373 0.27305757023727106 0.70528998476319571
0.49358890938921096 -0.5185063682779868 0.62537478411773062
0.28421796247877262 0.92518483697292631 -0.30706175629835109
0.28993717390309426 0.82425311031409132 -0.24176204190979034
0.31095793819796613 0.86324529896309388 -0.27222227463890958
0.061845544940541508 0.29756566008054319 0.71455464183055128
-0.076070636631289767 -0.87561043294794594 0.038576720769217143
0.35464011994995914 -0.14005218309149992 0.67217831082681734
-0.29914530229358394 -0.26794178127353108 -0.20673306378836553
-0.5972935729911848 -0.44207093518897883 -0.13131793607899178
0.66193034179673416 -0.35925692082297089 0.5902374002804891
-0.69325818119865534 -0.52709828567035577 -0.31557208426373151
-0.72635472481394658 -0.47585787561707193 -0.35628753983423533
-0.31859185604445384 -0.51927182862424592 0.13656224073346546
0.096748876381380189 -0.03802124866207568 -0.29610702514528775
0.61750099208043063 -0.61277969061915516 -0.28617820185787868
-0.44647851462060273 -0.055210477116905299 -0.16524534373821087
-0.21490910893158066 1.1994172800844629 -0.2293940117873825
-0.3265784131801297 0.049672478552365507 0.31894218968398036
0.069563962786643563 -0.044812388083194821 -0.4689650668950367
-0.28236172537818827 -0.44629008331443776 -0.04443158983948825
-0.0047032595587999104 0.21395301980480497 0.69092214437362243
-0.76614694326323063 -0.39453345213859414 -0.4343964980705961
0.11686559903495919 0.56016349236551943 -0.47221741504545278
-0.19077420018568869 -0.042551059330625252 -0.534978831568655
-0.13041950280990822 -0.81296385798514104 -0.49288250401861022
0.25719217311549425 0.33581387183935435 0.31676864244825298
0.23774068653094793 -0.32367735519828494 0.70206722224068607
0.51727969315173183 -0.17186493968981464 0.46244589469930442
-0.54818782605775196 0.0055315091285271234 0.62433696495566271
-0.072922988791664256 0.98230851265812025 0.037396356120880991
0.011578747275905688 0.4473569441952106 0.68966246926733676
0.12658577350886846 0.097927832256397729 0.2762895629400175
-0.61678904820316482 -0.40534734358984997 -0.34649332540144928
-0.016993695037039735 0.23532696013907378 0.69239795889939759
-0.013815635223362488 0.42365930702703913 0.71370213265950433
0.59018696612566357 -0.31254485186559944 0.61983046841659084
0.16222810709550606 0.55976972678816783 0.35529981426872215
-0.49521287448253548 0.058500423286944214 0.66182366583738272
-0.38090120350925383 0.10657031180793075 0.69065190451060599
-0.72832496409221115 0.30401106183424675 -0.53814303731070967
-0.021452183093457755 -0.12531870354402869 0.030508766915057439
0.40229556953107259 0.29951464871466604 -0.64246760726573249
-0.25404505684029233 -0.068972552461449621 -0.88465615866311431
-0.13741724564057134 0.32926928513411063 0.84988875118975304
-0.36410565000105266 -0.05586071829956496 0.76208518653111401
-0.011648224303729027 0.7996481000406761 0.067629837722487984
0.39869153032825233 -0.31414489802869061 0.71508145428017711
-0.36377871827483355 -0.19885558527340363 0.60997091167552653
-0.57002295375895784 0.016711815123282348 0.61909238774442688
-0.83535455811034875 -0.81599416729048913 -0.3541716116609297
-0.11129598020904963 0.45140943864968086 0.6821375098803939
-0.49234090462612623 0.64039390744079094 -0.55346923185851304
-0.1819150615923153 0.62444213509790725 0.56537874200765414
0.24165871645935733 -0.020022403078647777 -0.61106859632313748
-0.74325027092411633 0.11060779661202647 -0.067096649582728096
-0.32294080051224028 0.37061977652320854 0.12906634732626587
0.53529598510209819 0.74169737164940774 -0.4023731722029531
-0.26192228680063634 -0.084120467909154895 0.7071999221111287
-0.13673952141654988 0.59393908217826696 -0.59171351586706633
-0.18864430496898565 -0.43109885154383676 -0.37445131060996029
0.21728563271275236 -0.23605312511843468 0.25840552848715048
0.39217727319379181 0.21377388294274935 -0.23801729343640265
-0.059617396287880986 0.46088330708380304 0.67388774067913337
-0.51416174414087168 -0.92460628686748048 -0.19831591255303826
-0.32566097024821938 -0.61331460021391404 0.22081407036279543
-0.16011060926847676 0.63131706777015906 0.16408691792786878
-0.66491458828940919 -0.52823204723308936 0.36750761645264451
-0.19353963359537452 0.048541596584263602 -0.19701974854059534
-0.30058100987261049 -0.0064346002725743645 0.76588709510790953
-0.6178044173248225 -0.48270963011605383 -0.21804470779125906
0.25083511649858758 -0.21558291347021741 0.33487100966910721
-0.67689209880935231 -1.1936877575771274 -0.60056823648171265
0.063873939215941089 -0.1453081138472897 -0.34212746134415606
0.48368660681900177 0.34313803736230208 0.089610153242515533
-0.074327305093653262 0.39716438192927422 0.70474789481911382
0.4607693615530879 0.97530334546503439 -0.39348714527134998
-0.14191722953140684 1.3244847527802412 -0.0039235642115120761
0.16454968956970317 0.67219162335093152 0.32488857378172387
0.055018226534077286 0.42347992767054693 0.68905892280460201
-0.24815650576786585 -0.15943163281685446 -0.16331466679388562
-0.17228222297525742 0.77478262313748913 -0.33341101246825056
-0.40332843681106989 0.59202912259721641 -0.67612114893295017
-0.28405386150532075 0.65389457514473615 -0.42044744719332927
0.50966144768848309 -0.15553457306645058 0.59166198594638519
-0.36098021446699935 0.19147876761930172 -0.60632677363380849
0.39879235227559029 0.73964664266322733 -0.3491840656599019
-0.049775125111870322 -0.36437224529698764 -0.29947871155155825
0.22485326811363615 -0.20545586901919077 0.21178022494540216
0.3243041556237567 -0.3203400432370469 0.7176592383177226
0.35734039195384604 0.26158319183456913 0.5514627950805
-0.29797183432847518 -0.0069412939348044711 0.76153278833310578
0.51464468573616529 0.56962150784670007 -0.36800110056066249
0.44633599087246578 0.49147505083677168 0.0060157633547874845
-0.51478411281232983 -0.83204576896959181 -0.22359396381214935
0.011027761473305864 1.1515178949118383 -1.06444361052211
0.035895960078892397 0.26408815112811707 0.69378424905175529
-0.041298525960480781 -0.1513048292503163 0.95388991005213897
0.51250826988536113 -0.4850140229462756 0.30015478791267092
0.078970996476570576 0.30113430489203963 0.69261697152061896
0.048400027319821959 -0.28263107722195108 0.39801502829788138
-0.37418207702681494 0.40576198801505314 -0.37690745959883576
-0.38623971407839064 0.019779772671670748 0.75594561061167365
0.51112786682767464 0.89222133875777199 -0.39417250246494095
-0.067441935489050753 0.19775009504009977 0.62305325094202235
0.36010055006510644 0.19412265636551373 0.30831314547692767
-0.12058770948646602 0.35839785288399656 0.69144164883365189
0.45442728495879381 -0.27130303167707259 -0.27231600857174199
-0.21070043504711511 0.19733961905917141 -0.64003159655290087
0.27995184108079618 -0.17302118795594323 -0.092389148556772049
0.27567680037904996 0.54829175840760624 -0.24746428712264179
-0.27633765558085743 -0.65439652747257604 -0.62519428675194799
0.58766494998751861 -0.37782326406310862 0.61073098005710058
-0.5362928883011695 -0.076161246644969371 0.61462620596300555
-0.11490636055611536 0.50647743360795494 0.58329056601637563
-0.49453214105824883 0.022586267217059974 0.65302394818610998
0.35814308539937922 0.66362398885431007 -0.31956153988982483
0.34125672758695891 -0.7349464869974891 0.13216163007719695
0.73508844415372443 -0.45533563590733195 0.47559298905578201
0.61822193364135103 -0.3172457051318831 0.58370708542011063
-0.1430874245909195 -0.37979076608996903 0.39860663644382766
0.092999888179573498 -1.0900628419370704 -0.69304304282034457
0.79399081990685261 -0.44755928545837176 -0.0726522948991839
-0.11341941248053189 0.86092294347562492 1.1449872770485039
-0.095772551333415556 -0.11771145688111184 0.41023115311634761
0.082089215858521136 -0.80990306184319749 -1.0254763785105523
-0.28053076232243201 0.32618793138501412 0.54694242724682351
-0.17678501549588344 0.13881632249675435 -0.55845458131603287
0.70987683684115188 0.38780365427088237 0.05294412168824203
-0.21210175168780876 -0.14070278051200635 0.71799295110555095
0.23948170666455493 -0.030792692701976598 0.66504199453503721
0.42384591607061672 -0.1745822361715445 0.0068731278226863424
-0.10595058875825014 0.037584272367045368 0.67391988968740368
-0.098161589310284514 0.1955148444761492 0.69700318312493259
