# XYZ point cloud file
-0.3251201688481804 0.033713677482445692 0.59807950180009994
-0.5734591712574989 -0.47929359101777214 -0.17739036685790077
0.30192616463659416 -0.22523649750489572 0.71674595320898715
-0.34983800590671033 -0.0051409210904445057 0.54861429382318116
0.15609334754129872 -0.060079615748206194 0.42366994802855484
-0.086750498231407014 0.3910206892205515 0.67642490104733555
0.1742865598577972 0.73956677447618624 -0.13609736568559561
-0.43024100728042958 -0.11303413887763736 -0.28648638619427813
-0.59035384472895558 -0.48909598681268973 -0.21515663372811566
-0.22979030769646036 -0.021200802919167372 0.75432359302928664
0.16026717907727001 0.79124406144572079 -0.18790092774621941
0.16070173774765087 0.63215428438592502 -0.085736493781689016
-0.33273799624125722 -0.068177358140103062 0.6748253096802117
-0.38208974258494866 -0.0095478078606662242 -0.36660222053739966
-0.074247024473619583 0.46245836929235606 0.62172188359075253
-0.22809438255318637 0.061809704950778754 0.76511925086691757
0.44308322444335824 1.0054440991743743 -0.41999356857897879
0.0041591105102739001 0.32965152274743986 0.64253043177349367
-0.47518994954705729 -0.45231749909161822 0.10793111360192759
-0.028842976579712853 0.275910586956849 0.64078802567456883
-0.54794649792574568 -0.59025588478548907 -0.044549636570261508
0.12630611131461938 0.085050706120140207 0.62329282283668153
-0.32279294534147362 0.14438110885228927 -0.24629625228992513
0.18628295511841242 0.61623018667438823 -0.19431555266303685
0.35571999900626294 -0.40612726584073688 0.68164469455509491
0.38140776259290232 0.93942295084741012 -0.35879920296539702
-0.065168510729198159 -0.26442471898471487 0.351570469733817
0.39206345665159054 -0.31349186930131145 0.71760107605654544
0.063679629093237655 0.46122254451416994 0.60267172130530167
0.13076725796294536 -0.061884400833346231 0.72774769770737135
0.18626212403334505 0.59851692665553724 -0.18611912972046052
0.031208828011222489 -0.020912023691227355 0.73494164747635538
0.27030211961180017 0.92792833052662971 -0.29609678907360715
-0.04445236497987326 0.090460170575155985 -0.17346327715594162
0.040841334595587364 0.38470081865081579 0.62315393964093002
0.066200694713808017 0.39105728993120797 0.60251042402391364
-0.28418595603686025 -0.12258841385885011 0.64891363372819943
-0.50051741508850678 -0.51777335753787834 0.014759552225618755
0.52823641040681069 -0.31174594073680884 0.63357801482373155
0.033081922567905209 0.23669836018191681 0.6921140349437882
0.10850591401785337 0.41785761378376596 0.5586914301313699
0.050011493775680593 0.22615806401134275 0.68865381796065006
0.073981024665560391 -0.25014498980792943 0.48631473325803692
0.13283195794734548 0.090699834483170538 0.49529229873600339
0.058950688311056654 0.18950405885202359 0.65495490530182843
0.026360778744099034 0.29853835142837981 0.68367234337906213
-0.7795974111258086 -0.78995458426113818 -0.32639428828679962
0.43030837705547725 -0.31585914070039367 0.68699684567935593
-0.26256878321061927 -0.13124094926882401 0.6397198893205911
-0.39335815890957926 -0.13753290540285124 0.63261658416114519
-0.16996293052362971 0.13174229380805869 0.71108522490547021
0.16897924492786098 -0.29309845398634971 0.50773975979641306
-0.23880010658509543 -0.11046092749110681 0.69898693626702735
-0.30367732391782598 -0.3909695120245662 -0.15260852549946086
-0.19860588782095584 0.14153701591030587 0.70714204281249715
0.33172775959398365 -0.41924284945749168 0.6566361102701429
0.15474384971961713 -0.029072133985109438 0.70821782629758212
-0.3649850946473967 -0.24650017648346423 0.51701629426508489
0.22099695493555344 0.41162432911652114 0.44078305434758924
0.29441302199195479 -0.37783061243967742 0.71716557581075302
0.16458727837662662 0.45591736878446287 0.016241168616168922
0.028226904699194921 -0.065621717665492518 0.73613533884681015
0.11604244165147692 0.41354602509843841 0.55161278223466492
0.12660778332695144 -0.021509821935782991 0.73276832383437585
-0.06323622161074216 -0.24461868358038896 0.4351408865834594
0.43428269361122362 -0.24833917031665698 0.66251614539525283
0.011357487212080908 -0.19212929553535552 0.66595944210528579
0.23520159648787969 0.43478810635358311 0.3768166178338106
-0.12367578418297343 -0.01994595363285756 0.72598564758393813
0.28946585960753579 -0.29815289868081662 0.73290620358188374
0.38281640453921267 1.1086898358710733 -0.39742616957099786
0.047428839700346448 0.24144133951308999 0.69048038556327429
-0.0085088603046935551 0.16911630723209514 0.67205328913073525
0.3572273553416534 -0.29882293429607309 0.70339789685521237
-0.54000476437467537 -0.57715477937963522 -0.036381011906701732
0.20932176615564346 -0.34382284661930496 0.71334426592103273
0.16078271455366322 -0.38597103911195962 0.58475180503465662
0.40417583623834891 -0.31778362536106863 0.71368253380544355
-0.20814681310516947 0.11638756254652083 0.70011007258344526
-0.21486273327163086 0.10294380789618218 0.7186675165564943
-0.55103794404450601 -0.42712360616429768 -0.16878912586169392
-0.71239253391725688 -0.71883825690768965 -0.29568742495781675
-0.30857141984270375 -0.053673870003040247 0.69060487239023194
0.073837475835185074 0.84734313625171942 -0.024978739829582708
0.23462955657372131 0.85914438793736603 -0.25365683907944447
-0.65578172350180719 -0.69235380856625983 -0.1827456535377131
-0.51421850400410241 -0.49384316729770206 -0.054362321259690649
-0.66833221824997624 -0.7248157664246786 -0.08067808048042896
0.1158916648603559 0.27641539271534932 0.63943832546962731
0.075258636989320837 -0.16939590058157528 0.38692869834868637
0.08634016015295809 0.92465901278859497 -0.20757753899689763
-0.033064381681617239 0.33711957505786461 0.65841160211114369
0.20421519725113299 -0.042549207174346182 0.65928997242006593
-0.39802653593608217 -0.065980353758435029 0.22069092179239419
-0.16721740276573821 0.11832484440521107 0.71454762604555166
-0.081378807335317216 -0.17352805289636086 0.55148293506653023
0.30493598052962834 -0.33481067145840004 0.72907673316423793
0.27539572686655278 -0.081590206868198845 0.47904039853165981
0.32952364194000405 -0.1257535770432856 0.48026891511692427
-0.063022076057550058 -0.15299305516188211 0.026767235794455224
0.18635931437165135 0.63458896027652767 -0.20092435075799653
0.44867984052856824 -0.19801070989483327 0.6468823104098762
-0.70200840624837046 -0.69450211827291597 -0.30002481327669928
-0.27971776927047631 -0.0099829429756067567 0.74463771026337722
0.25576744218847092 0.90423135788654718 -0.27706849811157308
0.15587053547046556 0.5184535189588475 0.52020723363638588
0.18333995928516988 0.5905723157285333 -0.17821066091367127
0.17525835729157391 0.5678848519423646 0.45347991005361571
-0.37278600061197709 -0.3710632251461714 0.29416088232272602
-0.19413385199393007 -0.054403802336773888 0.72612439304902687
-0.59954253680565806 -0.59838621424751992 -0.17451190205349654
-0.3737004997559551 -0.26267541169245479 0.47877491385585674
0.094062931324252197 0.88201030816052284 -0.37266212337079585
0.27954309130842336 -0.17162615338465925 0.46660809013677051
0.15180386778082128 -0.0070048689580256562 0.67549943256305622
0.16931008620327076 -0.024682332438290544 0.66887054689372183
-0.57167628105906709 -0.53062668986252781 -0.17670467276700208
0.047080835245402242 -0.024339312184297857 0.74565725859782683
-0.62528623680160567 -0.54728192021461031 -0.29352421217487101
0.45442478584377055 -0.26336315962613832 0.6670328187615544
0.16037857561267904 0.8145476538462576 -0.094566324185915707
-0.045449738977112686 0.69588394587648761 -0.53124866581447161
0.015885877035887785 0.31956773121813364 0.6594345400011592
0.089296889844370453 -0.054704532803095063 0.75042935296484137
0.17119552795625198 0.5563868201347425 -0.13496137821448367
0.12406986839419681 0.432862695663978 0.53975408676601422
0.39278892962409229 0.98693041027836625 -0.43684012652875492
0.098569353550905348 0.42647811386578227 0.56225917399258718
0.20168711471703238 -0.27458163281390013 0.49222628069835656
-0.46757235968465238 -0.18957244951241992 0.10351264130679882
-0.050412171164506914 0.71038599869839447 -0.14863041635534219
0.16962599694765979 0.0083363471317203786 0.61379263790580973
0.32987340748835253 -0.072859869353954165 0.5829518680404151
0.15423081973315145 0.57908694319721365 -0.14886692489557596
0.28548677996180577 0.6796960142579187 -0.26154302398976531
-0.43353500993090321 -0.32151463795589075 0.35101085637543145
-0.055854707358923783 0.00081982490911125527 0.72690805225851507
0.2591869242841488 0.90332138427085407 -0.29716406403150797
-0.25198307700190459 0.251427635684219 0.54231419637718048
-0.7449993189896128 -0.72412418759656161 -0.39099826422195927
-0.39110940125170057 0.033583017356982103 0.56670516936473181
-0.59771808182428132 -0.62228374190457858 -0.13781848053513401
-0.15383578290100425 0.2364367500734913 0.65815028906637285
-0.23705711873893809 0.32129270609428301 0.04412332899114596
0.14904407596516928 0.66583249847723924 0.18072115311235637
0.19646072945599163 0.53595732438193422 0.45992541357192113
0.073478468432350841 0.00088526682466261164 0.71541855425266143
-0.62286280227468649 -0.55636251841619122 -0.28780175630062044
-0.26368498865863665 0.16745322482433456 0.68511611291784524
0.47418757777285558 -0.30313446082220996 0.68162454688045437
0.047681455942721607 0.2215116989623801 0.6830889796794799
0.38991482885817119 -0.28104312442126478 0.6687864259392402
0.12857453940094321 0.010172447719130284 0.71581612447222276
-0.71140525009827793 -0.76731337020232937 -0.13622230205397662
-0.2937098852521286 0.079828724079792579 0.68634776716935231
-0.5274394250310851 -0.48558966835073014 -0.08217509557489322
-0.47939518939477133 -0.45810922225785611 0.082470580963601048
0.051167201024027109 -0.14706267595947042 0.70775237638695543
0.36219818043666047 1.0127547848429364 -0.43069168210267494
0.20541520033233271 0.64494287215971902 -0.20881649685501147
0.16556561470785863 0.14365613513608966 0.48911727234918867
-0.43183988895555347 -0.11083196289485997 0.089868539504973199
0.19215012435561457 0.35643069700189944 0.29388418584901177
-0.096194363642434166 0.12093612857453739 -0.31410260962881753
0.088485560334619628 0.31357487690023766 0.64866558201313407
0.157920183774832 0.53466203784191102 0.50603564752188734
0.0013421923237515454 -0.17881181781373434 0.66104978462075681
-0.47554303650438834 -0.42545083014674401 0.15915280228379342
-0.20273453770427052 -0.040760032138270397 0.73032293356469313
0.39767719540760627 0.83310096980595794 -0.34135249038087767
0.0076397790288147971 0.02004297122472587 0.020037919998568077
-0.46607839948637309 -0.52425882608169605 0.093290478390246567
-0.73655444926249025 -0.78307339585801083 -0.26354335466770962
-0.32606988605752274 -0.080873721399359222 0.65571202296329067
-0.016619593402294963 0.34990518952614608 0.60360106541433223
0.21574286815751312 0.81706541534554167 -0.21661741746293034
0.16494125888143721 0.59323632837903717 -0.17070572297856623
-0.057703941506477896 0.20371592038041753 -0.29840653682000906
-0.66669830508161065 -0.67747739146658403 -0.2348573309930615
0.087613609155865857 0.46861897595585728 0.58428880594999355
-0.58371117108210213 -0.5676536714272451 -0.17680572187713095
-0.12787203148866011 -0.24531110330503503 0.42609554154546014
-0.18122699381658325 -0.013237681708368254 0.72672215238808779
0.41022000894221172 -0.22017790755432221 0.68409874844274032
-0.17800887101996898 0.13890151908855819 0.70954775989627539
-0.10733364298466291 0.28403698716185677 0.62795014955701878
-0.19457464996502 0.0512959385435795 0.76908795091118765
0.12280168375914222 0.74920212761079297 0.10570984966482905
0.20356338414657563 -0.019145217217270805 0.62997816698808307
0.51749903126246111 -0.27710277991928223 0.51561854301730814
-0.54614732875859695 -0.55422078722871193 -0.093133800472844142
0.32814779123369908 -0.18123774357585409 0.46953190493528613
-0.046066644300899962 0.24845805585382597 0.62014370875219305
0.40248456127679605 0.96327457831062935 -0.35680737874166846
-0.12335634432766657 0.50384831226830884 0.17890436276112809
-0.58484344929985732 -0.50677992871313815 -0.19722524001040909
0.15144239460131365 0.40125755951956399 0.0026985221830299611
-0.30388027983646387 -0.31962995200885658 -0.28659733106971341
0.16875723677046292 0.48815538829140503 0.50798162148935
0.54982780745129489 -0.28016921079769719 0.54642167710288247
0.014209719366723883 -0.03998951484989921 0.72300981321614721
-0.16367278088801379 0.067214670169370883 0.72322989388116643
-0.11108807858719461 0.421641105673082 -0.54419376886123128
-0.20404821848269628 0.061727420984361125 0.76678100172395158
-0.13561097328547572 0.0076613323111374143 0.72553886461536121
-0.23701812483172002 0.17685149655887655 0.46417408498066376
-0.58776963094266121 -0.54946809633428562 -0.28526634135825135
-0.25768409155116134 -0.10767730929493369 0.69789519898886221
0.39155720307920849 -0.30311158561583196 0.67250532916465033
0.35944619990279431 1.0202612550521668 -0.36105145385310211
0.43654633075035643 -0.16480272978801525 0.51443084640156744
0.26205142031064799 -0.33017757971000083 0.72900927783313374
-0.18425595756933683 0.086110793534359797 0.72765069253142611
-0.41117677448669987 0.0049889216034041395 0.584840282359812
-0.51591894688589013 -0.38536548660055814 -0.28278014067941515
0.38339125539785779 -0.30941201311568856 0.7044722583321873
0.032123037595612081 0.36880637529921972 0.62364930972920241
0.32765240733432627 0.98582006678261336 -0.37317851247357675
-0.17396760165452341 -0.0058948854656956096 0.73677104591178244
0.055472227771926175 0.15373174764425068 0.59485368763066204
0.4452129488250548 -0.30374904482456355 0.67054677488415437
-0.026519733751007468 0.31872343113246099 0.66089413907753336
-0.79013002776510888 -0.79169656698490254 -0.31087333766728698
0.048238135879157373 -0.042547336506500666 0.75763595142669837
0.54993786055484928 -0.25392120028325604 0.5551082655317674
0.25528524124327556 0.7378874772235815 -0.26312535855100838
0.18736934651234669 0.7766699920600203 -0.16147464528030253
0.5339329597057263 -0.32110323268575136 0.61165672731919829
0.26851594474429435 0.95298662321824035 -0.26460261193549794
0.13138540719342695 -0.25037464166087053 0.7153718367374502
-0.052673087349007774 0.48264003269748729 0.5441131290120218
0.053440602801254733 -0.29854106446275708 0.59244348151973059
-0.15654323039397799 -0.067219488326880739 0.7187352755712535
-0.50282539190944531 -0.39051537640729961 0.12437582808156672
-0.57361664718268679 -0.58304756047716444 -0.14045787084859729
-0.0095288274351863489 0.32336229045434967 0.65163149135828102
0.079444546545042349 0.21669757195911155 0.65875226341649173
-0.25453933526559547 0.041238989084944722 0.75914127316002045
0.11163495301450255 0.035229416619343201 0.67736356407185461
0.4226879158122156 -0.35857374639273976 0.69680442549242094
0.16358797904378131 -0.083252112223223595 0.69733720817609068
-0.061814354263716731 0.47742420066689045 0.63841886225652567
0.1692575036084723 0.58885440449049753 0.34996812148810097
-0.20748116603376077 0.14341058033954068 0.70460721493421974
0.43240942866730736 -0.27056859632727459 0.64947426819049192
0.16509234129983663 0.52117895038031048 -0.10673707340831934
0.12416123547467514 0.39851761197664243 0.54226233244447819
0.17396447478576776 0.690594625134062 -0.16438972855235201
-0.23871098159894777 0.15494612229719396 -0.57920931129397757
0.18353599189127945 0.47163873610020535 0.48778097568249257
-0.039919124040128207 0.34184744466063821 0.66332195622914414
-0.30507972437390329 0.0020398594613283416 0.70385312066213468
0.079466996407030699 0.26088702153710275 0.67393987161546187
-0.33054698441907904 0.15253164312674239 0.61105732623500209
0.25411680023960181 -0.20820627511769252 0.4739113923584905
-0.19457825752672425 0.26826172620125244 0.64562197159096923
0.13188078066171571 -0.0094133573436859797 0.72792595485612943
0.00023734400724151339 0.33770604894099121 0.64368218860869941
0.11243006101642294 0.14642457610204862 0.62885814258141337
0.15517972007157876 0.42753836601710282 -0.012203464372197936
0.10442591522145805 0.59655044637493559 0.28883122236645042
0.092930732863620635 -0.31365500527988288 0.64976370237058234
0.21711177344261068 0.49658921127148803 -0.070341277471250352
-0.47890260921069139 -0.11793369315078139 0.50450128644289016
0.0024755493430460573 0.17955064928195619 0.6383919736158854
-0.25993386085357018 0.13763063503687667 0.68116273041652664
-0.56017050094424992 -0.49145932130377479 -0.14596413177411938
0.1333192527644908 0.1021298550365437 0.47546873823441094
-0.20866189120530171 0.18552386067719073 0.7058764106901414
-0.75574643145223641 -0.80663383799249022 -0.20014402044805535
0.13479963545450174 0.83222706046536143 -0.28802744576614892
0.042973420461796696 -0.19818475237418798 0.68947456674261565
0.20417578948194701 0.2435443582295771 0.44230842206241455
-0.34489782940233693 0.02585887301105616 0.42123830245585242
0.03455766903598223 -0.061295509816086113 0.75319388552961686
-0.21494748468297031 0.25587855470104481 0.70074914772809727
0.15626440939003147 0.61467882421415976 -0.18044792320984893
-0.061824940628679936 0.23915855321746216 0.68974622377761785
-0.56300384465742537 -0.60835781674523259 -0.078185677503035234
-0.04558064509073162 0.27745009593472958 0.67444120552175146
-0.36364783059885331 -0.039518390392527469 0.65157203542652331
-0.56715310051080192 -0.46435328018942956 -0.17011532680867525
-0.57655173176378827 -0.61571590004635446 -0.10087335193586244
-0.29866733480881491 0.0076017073492116172 0.71553244011646111
-0.42613671941166431 -0.039287410430608238 0.62563733235269225
0.16658793267172081 0.13998770579083597 0.52765340315136988
-0.065237676050999227 0.68260513943449297 -0.52027195536200344
0.3649426573375516 -0.3077440437151987 0.68829449347343619
-0.16108767333041701 0.086538858689377829 0.71599225978955494
0.16803637041698 0.29932515492711176 0.54524601082713631
-0.059688873320098979 -0.20260635522257076 0.10997779394694546
0.32387748788841886 0.65995385671931506 -0.27058893078578855
0.365329666801196 0.89529062701730155 -0.37644633515524339
0.14168039721511355 -0.057384716069911135 0.71930531269796116
0.16292850240648526 0.54627946783340697 -0.021349179595273715
-0.0038194595413720833 0.33024923474102685 0.6468915136425134
0.48601500813203813 -0.3476833015313805 0.57507258467118905
0.0098057809306411059 0.27842679473770782 0.67896984085129286
-0.20461441185517187 -0.029349972636100619 -0.40670685433549691
0.043229412691488944 0.52313554929123429 0.55190471769127114
-0.75143329965142847 -0.7834572891157876 -0.25694537941282403
0.38329304844086776 -0.26817515797377212 0.67875885087666465
0.048613625835508267 -0.016038990914302054 0.71954749034851762
-0.68295415637376578 -0.60012584168608518 -0.39248368946459455
0.15247541922430813 0.59643725148725824 -0.16945870164596882
0.32203876132178683 0.96919929711461028 -0.36752417364611145
0.082405744807083348 0.017823229020491271 0.69918514223489359
0.44097505678237831 1.0143831813272051 -0.43165393533457808
0.36778775419258358 0.82172280007456144 -0.31703830652027365
0.25131815307024208 0.95200551761447993 -0.25600194318287961
0.1508461726657768 0.56142750481734061 -0.12029727983115779
0.35790344901812476 1.0583547214455364 -0.34904208227136213
0.0001464094274359895 0.48137880722176341 0.63889751603854827
0.16186881660793134 -0.12722955558840487 0.43381716659553182
0.22870643974094551 0.38521867153144618 0.43007398072132064
0.19222989185866113 0.4013764275526347 0.48915711502177961
0.43865943026874116 -0.2695719459706386 0.65218827583447125
0.17720046868693087 0.70449976415383686 -0.026082283052119404
-0.31952466482222797 0.037189578411813917 0.62183106228519791
0.014576871599462804 0.37974305360604554 0.59880058299957295
-0.17261747366481661 -0.036800128148783307 0.71562597916335569
0.25731978805366745 0.90328559116341756 -0.28758694703491039
-0.55360046628710957 -0.44765723962296444 -0.14914155718510003
0.18599099322049709 0.0081678344998059593 0.52042814183405417
0.017647022834167303 -0.031564351688908698 0.72314443794377425
-0.60876001075187636 -0.47303045337637373 -0.34213216670533597
0.10066827384704524 0.22973990368522179 0.64441628175719812
0.14498625971346019 0.13590070807041255 0.43808519998312667
-0.26239155573080564 0.0081734873737705493 0.75874121718647236
0.39960322349551147 -0.25263106199630569 0.69172472734794321
-0.073300415735228663 0.37353965775283282 0.69560612597629035
0.44216481367071031 -0.3447229231979908 0.69384280229502571
0.29549959424863192 0.86042684251284707 -0.30997934112876396
0.23119711179598881 0.86080238029382361 -0.23188527147638355
0.31029824925686722 1.0095319181841877 -0.30990331151219097
-0.66749811377307799 -0.71567845513672368 -0.091827376242537839
0.51506511318283543 -0.3068945474943614 0.53599474221669352
-0.50339460898642052 -0.29746606740602555 -0.11433790245610775
0.27874185777530641 -0.39234579308528095 0.70870860863253571
-0.46527556996983488 -0.4964151848495798 0.086185182164035146
-0.10206070905738324 0.2893244203967531 0.57904139742114213
0.14761086639080201 0.11028893734760337 0.57309868555100507
0.50632774998430385 -0.23332820629938356 0.62739381172262043
-0.4151019794128874 -0.26415002737170123 -0.45072420500258947
0.22364183278035449 -0.055887174359594227 0.65927246496972358
-0.54050370006402415 -0.62024138957007935 -0.044872593004690098
0.010900609774167402 0.25118081224867739 0.67728209865219691
0.22125444528564439 0.64825599618156282 -0.21214930321814829
-0.29958178397527147 0.21650177757186984 0.59117377611460364
0.17265333632872831 0.24005313486861357 0.55066752197722557
-0.56463479862704047 -0.58244473590312063 -0.11804519717824147
0.3776035631334681 -0.31198869847316646 0.72259151376656361
0.1630159851548843 0.45085543477703399 0.50806367137803332
-0.1192144210864734 0.074579530929636983 0.70984091007064887
-0.26672101717687591 0.22007422800714987 0.52441189166723734
-0.37638271759464526 -0.0079551612612895894 0.16632599294579076
0.35238916644238766 -0.29068735741420948 0.71157249126580835
0.37007111082281241 0.92392746916852964 -0.38353574076788305
-0.48690433800129318 -0.52962261231055663 0.084771396755826012
-0.08078169043278266 0.38274151659809169 0.68972786450316659
0.37689973721109993 -0.26413378135593502 0.70267056627575353
-0.28307205060870078 0.051077291234712052 -0.56147625681362678
-0.44077971066986199 -0.075967119779523973 0.61031487945899532
0.065221502878620607 -0.017526813891981408 0.71916936579230073
0.1578229799461025 0.44259425282996712 -0.1386063674511096
-0.016953194092666879 0.29367992835190138 0.65682698529643613
0.090174394195576046 0.3894353714088522 0.57057010953511678
0.090773710168703114 0.53491824100923679 0.51765260715404904
-0.27777583871763134 0.11653829978269237 0.67738216454936084
0.11007633875900308 0.28651444369231371 0.6420689323715687
-0.083301647652719468 0.62178013459610637 -0.56065513826181546
0.19853592785720431 0.77542546135808199 -0.1877724541197397
-0.11103793435166515 0.27086212153081857 0.56353136536253601
-0.13218633739063973 0.042722308313731139 0.72340115440172092
0.24251725861523077 -0.11247809674661435 0.68702470095182888
0.070709361713821139 -0.0076981053677619427 0.71381520024547296
0.070162577095466805 0.22356767439678882 0.68095133992428558
0.074568637974704755 -0.016365452826079929 0.73017899989896473
0.19271210815054521 0.52462338625534022 0.111486520949588
0.069287813808694143 -0.079017640264910205 0.74171781046986163
0.27312718010239961 0.5607468343350851 -0.16145775155188796
0.26342747545087003 0.87814854327679726 -0.30143845078347553
0.27310518644799953 -0.37987119109103484 0.56672668297852713
0.33183887529255895 1.0601575520830837 -0.40234603634418281
0.27624393997435981 -0.31409097121427521 0.73221113645925517
0.054246681784262396 0.1099509870009916 0.074879687251431182
0.13804712039840944 0.035992177183942209 0.57841632987955549
-0.34878337023122186 -0.041262262946834993 0.65901729599210812
-0.78968227530642543 -0.7971803172606664 -0.38067445442217973
0.42439843422640655 -0.28355436474543905 0.65586622649417614
-0.48752533476811588 -0.31955376761722021 -0.36776545424457974
0.43674962529900119 1.0743279874939227 -0.41842985607387406
0.14197662196535277 -0.027797407334590019 0.72463148408658173
0.31902176805939508 0.89209503126006007 -0.33309064519416359
0.20275306265103735 0.44717650681313104 0.25920958588909937
0.29776836202031898 -0.15763035747288168 0.46636492604466528
0.25646218760520312 0.76703040774349573 -0.26997725966005559
0.47049633490416604 -0.36981812623321475 0.64598895050112726
-0.015119595287295007 0.22394871724906595 0.67493064176785533
-0.34907758620014739 0.030525050622577821 0.45093807863754143
-0.4569132404641868 -0.069425309140890845 0.58229406597045841
0.029870822631429761 0.26867169608695074 0.69069962967412579
0.12815562332072117 0.56709705477152983 0.41210942357336705
0.30381633126134627 0.90484638965081454 -0.32706565165717127
0.17373925682122021 0.73719341304196528 -0.057065015470056657
-0.35829556904593929 -0.33569115598682597 0.3536187326783497
0.0825048434851684 0.41194959622105837 0.58254247065237985
0.13010721833504285 0.090059305803745771 0.48942547144494364
0.24482052888107286 -0.024170993047858857 0.58587813508232112
-0.66496774684091287 -0.6161792222409378 -0.3400364065189283
0.05425580580906364 -0.036952862597945946 0.7550317766389617
-0.072298415834585572 0.095995544533969968 0.69413279914958093
0.03300109122164574 -0.038206074657223699 0.75341478732963418
-0.065050494927040015 0.28225701078158538 -0.36355430563156704
-0.27773190602481646 -0.1123197924981989 -0.45388014343317717
-0.5469245164959543 -0.50635898666482848 -0.12420057161231324
0.14766453129992879 0.89719383515226592 -0.2187890921577888
0.34358153000229824 0.97168163052862822 -0.37793424345854931
0.43917771850560017 -0.24659745062659533 0.66854073089012078
-0.0022235589853408233 0.17878846237351831 0.67159251361609529
0.17350384313672371 0.26802765085862268 0.33669770676226807
-0.31535126179075401 0.18355822387461168 0.58764063848866321
0.15492977189358148 0.022588745255412879 0.50591902847999903
-0.28233770315221562 0.090648147757013131 0.69176688211439197
0.13692768082023632 0.26239943604802363 0.58516108748437978
0.29837879355255836 -0.42115849828983121 0.67767397792304407
-0.0089688372715937548 0.23229918999979038 0.66265610384805418
-0.30943997491991493 -0.3918561044265213 0.15048617003716769
-0.23388431063679649 0.040913041636052583 0.76983433095910681
-0.3601640699368488 0.083007209279251648 0.64639301569227992
0.00093009776276509193 -0.14775242754128182 0.18273406053375429
0.16572675968794953 0.65240528200330217 -0.18338032283181244
0.13227033234045543 0.26245520144559176 0.5995595953808931
0.17052143893694227 0.48699543368635356 0.02321853797599438
-0.4517314741031031 -0.14589824721135158 0.032362182914923543
0.35989097214725108 -0.20507389665052189 0.4733504388220664
-0.14753345428936043 0.034168335998665533 0.72863542041486395
0.48706622016194051 -0.28265623694750097 0.67341787944814424
0.43805185583917827 -0.26458994197881625 0.65335351176706569
-0.67038204090883213 -0.65231920855536396 -0.2798067022447529
-0.056690479003706773 0.41776675966846438 0.52655858027278646
0.09231341623445144 0.40401100167189657 0.55156707489516077
-0.083810596976977125 0.072265118044023913 0.69983076510781594
0.15915528731066139 0.6293852582147772 -0.17758080874476029
0.18589257662482517 0.55573360079082057 -0.16250838853111044
-0.55918741089820012 -0.57117171588371318 -0.12168711608017679
-0.16382014977478498 -0.022545376891839664 0.72944542083394048
0.11505732207759134 0.092724931455837378 0.64610370825014618
0.030358227588591691 -0.019576094162529256 0.72243558813894315
0.14507915709959865 0.31479505580591327 0.55844926818418283
-0.65721645205968315 -0.58900710537436041 -0.35825654318545075
0.5178733317113281 -0.32127175694487076 0.64185405844960219
-0.29820837096229058 0.14760544899338379 0.24968348698559445
-0.033441242428234486 0.43090791671577805 0.66995105218335405
0.19368723842977709 0.50292339239810357 -0.084819294019485514
0.15991273308296575 0.50657504521484753 -0.01706848112644338
0.13189320000492022 -0.37247030743279963 0.59107507194974596
0.16078400930538966 0.7863729273528457 -0.25291294028849864
0.040153186036717192 -0.049609729105934974 0.16903324086755683
-0.23708502813309495 0.12755576167615545 0.64473903271526034
0.17125775249449809 0.72003543203520026 -0.12441678486556002
-0.10557876610957351 0.25690677584130672 0.69162509776728176
-0.72904821550097176 -0.76623527679953596 -0.19338262084705671
-0.047008602867017468 -0.21884743589861611 0.5081451659189673
-0.015574009160113034 0.26252865265012904 0.65647947798933648
0.026667744433580109 -0.06712305050899825 0.73072798186229615
-0.59953545464326685 -0.5864708526004847 -0.18930795160607872
-0.69417454117063437 -0.69110150130068071 -0.28572287816887876
0.16685500442426926 0.34198658100300672 0.53523311979686194
0.058247360635467593 -0.016394489123495726 0.71310204060251614
-0.020237034024717215 -0.10833251030298763 0.67412693578123384
-0.053097693475657626 -0.15637721477057165 0.59279944913351179
-0.12933074925524635 0.021213392373740203 0.72384140781840589
-0.24189709911096902 0.11358903641911244 0.69665188699653324
0.49307727407619156 -0.25431505474636584 0.65519041235027309
0.023220721629397922 0.36528340398548209 0.63003454733208464
-0.62922438133287428 -0.49587036757459479 -0.3820411769825558
0.093743578392275317 -0.072664761398035682 0.74075938467766822
-0.54718622252518567 -0.44681641546309336 -0.13365566790566008
-0.4960734932081583 -0.46578098894203401 0.016965230319372193
0.11617720287152111 0.28800744861218219 0.63513860759277385
-0.29675047509046582 -0.061088810449200115 0.69811348426947561
-0.70704650828679738 -0.75368398195086406 -0.19332684083473606
-0.29150684965322737 -0.40183410646260942 0.079051675123683218
0.21213220862132756 0.40123235661578849 0.46133787654653574
0.19953464293051792 -0.25204332271442531 0.72942093079973203
-0.81550049775252831 -0.74836182915381566 -0.50594895560912978
0.023247999399035768 0.20727004135877214 0.66476222254992834
0.18985267494950153 0.30038760284986443 0.35518687021441531
-0.50977156137969326 -0.53198923859986835 -0.17578379224358576
-0.55878986060091174 -0.53015586710785123 -0.15600416480831103
-0.52322338692675008 -0.44221603053883574 -0.050373972827864599
0.031286545547417166 -0.23808709125167227 0.46103248631801441
-0.40339941733184814 -0.037809893609336065 0.6351907748028075
-0.08737328078252582 0.26980363873558943 0.70790156006921845
0.3573629521681565 1.0024194946759093 -0.38201853180630518
0.14206885190453794 0.36381076254666433 0.54087113905331774
-0.26785273499514639 -0.030348223940287022 0.73731095704681759
-0.13922407828670813 0.10152322692149474 0.71287875921485822
-0.091867463711969799 0.24928681165993316 0.7093334427447795
-0.4479446634306663 -0.14123912626449586 0.58735212001317494
-0.17633721447174738 0.11558870457806181 0.68435913006072724
-0.25221461473712203 0.15840834021964745 0.68449370108663454
-0.25065501741828911 0.13611649974738005 0.68620211624559824
-0.2612646504389815 -0.013818436180382032 0.75624126016269644
0.023407356037790483 0.86445632144707574 -0.3469852087817627
0.034063119572708633 0.089979391168879874 0.68220166165283491
0.0088519053895547151 -0.15741594908342216 0.67617625548971483
-0.65371259122382452 -0.62298319112843503 -0.28190725953326767
0.034694509001869933 0.29599298052887202 0.68314204024524328
-0.10324695820540136 0.29748108414334073 0.54161673846345693
0.33670424377072211 1.045201700857521 -0.33237304774511228
0.42295230922427945 -0.31474702251331454 0.68155925361733327
0.31783300259298564 -0.10010494460725428 0.64107923121077837
0.010348972600234985 0.23494449748932189 0.67236965206267074
-0.23989531188530355 -0.034968382008394139 -0.46128688186968175
0.24899541914316498 -0.38593333335939461 0.57327652764017245
0.19092035266751373 -0.12467372061265647 0.44687520314927798
-0.18264750367249905 -0.080988715134369116 0.67075628110925289
0.27547250311297128 0.70274844089423738 -0.27325480791677514
0.51723926507573292 -0.24663401238787985 0.62687760566999473
-0.19567446343632994 0.14894070710761076 0.70550830357655814
0.071235262300720803 0.48945725908971327 -0.25158436067231527
0.14162643136790506 0.39572834139454938 -0.10008329122045745
-0.0048802056781493408 0.1916183629788859 0.67379313392438989
0.39227445288240737 -0.22855288068580881 0.47827404253466188
-0.50509044947233805 -0.34125428487671561 -0.29554951320211276
0.046807200119300119 0.34397963239969798 -0.17851248204964643
0.54189663512682473 -0.30666462699274011 0.61411001282812228
-0.025075467938234342 0.30530918532510998 0.66395740658389291
-0.53432997395787296 -0.53412508519042934 -0.094029145476729692
-0.20510300476387966 0.12714503158046397 0.67545648851043572
0.11866318955683802 0.19887792062869925 0.58831680492731864
0.44067020496479881 1.0387306555109996 -0.43212214426638074
-0.60334978309865206 -0.52880891632647009 -0.35395110752396142
-0.23463037627444128 -0.12157243719442146 0.64669447408866898
0.17718627915651908 -0.065554343350704758 0.68644393893093025
0.077310279224447664 0.0014517556404025633 0.7202973219825155
-0.68772776516447942 -0.74095215341453613 -0.19181520199756907
0.28196022706791768 0.86660443501195994 -0.30394585789100753
0.43960317291841172 -0.35397544104564249 0.6901651062601426
0.1553492592454282 0.2863446592596175 0.54077410727233077
0.45810675218002417 -0.37230197790668695 0.59940156219080343
0.1156370218649509 0.53254181404367129 0.5215446437922443
0.065012638520841215 -0.27299019901301014 0.5178148379452634
-0.06685042586459311 -0.15128097873002666 0.58006493039224416
0.068850894418768738 -0.081228021099655767 0.73643285032194872
-0.04533409747994821 -0.24009590152525828 0.45149600523206668
0.1379242546886478 0.3875015851337209 0.53962847533399982
0.16538939123581964 0.77739980081609295 -0.017784510089612571
0.23099403926581974 0.35328773948924663 0.40868260767909781
-0.18981377428482404 0.071187210570212045 0.76028873915558148
-0.13242020469275778 -0.016391083017064823 0.66741813800949279
-0.2770580603986309 -0.22931050338514158 0.52644007794192116
-0.57175031745734772 -0.61451222608382017 -0.041152135480996388
0.064283973187145238 0.48978391768120799 0.5939509124043606
-0.0079405899526626134 0.33382874142954749 0.65076469836239448
-0.3875849881635397 0.016019302445702377 0.51588766244601336
0.31710360504123458 0.68996950189214923 -0.31575593068912572
0.13309173083899972 0.0011874587415999782 0.72205931116126199
0.081294983459045844 -0.17635353225604788 0.71406194321675209
0.026032491799499402 -0.045051548056118551 0.75185205382174369
0.19203567099193872 0.77418839197115819 -0.28238469258003618
-0.016131137173049537 0.1295263519961346 0.67641989905919053
0.27697541768749184 -0.20700368934898439 0.71581191508974462
0.23600623810312599 0.81934270308210067 -0.2679233012646029
0.16381048125181541 -0.30566534544871515 0.7104599395655139
0.13717464781293043 0.43958911971351394 0.527647773192369
0.17815518983353268 0.58225696586370068 0.016719341401488896
0.3311915778865373 1.0716672571367174 -0.38430021391665969
-0.058946851372954301 -0.21456447666258494 0.50167897122447702
0.020509375543175001 -0.031113809197304887 0.74053126571045913
0.17516348361402478 0.47031791915878551 0.047815839269709559
-0.2066130563850157 -0.096963712659454138 0.66819618654625912
0.061194595275891772 0.23131266229041036 0.68624850169901397
-0.28979399589264299 0.060324393197670023 0.68419578803933712
0.14214793770343942 -0.20294942311416686 0.45761030412867604
0.15880133829834009 -0.38675002050593221 0.63613279463026129
-0.28040266950758963 0.030407558889648079 0.74320035893633118
-0.12566266969151629 0.53082910908835812 -0.57894281647639412
-0.80015169783535867 -0.72886604134903754 -0.46920241337788704
-0.25595980911085692 0.12584167698796334 0.59383309276204066
-0.078979198666382588 -0.13465403891017369 0.58786986947991615
0.20092560200969195 -0.074755107745953842 0.4502455757812821
-0.26612704949412225 0.18777440204398954 0.68975232277778464
0.26400522550039374 0.78804819320005437 -0.27944640932120962
-0.67643659454040128 -0.55037068045769166 -0.44059377927544363
0.37158786950191958 -0.30910703804944417 0.69233677176210273
0.18369362555159696 0.55055882658776567 -0.15219693476534951
-0.20715735048969719 -0.10784364707283578 0.65160422794480088
-0.15042776709448652 0.24214791635325239 0.54376781832774523
0.15440456150078644 0.60994279795360451 -0.17267749822820655
0.15485037498907045 -0.090243115109337246 0.70178971310683447
0.24676575320592103 0.71481939570686004 -0.2499724957722918
0.17363763975044955 0.4966984441687361 -0.091459315662147211
0.20037570612926267 0.54257669756673021 -0.14248004462898939
0.44879476625229181 -0.29929054497734786 0.66797552501016322
0.22421713592462889 0.91355129241841693 -0.30703551382977901
0.16831880057258652 0.7239171409893177 0.054854776113315851
0.12270586679865919 -0.33782749964075143 0.55425707355043752
0.14243080350587931 0.91734271009062995 -0.22949867397982809
0.46271830058564684 -0.25200501290914212 0.67503735423730538
-0.42861050148992774 -0.050646969628579175 0.49897195614692597
-0.33035671556888224 0.029870856644597765 0.5733110824090365
-0.37739385234949907 0.00821020457241739 0.64949470186255875
0.10967933321226742 0.02303556443976873 0.68091209382461981
-0.40867105578270047 -0.19480754329156613 0.59233153449619158
0.13964715013574502 0.033743122302301032 0.53174725659884259
-0.11928463035329789 0.23133010078962879 0.69446586062807858
-0.1426167563035472 0.23381929366278242 0.65837636688607359
0.46871345807267434 -0.30200529909978191 0.68080087210713669
-0.030975966676269118 -0.15653449669846919 0.63092753721549544
0.4725738172427974 -0.3697081914857957 0.61294945926231736
0.2700259342212169 0.6282633727174558 -0.1964506317472926
-0.34660976118938014 -0.17398308877012758 0.64116285540109508
0.19718080090075474 -0.025244919894628848 0.64609566556128484
-0.78835824976622726 -0.79730431626348375 -0.38371561239045171
0.29455171390128826 -0.12634093613728847 0.46890808762882907
0.15638325750611365 0.47162337387997055 -0.056163118540375867
-0.38616936547458991 -0.050556835428900437 0.34332605173155617
-0.33904885458355893 -0.33469305240530378 -0.31862091431432671
-0.54251873022575192 -0.4312718119449499 -0.24954501740721269
0.060191800059468448 0.62538971748609451 0.24932552731485402
0.29244664006592908 0.9490271531762946 -0.34121253837355892
-0.28455984574107451 0.11511744307521998 0.4881982997147406
-0.73534313059220435 -0.77425313254264116 -0.17988690528264861
0.35800615289950322 1.0001472085689467 -0.38857453153237703
-0.31966020416045049 0.072839532600718515 0.46923143932085765
0.4124666364976261 0.97326291506235396 -0.36196588371935878
-0.078988914728139847 0.057179345770788426 0.70273045631375108
-0.33519303828879266 0.024692534171133373 0.66280232214855594
-0.020506029029736417 0.27071040266834812 0.6645827030124476
0.1900655610212339 0.56960439172246824 0.43857412180151578
0.10427837173605142 -0.11244486112689001 0.37244228845885885
0.27639054710612748 -0.28843490735836785 0.73321675319307333
-0.043082039703710606 0.50475969897007955 0.55762743213054877
0.35876371529291545 -0.26191597472693751 0.71670290712182561
0.038553830280352475 -0.030206250179718563 0.75027937933645972
0.13462873260918051 0.0087676269339296287 0.67708397203077397
-0.22920661585743707 0.09458428533946095 0.74411228498846871
-0.50822249082855109 -0.49527131248596823 -0.24268917106468391
-0.57651395835578678 -0.54090381680648825 -0.18358656851632349
-0.0095690536102547852 0.36417639579783162 0.64130644378607149
0.043443958746608613 -0.056588319673314791 0.75960502734873825
-0.2154135734530368 -0.12399885807760425 0.69092650921586396
0.063124197767508439 0.90682496740309215 -0.36963183266011207
0.24884925119752752 0.63306790561935067 -0.21726475123304101
-0.69085051348434856 -0.73932213112657563 -0.29596591336332612
0.04906679934955116 0.16955745702113401 0.0038158519055078166
0.41955236184499622 -0.34053763305366458 0.70691028526502386
0.27205989904493927 0.98526433700574767 -0.27917650294237573
0.074325466691666231 0.62613991595531793 -0.32373138374239813
0.10996782783091091 0.028041831127153527 0.68047527313686951
0.045306195549002726 0.42979965926077907 0.60645940122048669
0.35278580359854417 1.0861018143543772 -0.36376181167214627
0.14090044902494209 -0.38007852182438029 0.6122310969696253
0.14854349920463461 0.14996345414450696 0.59085919529561237
-0.20427845481058465 0.2165983449937719 0.71681579431432829
-0.4526203340218321 -0.35215929475384133 -0.39243910675930771
0.18223845536721897 0.49713897474304403 -0.086832347159955914
-0.18328071730240436 0.021249430732549146 0.76349692578395789
0.15725586585159568 0.61989095728896271 -0.15654555908742923
0.093445596256690244 -0.006044208150267627 0.73347363477813154
0.099844352723687857 0.26645844400814489 0.65754325631909594
0.36509923448677184 -0.29725997455878062 0.71618309819690285
-0.18661079539476005 0.1447686148599745 0.70773005871745553
0.14450321662472992 0.86839672520631694 -0.25167675791390737
0.034128789075265675 -0.24781090100982262 0.48414249066114867
0.20610352281915095 0.77903818390253332 -0.22733803860382917
-0.096107473596589443 0.34034606628453706 0.59570318537235734
0.099696983715953869 0.23197484727389939 0.65079380190292913
0.14969037478267383 0.28335032005355409 0.55900760734558963
-0.75331858456404466 -0.78179617524159262 -0.23576194561544694
-0.13688219784917854 0.28130891620479126 0.51835900452094963
-0.39030540397913493 0.025178668212189392 0.54109183579946718
0.20761205015696971 0.24041914650348506 0.47536452820191533
0.16087921376842185 0.14616303228916716 0.47538343424891427
-0.46957971657001463 -0.16496839098533778 0.42461239998058226
0.083136328851167896 -0.020101637869615496 0.73994175205278823
0.22551927073170058 0.83804937895756881 -0.23926580857659668
0.12364353141548556 0.057377068676650156 0.50698777125628913
0.17915320142881003 0.6098075138598823 0.19901870423246457
-0.010447888160017571 0.33593361291248736 0.65203166601912677
0.18702969576841136 0.51231722820364944 -0.10526916034810768
0.063949919735870386 -0.01627424978450176 0.71000639277791611
0.4753680023160412 -0.28205914319056768 0.50299414008580667
-0.72381306034928039 -0.65316025893609342 -0.43463402258215533
-0.32074766639092023 0.0042156478883220716 0.66756422830458395
0.26956076601663148 0.9550178420483697 -0.36670238395654153
-0.43042056880552959 -0.49420740894463799 0.033498766234304866
-0.65558228490353543 -0.53136337695382885 -0.45075666781651769
0.1209802745147967 0.40685567357660424 0.54625160741111156
0.13547787169828868 0.70434125575525752 0.15063243148210137
-0.54200135203540889 -0.46393012745819384 -0.1130605351586641
0.29640306861818511 -0.1172657896762247 0.66777492120981807
-0.39876511046868379 -0.39969000490170881 -0.30217483542330703
-0.20852147502039975 -0.00022436233807321404 0.77014879357121768
0.21297179883511372 0.61360654400644776 -0.19558966444133857
-0.0041607287003697091 0.42787157517445751 0.6468006190206177
-0.63244288548270378 -0.62486964439586623 -0.21919760138366018
0.13610208428067805 -0.051020279930809265 0.72684461370306774
-0.013451208795095981 0.51558777977969983 0.52289718279094166
0.28671889211803647 0.67042927168223965 -0.24133963389023899
-0.43738687323075642 -0.12897797830539592 0.3665522153256735
0.034726439671485421 0.31577326755099844 0.67518030993643186
0.2901938293909827 -0.42788780330411547 0.64506631646410473
-0.17069938214107833 0.23427756796684152 0.60792250673097037
0.32107732493603935 -0.2386524789890796 0.71753646721376763
0.38695560979680521 -0.20338857492005635 0.68310332449133948
-0.20467227834669066 -0.039449665151644941 0.72723711668774971
-0.46678365142076328 -0.09390848871996349 0.51000869486840328
0.14740988748803935 0.2957628379408006 0.56788273574404791
0.10056529222667038 0.33166529970151382 0.62654736897272489
0.13752285352938082 0.2442178207500455 0.59577516322827118
-0.045981123268478918 0.27506427831998159 0.61402729438716308
0.069012729886352431 0.56623484497928944 0.32832063441612369
0.15625103163438575 0.3882848119604555 0.45831531077768262
-0.079163940325493787 0.43749354055514406 0.5797790033074699
-0.44552265518785483 -0.42292838616285833 0.20593963043688496
0.06316005182444584 -0.025924296143592485 0.74692223426355664
-0.72114251746538172 -0.62487684621999684 -0.44431413986562529
0.35698682239193602 -0.30456302103124711 0.68683681923573625
0.21262198814115049 0.47366538816391413 -0.14127288574991675
0.37547026963175578 1.0591491373275801 -0.35944965594071154
0.068557278451517489 -0.19368190836937793 0.41452894269135798
0.30574595702565882 0.86210331716866651 -0.31853901921268879
-0.13748561808572113 0.40678753870183221 0.33430426456609674
0.31366280062256052 -0.18655425543657234 0.69779556258028586
-0.42025277065458722 -0.22751975765225385 0.5505074242074901
0.17958432394203311 -0.12100222457337528 0.707231880978195
0.015010502364586675 0.79070051359235072 -0.46574429330696987
-0.21827480626031248 -0.048952162278653732 0.72453655360044555
-0.73183569585144559 -0.77579654845474422 -0.26739121685057921
0.51992135121188843 -0.24745377602528507 0.51867708361764053
0.4067150918099306 1.0766145219995149 -0.37960891498557114
0.3754084320452572 0.83971523542321269 -0.39096213372439825
0.27243580045042537 -0.42755194492094273 0.62926527299916146
-0.018127229330296091 0.27186384796091612 0.66007390516652864
-0.54744881797791978 -0.46214805062518605 -0.12657576816886962
-0.67447658647773934 -0.55622443750380934 -0.40565275397123857
0.42817660499193133 1.0507552745159203 -0.44817486591443084
0.12396187375004464 -0.27929207206576967 0.50736525693337065
-0.25768010021240373 0.2395485184438943 0.6932315853683978
0.017834068823304849 0.37877981681353901 0.62957031103500616
0.0059263507727234654 0.21353881557043275 0.65550867823310144
0.27275268893656179 0.75276404074231018 -0.28219099530625547
0.17293377694924084 0.67627646404868291 -0.18933471363576249
-0.55126232769196859 -0.51486789540965483 -0.13638848322147534
0.15881337757222169 -0.02635841953952156 0.68433684393145944
-0.54665965849719789 -0.54902317427753822 -0.12522848648123441
0.3519877748617376 -0.27347202667741299 0.70696639811375805
-0.24966062565340963 0.088006403559235613 0.7330643156868033
-0.30452605210058137 -0.075357200073106645 0.6825706994179932
-0.75664171980632677 -0.79609961798627482 -0.2965582966039163
-0.10532938588473656 0.27962253308462037 0.67277032412355409
0.33811463655034296 -0.27365953470328375 0.72545461895194685
0.39441141112224354 -0.40056556008965527 0.65947562065547183
0.068189103293404441 0.37095700509787854 -0.16728427790813272
-0.097760782456900452 0.229461596545526 0.71142129566697232
-0.2324466380918801 0.22547053976739656 0.7068949971533206
-0.21677314114277701 -0.020736735818224328 0.75060165919801314
0.41360120823244872 -0.2200500071043201 0.47903324965511551
-0.36035602207898099 -0.027499112693800676 0.65178876872105163
0.27844177324247632 0.92466689115416734 -0.32757357279767896
0.29449654622639865 -0.39830330153939075 0.70599570001173495
0.16724584513712248 0.65465390222166353 -0.19130601069130748
0.070026386806248675 -0.076333877498201419 0.74610103517192528
0.38165207644303356 -0.33626520222397049 0.72004221045160821
0.08001402874061303 0.21016676157419967 0.651990802695946
0.038498434951760974 -0.059323557563464968 0.75712938207311031
0.47440817809930802 -0.22292764314278268 0.49932273463558097
-0.071513054294030431 -0.11845998173050576 0.63304784955355053
0.31688446371611617 -0.32650200386629269 0.52138779238532329
-0.067453138191095219 0.39879386050278309 0.69056942251994258
0.21391063724662573 0.50555366188419659 0.4282100410209041
0.22929629880085986 0.7325827921185547 -0.24413083464297403
-0.16032041939744457 0.077070836713191926 0.71284930575283889
0.096641799960860975 0.35722602224097444 -0.10886964489129503
-0.35177584726377287 -0.19066215684918031 0.62592624961040377
-0.53795932882457542 -0.58043993724529264 0.058100211367760946
-0.12874268261375155 0.24410945347783986 0.56753766573378694
