# XYZ point cloud file
-0.86715798474114969 -0.72479823489791162 -0.44900811990432299
-0.5205089312177682 -0.1744278848751073 0.705673666529123
0.24719885524244045 1.060716380749912 -0.40861628997297594
-0.26742791778946007 -0.60980367894807663 -0.1649621816650727
-0.89034960892704706 -0.58057905638981222 -0.43943009105310493
0.047845005897527493 0.58264617572438726 0.65943095818694442
-0.0043799342565797872 0.86934612550610058 0.22637052822494952
-0.62364137325743485 -0.56504995934183722 -0.19613613672376684
0.48927412338414999 -0.12228354691680421 0.68937057213411368
-0.23091434248428477 -0.38495472857820379 -0.5302144130618216
-0.30239897060692655 -0.15345492658086002 0.80408644520775885
0.36979042156008202 0.74706541559048989 -0.29767306379730174
-0.19476613760263373 0.54259425689646013 0.76992603844534058
-0.63756660788287434 -0.72896104236326065 -0.32559098361391559
0.23918907572431536 -0.076945642020549543 0.76759676288254419
-0.27002130239719779 0.62746382593095351 0.64585689197204077
0.46025544144433361 0.81061721464912251 -0.34151521473436319
-0.70612397545481542 -0.30764231222178368 0.39382894209126051
-0.06932808701602422 0.42841540767041425 0.78629238737676954
0.62612728522762318 -0.62695829938801528 0.54439272178771747
-0.41785049750822711 0.20430058672841456 0.6875482076780004
0.54647648907003443 -0.3274178518850569 0.71998377262740543
0.62109840895772006 -0.23668018304197769 0.69561556822255532
-0.27127123534654629 -0.19765272357002883 0.74407164324246655
-0.74473389140978075 -0.32094491487329391 0.55480307904325066
0.13814942156010535 0.45051346260951713 0.66363602416153578
0.036479362078866373 0.48297282285169163 0.73987506380809576
0.14075232458245157 0.37728926401751406 0.68479095934053102
-0.18794208662592116 0.32815607296172433 0.69831101783148453
-0.09686382605031163 0.71669710799752329 0.42181595408869987
0.13702685135007631 0.56237920401145935 0.54532416342710466
-0.36348908121696599 0.49790877029351305 0.69641719679019087
-0.39542528826154122 -0.602671250603246 0.076107059392702014
0.12516889269608722 -0.067556454044892855 0.79055638401008965
-0.90525599035320781 -0.69468846125532724 -0.43818607406133903
0.62892342825316572 -0.41827000376930668 0.65786953155373196
0.44935253282560428 0.61067750106084118 -0.27339009879704212
0.33415195339071069 1.1779624415528958 -0.37107877318110605
0.35703167599636743 -0.24778072200922108 0.27846600476313266
0.37100303726557016 0.98815824846909561 -0.38018968228822314
-0.51227664303387055 0.4258695574244698 0.43085464191885392
0.52540799488640122 -0.23670187246328966 0.70972688898060488
-0.50763951497253323 -0.48724109191825227 0.51950630969722134
0.33397359701723328 -0.1751052761822024 0.72393318960850017
-0.24145488666545489 0.83647957121883587 -0.49412911706650253
-0.28720641360214927 -0.21689404926606393 0.73854764034753451
-0.65308977856174932 -0.90370584322564007 -0.39344467375102776
0.87944914219260273 -0.2311636810207468 0.45578630768879713
0.37304758288220352 1.194610792916122 -0.39353920172175649
0.50735678707847764 0.96507641032789993 -0.48210071544593114
0.61473185350689885 -0.62474868940951267 0.519393557692163
-0.13753224213477555 0.33947842570320053 0.75349536690822427
-0.64381947786011029 -0.5611881668588441 -0.20228828003207744
-0.89034130342850482 -0.62307165485439009 -0.39760702421067218
0.44083700624962141 1.1581895764054901 -0.49206892052743556
0.43288573669994257 -0.38736327722582087 0.38110684745803713
-0.58006685598978436 0.1470702664881009 0.78993584484015278
-0.12736478601138224 0.49671342765220283 0.74318253150828484
-0.064004554174957207 0.27419078501856808 0.73624460181608864
0.39174546611091987 0.88339332737254361 -0.36799311013922686
0.24614201548022407 0.80174834749354407 -0.26192870083259812
-0.57446186174338809 -0.61294874259516008 -0.24709790902744699
0.27151989417044042 -0.023414068047406089 0.72227738829941401
-0.50823728376144217 -0.6502840012986626 -0.26557354034042979
0.60018574929183366 -0.37327909089396127 0.6975556760539704
-0.44300679987357139 -0.042570401511177081 0.79033345184691162
-0.41926269998211296 -0.27933456718474914 0.6916153356272835
-0.68446201094609238 -0.92264818878100452 -0.41319216403252268
-0.30696939815417235 0.2957610489938941 0.76612837771385256
0.57581866137699045 -0.38373905760252436 0.72153047257486691
0.7213061563264942 -0.55261939319900333 0.59042399467715756
0.2744946606831542 0.47991397402684471 -0.32861634443801191
-0.25951251433692768 0.23464149125779271 0.79850067080389997
-0.51701561397119455 0.1450078514292209 0.79724965159462546
-0.30332764692654912 -0.18220216715332505 0.7763963077594036
0.77805787645950364 -0.21306435420461511 0.38851268319054455
-0.56832190553952344 -0.23062871196590928 0.68639268029619083
0.27768528607246878 1.0411262980670548 -0.36850987208800379
0.58767774436969855 -0.6056604744246683 0.64204492632945487
0.25396953051151705 0.77911162829985714 -0.27208508460809511
0.15949757172774248 -0.1482440143757574 0.77438062824572707
0.65021147045229455 -0.4735715341966531 0.69896592865786256
0.057062879025552071 0.30618489112081215 0.73983088782465201
0.10589670283588681 -0.13465898456567882 0.78957500051640128
0.83317635546117508 -0.20471162577760726 0.42756672172890964
0.0090669197637183174 -0.2391355641791334 0.60306977206715018
0.68713117315146555 -0.40832867226705849 0.40143225187633713
-0.30033323490142028 0.46477178706331518 0.80985099815444506
0.17303686444009436 0.72881252848172617 0.54149997723427346
0.32313113035957741 0.86134866610499694 -0.3216310196083052
-0.27691422542981403 -0.0059860173172332498 0.76098166571818848
0.31776071836524444 0.47128108381936124 -0.26076697483856903
-0.40686641687438652 -0.44166078943081311 0.59622895578719681
-0.41991213898292656 -0.75674269562459728 -0.10917057078075654
-0.33647456618982208 0.24438514632522251 0.63972313547965087
0.43369341488752333 0.74802582378852156 -0.27704713670459702
-0.15410129978518672 0.68168406493186207 0.65413677995606778
0.086286029281844812 -0.13276132862244028 0.76627270251291224
-0.29993450284016099 0.1593772797440538 0.79726773863972988
-0.36706984485455596 -0.16311888113068862 0.80208261632869093
-0.19434900687174217 -0.12593364274533925 0.75163001725812706
-0.0055297245344707591 -0.43858812988815132 -0.34474226771962924
-0.023297710784369485 0.99911663223822389 -0.092795506985166032
-0.73098965857630382 -0.59218312280112229 -0.27490266002541763
0.7525419312401409 -0.26324544778640113 0.65867405634005749
0.84239812029825067 -0.37936145388207965 0.59893626791548948
-0.6282861296988127 -0.52311958867144426 -0.35938284087356243
-0.72386424436367047 -0.80083867016941668 -0.48053686760232595
-0.47100615322627615 0.84261378413271837 -0.31300742557863614
0.18238523466718792 0.75832334590622508 0.47028451008576821
-0.30793229884725459 0.4168248347288227 0.64195173466486777
0.46998419147496495 0.84550623535697578 -0.36850867071111937
-0.50410040115796928 -0.49462552792840597 0.43636442227299743
-0.040420922936267978 0.4638184668626068 0.7725559489674293
-0.78592359387675081 -0.95620447550222576 -0.4073263416080668
-0.45032371162141782 -0.33687994816292566 0.67191699252986947
-0.27040728553927362 0.32421284705086889 0.80674565775761675
-0.20682078879224441 -0.082993291335444863 0.73997301827915063
0.2076840643561253 0.72946796124654645 0.24449185379805805
0.76390576540870825 -0.29855832427934204 0.66561721417980246
0.22521348099809124 1.1169836539332505 -0.29088472224658535
-0.040102892013865521 0.62979565820749239 0.70672529290243213
0.82657636296879833 -0.40352496225333923 0.6078286742965695
0.70348241430056646 -0.30177841951821804 0.63759402005494303
0.1236950111470918 0.81150847806431337 0.21546077618645043
0.043958802690691634 -0.45225249044224691 -0.077505757112542595
-0.33097662818069473 -0.71761268083977547 -0.11117403441456797
-0.22472342352539787 0.33915577771095273 0.78469036606283171
-0.15222585514288323 0.47161501396381483 0.74854201197529346
-0.13685851082837175 1.0153307832881033 -0.10251054101960055
-0.59644461488725842 -0.30891728927580508 0.65672677093092302
-0.64930464758786144 -0.1932001964442871 0.70330988495635072
0.084259726813834313 0.45742158175289438 0.71480762936505648
-0.77916441670468606 -0.68905263100936232 -0.41454893603210385
-0.4342114034036646 -0.1865559009425567 0.77492387289534359
-0.18104584233986021 0.36741297455377459 0.71346522588527317
-0.72715379839458416 -0.94693156517579147 -0.37231313291105128
-0.0052849036453599396 0.43228232977685277 0.77739846894890108
0.76203423736225773 -0.15443500216114148 0.43130259704574359
-0.48366576927731586 -0.29313083210600099 0.68913670572493535
0.603766588744727 -0.044798341927287488 0.55236580751542452
-0.69964259133547291 -0.24763825522371563 0.44952048654789989
0.19718938942253139 -0.048078844446507563 0.78663655170848268
0.077689950859886281 0.36707450983667761 0.75804440104187942
-0.11748773428714543 -0.50675695183084923 -0.137863898660194
-0.39295846019463454 -0.61763068483863193 -0.013236445746331316
-0.35981479726043197 0.034802562817932148 0.76888542309579
-0.70960063429701847 -0.24045988594242729 0.65485914856442051
0.80119872453416452 -0.42925585819258982 0.46207485581776919
0.3027067261512526 0.37731265941699743 -0.2242727262206432
-0.67827512182612448 -0.67000361695413901 -0.33050414182034282
-0.20318109556402675 0.447155391171702 0.66654309084457353
-0.58929061431465701 -0.1540791767791988 0.70355532106810947
0.50321939858049092 3.2248949453306253e-05 0.5606900586241812
0.19682165563272669 0.63567516121907386 0.56088164206264679
0.32330119333223983 1.0696363650918275 -0.4001005829548745
0.39749481961814137 0.034692850874472603 0.47109836420257567
0.58834605193504252 -0.39364701216736742 0.71915326819758441
0.49479522454765856 -0.19708027626996716 0.70782808726411273
-0.70377183629669204 -0.47312835809636133 -0.14667106150425491
-0.61422503465697087 -0.61669420511299844 -0.26556209134414654
-0.13951768313189561 -0.38490139204193763 0.43060742501328986
-0.82467221388514211 -0.027437590812362078 0.095414387943459356
-0.50278937961240899 0.013990635332160939 0.75110069982928662
0.10740037646498113 0.51606083006413872 0.64559038188013007
0.60224041741227197 -0.58194149535643347 0.4726974085990312
-0.036061427952104097 0.86548568610275001 0.23180757144431752
-0.86449916929890325 -0.64586614350694704 -0.39564203269105935
0.26131743139229791 0.63579973926380595 -0.35198942446461867
0.2565564697874354 0.13020706327328768 0.47717820779695796
-0.50361602622840174 -0.23645498156447697 0.68261447119754304
-0.43726602428574868 -0.31244611926813193 0.68894194334367698
0.35544754343804552 0.67273912145436343 -0.25834294504859723
0.41015678689700152 -0.022703084015816 0.36957593318929138
0.30296480809480464 1.0834456400858863 -0.39635747889091788
0.068268746414771542 -0.12258093746545395 0.74898327764151051
0.27261137576296246 -0.1218451685778883 0.72612345786504939
0.75180648814533058 -0.34782659169845087 0.67053415896512858
-0.11131458471317046 -0.015985097298004347 0.74868226823865813
-0.27695843944812903 0.50154002282882582 0.53849124397991366
-0.84629290730225781 -0.82476382232152545 -0.46435766776748777
-0.31836643747732474 -0.36900302094273929 0.65611685434562061
-0.66182577961425793 -0.82290256788307092 -0.36800150542322196
0.058757048112547672 0.61718130397898141 0.64980335723505922
0.15711045967965553 -0.30394402056151759 0.65088931650112636
-0.26713025501519372 -0.10968074848779119 0.78863218760371834
0.64966210304133121 -0.58607884046110481 0.63463846469163931
-0.70853904464585948 -0.3668911451677524 -0.37443119784990309
-0.27704698471486822 0.26353600019340162 0.79494404078105763
-0.47270875614542263 -0.77693724691926858 -0.17856575346069292
0.23314514790988117 -0.24028677418915123 0.72148124343163789
-0.7924061977250747 -0.71258645710628299 -0.43069679856286358
0.16314517424956776 0.10262274449517794 -0.54037069492812106
0.65948401135449863 -0.5004385574831739 0.43950989047215205
0.096870014619929279 0.56356267753894385 0.59748490473915927
0.59625727607524226 -0.39413137303676515 0.69965571753637323
-0.15252347634174157 0.32921603156936546 0.76502494328815285
-0.45144743570005641 -0.17884291585653189 0.76867756724686465
0.082222187276443925 0.36536722667419091 0.75306969556396997
-0.38583793060494465 -0.28152475635899221 0.69696647534850031
-0.72950688545827447 -0.35298271894942906 0.48775972502254439
0.17619880783190567 0.75799305522052673 0.27107572822727732
-0.12057658186025488 -0.43059339812258646 -0.45443723303171502
-0.15612068945721358 0.51411446533388228 0.66977661986268533
0.34735624258235198 -0.24603473528111752 0.2524718618864108
-0.76305656650584286 -0.39941164825397985 -0.015239820319109532
-0.30677897613510918 0.069556951759216057 0.77283033609317919
0.41799127975368222 -0.51442293600033495 0.44251463728376805
0.053549595537516481 0.95181512165513205 -0.17544244808928044
0.23980914600678105 0.41123155532139971 -0.37008769222022297
0.35368517290360835 1.0687386779932397 -0.40896245143018861
0.6944937228828989 -0.29939023697922784 0.6399094946319217
0.65707479115158929 -0.54499039675904115 0.66523109259225821
0.3383145899540736 0.49617055047411252 -0.091335109419251825
0.17811614066377945 -0.14744118949813845 0.76375216528010692
0.30149199826387552 0.20253159240773033 0.29551513398304152
-0.23406201557733208 0.91890682142120395 -0.41186626626438194
0.05580304343446052 0.37788860024652221 0.76870801502477359
-0.56702185249605908 0.76309248757971226 -0.14198421778444259
0.10935997529046482 0.54049509814924712 0.64600807154871975
-0.53287380022407227 -0.21180546147489887 0.68643261905050568
-0.64998082577849647 0.43740298350586893 0.27832370267880702
0.070923778230715939 0.60305466269757679 0.64984806703117126
0.26613388838216956 0.10079128598241271 0.47818238426498683
0.20594291535002007 0.029327798775357405 0.72813681586868639
0.40687393529514448 1.0957038646266066 -0.44084966341560894
-0.78426736871526259 -0.61562978259958112 -0.33559389858273347
0.39989817736874755 -0.17690680820888249 0.28941865551829005
0.80168313515623879 -0.21262735954023348 0.60414090520655694
0.53548438250983121 -0.24187313657607135 0.35821859013400092
-0.54661222457626124 -0.30356587740090013 0.66766491995584498
-0.86174537113741678 -0.69116178004464901 -0.52814345986381572
0.53762876654264247 -0.41510850969398638 0.72018411590461218
-0.55142135852803076 -0.2822305336142138 0.67452819827712729
-0.55565462149968337 -0.53607730899663653 -0.37769516472229214
0.66114354448314128 -0.42337950128347956 0.67152914981438483
-0.62054725839467206 -0.25389016000232795 0.67369950411018531
-0.83954591473068163 -0.83534604918240341 -0.48236547861346624
0.60367736767192604 -0.3553290170411133 0.71445589286470634
-0.39694442759903836 -0.62271881167726029 -0.070450831255663093
-0.062947342413876228 0.74268619705824301 0.3966407163036525
-0.40529271032059544 0.46456230348190486 0.48698858357650465
0.31861283232230253 1.1019792858425466 -0.40440105239524349
0.42556593294688394 0.026579412873957486 0.56568874071527153
-0.31127840801063034 -0.027477248658883902 0.79050838540015733
0.12771503666618234 0.45637544390841273 0.66639219559794993
-0.056521188888555507 0.42010184654334709 0.78821123461141762
0.30698238834887093 0.97719228874842212 -0.34848542721162534
-0.11686725146316324 0.4888903838832106 0.74544977707964133
-0.35841571365030855 -0.63306666518583132 -0.061962956717219964
0.48854366040662267 -0.45952480421109188 0.40737833758023845
-0.15522640892652095 -0.22959848637333291 0.71705153652340081
0.67163065763535013 -0.32341723797728383 0.64830337346973843
-0.0023052866286157325 -0.28200691465968197 0.50767896723085715
-0.38848327577428687 -0.31577249784354477 0.65226421121951117
-0.60253915694362359 -0.90286468552786636 -0.30456138903963426
0.27412576803096478 -0.10151795851643552 -0.31352350108332749
-0.77490131096469295 -0.71943711260275334 -0.41082017350607403
0.72076679421149858 -0.36179973582237512 0.63420760384072317
-0.11588185275507001 0.37940245709762394 0.76375826179062678
-0.015321081812571968 0.35646521429430778 -0.64010820249345723
0.14475844851404585 0.34902053780403841 0.6855291376891739
0.097794513946259265 -0.19907505353669508 0.70622052085079579
-0.38864185879950774 -0.80670081521009462 -0.17697723628370565
0.094485098661142075 -0.10670609943384335 0.79329328707602831
-0.49128834392823872 -0.041629925499134357 0.74837098244286671
-0.58461436288997159 -0.26128470116674052 0.67096942907421908
0.34400396966413371 0.67563722804410642 -0.24420447550752744
-0.062149547271260985 -0.30024466001868411 0.55137676113625367
-0.73421967556507095 -0.43904382154473398 -0.084907394618507048
-0.70070118982353513 -0.50022789291867464 -0.20499544705411132
-0.37737680135684926 0.030281848810752021 0.76426642079999241
-0.052521753715782715 0.26393943631380007 0.74097085997473866
0.28107971971415147 0.80297347476516767 -0.2937129854738072
0.10204617216387568 0.7861151963309807 0.58751638301516151
-0.46218460438363884 -0.35231594096118068 0.66222236321641481
-0.63385599365673428 -0.95018714114940317 -0.31753998904150271
-0.56110946575893283 0.017372269396410733 0.75336002481147901
0.034284482283473139 0.47733858080811753 0.74557007226040461
0.38087220194953542 -0.5365585157855367 0.56598627827128589
0.2393220116010486 0.015718488857158208 0.7343304972553869
-0.53830883718251332 -0.17345829393736212 0.70669246822679299
-0.017895093332334966 0.50320777797260696 0.7329037540111969
-0.44899509344634048 -0.7776603530048658 -0.29854964140858109
0.03840813474411231 0.48961417182998307 0.72788522346295492
-0.25668976781154562 -0.20537914067489615 0.74777485277965294
0.12535494593374708 0.38115684728581989 0.6798670137809546
-0.54356894981884096 -0.15030040997475669 0.72307660604981538
-0.5270659616467217 -0.57657104310132901 -0.08687201357627794
0.16604960841295657 0.26430281868577243 0.67639225404454373
0.060979725645779581 0.57941426586115341 0.65503259801033042
-0.7545702506266192 -0.53463290122824647 -0.23936084848688555
0.11543175368608249 0.49556456931543413 0.64929540993584678
0.35103085943768608 0.54714444369388326 -0.28171815910124254
-0.069982076957156636 0.72061053043896417 0.59169426556547933
0.26360443352354856 -0.44839067105025454 0.56482837512935014
-0.81621547172228315 -0.036887839111031828 -0.37065258986164595
-0.8706397267525543 -0.91556719706310785 -0.53479985542399322
0.32255353314646662 1.1270889166299365 -0.38390986305514008
0.23910336346459626 5.0168256926719224e-05 0.7707396395445073
-0.39003630736587525 -0.33184063983611145 0.62821452377986697
0.17075281363083672 -0.083358610752916951 0.79210639281951478
-0.6835568955818534 -0.95952723799976813 -0.34888027556623413
0.787475954664 -0.38816730057291027 0.42934995245391283
-0.45122573287095769 -0.26984371052990508 0.69016895868918715
0.46071381340915174 -0.15757125276635464 0.7058968598926999
-0.45300515064016977 -0.27580005741094227 0.69253788293086904
-0.3710790626582936 -0.0093368439194906339 0.78816587739926092
-0.45721385633405731 -0.28865771903024628 0.69469184042170717
0.26351772174832444 0.19894837185744874 0.45807038363615393
-0.15740017087173985 0.66846611668276812 0.60013438771958949
0.15453323055271895 0.77921760874049828 0.51971122414806326
0.19957478064396383 0.72691298879041444 0.39772853004880226
-0.31437334550238472 0.27865195108926782 0.68823536860976586
-0.24051689725794656 -0.41034087634680627 0.57766359713595683
-0.19370162876987251 -0.26699349747192236 0.70220121157481163
-0.52096289084523661 -0.27760889422717117 0.68566505905959252
0.12076293953571682 0.55075749132440377 0.64310596402590336
-0.85241165328032142 -0.80158014981358461 -0.47732389787318075
0.048448061750502092 0.3225258611742518 0.76412070156090195
0.43121242179572761 -0.4510350089508619 0.69821851935591994
0.28113831292518032 0.71672543734359873 -0.26516433908072035
-0.44075614894471382 0.060481838578065161 0.69299223327267701
0.30644573695510768 1.1092859242476591 -0.38093812210347999
0.48409570683793124 0.95717933435564606 -0.39484256746622615
0.084839838272966261 -0.23290079323304624 0.65379754199606765
-0.19713793139593427 0.43309567217915607 0.76116345677790254
-0.56883848324068875 -0.0084604620004272157 0.74720012498169397
-0.55588530780815582 -0.087140400835633458 0.72726555560601702
-0.57476472073792273 -0.61845854594376726 -0.259464282277033
0.5117050050570171 0.7524689157230996 -0.37971729745073524
-0.2394198540567114 -0.26252511773433118 -0.60208131653513219
-0.66075677465256977 -0.45009604430392092 0.47724919046101655
-0.802039521859788 -0.58822544321791237 -0.31274730206939716
-0.81627418963882548 -0.71135609932570931 -0.45482179419428137
-0.3216303966534495 0.23665986239036718 0.73890158586893206
0.037183206781171485 0.29565379870487374 0.74574904042709012
-0.17654204890306868 -0.37981518092302202 -0.53163355791473843
0.32610053843757836 0.70476306588308923 -0.3324783888064744
0.849163454969311 -0.26700278279180001 0.59391698474583987
-0.15069206580267291 0.66747658935408927 0.70644855535318785
-0.23060145202147364 -0.41784760480203631 -0.49610834363288525
0.74059715370373791 -0.30383564944984731 0.6769167798622342
-0.30573298266922677 0.58612097546964814 0.64180937262595261
-0.13328954162489826 0.4584916151838061 0.72937631386528456
-0.2456948098926226 0.052854560330810818 0.76594461093135802
0.24218634770556768 0.067827634560858718 0.63273057258075527
-0.56624454035249538 -0.12007100306517321 0.71702895878095796
0.67037186260728721 -0.29554863274953658 0.66637846547984392
0.25746977786187131 -0.016652119895696371 0.75413545646683555
-0.52933768987105356 0.2744442864704203 -0.63820567946925766
-0.33410882287456189 -0.026054944389881207 0.80860401171348628
-0.65644282506868912 -0.52429043369875483 -0.14551599808546523
-0.61659002384408801 -0.59199101088297312 -0.36185400399816881
-0.41890641393891581 -0.73352828578749374 -0.11495167114919824
0.37301286497458186 1.0360407205970599 -0.39894913930061104
0.25718637250357013 0.72988326016168581 -0.25034481007585541
-0.17603070280900202 -0.11642127914035183 0.70036079786711369
-0.22009124564054972 0.48219169723678701 0.77256824563083715
-0.68729988803680353 -0.40444634232487531 0.3068101810902798
-0.024733187671809098 0.54945730806100257 0.70063106986039037
0.51170183842658634 -0.15395412857613144 0.36004625344230723
-0.63741026824175062 -0.23029561601642023 0.68719306198142771
0.37383263755446272 -0.50487742139435798 0.46071352592372095
0.16568295074248063 1.0443154465704456 -0.23833584884283598
0.27442151084564426 0.73061148559325417 -0.27860848948043659
-0.30849688648402473 -0.68045629502293015 -0.10990123070743396
0.46544693258308456 0.92456041466666739 -0.42892221277780029
0.17569950435217052 0.4288571402627091 0.64459319819534966
0.18648102627149399 0.92796098840800867 -0.20134379914634271
-0.53254250969855743 0.22926724968839859 0.71011378271757974
-0.50900880575896057 -0.6392254171760503 -0.26446208030862906
-0.67543259841323078 -0.14385913294375557 0.70409116005154238
-0.026770368208181239 0.24751202283153645 0.74688513469267981
0.22350073333056031 0.025498739165668582 0.75131965473291162
0.2709579169111338 0.78073771279745285 -0.34056392228627175
-0.63285221673246372 0.67696735504786754 -0.15551746470156824
0.11089882307467747 -0.25924427143775508 0.64774455149285892
0.2041200632434137 0.99157579012294406 -0.24153253719010315
0.55771111750247027 -0.62359517931237785 0.62249433212439687
-0.024650020552880569 -0.24175609848021151 0.63482188467367751
-0.40621604214286666 -0.62067788889078945 -0.082659638631604748
0.83696133166265962 -0.24882186177856236 0.59629151443285577
-0.28424371281106708 0.030474011099788201 0.77314488141451831
-0.37641770357900928 -0.6156424565601365 0.012612306049194166
-0.50353232971204065 -0.4937916043547409 0.46862180917379037
0.72076415812637062 -0.31328658695908951 0.64329811770599332
0.36723112477492315 0.8243824279398384 -0.32649683207756741
-0.16737096450393896 0.52365197078699266 0.64908931021643346
-0.33967548949055004 -0.16144099461826866 0.80453346600982567
0.11976686949595727 0.33363502280528878 0.70090196043616748
-0.35879937096307035 0.18606449295234206 0.79745415749156412
-0.80907482997288582 -0.5272670854432443 -0.29843107671781066
-0.1798662313281163 -0.46907847395208147 -0.38612405498234903
-0.38187560897802708 -0.16806877999896963 0.79829917299640984
-0.40276496234382986 -0.039026961355618894 0.81031870854124244
-0.31074980257981366 0.32074565623702933 0.63887866797839421
-0.78004441890911558 -0.89955909080719942 -0.43821603916282703
-0.28683573564443865 0.21441490574940042 0.79216766926085469
-0.52629614302366878 -0.26215019538960382 0.63525758992110726
0.45022390405993828 -0.58937162615281768 0.56447670299793851
-0.61166297440964446 -0.76317346107164152 -0.31990136690044113
0.2130945038038341 -0.24838750183943137 -0.32911681800304748
0.1517726562912598 0.92377268343123964 -0.30157833972516945
0.15959670007381366 0.79907101537860781 0.17193890105473875
0.18705075868415744 0.95035165040988989 -0.20722075325624245
0.26999293265399515 -0.03799607184474274 0.730779603298501
0.25368629883907801 0.092181477044850135 0.5362887667195837
-0.59467082532340587 -0.11169008909957107 0.71997475181784132
0.78557630134275147 -0.2794698575286001 0.38913372276229019
0.34618704665951405 0.49055713273550261 -0.12309684961068124
0.1840013979328301 0.44727235973881946 0.57827504042881794
0.65156016499682945 -0.20391498750446835 0.37221261125129645
0.071331589072010537 0.79946266976330493 0.33288018484919579
-0.55008079902783891 -0.57453119964850352 -0.1529346652271677
-0.51039818409346438 -0.074246638615831473 0.74659682636485591
-0.61070778720256769 0.18700583009366423 0.76561296574867244
0.78778363175158361 -0.45308824650924839 0.62444926326383887
-0.31612856639795783 -0.032852058428811448 0.8043038567243106
-0.4533457673373924 0.024338457439218364 0.76490492095504159
-0.79469623675667078 -0.87917718930525401 -0.46739810256793257
-0.31455932689507193 -0.16739817756085096 0.80044896537373555
0.3908518173144282 0.73655327881541566 -0.28860670714362424
-0.68483311810548475 -0.91142843578146027 -0.41305875132580527
-0.041100018994514542 0.23813113762211718 0.74906120507572227
-0.046068458599274109 0.35834190087565598 0.79394324465484634
0.13641277990533407 0.25342318700798677 0.60479892540959312
-0.83560016283982863 -0.80873224020206014 -0.48498443236135502
0.29114293985552742 1.0615433108582557 -0.38497159473204801
0.49703020102341888 -0.078884651820540386 0.37806798810435671
0.65331344367566491 -0.43889526825381164 0.70619242297374452
-0.13080210260449388 0.37639436492038325 0.75404077551185889
-0.58285051565177515 -0.56529528447010013 -0.16210987651758824
0.32881475321408349 0.54580440337252611 -0.06630905859197167
0.33787526235804322 -0.24631242066174175 0.21335226338302737
-0.34446218659196237 0.2242447121681167 0.66159609498342054
-0.60180535025224913 0.13754256214760702 0.61111881345444863
-0.022490016237940225 0.34237105428269043 0.79178671055267569
0.34294664771689387 -0.28394081484812206 0.29965483384684544
0.11830451905265615 -0.038177001817846667 0.73745168920531412
0.69987489735377029 -0.44595679896520379 0.68992392168736871
0.67158438961190559 -0.57129789643414453 0.6324954514022656
-0.53962675734298848 -0.76948695864473993 -0.36110605125325357
0.52353725438390608 -0.16324793087728373 0.69468868855568111
-0.61901501459351049 -0.7277833751361229 -0.31605183990889762
0.39158533343817048 0.68661383655378894 -0.23538409021712203
-0.094528111942192794 0.23295486625478862 0.75266222860101695
0.20714479594624891 0.81830551001726115 -0.18891703414266559
0.046337519538377059 -0.10244872774777047 0.75436249409845746
-0.16492736375580197 1.0192613142109848 -0.22781398763413785
0.35164221254776784 0.8752356075479959 -0.33937495800422401
0.36770111428791008 -0.36767272520243655 0.71184797637782138
0.33300426571822328 0.51580100720534738 -0.050296271658019975
-0.47545193507815231 -0.011769262120060797 0.73655954690692971
0.35184986209772084 0.79008047068818665 -0.30950298638322304
0.0089657555006033007 -0.042734517256640681 0.74961009938363909
-0.095836390140519256 0.12315447824618597 0.74256008583412969
0.64626213027534529 -0.39967582318557171 0.64903881189671042
-0.160552327382951 0.41168578495494496 0.76045632173951894
-0.1251876507183276 -0.26584954187794219 0.67989413635552887
0.13733803551521628 -0.29847387318360674 -0.40260466124684835
-0.064388608090052202 0.26923061322804459 0.74247024340946399
-0.11076988256394849 0.70033714841763506 0.63753595286982789
0.45482780860231742 1.0255030900954918 -0.42836341451723414
0.31175066134099527 -0.25251649668297182 0.072717031511724262
-0.45524714106058983 -0.031642249307729742 0.76482704074573227
0.121976004186922 -0.078241272399447448 0.79404611573926309
-0.77151312573482267 -0.81417849485560256 -0.42351521787666102
-0.4070732291196375 -0.70924601345504212 -0.11566789253581211
0.40665551359843022 0.59682612720309869 -0.28469704492976877
-0.34082136907596627 -0.46341632239311803 0.47445125720031345
-0.19500177503676319 -0.3948335740856822 0.50719918801472619
0.0024854313412339124 0.22973323014049529 0.73977220300085311
-0.23576770176998174 -0.49470483226332707 0.25566497396968269
-0.6840525457431319 -0.47720731477553913 0.093190773002378213
-0.52849749348532971 -0.14626956576785211 0.71528459157206192
-0.47796090966048688 -0.013125937198526283 0.75428164436224876
-0.070180285520848429 -0.25029211788748218 0.66255980448604046
-0.12333998772493437 1.0231059182015798 -0.22466742761502467
-0.5027908443350757 -0.32155966438402961 0.67131371594720513
-0.6689373328619741 0.012880399623772576 0.72345362161529914
0.15188297286037677 0.018912752944730049 0.76599496804817113
-0.44631263225009388 -0.72229588637735664 -0.21777633478008518
-0.77856657261250861 -0.94505475728722299 -0.39872724980288576
0.66236863405085167 -0.30876378058375586 0.66916193038408756
-0.022950078353972891 0.43513327251954781 0.78027458389150794
-0.27638039778445922 -0.27835876005783255 0.7083378843797532
-0.16152697595523957 0.47587597150144101 0.74797974840031511
-0.72938135655029068 -0.49447612013343045 -0.28290956639612375
0.39471937423885084 0.0060671488954460173 0.40230617980284866
-0.48712746859838418 -0.55359018167683871 0.20729366810543914
-0.20135270505439973 -0.096243094120888495 0.76057727471777015
0.29142096799020312 -0.068049957536360783 0.71788851905231599
0.40050007715821145 0.71520281877293401 -0.26786819295867481
-0.89456400678670267 -0.66218852388768568 -0.41931751057980593
-0.12171913992975636 0.31297997034143415 0.75158680020616087
-0.46640423588813729 -0.74447639689621337 -0.2444486761863861
0.74578159265775579 -0.38178915243933664 0.67176028623253214
-0.89101891213305962 -0.57882147301006104 -0.41159955474080623
-0.25488211262854055 0.42110464981530399 0.79509422091684945
0.15658692050545842 0.84015266180496329 -0.34113003935781872
-0.53440319330312835 -0.65779599283594048 -0.27737077211305516
-0.63019763834555764 -0.098964844381252748 0.73114667917247611
-0.069970560214910549 0.59472605597412453 0.71402156472715572
-0.78243617782139196 -0.13635573200405221 -0.40857962262105962
0.84999285425878224 -0.37710490606112823 0.4622730005587663
-0.22876580262984003 0.014155088177735808 0.76356645316379201
-0.12678450538675889 0.54920813796331514 -0.64351063743266379
0.26009071850245569 -0.20169277706993116 0.72789043361119687
-0.027855745022979939 -0.27685125690161627 0.53091193645036716
-0.17844599337603828 1.0096917200235107 -0.10151836609754472
-0.43463922262725596 -0.74156802814559841 -0.13333810543987745
0.073861536946665751 -0.34874328938131727 0.35700980276614658
-0.12141061648264717 0.2271685795632214 0.75561981158029279
0.083058755735623713 -0.29031748354229403 0.53317307957083093
0.38030108872576651 0.68318099614347738 -0.2613234267089708
-0.40192016366423822 -0.20379076017467335 0.77324692639079007
0.22088950941150554 -0.04132025312298393 0.78014082195171608
-0.1503192838476215 0.30852994865163391 0.7648996651068255
-0.088401688647268273 0.28319398353339453 0.74615201048517921
0.41058395476534404 0.8477907479812854 -0.36589708785648334
0.11418912901411193 0.62372332572674527 0.62271542990615925
0.05964378056616404 0.27067023306397553 0.72971515924556418
-0.015425502441422267 0.83148430504775916 0.2776840008058381
0.46255512754434491 0.80534466392060178 -0.3283003587833162
-0.84409085063945088 -0.058056605196524613 0.0095445370874834845
-0.18465747886317008 0.73133067999405166 0.37300609340024682
-0.52121857987108822 -0.23745217621730275 0.68151958509141364
0.41501052717348674 1.1034642765947571 -0.39894457262968452
0.5213238126092774 -0.37620859685334263 0.37113479606115174
0.13024216004494082 0.38005860151084958 0.68257697553332308
-0.084545263545271254 0.43594897347264394 0.78005936388656905
0.31678591612020757 -0.26329161900548903 0.72580246138249338
0.50768160828983966 -0.62872394372078622 0.56473211183388738
-0.4340008741660073 -0.85294313600408223 -0.24888502508695498
0.28482384864129617 0.28784584585817374 0.49943169241321339
-0.26006466854079235 0.52311449401819488 0.60949476879055187
-0.024005167811152361 0.50313581045858635 -0.61183400328926596
-0.54974321442328211 -0.85831448252327758 -0.28015549559330499
-0.24577745694706543 -0.14853607899744203 0.75524455707845717
-0.63582920078444349 -0.53197998686844405 -0.074851965010693911
-0.64782241434802579 0.15619814760028006 0.63517746115809903
-0.65197623059819509 0.12001409585983225 0.61776884218547112
0.10130312124396568 0.76889707736834656 0.60597831385982692
-0.28185181916963042 -0.073395025296210337 0.80496691613219251
-0.030440944676684012 0.17154172762558789 0.73627683495348928
-0.51311421846293737 -0.025675084648544066 0.74919006275500433
0.41788510158100944 0.7271414140651864 -0.26270946745631174
0.21041473448101478 -0.048066459899949177 -0.45854555489283899
0.076180900146485264 -0.10399584166904263 0.78312728276133969
0.18237461151065837 1.0766340497889009 -0.33026864926148902
0.2302926152352196 -0.027408436604524189 0.77703716065997397
-0.80000589627686303 -0.69302335563192008 -0.43541979181344603
0.03920982009157381 0.35420302527781006 0.77791010546433936
-0.26193845891064083 -0.2384832060201163 0.73137809653696995
0.10586498056388116 -0.22950845145374821 0.67742807162760177
0.058100794892653518 0.33898192936262683 0.76857680999605948
0.037588294808678313 0.67266819741459294 -0.5212778493166379
0.18755056079061383 0.90598300152114519 -0.19746434020627812
-0.36200498062053388 -0.40778372915508065 0.62920773050359979
0.23731607614935246 0.016299489675318357 0.75901762676730911
0.47198591238299059 0.8879059973659178 -0.41623418801350165
-0.19770228199294149 0.35080602390973487 0.76977611344525276
0.2629699764462492 0.19016721576399154 0.52088923575630108
0.052031154389824863 0.78699171966982373 0.46945671997759808
0.76651540303436771 -0.17989294310218862 0.40440727992938186
0.017113244232882074 -0.31670333339620338 0.45064891397804985
-0.27440329567685051 0.63791554207912382 0.6929239691655209
-0.34209177515365408 -0.71673918012226712 -0.092345463101516256
0.14226243700544661 -0.036443074921714391 0.77212172384903488
-0.89126404184101737 -0.70402794545036773 -0.43795529251460941
-0.54245274067944749 -0.27408808791328676 0.68084391008915712
-0.89308231145751016 -0.73829957526120171 -0.44705057714556995
0.73728251064046013 -0.3490718118901579 0.64764021622627521
0.16365118686776636 -0.0037134009500093823 0.78129058080989833
0.074530721258421195 0.61363353544276689 0.64421268314989399
-0.76606986112007736 -0.77245504623268513 -0.40604221181191846
-0.53951115043762421 -0.32492922659573009 0.66100281839431452
-0.59976984621488061 0.68012935329413515 -0.35366708947100389
0.6054633635437634 -0.52092403650488683 0.68965296603196657
0.015766676364354915 0.065559827577717611 0.73571765654557464
-0.38560494102979082 -0.62471477587329693 -0.054495176659325906
0.37432993436326978 -0.15550468884080526 0.20641629252159421
0.35247250920285911 -0.075532996077060877 -0.020551994338885216
-0.41361175726280841 0.083091400139703842 0.77300257309707177
-0.47596738704872443 -0.73496803714860337 -0.25526445253244046
0.16383059574813252 0.010764459128741466 0.77638776404273357
0.50788407521330381 0.81276620610570327 -0.33363495164823886
-0.47699276091861442 -0.092611324639236936 0.77150582144442748
0.65654838436839835 -0.57544908261866323 0.49364135823374988
-0.81331756103473207 -0.10543434278044 -0.36331867301538834
0.37747026883206569 0.65557984283864479 -0.20356919057975142
0.069268001373967714 -0.092287409951150812 0.75960361519591535
-0.35550011669949999 0.17037540553149177 0.80414681518586884
-0.71578177096067197 -0.91289388916073611 -0.42994466188297986
-0.061061269749765223 -0.10799637921334748 0.75945892289858841
0.47467427136935747 0.95710161235688629 -0.44113700633226594
0.4756225017338318 -0.37480671361411833 0.72231104456366346
-0.0096122620376721812 0.25502997292016161 0.73192091820137373
-0.84858188168630377 -0.079358478622419959 -0.25073058959980798
-0.49938874595623339 -0.05713042760850473 0.74636804100344945
-0.80166895077496925 -0.22494951480562037 -0.33275770035977592
0.54147858225863477 -0.42419707101710447 0.38870947552015633
0.073147852185172724 0.34947938396110928 0.75858673451135639
-0.36663265275861434 0.087541679894642899 0.68210256401093905
-0.27236553573060007 0.61015432220317556 0.63187923357752285
-0.29656153661649753 -0.42229811464886802 0.59533094024852662
-0.47187866035976889 0.061781339659748524 0.76316456328681559
-0.74647336029964162 -0.99139213934485926 -0.41728249942583029
-0.34699132992349657 0.94938019571484833 -0.27413006758710212
0.12032711638996041 0.37585800629446581 0.69971295671959211
0.0011272865626592576 0.24844830608879853 0.74471298318694212
0.41873310608861392 -0.34699305103985956 0.36226264304171507
-0.42350684919367598 -0.075753918616262683 0.80645024644979024
-0.49353238682275435 -0.62954098940539649 -0.23513412482735718
-0.39075361638877659 0.18497100661036636 0.79923406344556769
0.51083770371524295 -0.61367483686492086 0.48366154209289147
0.048596294151463049 0.56696363073262479 -0.5507158309253779
0.25866404149489686 0.60314347765640819 0.34407454532904613
-0.14769013818282151 0.35135651308635896 0.7588394645305846
-0.22638164548049744 -0.098603049720901725 0.76638885618017083
0.12446782719763316 -0.060685498536448779 0.78584652430636059
-0.91171785100422964 -0.75613632693806143 -0.56074688455626553
-0.80299924459855365 -0.63003613208628662 -0.36024071870746188
0.075344701226428334 -0.19921659918459289 0.69145671516873475
-0.13825587616593182 0.79803411737623042 -0.52406465537832614
0.71413035202937891 -0.46994025110101978 0.67386059593075165
0.74136488500675046 -0.38142449258065514 0.66684318382851215
-0.62903263301414025 0.11277372630703486 0.60567887918816876
-0.53964454051562072 -0.24994830329009665 0.68710273785951825
0.83919529719081609 -0.43044445479444249 0.53482209902162703
0.62325164486486173 -0.29730496231486392 0.37086533993120896
-0.74798241257049902 -0.91725308206281875 -0.44708883431139035
-0.60922508896169347 -0.2934602490757976 0.66059012324761734
-0.54128582460583452 -0.10305416703780951 -0.5988331279586605
0.82611480262006953 -0.17605074324655068 0.52387504497105808
0.18489405145875804 -0.10911948969314333 0.78488542710175335
0.08808564823766929 0.38261315971306376 0.74787413666297486
-0.20885658900381454 0.6257554554213336 0.60201971330206971
0.90275554274467495 -0.2780609738043992 0.51815175276849601
0.35808202416117929 0.74094725261702732 -0.29818295555123653
0.61844881246722139 -0.40784331528929541 0.65785568066283406
0.25407303043027341 0.15045273604429943 0.51072552674165461
0.30805203559671046 -0.28508179192680128 0.21604327296217352
-0.28015251944401243 -0.09020919206284217 0.80907465493719244
-0.61491573590134063 0.38800269919322861 0.35144007695829904
-0.41297678452749054 0.21180038905843013 0.71555948719968376
-0.28849905461079395 -0.64597187725084571 -0.10997689291199231
-0.40424249278007007 -0.30674643066526275 0.69612252853370626
-0.26261621268533375 -0.068753563974153442 0.78141176504817778
0.75360076092628692 -0.45340179057401031 0.65446856169734513
0.72533556877495275 -0.42933275386419512 0.42242073190703744
-0.42453464619468839 -0.38194665741561201 -0.51470261438205334
0.19884906644452993 0.6996813764620109 0.52253955451652834
-0.82467625435311476 -0.26526571828413298 -0.1617081799814849
0.16664299186448783 0.85849177409225841 -0.32971909234940044
0.24858346921427987 1.1434231779005377 -0.31448706111517688
0.68146110712732177 -0.29332779481587612 0.65263346343801398
-0.14585679736906432 0.5088567025324604 0.74126117898141919
0.67828445524364067 -0.28285631006166334 0.67399497394270536
0.90203146516820354 -0.27503136857460742 0.46439176605516885
0.32252716973385009 -0.48482046619453301 0.60235478467773784
0.30749963080809284 0.71126487458609589 -0.25133299675643794
-0.058227584180751357 0.19929943704049724 0.66992537765876892
-0.3655619628150566 0.58527003006717215 -0.64445704793903436
0.09332721231815011 0.78999193667854328 0.40537769049691752
0.26116847517436348 -0.11503475219650627 0.7311613949401401
-0.30638503425270169 -0.31316728825019358 0.64293850830797261
0.00054239338099915102 -0.16648423777596566 0.71885713590847722
-0.65115061787921658 -0.03807141193684499 0.55879416170958773
-0.29413019163740373 0.24337105850662044 0.78018980532661109
0.42693751398061774 -0.08728621591273189 0.32867268713091646
-0.1897514326653269 -0.20626582727518139 0.72922419418371487
0.14971378689179993 0.87770738250075042 -0.11172239473686885
-0.71683048813389405 -0.5036913709836548 -0.22149414940880985
0.23084380567118057 -0.071694211786554107 0.77285944778126026
-0.18706245209188044 0.0024919157966084571 0.66624622072068618
0.12713463401398872 0.011524350867823885 0.73047948749829661
-0.038556631495861637 0.31597113334619925 0.78618241803096922
-0.42990259838709743 -0.18055915005932377 0.78055346685494731
0.24794720564355721 -0.019745565083160832 0.76582789521669004
0.16650656867916336 -0.18482143712779875 0.72952457163924433
-0.59732898295863013 0.057410373824701821 -0.59080473111970444
0.63925984445099004 -0.55139957162976094 0.66863587568081662
0.24169631154737381 0.72619258260277553 -0.1832288794568333
0.65308591340415312 -0.37385113925858415 0.64918276746443826
-0.44522387367725269 -0.73424568020633052 -0.20141779440947183
-0.64928182500623777 -0.9179358057222673 -0.38496501725787824
-0.38202421155336364 0.21165502878434928 0.71518287976581096
-0.47545453502473389 -0.15049605333206895 0.76317999214400922
-0.60499956177245018 0.21160898939306694 0.6726180278235151
0.30657836614052858 0.88347609560712415 -0.32125972465589703
-0.43370126890511962 0.014639960382833439 0.7609856704103416
0.014874964466435436 0.46246401642723467 0.76049499220207517
0.52407411982950869 1.0397142495883815 -0.47650978863730953
-0.25460696083983336 0.56041200681579784 0.79362482463778383
0.63016426909951484 -0.41508980541956342 0.6539934923067503
0.075868145078231919 -0.076694800974563715 0.7502642011382965
-0.014078616882625461 0.25182642625809737 0.74287629712960834
-0.49832828054084111 -0.036812389513520949 0.75272837408814774
-0.70786251160477232 -0.24982996005272251 0.48613898246677911
0.067035670749268306 0.46565736825163334 0.73083022282352261
-0.73550759278846556 -0.49871102419671137 -0.25481124390817556
-0.38435107196144003 -0.2445675004594533 0.73442519456622635
-0.09757718567800211 0.49510432170597951 0.7391207548898292
-0.53669949406072792 -0.27423541750918712 0.61006941981542062
-0.64548812389154886 -0.91535984089353017 -0.36161153400024371
-0.33774895898235968 0.37026759119366714 0.72119022286879164
0.37379948922983175 0.017448201693684551 0.40267218803090898
0.72675923099682738 -0.40643410729776985 0.67800136060402083
-0.27909247639613977 -0.073166175644178266 0.7988063785995948
0.090109865515018761 0.32271075812753258 0.70338762131760979
-0.71554209814266656 -0.46117175803852223 0.003683387159148066
0.13274997001464328 0.56564483808408095 0.63150416014778177
-0.60178934285258023 0.22254020656535572 0.72572681611202139
0.3893756202133698 0.69685133613128081 -0.26067315326709828
-0.7627360097897844 -0.6782970788852809 -0.39583717481442049
-0.20407079756459368 -0.15859931610896694 0.74560849016906228
0.87373980327311518 -0.37085974574294844 0.53230550764548812
0.75587378728563426 -0.33293278093095513 0.67311243183556102
0.14172891530907794 0.95902053773045326 -0.21455075071313545
0.062533785686449406 0.86763198305964684 0.17875413299370524
0.48814835101138687 -0.24644061325650579 0.3480684000464529
-0.53457107021957473 -0.64343735944349634 -0.27508658871336533
0.027841124028936903 0.54386180230169079 0.67534293947054858
0.15483018717580954 -0.0785345461572029 0.79476412478177572
-0.38286689809101127 -0.20512555554586853 0.77615362554538825
-0.060868886466847627 0.49693329307251144 0.73444852687155726
-0.69637094139886813 -0.046133961871024254 0.63363578399680587
-0.82482718152987644 -0.27709754150585297 -0.043277972526060915
-0.10547661870127367 0.40170405263109527 0.76970537711110409
0.26892888216542588 0.73248877976749882 -0.27588698992349947
0.16003690265024684 0.86094184054353728 -0.08803728150825596
0.30237321962201147 1.0150752786225143 -0.36204400022604366
0.32365160765967893 0.38261948688297553 0.054952290279678628
0.25086474581398832 0.13014892892655094 0.49387929287499333
-0.59134975948140855 -0.64852468126601148 -0.28785189289723689
0.26450835062130995 0.70987314331653084 -0.23821842117120307
0.34324087770361267 0.72076029036563583 -0.28900971091145222
0.29585142984009405 0.68912156563963789 -0.22590777024635722
0.74495029664365298 -0.3717996822553139 0.66557524178262251
-0.53884704551910279 -0.032875501736873369 0.73981544530929244
0.018145579292659697 0.24807904999813901 0.74261669521941298
0.4658718999820044 1.0110567354497815 -0.48928085910440799
0.08952718218595912 0.60640960057840709 0.63977345855554457
-0.36860697617893212 -0.048065905256446384 0.81623050116041407
0.64368398895827816 -0.52487399003033242 0.68119462575774592
-0.15103280047066292 0.18870901830765191 0.76165725540797424
-0.69911758736582108 -0.32697487847542528 0.63323559019071451
-0.68494525838466025 0.051651034019833342 0.62981815683010844
0.31191405543532635 0.31233523895120119 -0.16095790515674646
-0.70035848123592981 -0.1951424471735993 0.66991071986604545
-0.17628551281656968 0.52888450679157673 0.75674189242248124
-0.29614202899955266 -0.1211592207690696 0.8125560455411085
-0.1071672873905376 0.53698003611453426 0.72897609311935763
-0.39109753263340163 -0.017688045606529479 0.80020544039569508
-0.24796941808472717 -0.032125813307082751 0.76001388972962602
-0.1454735869934014 0.15159693335604629 0.75721114831790692
0.24245187476179542 0.79990561599122811 -0.25002660421082856
0.71739435328508527 -0.52024127039458545 0.64119396944444762
0.71086884697464559 -0.42255991090142886 0.68697607876006339
0.4743482407621995 -0.1405418475175706 0.69887081982003019
0.50525636894300963 0.91377456519407096 -0.37741454495759053
-0.50569076053255468 -0.72803896689407976 -0.26817938590259116
-0.063166764996794633 0.58248450345695879 0.70705032373125132
-0.47884963863894914 -0.765498257538338 -0.2314462246675022
-0.33079477259438672 0.19088364968308835 0.79514014202015559
0.2864204732289366 0.38974236819192237 0.42917207616629449
-0.001203342441433719 0.58050054438318766 0.68928897607667405
0.41632966099198221 0.61905767904212861 -0.16027282791713948
0.27053366196155881 1.0427131362414486 -0.36157497280686357
-0.80816105620479073 -0.77277524614095994 -0.45098033347550381
-0.46050159172507321 0.08653819965146814 0.77149618186425495
0.17910202159639432 -0.36570828291508628 0.449785818540692
0.41629671659726064 -0.55614229881324617 0.49326649612800189
0.56823312419245475 -0.29977915947102307 0.36297267890281493
0.086457920342146721 0.43639510857789204 0.73202376746821818
-0.13312385754457168 0.27309343564414607 0.76147792984425977
-0.14762057835194486 -0.4071931921826244 -0.49842371372587979
-0.45564197961993003 0.20819551294058763 0.68710195708982535
0.47806538784113517 1.0600656247008666 -0.40500515526331649
