# XYZ point cloud file
40.932445526123047 -101.59397125244141 -149.8248291015625
38.902984619140625 -102.94944000244141 -149.89344787597656
38.585536956787109 -103.24488067626953 -149.90538024902344
36.840869903564453 -104.86944580078125 -149.971435546875
36.533618927001953 -105.16455841064453 -149.98329162597656
34.772720336914062 -106.90385437011719 -150.05191040039062
34.572319030761719 -107.09083557128906 -150.05960083007812
33.711433410644531 -108.97795104980469 -150.10772705078125
32.950210571289062 -110.86203002929688 -150.1536865234375
32.689311981201172 -112.74215698242188 -150.18681335449219
32.322841644287109 -114.61529541015625 -150.22317504882812
32.255401611328125 -114.73175048828125 -150.22662353515625
31.370941162109375 -116.50388336181641 -150.27572631835938
31.594154357910156 -118.37051391601562 -150.29722595214844
31.925918579101562 -119.17367553710938 -150.30059814453125
32.328529357910156 -120.21368408203125 -150.30563354492188
32.732017517089844 -122.06571197509766 -150.32331848144531
33.312774658203125 -123.92230987548828 -150.33659362792969
33.486564636230469 -124.08954620361328 -150.33470153808594
35.101112365722656 -125.73664855957031 -150.31855773925781
35.265396118164062 -125.9041748046875 -150.31695556640625
36.882755279541016 -127.55097198486328 -150.30145263671875
37.047389984130859 -127.71844482421875 -150.30006408691406
38.857547760009766 -129.31207275390625 -150.27931213378906
38.922962188720703 -129.35813903808594 -150.27859497070312
40.678939819335938 -130.63790893554688 -150.25502014160156
41.605255126953125 -131.1571044921875 -150.24055480957031
40.537544250488281 -132.32492065429688 -147.92037963867188
42.414047241210938 -132.87551879882812 -147.88259887695312
44.340110778808594 -132.70816040039062 -147.83210754394531
46.293590545654297 -132.30107116699219 -147.77767944335938
48.238441467285156 -131.90376281738281 -147.72389221191406
50.122478485107422 -130.97291564941406 -147.66323852539062
50.225021362304688 -130.912841796875 -147.65985107421875
52.271232604980469 -129.22268676757812 -147.5836181640625
52.471317291259766 -129.03562927246094 -147.57579040527344
54.312732696533203 -127.50400543212891 -147.50790405273438
54.794136047363281 -127.10853576660156 -147.49031066894531
56.368206024169922 -125.63194274902344 -147.43026733398438
56.824066162109375 -125.18935394287109 -147.41273498535156
58.183887481689453 -123.28874969482422 -147.35188293457031
58.5018310546875 -122.84999847412109 -147.337890625
59.517078399658203 -121.37907409667969 -147.29217529296875
60.187870025634766 -119.49748229980469 -147.24833679199219
60.750808715820312 -118.43086242675781 -147.21975708007812
61.207450866699219 -117.60591125488281 -147.19735717773438
61.694175720214844 -115.71979522705078 -147.15872192382812
62.003482818603516 -113.84796142578125 -147.12461853027344
62.869758605957031 -111.96036529541016 -147.07878112792969
63.034107208251953 -110.08279418945312 -147.04916381835938
63.179500579833984 -108.21504974365234 -147.0205078125
63.326297760009766 -106.34712219238281 -146.99215698242188
63.088554382324219 -104.48029327392578 -146.97294616699219
62.712612152099609 -102.62669372558594 -146.95765686035156
62.044788360595703 -101.70868682861328 -146.96078491210938
61.376815795898438 -100.800048828125 -146.96430969238281
60.282455444335938 -99.673912048339844 -146.97479248046875
58.371047973632812 -99.37408447265625 -147.01412963867188
57.441162109375 -99.036956787109375 -147.03125
56.501083374023438 -98.70947265625 -147.04888916015625
54.594181060791016 -98.514320373535156 -147.0904541015625
52.64056396484375 -98.788963317871094 -147.13954162597656
51.651893615722656 -99.199050903320312 -147.16796875
50.655235290527344 -99.590179443359375 -147.19648742675781
48.709304809570312 -99.930992126464844 -147.24734497070312
46.740982055664062 -100.44428253173828 -147.30142211914062
44.819183349609375 -100.5257568359375 -147.34959411621094
42.959362030029297 -101.31289672851562 -147.40556335449219
42.836784362792969 -101.37363433837891 -147.40951538085938
40.863925933837891 -102.12531280517578 -147.46853637695312
39.635387420654297 -103.26770782470703 -147.51408386230469
38.780323028564453 -104.16087341308594 -147.54751586914062
37.857154846191406 -105.18009185791016 -147.5843505859375
36.924171447753906 -107.07891082763672 -147.63339233398438
36.602890014648438 -107.55592346191406 -147.64802551269531
35.738700866699219 -108.97453308105469 -147.68965148925781
35.447147369384766 -110.84607696533203 -147.72286987304688
34.685939788818359 -112.73940277099609 -147.76931762695312
34.524799346923828 -114.60693359375 -147.80006408691406
34.081996917724609 -115.55503082275391 -147.8251953125
33.6109619140625 -116.49442291259766 -147.85111999511719
33.471939086914062 -118.37055969238281 -147.88240051269531
33.805252075195312 -119.28816986083984 -147.88729858398438
34.108901977539062 -120.21620178222656 -147.89326477050781
33.875808715820312 -122.08503723144531 -147.92781066894531
33.859203338623047 -123.95762634277344 -147.95698547363281
34.961856842041016 -125.79041290283203 -147.95713806152344
35.222599029541016 -126.11756134033203 -147.9554443359375
36.272697448730469 -127.61737060546875 -147.95233154296875
36.958518981933594 -128.60160827636719 -147.950439453125
37.635242462158203 -129.44293212890625 -147.94674682617188
38.733631134033203 -130.72160339355469 -147.93948364257812
39.264984130859375 -131.270751953125 -147.93501281738281
40.681919097900391 -129.80134582519531 -145.51034545898438
42.578414916992188 -130.04560852050781 -145.467041015625
44.483882904052734 -130.18441772460938 -145.42214965820312
46.372413635253906 -130.743896484375 -145.3851318359375
48.287273406982422 -130.79637145996094 -145.33970642089844
50.21807861328125 -130.63813781738281 -145.29061889648438
52.194862365722656 -129.97232055664062 -145.23297119140625
54.169731140136719 -129.2203369140625 -145.17453002929688
54.360153198242188 -129.0335693359375 -145.1671142578125
56.220363616943359 -127.39630126953125 -145.09759521484375
56.526687622070312 -127.11078643798828 -145.0860595703125
58.298538208007812 -125.37071228027344 -145.01791381835938
58.488983154296875 -125.19351196289062 -145.01080322265625
59.344398498535156 -123.30682373046875 -144.96189880371094
60.222328186035156 -121.40997314453125 -144.91288757324219
60.540321350097656 -120.98075103759766 -144.89923095703125
61.557826995849609 -119.50978851318359 -144.854248046875
62.43914794921875 -117.62218475341797 -144.8065185546875
62.7518310546875 -117.14523315429688 -144.79270935058594
63.620994567871094 -115.71643829345703 -144.75257873535156
63.79144287109375 -113.84848022460938 -144.7220458984375
64.052848815917969 -111.97786712646484 -144.68986511230469
64.922126770019531 -110.08034515380859 -144.64468383789062
65.186676025390625 -108.209228515625 -144.61361694335938
64.847099304199219 -106.35517120361328 -144.59584045410156
64.51971435546875 -104.49087524414062 -144.57878112792969
64.282455444335938 -102.63336181640625 -144.56033325195312
63.941368103027344 -101.83034515380859 -144.55754089355469
63.540718078613281 -100.78987121582031 -144.55335998535156
62.553623199462891 -98.94354248046875 -144.55241394042969
62.269847869873047 -98.664680480957031 -144.55534362792969
60.445022583007812 -97.415611267089844 -144.58076477050781
59.923297882080078 -97.15301513671875 -144.58929443359375
58.5830078125 -96.521194458007812 -144.61199951171875
56.661247253417969 -96.489280700683594 -144.65542602539062
54.70294189453125 -96.917266845703125 -144.70571899414062
54.058742523193359 -97.318000793457031 -144.72541809082031
52.670814514160156 -98.141212463378906 -144.76779174804688
50.671913146972656 -99.105438232421875 -144.82693481445312
50.480270385742188 -99.282844543457031 -144.83360290527344
48.604747772216797 -100.93186950683594 -144.89898681640625
48.296367645263672 -101.21775054931641 -144.90986633300781
46.514316558837891 -102.95916748046875 -144.9752197265625
46.323207855224609 -103.13654327392578 -144.98226928710938
45.238483428955078 -105.03056335449219 -145.033447265625
44.329750061035156 -106.33622741699219 -145.07293701171875
43.889339447021484 -106.94086456298828 -145.09201049804688
42.877349853515625 -108.83211517333984 -145.14254760742188
42.132511138916016 -110.71580505371094 -145.18698120117188
42.066837310791016 -110.80365753173828 -145.18998718261719
40.828628540039062 -112.62401580810547 -145.24636840820312
39.912757873535156 -113.96733856201172 -145.28846740722656
39.449203491210938 -114.52450561523438 -145.30833435058594
38.091804504394531 -116.42410278320312 -145.37026977539062
37.782184600830078 -116.76679992675781 -145.38310241699219
36.441764831542969 -118.34099578857422 -145.44062805175781
35.699874877929688 -119.11558532714844 -145.47116088867188
34.481822967529297 -120.25639343261719 -145.51943969726562
33.631549835205078 -122.14179992675781 -145.57003784179688
33.565261840820312 -122.24864196777344 -145.57341003417969
32.626014709472656 -124.04083251953125 -145.62530517578125
33.337135314941406 -125.45436096191406 -145.62864685058594
33.620277404785156 -125.87656402587891 -145.62799072265625
35.135555267333984 -127.00083160400391 -145.60639953613281
36.390750885009766 -127.6640625 -145.58477783203125
36.972335815429688 -128.03031921386719 -145.5758056640625
38.846717834472656 -128.68606567382812 -145.53860473632812
40.099617004394531 -129.42562866210938 -145.51895141601562
50.242427825927734 -129.94253540039062 -142.9150390625
52.201877593994141 -129.53501892089844 -142.86210632324219
52.84136962890625 -129.125732421875 -142.840576171875
54.209247589111328 -128.31414794921875 -142.79550170898438
56.201774597167969 -127.34203338623047 -142.73382568359375
56.401824951171875 -127.16451263427734 -142.72636413574219
58.265350341796875 -125.52717590332031 -142.65802001953125
58.582057952880859 -125.24135589599609 -142.64627075195312
60.0621337890625 -123.33739471435547 -142.58317565917969
60.373619079589844 -122.99436950683594 -142.57089233398438
61.595008850097656 -121.42230224609375 -142.51966857910156
62.514411926269531 -120.07829284667969 -142.47874450683594
62.961166381835938 -119.52120971679688 -142.4605712890625
63.60479736328125 -117.64021301269531 -142.41860961914062
64.469375610351562 -115.74340057373047 -142.37190246582031
64.858451843261719 -113.86927795410156 -142.33656311035156
64.926712036132812 -113.75274658203125 -142.33352661132812
65.864959716796875 -111.97761535644531 -142.2880859375
65.939987182617188 -110.10256958007812 -142.26060485839844
66.085403442382812 -108.23485565185547 -142.23219299316406
66.232368469238281 -106.36686706542969 -142.20411682128906
66.043830871582031 -104.49870300292969 -142.183837890625
65.711723327636719 -103.69549560546875 -142.18057250976562
65.309822082519531 -102.65531158447266 -142.17599487304688
64.91510009765625 -100.80195617675781 -142.16145324707031
64.343971252441406 -98.943832397460938 -142.15092468261719
64.172760009765625 -98.738265991210938 -142.15237426757812
63.079479217529297 -97.114593505859375 -142.15684509277344
62.434303283691406 -96.424942016601562 -142.16285705566406
60.575271606445312 -95.597587585449219 -142.19429016113281
59.994346618652344 -95.336585998535156 -142.20431518554688
58.708309173583984 -94.770164489746094 -142.22674560546875
56.760841369628906 -95.045074462890625 -142.2740478515625
55.888603210449219 -95.452339172363281 -142.29873657226562
54.762405395507812 -95.952735900878906 -142.3306884765625
52.778942108154297 -96.582199096679688 -142.38429260253906
51.605312347412109 -97.437614440917969 -142.422119140625
50.736667633056641 -98.064315795898438 -142.45033264160156
48.724227905273438 -99.210403442382812 -142.51243591308594
48.532684326171875 -99.387809753417969 -142.51901245117188
46.640842437744141 -101.13264465332031 -142.58660888671875
46.448806762695312 -101.31956481933594 -142.59367370605469
45.362678527832031 -103.21390533447266 -142.64427185058594
44.453598022460938 -104.51023864746094 -142.68336486816406
44.012706756591797 -105.11502075195312 -142.70217895507812
42.998340606689453 -107.01606750488281 -142.75239562988281
42.251991271972656 -108.89999389648438 -142.79624938964844
42.184795379638672 -109.00695037841797 -142.799560546875
41.143714904785156 -110.79358673095703 -142.8499755859375
40.262535095214844 -112.69009399414062 -142.89863586425781
39.961967468261719 -113.03262329101562 -142.9110107421875
38.736114501953125 -114.59435272216797 -142.96408081054688
37.822071075439453 -115.93739318847656 -143.00660705566406
37.388828277587891 -116.49357604980469 -143.02584838867188
36.346992492675781 -118.39382171630859 -143.0802001953125
35.666633605957031 -119.26228332519531 -143.11053466796875
34.857261657714844 -120.29653167724609 -143.14657592773438
34.202774047851562 -122.17653656005859 -143.19168090820312
34.29376220703125 -124.04595947265625 -143.21803283691406
35.26422119140625 -124.84127044677734 -143.20509338378906
37.122104644775391 -125.55498504638672 -143.16883850097656
37.583202362060547 -125.81944274902344 -143.16123962402344
38.971599578857422 -126.5552978515625 -143.1375732421875
40.855369567871094 -126.95278930664062 -143.09657287597656
42.7315673828125 -127.48405456542969 -143.05827331542969
42.835762023925781 -127.53853607177734 -143.05657958984375
44.585155487060547 -128.36915588378906 -143.02670288085938
46.473834991455078 -128.91909790039062 -142.98916625976562
48.37353515625 -129.19158935546875 -142.94773864746094
48.487930297851562 -129.24571228027344 -142.94583129882812
50.243034362792969 -129.63922119140625 -140.54710388183594
52.178543090820312 -129.58590698242188 -140.50053405761719
53.045207977294922 -129.17041015625 -140.47352600097656
54.164169311523438 -128.68096923828125 -140.43966674804688
56.171180725097656 -127.49839019775391 -140.37437438964844
56.536872863769531 -127.21125793457031 -140.36141967773438
58.219375610351562 -125.90367889404297 -140.302490234375
58.8858642578125 -125.28346252441406 -140.27760314941406
60.311531066894531 -123.59117126464844 -140.21929931640625
60.505058288574219 -123.37559509277344 -140.21170043945312
61.770496368408203 -121.46804809570312 -140.15431213378906
62.457420349121094 -120.59867095947266 -140.12586975097656
63.275863647460938 -119.56317901611328 -140.09239196777344
63.93951416015625 -117.68164825439453 -140.05000305175781
64.694976806640625 -115.78786468505859 -140.00599670410156
64.763191223144531 -115.67132568359375 -140.0028076171875
65.660255432128906 -113.89756011962891 -139.95799255371094
65.822532653808594 -112.02970886230469 -139.92817687988281
65.967155456542969 -110.15267181396484 -139.89926147460938
66.112663269042969 -108.28500366210938 -139.87089538574219
66.259727478027344 -106.41707611083984 -139.8426513671875
66.408897399902344 -104.53922271728516 -139.81515502929688
66.538902282714844 -102.67133331298828 -139.78848266601562
65.916015625 -100.93923187255859 -139.78021240234375
65.865753173828125 -100.82588195800781 -139.77978515625
65.403617858886719 -98.964668273925781 -139.76690673828125
64.694007873535156 -97.119560241699219 -139.76014709472656
64.332382202148438 -96.58465576171875 -139.76185607910156
63.579330444335938 -95.285804748535156 -139.7630615234375
62.610939025878906 -94.08856201171875 -139.7705078125
61.842140197753906 -93.469139099121094 -139.78028869628906
60.802688598632812 -92.665901184082031 -139.79420471191406
58.913005828857422 -92.116409301757812 -139.83029174804688
56.966876983642578 -92.372200012207031 -139.8773193359375
54.968276977539062 -93.27056884765625 -139.933349609375
54.322700500488281 -93.681037902832031 -139.95291137695312
52.934288024902344 -94.494964599609375 -139.99455261230469
50.933132171630859 -95.46923828125 -140.05317687988281
50.741172790527344 -95.646759033203125 -140.05973815917969
48.863975524902344 -97.286781311035156 -140.12391662597656
48.555137634277344 -97.572837829589844 -140.13467407226562
46.778217315673828 -99.219123840332031 -140.19772338867188
46.480522155761719 -99.495101928710938 -140.20829772949219
44.969005584716797 -101.41091918945312 -140.2691650390625
44.649440765380859 -101.84039306640625 -140.28239440917969
43.627662658691406 -103.31201171875 -140.32637023925781
42.750450134277344 -105.20009613037109 -140.37277221679688
42.431034088134766 -105.63898468017578 -140.38636779785156
41.412178039550781 -107.10988616943359 -140.43101501464844
40.528621673583984 -108.99739837646484 -140.47860717773438
40.220813751220703 -109.42629241943359 -140.4921875
39.195335388183594 -110.89683532714844 -140.53823852539062
38.324676513671875 -112.79305267333984 -140.586669921875
38.007884979248047 -113.22193908691406 -140.60075378417969
36.995498657226562 -114.69176483154297 -140.64738464355469
36.237316131591797 -116.57494354248047 -140.69363403320312
35.764488220214844 -118.45977020263672 -140.73321533203125
35.692314147949219 -118.64317321777344 -140.73768615722656
35.088325500488281 -120.34044647216797 -140.77821350097656
35.507286071777344 -121.16956329345703 -140.77996826171875
36.050743103027344 -122.17683410644531 -140.7811279296875
37.264106750488281 -123.27102661132812 -140.76690673828125
38.515830993652344 -123.98198699951172 -140.74617004394531
39.106986999511719 -124.34794616699219 -140.7369384765625
40.962509155273438 -125.13774871826172 -140.70260620117188
42.838329315185547 -125.66903686523438 -140.66435241699219
42.91290283203125 -125.72432708740234 -140.66314697265625
44.677722930908203 -126.74553680419922 -140.63575744628906
45.991062164306641 -127.50221252441406 -140.61561584472656
46.525997161865234 -127.86948394775391 -140.60836791992188
48.399215698242188 -128.5247802734375 -140.573486328125
49.657878875732422 -129.26383972167969 -140.55522155761719
50.199966430664062 -130.01548767089844 -138.19187927246094
52.140148162841797 -129.89524841308594 -138.14422607421875
54.067604064941406 -129.84217834472656 -138.09831237792969
56.028793334960938 -129.32002258300781 -138.04464721679688
56.268939971923828 -129.13189697265625 -138.03598022460938
58.063735961914062 -127.89769744873047 -137.97543334960938
58.804412841796875 -127.19901275634766 -137.94764709472656
60.159191131591797 -125.50879669189453 -137.89083862304688
60.35247802734375 -125.29330444335938 -137.88302612304688
61.615493774414062 -123.39539337158203 -137.82565307617188
62.297500610351562 -122.58349609375 -137.79814147949219
63.229129791259766 -121.47809600830078 -137.76091003417969
63.970542907714844 -119.59445190429688 -137.7164306640625
64.534553527832031 -118.52780914306641 -137.68836975097656
64.992042541503906 -117.70290374755859 -137.66629028320312
65.519294738769531 -115.81545257568359 -137.62734985351562
66.147071838378906 -113.93464660644531 -137.58711242675781
66.756500244140625 -112.05422973632812 -137.54763793945312
66.811767578125 -110.17971801757812 -137.520751953125
66.957252502441406 -108.31195831298828 -137.49227905273438
67.10418701171875 -106.44400024414062 -137.46440124511719
67.253433227539062 -104.56614685058594 -137.43684387207031
67.02569580078125 -102.70826721191406 -137.41796875
66.690116882324219 -100.85327911376953 -137.40202331542969
66.456153869628906 -98.985466003417969 -137.38401794433594
66.10772705078125 -98.402328491210938 -137.384521484375
65.39874267578125 -97.150398254394531 -137.38473510742188
64.611000061035156 -95.307159423828125 -137.38018798828125
64.440872192382812 -95.091957092285156 -137.38128662109375
63.408462524414062 -93.475387573242188 -137.38531494140625
62.719184875488281 -92.614410400390625 -137.39053344726562
61.306907653808594 -91.658988952636719 -137.41096496582031
60.893657684326172 -91.402641296386719 -137.41741943359375
58.984683990478516 -91.083244323730469 -137.45639038085938
57.139503479003906 -91.776580810546875 -137.50582885742188
56.996219635009766 -91.838066101074219 -137.50987243652344
55.008644104003906 -92.602264404296875 -137.56394958496094
53.690105438232422 -93.749343872070312 -137.60755920410156
52.928474426269531 -94.373451232910156 -137.63249206542969
50.912727355957031 -95.520332336425781 -137.69316101074219
50.710964202880859 -95.698089599609375 -137.70011901855469
48.852222442626953 -97.232498168945312 -137.76266479492188
48.258689880371094 -97.63153076171875 -137.78160095214844
46.819820404052734 -98.512855529785156 -137.8270263671875
45.396625518798828 -99.575271606445312 -137.87472534179688
44.775264739990234 -100.08951568603516 -137.89631652832031
43.16766357421875 -101.51039886474609 -137.95352172851562
42.704471588134766 -102.02017211914062 -137.97146606445312
41.63067626953125 -103.41666412353516 -138.01579284667969
40.567874908447266 -104.81254577636719 -138.06051635742188
40.105758666992188 -105.3221435546875 -138.07872009277344
38.965312957763672 -107.226318359375 -138.13272094726562
38.404308319091797 -107.88184356689453 -138.15550231933594
37.405616760253906 -109.13189697265625 -138.19769287109375
36.303020477294922 -110.34642028808594 -138.24221801757812
35.593536376953125 -111.04386138916016 -138.26988220214844
34.230941772460938 -112.48477935791016 -138.32479858398438
33.793399810791016 -112.96456909179688 -138.34260559082031
32.319908142089844 -114.86673736572266 -138.40742492675781
32.117317199707031 -115.09185791015625 -138.41567993164062
30.7022705078125 -116.77248382568359 -138.47645568847656
30.005661010742188 -118.66315460205078 -138.52206420898438
29.868932723999023 -120.52951812744141 -138.55290222167969
30.428165435791016 -122.37720489501953 -138.56605529785156
31.5194091796875 -123.22694396972656 -138.55064392089844
33.442180633544922 -123.11829376220703 -138.49955749511719
35.35272216796875 -123.06697845458984 -138.44990539550781
37.280624389648438 -122.79540252685547 -138.39697265625
39.159542083740234 -123.36527252197266 -138.35832214355469
41.033203125 -123.89684295654297 -138.31968688964844
41.136466979980469 -123.96090698242188 -138.31805419921875
42.888885498046875 -124.70571136474609 -138.28596496582031
44.515277862548828 -125.73075866699219 -138.26179504394531
44.7197265625 -125.89697265625 -138.25936889648438
46.573516845703125 -126.93482208251953 -138.23040771484375
47.191879272460938 -127.51954650878906 -138.22454833984375
48.3736572265625 -128.64260864257812 -138.21377563476562
49.291740417480469 -129.3240966796875 -138.20259094238281
50.218307495117188 -129.53041076660156 -135.82212829589844
52.082386016845703 -130.52989196777344 -135.79399108886719
53.986701965332031 -130.82133483886719 -135.75404357910156
55.939437866210938 -130.42369079589844 -135.70248413085938
57.952102661132812 -129.31744384765625 -135.6390380859375
58.142768859863281 -129.13063049316406 -135.63175964355469
60.013992309570312 -127.38802337646484 -135.56219482421875
60.20440673828125 -127.21083831787109 -135.55508422851562
61.465705871582031 -125.31302642822266 -135.49757385253906
62.146907806396484 -124.50120544433594 -135.46974182128906
63.076850891113281 -123.40541076660156 -135.43257141113281
64.015914916992188 -121.50682830810547 -135.38348388671875
64.337936401367188 -121.02972412109375 -135.36904907226562
65.244560241699219 -119.60956573486328 -135.32829284667969
65.848991394042969 -117.72967529296875 -135.28756713867188
66.366500854492188 -115.84254455566406 -135.249267578125
66.735847473144531 -113.96891784667969 -135.21464538574219
66.804206848144531 -113.85231018066406 -135.21159362792969
67.703620910644531 -112.07830047607422 -135.16738891601562
67.828300476074219 -110.20173645019531 -135.13923645019531
68.013504028320312 -108.33282470703125 -135.11006164550781
68.120742797851562 -106.46592712402344 -135.08305358886719
68.289817810058594 -104.58740234375 -135.0550537109375
67.6649169921875 -102.85557556152344 -135.04631042480469
67.614540100097656 -102.74233245849609 -135.04592895507812
67.427886962890625 -100.88298034667969 -135.0267333984375
66.955291748046875 -99.021865844726562 -135.01388549804688
66.159820556640625 -97.609794616699219 -135.01408386230469
65.907485961914062 -97.18646240234375 -135.01454162597656
65.258453369140625 -95.339256286621094 -135.00660705566406
64.4891357421875 -94.356513977050781 -135.01190185546875
63.777736663818359 -93.515304565429688 -135.0177001953125
62.716209411621094 -92.492691040039062 -135.02922058105469
60.828201293945312 -92.019729614257812 -135.06553649902344
58.880199432373047 -92.160957336425781 -135.11077880859375
56.895061492919922 -92.8773193359375 -135.16380310058594
55.707633972167969 -93.743316650390625 -135.20089721679688
54.846546173095703 -94.37042236328125 -135.22802734375
52.819240570068359 -95.517807006835938 -135.28839111328125
52.61724853515625 -95.695625305175781 -135.29531860351562
50.7569580078125 -97.230262756347656 -135.35720825195312
50.163055419921875 -97.629348754882812 -135.37611389160156
48.736774444580078 -98.462699890136719 -135.4202880859375
47.062118530273438 -99.579986572265625 -135.47418212890625
46.694656372070312 -99.867340087890625 -135.48654174804688
44.667076110839844 -101.24252319335938 -135.55290222167969
44.349349975585938 -101.52845764160156 -135.56437683105469
42.606349945068359 -103.05791473388672 -135.62669372558594
41.907051086425781 -103.45932769775391 -135.6490478515625
40.607471466064453 -104.13494873046875 -135.68997192382812
38.607753753662109 -105.12562561035156 -135.75291442871094
38.270751953125 -105.42138671875 -135.76519775390625
36.573619842529297 -106.69991302490234 -135.82479858398438
35.689472198486328 -107.36386871337891 -135.85612487792969
34.528575897216797 -108.44612884521484 -135.90011596679688
33.808563232421875 -109.27759552001953 -135.92971801757812
32.424190521240234 -110.87191009521484 -135.9869384765625
32.106800079345703 -111.18611907958984 -135.99954223632812
30.857172012329102 -113.09198760986328 -136.05815124511719
30.29962158203125 -113.746826171875 -136.08180236816406
29.248619079589844 -114.99726867675781 -136.12651062011719
28.551540374755859 -116.87863159179688 -136.17153930664062
28.334445953369141 -118.75677490234375 -136.20440673828125
28.891822814941406 -120.60482025146484 -136.21694946289062
29.734973907470703 -121.35637664794922 -136.20631408691406
31.201618194580078 -122.4063720703125 -136.18411254882812
31.542339324951172 -122.69349670410156 -136.17953491210938
33.444610595703125 -122.87191772460938 -136.13348388671875
35.355281829833984 -122.82074737548828 -136.08409118652344
37.285324096679688 -122.52053833007812 -136.03105163574219
38.502471923828125 -122.21073150634766 -135.99563598632812
39.240776062011719 -122.02838897705078 -135.97468566894531
41.208351135253906 -121.2587890625 -135.91403198242188
42.776458740234375 -122.09461975097656 -135.88801574707031
43.048526763916016 -122.26865386962891 -135.88383483886719
44.883384704589844 -123.38346862792969 -135.85574340820312
45.387237548828125 -123.89494323730469 -135.85105895996094
46.466407775878906 -125.72744750976562 -135.85295104980469
46.631542205810547 -125.89491271972656 -135.85137939453125
48.149421691894531 -127.54351043701172 -135.84043884277344
48.416152954101562 -127.81315612792969 -135.83822631835938
50.053077697753906 -129.35354614257812 -135.8233642578125
52.138481140136719 -129.52806091308594 -133.4158935546875
54.031593322753906 -129.98228454589844 -133.37873840332031
55.954620361328125 -130.02484130859375 -133.33489990234375
57.463790893554688 -129.199951171875 -133.28756713867188
57.967605590820312 -128.91854858398438 -133.27151489257812
59.991611480712891 -127.54437255859375 -133.20442199707031
60.318328857421875 -127.25836181640625 -133.19270324707031
61.797996520996094 -125.35451507568359 -133.13043212890625
62.099498748779297 -125.01178741455078 -133.11846923828125
63.329998016357422 -123.44912719726562 -133.06723022460938
64.249755859375 -122.09561920166016 -133.02677917480469
64.686553955078125 -121.53892517089844 -133.00909423828125
65.328948974609375 -119.65798950195312 -132.96734619140625
66.102462768554688 -117.77336120605469 -132.92301940917969
66.580207824707031 -115.88723754882812 -132.88558959960938
66.648521423339844 -115.77072143554688 -132.8824462890625
67.54638671875 -113.99685668945312 -132.83815002441406
67.668754577636719 -112.13005065917969 -132.80960083007812
68.042129516601562 -110.24643707275391 -132.77589416503906
68.854103088378906 -108.35974884033203 -132.73320007324219
68.264892578125 -106.51247406005859 -132.72119140625
68.294731140136719 -104.63790893554688 -132.69630432128906
68.424781799316406 -102.76979827880859 -132.66981506347656
67.801109313964844 -101.03756713867188 -132.6614990234375
67.75079345703125 -100.92427062988281 -132.66104125976562
67.297874450683594 -99.062576293945312 -132.64785766601562
66.577613830566406 -97.217781066894531 -132.64111328125
66.225540161132812 -96.6824951171875 -132.64237976074219
65.461799621582031 -95.383865356445312 -132.64352416992188
64.481132507324219 -94.320884704589844 -132.65240478515625
63.435138702392578 -93.575302124023438 -132.66658020019531
62.663722991943359 -92.98468017578125 -132.67669677734375
60.74407958984375 -92.886001586914062 -132.718017578125
58.799163818359375 -92.98876953125 -132.7626953125
56.842372894287109 -93.369232177734375 -132.81112670898438
56.19622802734375 -93.779800415039062 -132.83067321777344
54.816452026367188 -94.593559265136719 -132.87185668945312
52.803516387939453 -95.568313598632812 -132.92982482910156
52.571914672851562 -95.746994018554688 -132.93746948242188
50.775283813476562 -96.86846923828125 -132.99287414550781
49.072319030761719 -97.709388732910156 -133.04345703125
48.772109985351562 -97.889877319335938 -133.052734375
46.76898193359375 -98.815277099609375 -133.11204528808594
45.677326202392578 -99.667671203613281 -133.14912414550781
44.722785949707031 -100.4110107421875 -133.181396484375
43.369075775146484 -101.60500335693359 -133.22946166992188
42.66131591796875 -102.22665405273438 -133.25471496582031
40.656620025634766 -103.37071228027344 -133.31869506835938
40.456047058105469 -103.54835510253906 -133.32603454589844
39.226310729980469 -105.44566345214844 -133.38130187988281
38.516822814941406 -106.11460876464844 -133.40791320800781
37.301193237304688 -107.37073516845703 -133.45484924316406
36.438140869140625 -108.26345825195312 -133.48858642578125
35.105308532714844 -109.29292297363281 -133.53608703613281
34.409847259521484 -109.80827331542969 -133.560791015625
32.893295288085938 -111.2149658203125 -133.61859130859375
32.334018707275391 -111.87947082519531 -133.64212036132812
31.290664672851562 -113.13005828857422 -133.68624877929688
30.581695556640625 -115.01189422607422 -133.7308349609375
30.705909729003906 -116.87162780761719 -133.75418090820312
30.566747665405273 -118.74762725830078 -133.78474426269531
31.339935302734375 -120.58981323242188 -133.79173278808594
31.662273406982422 -120.85824584960938 -133.7874755859375
33.542282104492188 -121.3431396484375 -133.74668884277344
35.492061614990234 -120.75624847412109 -133.68881225585938
36.473201751708984 -120.45307159423828 -133.65953063964844
37.443622589111328 -120.16910552978516 -133.63102722167969
39.360458374023438 -120.21286010742188 -133.5838623046875
41.294349670410156 -119.91221618652344 -133.53135681152344
43.238395690917969 -119.49645233154297 -133.47746276855469
44.490150451660156 -120.23579406738281 -133.45773315429688
45.066135406494141 -120.68796539306641 -133.45028686523438
46.087238311767578 -122.05429840087891 -133.44587707519531
46.822650909423828 -123.03682708740234 -133.4427490234375
47.450164794921875 -123.88861846923828 -133.44046020507812
48.573875427246094 -125.38571929931641 -133.43629455566406
48.836238861083984 -125.71272277832031 -133.43499755859375
50.166152954101562 -127.53840637207031 -133.43144226074219
50.331863403320312 -127.70578002929688 -133.4300537109375
51.963214874267578 -129.3514404296875 -133.41714477539062
53.927192687988281 -131.3919677734375 -131.0426025390625
55.820896148681641 -131.87498474121094 -131.00650024414062
56.91802978515625 -131.13795471191406 -130.96987915039062
57.848403930664062 -130.53910827636719 -130.9390869140625
59.542793273925781 -129.19328308105469 -130.87982177734375
59.892387390136719 -128.85874938964844 -130.86679077148438
61.238544464111328 -127.28359985351562 -130.81233215332031
61.993968963623047 -126.39332580566406 -130.78178405761719
62.917591094970703 -125.37415313720703 -130.745849609375
63.854167938232422 -123.48527526855469 -130.69671630859375
64.173004150390625 -123.04648590087891 -130.68301391601562
65.191055297851562 -121.57563781738281 -130.63894653320312
65.952972412109375 -119.69126892089844 -130.59469604492188
66.428276062011719 -117.81494140625 -130.55717468261719
66.497200012207031 -117.68878173828125 -130.55409240722656
67.393417358398438 -115.91514587402344 -130.50933837890625
67.553939819335938 -114.04734039306641 -130.47964477539062
67.885185241699219 -112.17467498779297 -130.44668579101562
68.696296691894531 -110.27851104736328 -130.40328979492188
68.951156616210938 -108.40751647949219 -130.37294006347656
68.620460510253906 -106.55294036865234 -130.35545349121094
68.282279968261719 -104.68873596191406 -130.33845520019531
68.432136535644531 -102.82001495361328 -130.31158447265625
68.195503234863281 -100.96188354492188 -130.2933349609375
67.864997863769531 -100.14882659912109 -130.2904052734375
67.464187622070312 -99.108146667480469 -130.28620910644531
67.081474304199219 -97.253562927246094 -130.272216796875
66.287574768066406 -95.831382751464844 -130.27224731445312
66.034721374511719 -95.417549133300781 -130.27272033691406
65.049392700195312 -93.579353332519531 -130.27278137207031
64.575233459472656 -93.0950927734375 -130.27740478515625
63.084632873535156 -91.758895874023438 -130.29478454589844
62.780174255371094 -91.499526977539062 -130.29844665527344
60.879222869873047 -91.179954528808594 -130.33677673339844
58.948020935058594 -91.119522094726562 -130.37907409667969
56.98681640625 -91.548004150390625 -130.42814636230469
56.341171264648438 -91.949081420898438 -130.44734191894531
54.960056304931641 -92.772712707519531 -130.48843383789062
52.964859008789062 -93.527046203613281 -130.54325866699219
52.319694519042969 -93.937347412109375 -130.56297302246094
50.942058563232422 -94.750747680664062 -130.60466003417969
48.941993713378906 -95.724449157714844 -130.66348266601562
48.730445861816406 -95.90252685546875 -130.67063903808594
46.880058288574219 -97.350189208984375 -130.73216247558594
46.230678558349609 -97.836715698242188 -130.753662109375
44.839988708496094 -98.859893798828125 -130.79994201660156
43.744369506835938 -99.769668579101562 -130.83781433105469
42.760940551757812 -100.87718963623047 -130.87557983398438
42.076862335205078 -101.68940734863281 -130.90274047851562
40.687797546386719 -103.59152984619141 -130.96112060546875
40.622726440429688 -103.66976928710938 -130.96369934082031
39.143672943115234 -105.49733734130859 -131.02407836914062
38.496017456054688 -106.25077056884766 -131.05027770996094
37.454010009765625 -107.41603851318359 -131.09176635742188
36.405105590820312 -109.30777740478516 -131.14332580566406
36.340293884277344 -109.38597869873047 -131.14608764648438
34.936683654785156 -111.21031951904297 -131.20625305175781
34.217617034912109 -112.16582489013672 -131.23764038085938
33.411022186279297 -113.1236572265625 -131.27127075195312
32.260734558105469 -115.01705932617188 -131.3270263671875
32.041988372802734 -115.58649444580078 -131.34060668945312
31.572528839111328 -116.89807891845703 -131.37123107910156
31.433403015136719 -118.77412414550781 -131.40165710449219
31.737091064453125 -119.69265747070312 -131.40727233886719
32.784523010253906 -120.60100555419922 -131.3936767578125
33.567359924316406 -120.85718536376953 -131.37771606445312
35.478290557861328 -120.80630493164062 -131.32891845703125
36.096622467041016 -120.51280975341797 -131.3092041015625
37.453025817871094 -119.90338897705078 -131.26622009277344
39.416355133056641 -119.31575012207031 -131.20907592773438
41.375930786132812 -118.67060089111328 -131.15115356445312
41.702598571777344 -118.49939727783203 -131.14080810546875
43.36016845703125 -117.7188720703125 -131.08885192871094
44.75201416015625 -118.41641235351562 -131.06509399414062
45.203315734863281 -118.69061279296875 -131.05802917480469
46.62359619140625 -120.22750091552734 -131.04617309570312
46.974418640136719 -120.80999755859375 -131.0462646484375
47.680156707763672 -122.06079864501953 -131.04762268066406
48.27508544921875 -123.91620635986328 -131.06120300292969
48.627307891845703 -124.49864959716797 -131.0615234375
49.346138000488281 -125.74903869628906 -131.06326293945312
50.153247833251953 -127.58917999267578 -131.07208251953125
50.319076538085938 -127.75650024414062 -131.07081604003906
51.950523376464844 -129.40216064453125 -131.05769348144531
52.125843048095703 -129.57891845703125 -131.05632019042969
53.760730743408203 -131.22462463378906 -131.04385375976562
55.759506225585938 -132.7010498046875 -128.66043090820312
57.701038360595703 -132.64784240722656 -128.61494445800781
59.714881896972656 -131.3887939453125 -128.54991149902344
60.021244049072266 -131.10330200195312 -128.53857421875
61.517707824707031 -129.18952941894531 -128.47549438476562
61.817893981933594 -128.85641479492188 -128.46365356445312
63.046043395996094 -127.28425598144531 -128.41226196289062
63.962612152099609 -125.94052124023438 -128.37168884277344
64.39837646484375 -125.38389587402344 -128.35386657714844
65.037246704101562 -123.50315093994141 -128.31159973144531
65.71832275390625 -121.61155700683594 -128.2689208984375
66.281837463378906 -120.54495239257812 -128.24104309082031
66.73895263671875 -119.72006225585938 -128.21913146972656
67.264083862304688 -117.8421630859375 -128.18083190917969
67.891189575195312 -115.95179748535156 -128.14053344726562
68.519264221191406 -114.07080841064453 -128.10055541992188
68.661445617675781 -112.20323944091797 -128.07185363769531
68.805953979492188 -110.32586669921875 -128.04336547851562
68.951255798339844 -108.45795440673828 -128.01528930664062
69.098091125488281 -106.58968353271484 -127.98762512207031
69.247161865234375 -104.71158599853516 -127.96015930175781
69.27752685546875 -102.84603881835938 -127.93572235107422
68.702499389648438 -100.99755859375 -127.92478942871094
67.905654907226562 -99.575981140136719 -127.92430114746094
67.652717590332031 -99.152702331542969 -127.92456817626953
67.071075439453125 -97.303749084472656 -127.91477966308594
66.244491577148438 -96.274795532226562 -127.920166015625
65.607192993164062 -95.479537963867188 -127.92454528808594
64.495391845703125 -93.970260620117188 -127.930908203125
64.244918823242188 -93.6519775390625 -127.93280792236328
62.723247528076172 -92.096382141113281 -127.94809722900391
62.141899108886719 -91.835105895996094 -127.95787048339844
60.865074157714844 -91.268081665039062 -127.97975158691406
58.937030792236328 -91.169105529785156 -128.02151489257812
56.975692749023438 -91.597602844238281 -128.07052612304688
56.330101013183594 -91.998703002929688 -128.08969116210938
54.948848724365234 -92.822296142578125 -128.13082885742188
52.935916900634766 -93.787643432617188 -128.18817138671875
52.703411102294922 -93.975982666015625 -128.19584655761719
50.901111602783203 -95.155204772949219 -128.2518310546875
49.724845886230469 -95.92449951171875 -128.2886962890625
48.866085052490234 -96.550918579101562 -128.31654357910156
46.844085693359375 -97.696983337402344 -128.37852478027344
46.632801055908203 -97.875 -128.38563537597656
44.813491821289062 -99.091644287109375 -128.44436645507812
43.447525024414062 -99.826873779296875 -128.48663330078125
42.805503845214844 -100.236328125 -128.50740051269531
40.791893005371094 -101.47644805908203 -128.57218933105469
40.443603515625 -101.78228759765625 -128.58460998535156
38.738246917724609 -103.11883544921875 -128.64369201660156
38.112888336181641 -103.70927429199219 -128.66691589355469
36.653656005859375 -105.30659484863281 -128.723876953125
36.325149536132812 -105.62120056152344 -128.73631286621094
35.362960815429688 -107.52052307128906 -128.7855224609375
34.484775543212891 -108.61428070068359 -128.82234191894531
33.795669555664062 -109.42584228515625 -128.85049438476562
32.867446899414062 -111.31391906738281 -128.89958190917969
32.308147430419922 -111.97845458984375 -128.92294311523438
31.31379508972168 -113.22762298583984 -128.96533203125
30.202911376953125 -114.61353302001953 -129.01296997070312
29.773323059082031 -115.13109588623047 -129.03115844726562
28.509132385253906 -117.02713012695312 -129.09014892578125
28.878631591796875 -118.89006042480469 -129.1072998046875
29.786167144775391 -120.22288513183594 -129.10346984863281
31.668914794921875 -120.51732635498047 -129.06005859375
33.588146209716797 -120.46662139892578 -129.01092529296875
35.568580627441406 -119.46835327148438 -128.94676208496094
37.517208099365234 -118.92927551269531 -128.89035034179688
38.0767822265625 -118.64684295654297 -128.87240600585938
39.508617401123047 -117.96841430664062 -128.82742309570312
41.483711242675781 -117.12238311767578 -128.76670837402344
43.420696258544922 -116.81198120117188 -128.71499633789062
45.322803497314453 -116.98937225341797 -128.67134094238281
46.720741271972656 -118.41253662109375 -128.6580810546875
47.104160308837891 -118.94641876220703 -128.65666198730469
47.825111389160156 -120.24465942382812 -128.65811157226562
48.799289703369141 -122.00379943847656 -128.66059875488281
48.852981567382812 -122.07870483398438 -128.66055297851562
49.320098876953125 -123.93771362304688 -128.67697143554688
50.273410797119141 -125.77387237548828 -128.68191528320312
50.43634033203125 -125.97945404052734 -128.68112182617188
51.495933532714844 -127.60263061523438 -128.6806640625
52.187263488769531 -128.58647155761719 -128.67970275878906
52.820018768310547 -129.42872619628906 -128.67767333984375
53.951454162597656 -130.93553161621094 -128.67459106445312
54.235527038574219 -131.26200866699219 -128.673095703125
57.621654510498047 -133.79939270019531 -126.27473449707031
59.591194152832031 -133.20095825195312 -126.22065734863281
59.781105041503906 -133.02369689941406 -126.21377563476562
61.384178161621094 -131.11659240722656 -126.14848327636719
61.684661865234375 -130.77392578125 -126.13641357421875
62.911357879638672 -129.20179748535156 -126.08499908447266
63.826515197753906 -127.85813140869141 -126.04441070556641
64.261680603027344 -127.30155944824219 -126.0263671875
65.266517639160156 -125.41062927246094 -125.97593688964844
65.686660766601562 -123.53580474853516 -125.93899536132812
66.131462097167969 -122.58708953857422 -125.91531372070312
66.59674072265625 -121.63787078857422 -125.89140319824219
67.1199951171875 -119.76003265380859 -125.85288238525391
67.74462890625 -117.87938690185547 -125.8125
68.371780395507812 -115.98885345458984 -125.77227783203125
68.512229919433594 -114.12139892578125 -125.74334716796875
68.654319763183594 -112.25383758544922 -125.71464538574219
68.798652648925781 -110.37644958496094 -125.68617248535156
68.943916320800781 -108.50843048095703 -125.65814208984375
69.090644836425781 -106.64005279541016 -125.6304931640625
69.120269775390625 -104.76520538330078 -125.60565948486328
68.533767700195312 -102.917236328125 -125.59465789794922
68.177581787109375 -101.06240081787109 -125.57907867431641
67.828269958496094 -100.47927856445312 -125.57933044433594
67.127967834472656 -99.217445373535156 -125.57890319824219
66.327957153320312 -97.374580383300781 -125.57386016845703
66.166534423828125 -97.168647766113281 -125.57461547851562
65.182037353515625 -95.541114807128906 -125.57651519775391
64.446968078613281 -94.499595642089844 -125.58058166503906
63.780128479003906 -93.714447021484375 -125.58577728271484
62.67181396484375 -92.654403686523438 -125.59777069091797
61.617996215820312 -91.89910888671875 -125.61208343505859
60.856498718261719 -91.3172607421875 -125.62226867675781
58.928253173828125 -91.218345642089844 -125.66409301757812
56.966842651367188 -91.646728515625 -125.71318817138672
56.321216583251953 -92.047775268554688 -125.73248291015625
54.939990997314453 -92.8714599609375 -125.77340698242188
52.926910400390625 -93.836753845214844 -125.83090972900391
52.694389343261719 -94.025077819824219 -125.83863067626953
50.891990661621094 -95.204299926757812 -125.89434814453125
49.715774536132812 -95.973541259765625 -125.93099212646484
48.856964111328125 -96.599990844726562 -125.95888519287109
46.852279663085938 -97.535041809082031 -126.01783752441406
46.269027709960938 -97.933563232421875 -126.03657531738281
44.827823638916016 -98.852890014648438 -126.08253479003906
43.526664733886719 -99.8734130859375 -126.12663269042969
42.78143310546875 -100.46749877929688 -126.15208435058594
40.955039978027344 -101.81728363037109 -126.21368408203125
40.745346069335938 -101.98551177978516 -126.22077941894531
38.741630554199219 -103.74125671386719 -126.29246520996094
38.678184509277344 -103.80029296875 -126.29479217529297
36.642810821533203 -105.37454223632812 -126.36557006835938
36.315814971923828 -105.67011260986328 -126.37776947021484
34.582847595214844 -107.29325866699219 -126.44243621826172
34.255645751953125 -107.59817504882812 -126.45462036132812
33.080947875976562 -109.49310302734375 -126.50958251953125
32.420566558837891 -110.44706726074219 -126.53890228271484
31.771171569824219 -111.39115905761719 -126.56826782226562
30.320592880249023 -112.98667907714844 -126.62681579589844
29.993307113647461 -113.31056213378906 -126.63944244384766
28.864316940307617 -115.20323944091797 -126.69454193115234
28.178070068359375 -116.15749359130859 -126.725341796875
27.551736831665039 -117.1004638671875 -126.75455474853516
28.02374267578125 -118.23480987548828 -126.75865173339844
28.576147079467773 -118.94660186767578 -126.75492858886719
29.822608947753906 -119.64974975585938 -126.73329925537109
31.471599578857422 -118.87110137939453 -126.68060302734375
31.798191070556641 -118.68108367919922 -126.66964721679688
33.734653472900391 -118.40084838867188 -126.61709594726562
35.645927429199219 -118.3502197265625 -126.56854248046875
37.584930419921875 -117.94517517089844 -126.51469421386719
39.549064636230469 -117.35765838623047 -126.45802307128906
40.544868469238281 -116.75771331787109 -126.42515563964844
41.553318023681641 -116.12873840332031 -126.39161682128906
43.507781982421875 -115.58869934082031 -126.33623504638672
44.980873107910156 -116.63768768310547 -126.31562805175781
45.324398040771484 -116.90530395507812 -126.31110382080078
46.850547790527344 -118.45875549316406 -126.29660034179688
47.112236022949219 -118.77639007568359 -126.29491424560547
48.162178039550781 -120.28537750244141 -126.29168701171875
48.8427734375 -121.34588623046875 -126.29080200195312
49.407459259033203 -122.11354827880859 -126.28861999511719
50.180717468261719 -123.96419525146484 -126.29773712158203
50.536781311035156 -124.49880981445312 -126.29714965820312
51.361896514892578 -125.79420471191406 -126.29708099365234
52.296428680419922 -126.95283508300781 -126.29267883300781
52.911430358886719 -127.61404418945312 -126.28804779052734
53.870746612548828 -129.45030212402344 -126.29384613037109
54.033767700195312 -129.66552734375 -126.29331970214844
55.089340209960938 -131.28913879394531 -126.29380035400391
55.785018920898438 -132.26361083984375 -126.29299926757812
56.697879791259766 -133.10806274414062 -126.28498077392578
57.5029296875 -135.6114501953125 -123.94538879394531
59.464664459228516 -135.12802124023438 -123.89353179931641
59.655105590820312 -134.94131469726562 -123.88633728027344
61.522937774658203 -133.19877624511719 -123.81749725341797
61.722965240478516 -133.02134704589844 -123.81038665771484
62.790725708007812 -131.12867736816406 -123.75759124755859
63.69134521484375 -129.83319091796875 -123.718017578125
64.129859924316406 -129.21914672851562 -123.69893646240234
65.132743835449219 -127.32826232910156 -123.64866638183594
65.869186401367188 -125.44462585449219 -123.60443878173828
65.936988830566406 -125.32809448242188 -123.60116577148438
66.866439819335938 -123.55375671386719 -123.55496215820312
66.980506896972656 -121.67771911621094 -123.52510833740234
67.603408813476562 -119.79710388183594 -123.48450469970703
