# XYZ point cloud file
67.150871276855469 -115.72664642333984 -133.11116027832031
67.215248107910156 -115.60798645019531 -133.11148071289062
68.053970336914062 -113.80133056640625 -133.11692810058594
68.112930297851562 -111.89138793945312 -133.12602233886719
68.422630310058594 -109.96688842773438 -133.13467407226562
69.171531677246094 -108.04392242431641 -133.14212036132812
68.518516540527344 -106.14667510986328 -133.15464782714844
68.484603881835938 -104.22800445556641 -133.16549682617188
68.551231384277344 -102.31706237792969 -133.17626953125
67.867713928222656 -100.53732299804688 -133.18930053710938
67.813461303710938 -100.42079162597656 -133.19021606445312
67.296722412109375 -98.510391235351562 -133.20379638671875
66.512649536132812 -96.614494323730469 -133.21864318847656
66.141883850097656 -96.062873840332031 -133.22358703613281
65.332839965820312 -94.7255859375 -133.23544311523438
64.314605712890625 -93.627204895019531 -133.2467041015625
63.241680145263672 -92.853080749511719 -133.25625610351562
62.448902130126953 -92.2403564453125 -133.26364135742188
60.522426605224609 -92.118759155273438 -133.27272033691406
58.577362060546875 -92.203147888183594 -133.28079223632812
56.629653930664062 -92.571632385253906 -133.287353515625
55.996177673339844 -92.984916687011719 -133.28753662109375
54.641181945800781 -93.803146362304688 -133.28863525390625
52.657234191894531 -94.779426574707031 -133.29209899902344
52.431236267089844 -94.9598388671875 -133.29206848144531
50.66900634765625 -96.088676452636719 -133.29386901855469
48.991119384765625 -96.931617736816406 -133.29745483398438
48.696495056152344 -97.113166809082031 -133.29789733886719
46.720649719238281 -98.039443969726562 -133.30305480957031
45.655620574951172 -98.900619506835938 -133.3037109375
44.724388122558594 -99.651603698730469 -133.30447387695312
43.408454895019531 -100.85977935791016 -133.30490112304688
42.720291137695312 -101.48881530761719 -133.30520629882812
40.750141143798828 -102.63937377929688 -133.31044006347656
40.555191040039062 -102.81900787353516 -133.31063842773438
39.387344360351562 -104.7489013671875 -133.3067626953125
38.699012756347656 -105.42658996582031 -133.30729675292969
37.523361206054688 -106.70011901855469 -133.30776977539062
36.688755035400391 -107.60538482666016 -133.30825805664062
35.3878173828125 -108.64573669433594 -133.31130981445312
34.708282470703125 -109.16635131835938 -133.31309509277344
33.235893249511719 -110.59123229980469 -133.31573486328125
32.697883605957031 -111.26599884033203 -133.31600952148438
31.694545745849609 -112.53592681884766 -133.31661987304688
31.047761917114258 -114.45571899414062 -133.311767578125
31.23554801940918 -116.36141967773438 -133.30137634277344
31.159906387329102 -118.28114318847656 -133.29316711425781
31.997642517089844 -120.17560577392578 -133.27894592285156
32.329971313476562 -120.45381164550781 -133.275390625
34.231430053710938 -120.96970367431641 -133.26008605957031
36.166297912597656 -120.38869476318359 -133.24949645996094
37.139595031738281 -120.08824157714844 -133.24436950683594
38.102729797363281 -119.80748748779297 -133.23928833007812
40.025726318359375 -119.87216186523438 -133.22677612304688
41.953994750976562 -119.58424377441406 -133.21607971191406
43.888320922851562 -119.17861175537109 -133.20625305175781
45.168128967285156 -119.94880676269531 -133.1954345703125
45.760871887207031 -120.41786956787109 -133.19007873535156
46.830772399902344 -121.82765960693359 -133.17813110351562
47.601253509521484 -122.84147644042969 -133.1697998046875
48.259101867675781 -123.72025299072266 -133.1627197265625
49.436138153076172 -125.26494598388672 -133.15048217773438
49.710174560546875 -125.6025390625 -133.14781188964844
51.104698181152344 -127.48577117919922 -133.1337890625
51.276435852050781 -127.65882873535156 -133.13226318359375
52.966640472412109 -129.36062622070312 -133.11802673339844
55.019294738769531 -131.43197631835938 -130.65817260742188
56.932498931884766 -131.94578552246094 -130.64773559570312
58.006706237792969 -131.20240783691406 -130.64520263671875
58.918495178222656 -130.59890747070312 -130.64314270019531
60.570205688476562 -129.23837280273438 -130.64045715332031
60.909015655517578 -128.89955139160156 -130.64016723632812
62.204189300537109 -127.30066680908203 -130.64031982421875
62.930561065673828 -126.39699554443359 -130.64059448242188
63.820999145507812 -125.36312103271484 -130.64083862304688
64.694976806640625 -123.43892669677734 -130.64472961425781
64.9993896484375 -122.99301147460938 -130.64529418945312
65.969024658203125 -121.49757385253906 -130.6475830078125
66.667930603027344 -119.57632446289062 -130.65293884277344
67.080154418945312 -117.66024780273438 -130.65972900390625
67.144805908203125 -117.53182220458984 -130.66004943847656
67.982017517089844 -115.72527313232422 -130.66522216796875
68.079170227050781 -113.81472778320312 -130.67381286621094
68.347099304199219 -111.90092468261719 -130.68218994140625
69.094818115234375 -109.96833038330078 -130.68934631347656
69.286376953125 -108.05561065673828 -130.69868469238281
68.892059326171875 -106.15353393554688 -130.7103271484375
68.489860534667969 -104.24166107177734 -130.722412109375
68.576416015625 -102.33032989501953 -130.73313903808594
68.276382446289062 -100.42592620849609 -130.7454833984375
67.917739868164062 -99.590156555175781 -130.7518310546875
67.48101806640625 -98.520668029785156 -130.76002502441406
67.034919738769531 -96.618476867675781 -130.77363586425781
66.191719055175781 -95.154510498046875 -130.7862548828125
65.924400329589844 -94.728271484375 -130.7900390625
64.875450134277344 -92.836593627929688 -130.806640625
64.384185791015625 -92.335975646972656 -130.81195068359375
62.846115112304688 -90.952751159667969 -130.82766723632812
62.532386779785156 -90.684028625488281 -130.830810546875
60.617229461669922 -90.336715698242188 -130.84141540527344
58.680538177490234 -90.254280090332031 -130.85061645507812
56.730072021484375 -90.671882629394531 -130.85676574707031
56.096755981445312 -91.075424194335938 -130.85699462890625
54.740749359130859 -91.903610229492188 -130.85789489746094
52.767204284667969 -92.654426574707031 -130.86271667480469
52.134670257568359 -93.067535400390625 -130.86312866210938
50.781791687011719 -93.885452270507812 -130.86480712890625
48.810760498046875 -94.861068725585938 -130.86888122558594
48.604827880859375 -95.041099548339844 -130.86885070800781
46.799751281738281 -96.503494262695312 -130.86941528320312
46.165458679199219 -96.994720458984375 -130.86985778808594
44.806671142578125 -98.027603149414062 -130.87117004394531
43.739669799804688 -98.947486877441406 -130.87164306640625
42.791797637939453 -100.07095336914062 -130.87042236328125
42.133899688720703 -100.89540863037109 -130.86936950683594
40.806488037109375 -102.828369140625 -130.865966796875
40.743896484375 -102.90779113769531 -130.86587524414062
39.323867797851562 -104.76364898681641 -130.86402893066406
38.700431823730469 -105.52837371826172 -130.86366271972656
37.695732116699219 -106.71084594726562 -130.86349487304688
36.708930969238281 -108.63709259033203 -130.85943603515625
36.646579742431641 -108.71647644042969 -130.85942077636719
35.30181884765625 -110.57017517089844 -130.85855102539062
34.613616943359375 -111.54127502441406 -130.85818481445312
33.837692260742188 -112.51373291015625 -130.8585205078125
32.749031066894531 -114.44098663330078 -130.85649108886719
32.549098968505859 -115.02189636230469 -130.85507202148438
32.123046875 -116.36029815673828 -130.85171508789062
32.047348022460938 -118.27999877929688 -130.84347534179688
32.383003234863281 -119.22374725341797 -130.83694458007812
33.464073181152344 -120.16461944580078 -130.82537841796875
34.257606506347656 -120.43498229980469 -130.81881713867188
36.171596527099609 -120.40240478515625 -130.80613708496094
36.781490325927734 -120.10817718505859 -130.80342102050781
38.120498657226562 -119.498046875 -130.79736328125
40.068527221679688 -118.91642761230469 -130.78756713867188
42.010635375976562 -118.27597808837891 -130.77847290039062
42.3321533203125 -118.10399627685547 -130.77731323242188
43.966865539550781 -117.32191467285156 -130.77108764648438
45.385551452636719 -118.05059051513672 -130.75955200195312
45.847160339355469 -118.33606719970703 -130.75564575195312
47.322853088378906 -119.92470550537109 -130.74038696289062
47.694190979003906 -120.52484893798828 -130.73579406738281
48.444198608398438 -121.81301879882812 -130.72633361816406
49.103397369384766 -123.71919250488281 -130.71516418457031
49.47613525390625 -124.31925201416016 -130.71083068847656
50.238922119140625 -125.60708618164062 -130.701904296875
51.110008239746094 -127.49961853027344 -130.69052124023438
51.281692504882812 -127.67267608642578 -130.68905639648438
52.971931457519531 -129.37449645996094 -130.67471313476562
53.153553009033203 -129.55717468261719 -130.6732177734375
54.846893310546875 -131.2589111328125 -130.65953063964844
56.91461181640625 -132.75260925292969 -128.20254516601562
58.857490539550781 -132.71786499023438 -128.19401550292969
60.832138061523438 -131.44940185546875 -128.18946838378906
61.129287719726562 -131.16024780273438 -128.18916320800781
62.563644409179688 -129.21635437011719 -128.18962097167969
62.85302734375 -128.87838745117188 -128.18959045410156
64.029983520507812 -127.28153991699219 -128.19047546386719
64.902366638183594 -125.91519165039062 -128.19200134277344
65.319900512695312 -125.34979248046875 -128.1925048828125
65.895973205566406 -123.430908203125 -128.19764709472656
66.51397705078125 -121.50141906738281 -128.2030029296875
67.041984558105469 -120.41519927978516 -128.20556640625
67.471733093261719 -119.57540893554688 -128.20755004882812
67.933761596679688 -117.65834808349609 -128.21417236328125
68.497489929199219 -115.72953796386719 -128.22088623046875
69.062461853027344 -113.81031799316406 -128.22793579101562
69.141319274902344 -111.89994049072266 -128.23696899414062
69.222114562988281 -109.97959899902344 -128.24639892578125
69.304046630859375 -108.06887054443359 -128.256103515625
69.387611389160156 -106.15792846679688 -128.26612854003906
69.4730224609375 -104.23697662353516 -128.27650451660156
69.440109252929688 -102.32780456542969 -128.28764343261719
68.801551818847656 -100.42963409423828 -128.30111694335938
67.955314636230469 -98.966140747070312 -128.31301879882812
67.687660217285156 -98.530242919921875 -128.31671142578125
67.042633056640625 -96.631698608398438 -128.33097839355469
66.179946899414062 -95.56982421875 -128.34104919433594
65.514739990234375 -94.749176025390625 -128.34892272949219
64.350242614746094 -93.19281005859375 -128.36372375488281
64.088615417480469 -92.864372253417969 -128.36700439453125
62.512077331542969 -91.256393432617188 -128.38430786132812
61.921005249023438 -90.982940673828125 -128.38864135742188
60.622962951660156 -90.389015197753906 -128.39834594726562
58.688140869140625 -90.267333984375 -128.40780639648438
56.737751007080078 -90.684944152832031 -128.41401672363281
56.104408264160156 -91.088478088378906 -128.41426086425781
54.748382568359375 -91.916671752929688 -128.41523742675781
52.764236450195312 -92.883331298828125 -128.41865539550781
52.537628173828125 -93.073600769042969 -128.41850280761719
50.771774291992188 -94.261497497558594 -128.41983032226562
49.619266510009766 -95.0364990234375 -128.42085266113281
48.780033111572266 -95.668701171875 -128.42131042480469
46.792869567871094 -96.820655822753906 -128.4249267578125
46.587265014648438 -97.000625610351562 -128.42494201660156
44.805587768554688 -98.227058410644531 -128.42742919921875
43.461719512939453 -98.965560913085938 -128.43072509765625
42.832374572753906 -99.378128051757812 -128.43191528320312
40.856712341308594 -100.62689208984375 -128.43624877929688
40.518009185791016 -100.93636322021484 -128.4365234375
38.854461669921875 -102.28721618652344 -128.4388427734375
38.247825622558594 -102.88526916503906 -128.43917846679688
36.839668273925781 -104.50568389892578 -128.43887329101562
36.521186828613281 -104.82448577880859 -128.43913269042969
35.621322631835938 -106.75925445556641 -128.4342041015625
34.778335571289062 -107.8702392578125 -128.43374633789062
34.115203857421875 -108.69412994384766 -128.4337158203125
33.248939514160156 -110.6180419921875 -128.42947387695312
32.710906982421875 -111.29281616210938 -128.4296875
31.756675720214844 -112.56194305419922 -128.42982482910156
30.689975738525391 -113.96987915039062 -128.43034362792969
30.276954650878906 -114.49559020996094 -128.43067932128906
29.073863983154297 -116.42443084716797 -128.4300537109375
29.507532119750977 -118.33582305908203 -128.41824340820312
30.462663650512695 -119.70980072021484 -128.40525817871094
32.360244750976562 -120.03036499023438 -128.39065551757812
34.282623291015625 -119.99790191650391 -128.37770080566406
36.234020233154297 -118.99585723876953 -128.36915588378906
38.168933868408203 -118.46360778808594 -128.35899353027344
38.720207214355469 -118.18010711669922 -128.35675048828125
40.132274627685547 -117.50003051757812 -128.35101318359375
42.083045959472656 -116.65390777587891 -128.34295654296875
44.013633728027344 -116.35599517822266 -128.33283996582031
45.925762176513672 -116.55736541748047 -128.3209228515625
47.375228881835938 -118.02914428710938 -128.30606079101562
47.777595520019531 -118.57986450195312 -128.30136108398438
48.54425048828125 -119.91675567626953 -128.29135131835938
49.580284118652344 -121.72828674316406 -128.27816772460938
49.636627197265625 -121.80557250976562 -128.27754211425781
50.16778564453125 -123.71401977539062 -128.26702880859375
51.185295104980469 -125.60401153564453 -128.2545166015625
51.355476379394531 -125.81624603271484 -128.2528076171875
52.472003936767578 -127.48915100097656 -128.24105834960938
53.197845458984375 -128.50363159179688 -128.23391723632812
53.860176086425781 -129.37246704101562 -128.22769165039062
55.044319152832031 -130.9267578125 -128.21685791015625
55.339912414550781 -131.26396179199219 -128.21441650390625
58.831989288330078 -133.85748291015625 -125.74833679199219
60.784347534179688 -133.26472473144531 -125.74176025390625
60.968612670898438 -133.08526611328125 -125.74156188964844
62.510044097900391 -131.14921569824219 -125.74127197265625
62.79949951171875 -130.80148315429688 -125.74119567871094
63.974990844726562 -129.20465087890625 -125.74185943603516
64.846199035644531 -127.83834075927734 -125.74317169189453
65.263191223144531 -127.27295684814453 -125.74354553222656
66.205535888671875 -125.34741973876953 -125.74705505371094
66.562881469726562 -123.43244934082031 -125.7530517578125
66.9761962890625 -122.46578216552734 -125.75538635253906
67.409889221191406 -121.49873352050781 -125.75772094726562
67.870277404785156 -119.58171844482422 -125.76408386230469
68.431930541992188 -117.66278839111328 -125.77040100097656
68.995689392089844 -115.73390197753906 -125.77719116210938
69.072845458984375 -113.82361602783203 -125.78589630126953
69.151626586914062 -111.91320037841797 -125.79493713378906
69.232452392578125 -109.99282836914062 -125.80436706542969
69.314338684082031 -108.08204650878906 -125.81405639648438
69.3978271484375 -106.17105865478516 -125.82408905029297
69.363815307617188 -104.25228118896484 -125.83485412597656
68.713775634765625 -102.3544921875 -125.84803771972656
68.2943115234375 -100.45222473144531 -125.86077880859375
67.924644470214844 -99.851722717285156 -125.86573791503906
67.180648803710938 -98.552772521972656 -125.87643432617188
66.317062377929688 -96.658210754394531 -125.89151000976562
66.14849853515625 -96.445755004882812 -125.89349365234375
65.107528686523438 -94.769699096679688 -125.90830230712891
64.336250305175781 -93.696083068847656 -125.91838073730469
63.641929626464844 -92.885551452636719 -125.92654418945312
62.496242523193359 -91.789146423339844 -125.93861389160156
61.415225982666016 -91.005081176757812 -125.94854736328125
60.632949829101562 -90.401695251464844 -125.95604705810547
58.698131561279297 -90.279998779296875 -125.96553039550781
56.747684478759766 -90.697593688964844 -125.97175598144531
56.114402770996094 -91.101150512695312 -125.97200012207031
54.758384704589844 -91.929351806640625 -125.97297668457031
52.774253845214844 -92.896018981933594 -125.97644805908203
52.547645568847656 -93.086280822753906 -125.976318359375
50.781753540039062 -94.274208068847656 -125.97767639160156
49.629268646240234 -95.049209594726562 -125.97872924804688
48.790069580078125 -95.681404113769531 -125.97917175292969
46.81317138671875 -96.617607116699219 -125.98406982421875
46.242336273193359 -97.01953125 -125.98475646972656
44.829490661621094 -97.945587158203125 -125.98701477050781
43.560394287109375 -98.976760864257812 -125.98802185058594
42.833732604980469 -99.577178955078125 -125.98863220214844
41.049480438232422 -100.94022369384766 -125.99115753173828
40.845020294189453 -101.11025238037109 -125.99137878417969
38.896759033203125 -102.88719940185547 -125.99295043945312
38.835117340087891 -102.947021484375 -125.99299621582031
36.848819732666016 -104.53806304931641 -125.99649047851562
36.531234741210938 -104.83726501464844 -125.996826171875
34.849552154541016 -106.4815673828125 -125.99864196777344
34.531974792480469 -106.79048919677734 -125.99909973144531
33.418907165527344 -108.71876525878906 -125.99603271484375
32.789321899414062 -109.68892669677734 -125.99517822265625
32.170516967773438 -110.6490478515625 -125.99440002441406
30.770683288574219 -112.26824188232422 -125.99583435058594
30.453506469726562 -112.59659576416016 -125.99636840820312
29.385948181152344 -114.52336883544922 -125.99440002441406
28.730264663696289 -115.49360656738281 -125.99441528320312
28.134313583374023 -116.45299530029297 -125.99415588378906
28.645893096923828 -117.61927032470703 -125.98506164550781
29.223857879638672 -118.35366821289062 -125.97757720947266
30.497314453125 -119.08619689941406 -125.96533203125
32.12408447265625 -118.30535125732422 -125.95753479003906
32.445068359375 -118.114013671875 -125.9561767578125
34.37677001953125 -117.84657287597656 -125.94437408447266
36.290870666503906 -117.81410217285156 -125.93190002441406
38.220680236816406 -117.41899108886719 -125.92129516601562
40.169288635253906 -116.83737945556641 -125.91181945800781
41.146907806396484 -116.23323822021484 -125.90866088867188
42.136028289794922 -115.59946441650391 -125.9056396484375
44.076274871826172 -115.06651306152344 -125.896728515625
45.588172912597656 -116.15580749511719 -125.88285827636719
45.941535949707031 -116.43343353271484 -125.87954711914062
47.523624420166016 -118.03993988037109 -125.8634033203125
47.796684265136719 -118.36785888671875 -125.86042022705078
48.900070190429688 -119.92391204833984 -125.8475341796875
49.617988586425781 -121.01698303222656 -125.83906555175781
50.209892272949219 -121.80889892578125 -125.83261108398438
51.047489166259766 -123.71192932128906 -125.82054138183594
51.422355651855469 -124.26302337646484 -125.81643676757812
52.292800903320312 -125.59785461425781 -125.806884765625
53.268234252929688 -126.79383850097656 -125.79756164550781
53.906620025634766 -127.47719573974609 -125.79194641113281
54.929481506347656 -129.36705017089844 -125.78040313720703
55.10003662109375 -129.58906555175781 -125.77883911132812
56.211875915527344 -131.2620849609375 -125.76811981201172
56.941299438476562 -132.26679992675781 -125.7615966796875
57.883743286132812 -133.14047241210938 -125.75463104248047
58.78887939453125 -135.67269897460938 -123.30123901367188
60.737205505371094 -135.19752502441406 -123.29432678222656
60.921634674072266 -135.00828552246094 -123.29408264160156
62.733802795410156 -133.24349975585938 -123.29191589355469
62.928195953369141 -133.06382751464844 -123.29168701171875
63.934097290039062 -131.13726806640625 -123.29381561279297
64.792449951171875 -129.82011413574219 -123.29477691650391
65.210899353027344 -129.19598388671875 -123.29532623291016
66.151512145996094 -127.27046966552734 -123.29852294921875
66.82550048828125 -125.34972381591797 -123.30308532714844
66.889358520507812 -125.23112487792969 -123.30329895019531
67.7601318359375 -123.4241943359375 -123.30710601806641
67.811073303222656 -121.5048828125 -123.31465148925781
68.371025085449219 -119.58600616455078 -123.32072448730469
68.932693481445312 -117.66700744628906 -123.32711791992188
69.008590698242188 -115.74701690673828 -123.3355712890625
69.085762023925781 -113.83668518066406 -123.34430694580078
69.164505004882812 -111.92621612548828 -123.35334777832031
69.245254516601562 -110.00577545166016 -123.36280822753906
69.327133178710938 -108.09494781494141 -123.37249755859375
69.410614013671875 -106.18392181396484 -123.38249206542969
69.376518249511719 -104.26507568359375 -123.39323425292969
68.726463317871094 -102.36724090576172 -123.40640258789062
68.306922912597656 -100.46489715576172 -123.41914367675781
67.934974670410156 -99.913414001464844 -123.42380523681641
67.173362731933594 -98.565750122070312 -123.434814453125
66.134307861328125 -97.017303466796875 -123.44839477539062
65.862457275390625 -96.679374694824219 -123.45156860351562
64.603477478027344 -94.791702270507812 -123.46854400634766
64.31036376953125 -94.4932861328125 -123.47167205810547
62.760978698730469 -92.914337158203125 -123.48837280273438
62.468315124511719 -92.6158447265625 -123.49154663085938
60.611442565917969 -91.091102600097656 -123.50975036621094
60.485450744628906 -91.034553527832031 -123.51066589355469
58.709457397460938 -90.311882019042969 -123.52352142333984
56.760040283203125 -90.7098388671875 -123.5299072265625
56.126686096191406 -91.113410949707031 -123.53018188476562
54.770706176757812 -91.941627502441406 -123.53118896484375
52.786571502685547 -92.908302307128906 -123.53469848632812
52.559932708740234 -93.098579406738281 -123.53455352783203
50.794105529785156 -94.2864990234375 -123.535888671875
49.641628265380859 -95.0615234375 -123.5369873046875
48.802406311035156 -95.6937255859375 -123.5374755859375
46.815242767333984 -96.845695495605469 -123.54105377197266
46.589897155761719 -97.026023864746094 -123.54122924804688
44.826553344726562 -98.281562805175781 -123.54339599609375
44.1046142578125 -98.979934692382812 -123.54326629638672
42.800079345703125 -100.57988739013672 -123.54118347167969
42.47906494140625 -100.92829132080078 -123.54100799560547
41.053119659423828 -102.86305999755859 -123.53817749023438
40.762092590332031 -103.21089172363281 -123.53790283203125
39.580230712890625 -104.79827117919922 -123.53607177734375
38.703842163085938 -106.17457580566406 -123.5338134765625
38.286144256591797 -106.73989868164062 -123.53327178955078
37.475971221923828 -108.66326141357422 -123.52798461914062
36.624488830566406 -109.97999572753906 -123.52643585205078
36.205963134765625 -110.59415435791016 -123.52598571777344
35.762229919433594 -112.52064514160156 -123.51900482177734
36.459392547607422 -113.93816375732422 -123.5074462890625
36.871932983398438 -114.41082000732422 -123.50250244140625
38.3189697265625 -115.28671264648438 -123.48905944824219
40.25384521484375 -115.05772399902344 -123.47811889648438
42.172470092773438 -115.02455139160156 -123.46672058105469
44.088981628417969 -115.07930755615234 -123.45513916015625
45.729019165039062 -116.16641998291016 -123.44061279296875
45.958206176757812 -116.34835815429688 -123.4384765625
47.834442138671875 -117.74423217773438 -123.42160797119141
48.108665466308594 -118.04277801513672 -123.41876983642578
49.679874420166016 -119.74717712402344 -123.40277099609375
49.850818634033203 -119.92029571533203 -123.401123046875
50.677131652832031 -121.81389617919922 -123.38868713378906
51.485580444335938 -122.90528869628906 -123.38006591796875
52.088226318359375 -123.70676422119141 -123.373779296875
53.136329650878906 -125.59623718261719 -123.36117553710938
53.316581726074219 -125.80831146240234 -123.35943603515625
54.364887237548828 -127.48248291015625 -123.34811401367188
55.1353759765625 -128.94631958007812 -123.33924865722656
55.407783508300781 -129.37203979492188 -123.33642578125
56.076374053955078 -131.27809143066406 -123.32687377929688
56.93951416015625 -132.7403564453125 -123.31828308105469
57.212985992431641 -133.16607666015625 -123.31571197509766
58.143882751464844 -135.05784606933594 -123.30586242675781
58.912925720214844 -132.25865173339844 -120.86949157714844
60.836189270019531 -132.57658386230469 -120.86027526855469
62.762077331542969 -132.86505126953125 -120.8514404296875
64.059173583984375 -131.14854431152344 -120.85181427001953
64.152908325195312 -129.22853088378906 -120.85792541503906
64.466812133789062 -127.31437683105469 -120.86344909667969
64.474258422851562 -125.40572357177734 -120.87057495117188
64.999992370605469 -124.31960296630859 -120.87269592285156
65.427871704101562 -123.47991180419922 -120.87436676025391
66.23468017578125 -121.54688262939453 -120.87916564941406
67.089515686035156 -120.22952270507812 -120.8814697265625
67.51068115234375 -119.61497497558594 -120.88255310058594
68.092094421386719 -117.69560241699219 -120.88887023925781
68.90460205078125 -115.7620849609375 -120.89479064941406
69.101158142089844 -113.84949493408203 -120.90313720703125
69.299346923828125 -111.936767578125 -120.91177368164062
69.364387512207031 -111.80829620361328 -120.91217041015625
70.206611633300781 -110.00101470947266 -120.91838073730469
70.318313598632812 -108.08954620361328 -120.927978515625
70.351898193359375 -106.17934417724609 -120.93812561035156
70.088668823242188 -104.26466369628906 -120.94964599609375
69.727828979492188 -103.43882751464844 -120.95559692382812
69.288970947265625 -102.36952972412109 -120.96327209472656
68.670234680175781 -100.47079467773438 -120.97662353515625
67.96875 -99.523712158203125 -120.98486328125
67.267898559570312 -98.5765380859375 -120.99324035644531
66.134262084960938 -97.343338012695312 -121.00522613525391
65.489830017089844 -96.698722839355469 -121.01174163818359
64.27862548828125 -95.466682434082031 -121.02435302734375
63.645118713378906 -94.821693420410156 -121.03105163574219
62.426219940185547 -93.785537719726562 -121.04286193847656
60.970115661621094 -92.9593505859375 -121.05450439453125
60.547836303710938 -92.682769775390625 -121.05813598632812
58.624031066894531 -92.335395812988281 -121.06908416748047
56.698577880859375 -92.252494812011719 -121.07859039306641
54.749961853027344 -92.669761657714844 -121.08524322509766
53.879585266113281 -93.087226867675781 -121.08676910400391
52.768970489501953 -93.5775146484375 -121.08915710449219
50.813041687011719 -94.210090637207031 -121.09512329101562
49.656242370605469 -95.073417663574219 -121.09566497802734
48.817085266113281 -95.705635070800781 -121.09611511230469
46.829925537109375 -96.857612609863281 -121.09971618652344
46.644027709960938 -97.037254333496094 -121.09964752197266
44.817237854003906 -98.803443908691406 -121.09902954101562
44.631641387939453 -98.9830322265625 -121.09904479980469
43.596611022949219 -100.92131805419922 -121.09329986572266
42.739166259765625 -102.23906707763672 -121.09054565429688
42.317718505859375 -102.85366821289062 -121.08944702148438
40.714744567871094 -104.60513305664062 -121.08901214599609
40.519508361816406 -104.79457092285156 -121.08914184570312
39.313453674316406 -106.73480224609375 -121.08571624755859
38.659019470214844 -107.54899597167969 -121.0853271484375
37.765907287597656 -108.67075347900391 -121.08486938476562
37.006534576416016 -110.59307861328125 -121.07953643798828
36.926116943359375 -112.51345825195312 -121.07028198242188
38.193649291992188 -114.40090942382812 -121.05290222167969
38.36334228515625 -114.57422637939453 -121.05101013183594
40.270896911621094 -115.02118682861328 -121.03708648681641
42.187568664550781 -115.03703308105469 -121.02547454833984
44.106498718261719 -115.03304290771484 -121.01425170898438
46.025787353515625 -115.05820465087891 -121.00325012207031
47.667221069335938 -116.14517974853516 -120.98895263671875
47.906425476074219 -116.32691955566406 -120.98683929443359
49.476173400878906 -118.03153228759766 -120.97053527832031
49.751754760742188 -118.30068969726562 -120.96783447265625
51.337959289550781 -119.90689086914062 -120.95247650146484
51.598182678222656 -120.33287811279297 -120.94928741455078
52.412033081054688 -121.79610443115234 -120.93899536132812
53.102256774902344 -123.70185852050781 -120.92767333984375
53.393104553222656 -124.12724304199219 -120.92449951171875
54.249916076660156 -125.58961486816406 -120.91464233398438
54.905002593994141 -127.48615264892578 -120.90431213378906
55.1866455078125 -127.92148590087891 -120.90139770507812
56.047264099121094 -129.37399291992188 -120.89216613769531
57.02935791015625 -130.49162292480469 -120.88380432128906
57.845748901367188 -131.25991821289062 -120.87753295898438
58.866573333740234 -134.29876708984375 -118.42221069335938
60.828163146972656 -133.41226196289062 -118.41655731201172
61.274024963378906 -133.12042236328125 -118.41562652587891
62.799674987792969 -132.28076171875 -118.41206359863281
64.326034545898438 -131.15716552734375 -118.40966796875
64.668243408203125 -129.23260498046875 -118.4149169921875
64.871421813964844 -128.51445007324219 -118.41667175292969
65.190963745117188 -127.31458282470703 -118.41974639892578
65.566268920898438 -125.39919281005859 -118.42552185058594
65.026687622070312 -124.097412109375 -118.43267822265625
64.770042419433594 -123.5050048828125 -118.43604278564453
65.077850341796875 -122.69683837890625 -118.43808746337891
65.516944885253906 -121.57306671142578 -118.44102478027344
66.325019836425781 -119.64965057373047 -118.44612121582031
67.180938720703125 -118.33217620849609 -118.44871520996094
67.602592468261719 -117.71755981445312 -118.44985961914062
68.185943603515625 -115.7882080078125 -118.45655822753906
68.9996337890625 -113.86424255371094 -118.46273803710938
69.317245483398438 -111.94924926757812 -118.47097778320312
69.382301330566406 -111.82077789306641 -118.47137451171875
70.224441528320312 -110.01343536376953 -118.47755432128906
70.336090087890625 -108.10189056396484 -118.48711395263672
70.419395446777344 -106.190673828125 -118.49706268310547
70.474746704101562 -104.27002716064453 -118.50747680664062
69.788986206054688 -102.490234375 -118.52005767822266
69.734588623046875 -102.37368774414062 -118.52088928222656
69.58343505859375 -100.46620941162109 -118.53254699707031
68.319725036621094 -98.569328308105469 -118.54853057861328
68.045059204101562 -98.280487060546875 -118.55128479003906
66.481117248535156 -96.692581176757812 -118.56703186035156
66.196502685546875 -96.41363525390625 -118.56990814208984
64.516380310058594 -94.817718505859375 -118.586669921875
64.336166381835938 -94.644622802734375 -118.58848571777344
62.476539611816406 -93.120216369628906 -118.60606384277344
62.256980895996094 -92.947776794433594 -118.60809326171875
60.611442565917969 -91.752365112304688 -118.62307739257812
58.688194274902344 -91.39508056640625 -118.63406372070312
56.757888793945312 -91.410263061523438 -118.64295959472656
54.809589385986328 -91.817726135253906 -118.64962768554688
52.845184326171875 -92.382118225097656 -118.65568542480469
51.771316528320312 -93.136405944824219 -118.65626525878906
50.85198974609375 -93.770240783691406 -118.65690612792969
48.882820129394531 -94.7066650390625 -118.66126251220703
48.301342010498047 -95.108924865722656 -118.661865234375
46.886741638183594 -96.035331726074219 -118.66371154785156
45.704704284667969 -97.065353393554688 -118.66387176513672
44.873985290527344 -97.971542358398438 -118.66301727294922
43.978729248046875 -99.006141662597656 -118.66178894042969
43.29852294921875 -100.9383544921875 -118.65413665771484
42.772365570068359 -101.89773559570312 -118.65158843994141
42.246246337890625 -102.86685943603516 -118.64901733398438
40.999038696289062 -104.79838562011719 -118.64543151855469
40.703941345214844 -105.24417877197266 -118.64469909667969
39.723995208740234 -106.73986053466797 -118.64235687255859
38.952705383300781 -108.66269683837891 -118.63667297363281
38.999038696289062 -110.57138061523438 -118.62640380859375
40.419700622558594 -111.83952331542969 -118.61118316650391
42.324172973632812 -112.14938354492188 -118.59819793701172
44.248130798339844 -112.02793121337891 -118.58765411376953
45.198226928710938 -112.38337707519531 -118.58043670654297
46.1380615234375 -112.758544921875 -118.57325744628906
48.033988952636719 -113.62586212158203 -118.55860900878906
48.630416870117188 -114.23204040527344 -118.5523681640625
49.870018005371094 -115.77629089355469 -118.53839111328125
50.142692565917969 -116.11405181884766 -118.53532409667969
51.528709411621094 -118.00782775878906 -118.51936340332031
51.698143005371094 -118.22013092041016 -118.51758575439453
52.808845520019531 -119.89351654052734 -118.50454711914062
53.528167724609375 -120.98661804199219 -118.49620819091797
54.121147155761719 -121.77852630615234 -118.48995971679688
54.6932373046875 -123.68644714355469 -118.47930145263672
55.227977752685547 -125.58523559570312 -118.46920776367188
55.283195495605469 -125.70166778564453 -118.468505859375
56.022079467773438 -127.47933959960938 -118.45825958251953
56.283332824707031 -129.38299560546875 -118.45015716552734
57.025527954101562 -131.17045593261719 -118.44056701660156
57.081096649169922 -131.28689575195312 -118.43991088867188
57.752464294433594 -133.18330383300781 -118.43063354492188
58.886589050292969 -134.34104919433594 -115.98121643066406
60.834877014160156 -133.87565612792969 -115.97428131103516
61.999969482421875 -133.12074279785156 -115.97183227539062
62.810890197753906 -132.5972900390625 -115.97021484375
64.786766052246094 -131.70053100585938 -115.96531677246094
65.351280212402344 -131.15203857421875 -115.9649658203125
65.773109436035156 -129.22593688964844 -115.97001647949219
65.410682678222656 -127.32377624511719 -115.97830200195312
64.976119995117188 -126.10810852050781 -115.98457336425781
64.71209716796875 -125.42771148681641 -115.98823547363281
64.3931884765625 -123.52481842041016 -115.99703979492188
64.85162353515625 -121.59805297851562 -116.00315093994141
65.156051635742188 -121.16183471679688 -116.00379943847656
66.126815795898438 -119.66612243652344 -116.00648498535156
66.737678527832031 -117.74614715576172 -116.01264953613281
67.267486572265625 -116.65963745117188 -116.01557922363281
67.698944091796875 -115.80983734130859 -116.01791381835938
68.164031982421875 -113.89222717285156 -116.02532196044922
68.730369567871094 -111.97263336181641 -116.03262329101562
69.298736572265625 -110.04301452636719 -116.04032897949219
69.380470275878906 -108.13197326660156 -116.04999542236328
69.463706970214844 -106.22071838378906 -116.05990600585938
69.429420471191406 -104.30164337158203 -116.07064819335938
68.30145263671875 -102.41236877441406 -116.08551025390625
67.899215698242188 -101.86143493652344 -116.09018707275391
67.046401977539062 -100.52521514892578 -116.10125732421875
66.078895568847656 -99.328140258789062 -116.11210632324219
65.436264038085938 -98.634490966796875 -116.11883544921875
64.223968505859375 -97.402519226074219 -116.13124084472656
63.589969635009766 -96.757568359375 -116.13786315917969
62.375816345214844 -95.603736877441406 -116.15013122558594
61.508480072021484 -94.884468078613281 -116.15838623046875
60.513725280761719 -94.147834777832031 -116.16740417480469
58.855480194091797 -93.021163940429688 -116.18207550048828
58.63671875 -92.838836669921875 -116.18430328369141
56.740692138671875 -92.157310485839844 -116.19749450683594
54.840469360351562 -91.593215942382812 -116.21035766601562
52.909027099609375 -91.490264892578125 -116.22061157226562
50.963630676269531 -91.897186279296875 -116.22784423828125
49.015487670898438 -92.392158508300781 -116.23489379882812
47.525547027587891 -93.222076416015625 -116.23755645751953
47.028823852539062 -93.505218505859375 -116.23844909667969
45.067710876464844 -94.333213806152344 -116.24409484863281
44.002235412597656 -95.194595336914062 -116.24468231201172
43.070625305175781 -95.945762634277344 -116.24532318115234
41.9512939453125 -97.14111328125 -116.24447631835938
41.030860900878906 -98.519126892089844 -116.241455078125
40.601772308349609 -99.075225830078125 -116.24066162109375
40.129127502441406 -101.00393676757812 -116.23199462890625
39.560035705566406 -102.9241943359375 -116.22425842285156
38.87457275390625 -104.84613037109375 -116.21749877929688
38.80987548828125 -104.97455596923828 -116.21717834472656
37.974010467529297 -106.78121948242188 -116.21233367919922
37.959953308105469 -108.69130706787109 -116.20210266113281
38.6068115234375 -109.64004516601562 -116.19309997558594
40.509529113769531 -110.18537139892578 -116.1787109375
41.448143005371094 -110.54135894775391 -116.1712646484375
42.395729064941406 -110.92649841308594 -116.1636962890625
44.304939270019531 -111.15782165527344 -116.15145111083984
46.221828460693359 -111.24191284179688 -116.14027404785156
48.133636474609375 -111.71750640869141 -116.12738037109375
48.916725158691406 -112.33028411865234 -116.12004089355469
50.001075744628906 -113.06495666503906 -116.11065673828125
51.543956756591797 -114.1927490234375 -116.09712219238281
51.866024017333984 -114.52964782714844 -116.09383392333984
52.9197998046875 -116.07711029052734 -116.08116149902344
53.676185607910156 -117.68844604492188 -116.06986999511719
53.842681884765625 -117.97911071777344 -116.0677490234375
53.887466430664062 -119.88690948486328 -116.05899047851562
54.092170715332031 -121.79175567626953 -116.04977416992188
54.783088684082031 -123.69764709472656 -116.03849792480469
55.338932037353516 -124.73490905761719 -116.03164672851562
55.822860717773438 -125.58749389648438 -116.02601623535156
56.438972473144531 -127.48489379882812 -116.015869140625
57.129180908203125 -128.71546936035156 -116.00813293457031
57.512832641601562 -129.37411499023438 -116.00398254394531
58.073204040527344 -131.28233337402344 -115.99481201171875
58.32855224609375 -133.186279296875 -115.98736572265625
54.889060974121094 -139.27996826171875 -113.54414367675781
56.816642761230469 -139.38296508789062 -113.53492736816406
58.756454467773438 -139.4661865234375 -113.52603149414062
59.317569732666016 -138.91783142089844 -113.52510070800781
60.7501220703125 -137.42405700683594 -113.52325439453125
61.190181732177734 -136.97573852539062 -113.52272033691406
61.606113433837891 -135.04972839355469 -113.52679443359375
62.15264892578125 -133.13119506835938 -113.53068542480469
62.701087951660156 -131.21269226074219 -113.53485107421875
62.884117126464844 -129.29090881347656 -113.54090881347656
62.947669982910156 -129.17230224609375 -113.54105377197266
63.774017333984375 -127.36622619628906 -113.54437255859375
64.049659729003906 -125.45254516601562 -113.55058288574219
64.784271240234375 -123.53057098388672 -113.55532836914062
64.974281311035156 -121.60855865478516 -113.56258392333984
65.175537109375 -119.69606781005859 -113.56999206542969
65.239692687988281 -119.57743072509766 -113.57028198242188
66.074531555175781 -117.77080535888672 -113.57504272460938
66.120407104492188 -115.85116577148438 -113.58372497558594
66.42608642578125 -113.93644714355469 -113.59170532226562
67.081512451171875 -112.01520538330078 -113.59860992431641
67.380828857421875 -110.09050750732422 -113.60720825195312
67.333198547363281 -108.18179321289062 -113.61734771728516
66.7003173828125 -106.28365325927734 -113.62995147705078
65.857681274414062 -104.67325592041016 -113.64212799072266
65.68194580078125 -104.38262176513672 -113.64443969726562
64.933425903320312 -102.48619842529297 -113.65812683105469
64.08416748046875 -100.87548065185547 -113.67094421386719
63.918479919433594 -100.59439849853516 -113.67324829101562
62.538738250732422 -98.699172973632812 -113.69028472900391
62.2647705078125 -98.410202026367188 -113.69320678710938
60.704551696777344 -96.8216552734375 -113.70962524414062
60.420631408691406 -96.542594909667969 -113.71263885498047
58.744407653808594 -94.945907592773438 -113.7301025390625
58.564704895019531 -94.772697448730469 -113.73202514648438
56.687721252441406 -93.688941955566406 -113.74762725830078
55.836956024169922 -93.086540222167969 -113.7554931640625
54.824195861816406 -92.369293212890625 -113.76502227783203
52.905784606933594 -92.001312255859375 -113.77691650390625
50.967193603515625 -92.27081298828125 -113.78506469726562
49.006591796875 -93.020896911621094 -113.79049682617188
48.770492553710938 -93.2113037109375 -113.79054260253906
47.00732421875 -94.398857116699219 -113.79250335693359
45.945358276367188 -95.172080993652344 -113.79345703125
45.005615234375 -96.080368041992188 -113.79306030273438
44.198318481445312 -97.113677978515625 -113.79122924804688
42.961738586425781 -98.712852478027344 -113.78858947753906
42.660659790039062 -99.051216125488281 -113.78830718994141
41.410072326660156 -100.9932861328125 -113.78410339355469
40.888446807861328 -102.08000183105469 -113.78085327148438
40.447265625 -102.92030334472656 -113.77865600585938
40.095970153808594 -104.836669921875 -113.76992034912109
39.981796264648438 -106.75852203369141 -113.75996398925781
40.644264221191406 -107.56999969482422 -113.75160980224609
41.955223083496094 -108.63466644287109 -113.73818969726562
42.49951171875 -109.01702880859375 -113.73297119140625
44.408622741699219 -109.24849700927734 -113.72077941894531
46.327182769775391 -109.29347991943359 -113.70980834960938
48.238327026367188 -109.77900695800781 -113.69688415527344
48.871665954589844 -110.42391967773438 -113.69013977050781
50.085464477539062 -111.58726501464844 -113.67774963378906
50.795562744140625 -112.30900573730469 -113.67042541503906
51.929412841796875 -113.54205322265625 -113.65850830078125
52.57470703125 -114.18650817871094 -113.65206909179688
52.952438354492188 -116.08870697021484 -113.64103698730469
53.706314086914062 -117.51422119140625 -113.63069152832031
53.964462280273438 -117.9892578125 -113.62721252441406
54.642532348632812 -119.88581848144531 -113.61538696289062
55.075046539306641 -121.78672790527344 -113.60505676269531
55.429538726806641 -122.89615631103516 -113.59870910644531
55.687145233154297 -123.69411468505859 -113.59417724609375
55.390617370605469 -125.60790252685547 -113.58786010742188
55.314159393310547 -126.08882904052734 -113.58638000488281
55.095748901367188 -127.52162170410156 -113.58187866210938
54.901618957519531 -129.43351745605469 -113.57569122314453
54.708885192871094 -131.35517883300781 -113.56983184814453
54.528213500976562 -133.26686096191406 -113.56418609619141
54.3492431640625 -135.17857360839844 -113.55889892578125
54.17181396484375 -137.10008239746094 -113.55381774902344
54.531013488769531 -139.00239562988281 -113.54659271240234
59.001716613769531 -132.30963134765625 -111.10674285888672
60.921981811523438 -132.72567749023438 -111.09700775146484
62.141159057617188 -131.23562622070312 -111.09700012207031
62.949073791503906 -129.91929626464844 -111.09829711914062
63.3770751953125 -129.29493713378906 -111.09879302978516
63.94903564453125 -127.37586975097656 -111.10360717773438
64.562576293945312 -125.45601654052734 -111.10858154296875
65.088165283203125 -124.36976623535156 -111.11082458496094
65.515998840332031 -123.52996063232422 -111.11256408691406
65.974456787109375 -121.60298156738281 -111.11881256103516
66.225395202636719 -119.68946075439453 -111.12614440917969
66.965446472167969 -117.76696014404297 -111.13186645507812
67.170387268066406 -115.84429168701172 -111.13996887207031
67.247222900390625 -113.93362426757812 -111.14878845214844
67.325660705566406 -112.02281951904297 -111.15785217285156
67.296638488769531 -110.10401916503906 -111.16770172119141
67.000221252441406 -108.19976806640625 -111.17873382568359
65.989578247070312 -106.30843353271484 -111.19285583496094
65.818817138671875 -106.12546539306641 -111.19450378417969
64.236244201660156 -104.42070007324219 -111.21031188964844
63.961387634277344 -104.1318359375 -111.21302795410156
62.406063079833984 -102.54383850097656 -111.22853851318359
62.111785888671875 -102.25529479980469 -111.23146057128906
60.549106597900391 -100.66710662841797 -111.2474365234375
60.264755249023438 -100.38811492919922 -111.25034332275391
58.586578369140625 -98.78204345703125 -111.26740264892578
58.406581878662109 -98.608909606933594 -111.26922607421875
56.548923492431641 -97.084037780761719 -111.28713989257812
56.379093170166016 -96.910675048828125 -111.28901672363281
54.705375671386719 -95.313430786132812 -111.30692291259766
54.115673065185547 -95.039642333984375 -111.31150817871094
52.810684204101562 -94.445159912109375 -111.32171630859375
50.892807006835938 -94.292671203613281 -111.33241271972656
49.4122314453125 -95.12249755859375 -111.33494567871094
48.91485595703125 -95.415481567382812 -111.33576965332031
47.189365386962891 -97.072731018066406 -111.33482360839844
46.887092590332031 -97.4210205078125 -111.33436584472656
45.709041595458984 -99.009590148925781 -111.33123779296875
44.827724456787109 -100.38698577880859 -111.32801818847656
44.407817840576172 -100.95277404785156 -111.32705688476562
44.015232086181641 -102.87021636962891 -111.31819152832031
44.451667785644531 -104.77310180664062 -111.30497741699219
44.620697021484375 -104.95630645751953 -111.30301666259766
46.493408203125 -106.04052734375 -111.28661346435547
47.284835815429688 -106.64381408691406 -111.27896118164062
48.365062713623047 -107.41824340820312 -111.26896667480469
49.757835388183594 -108.51026153564453 -111.25578308105469
50.217720031738281 -109.06035614013672 -111.25045776367188
50.979965209960938 -110.39826965332031 -111.23956298828125
52.020420074462891 -111.956298828125 -111.22630310058594
52.292800903320312 -112.29414367675781 -111.22321319580078
52.955703735351562 -114.19154357910156 -111.21052551269531
52.977630615234375 -116.10018920898438 -111.20120239257812
53.717769622802734 -117.87844848632812 -111.18927001953125
53.77215576171875 -118.00473022460938 -111.18843078613281
54.301834106445312 -119.90408325195312 -111.17729187011719
54.754135131835938 -121.80472564697266 -111.16677856445312
55.029701232910156 -123.71823120117188 -111.15741729736328
55.395469665527344 -124.54367065429688 -111.15229797363281
55.842086791992188 -125.61235046386719 -111.14588165283203
56.309730529785156 -127.51260375976562 -111.13629150390625
57.170406341552734 -128.97520446777344 -111.12682342529297
57.443191528320312 -129.4010009765625 -111.12399291992188
58.182121276855469 -131.30624389648438 -111.11384582519531
59.102607727050781 -130.11813354492188 -108.67416381835938
61.038642883300781 -130.04444885253906 -108.66598510742188
61.905769348144531 -129.33395385742188 -108.66494750976562
63.044242858886719 -127.96270751953125 -108.66532135009766
63.470775604248047 -127.39707946777344 -108.66571044921875
64.04437255859375 -125.47788238525391 -108.67088317871094
64.659515380859375 -123.557861328125 -108.67620086669922
65.186019897460938 -122.47151184082031 -108.67861938476562
65.614891052246094 -121.621826171875 -108.68051147460938
66.0745849609375 -119.70442962646484 -108.68705749511719
66.327079772949219 -117.79071807861328 -108.69464111328125
67.069091796875 -115.85817718505859 -108.70072937011719
67.275146484375 -113.94505310058594 -108.70909118652344
67.353500366210938 -112.03412628173828 -108.71817016601562
67.324348449707031 -110.11522674560547 -108.72795104980469
67.027816772460938 -108.21085357666016 -108.73902130126953
66.016998291015625 -106.31937408447266 -108.75308227539062
65.846214294433594 -106.13638305664062 -108.7547607421875
64.164199829101562 -104.43328857421875 -108.77095031738281
63.983360290527344 -104.26024627685547 -108.77265930175781
62.097553253173828 -103.17775726318359 -108.78668212890625
61.232498168945312 -102.57625579833984 -108.79383850097656
60.224510192871094 -101.85971069335938 -108.80241394042969
58.299232482910156 -101.5123291015625 -108.81305694580078
56.889556884765625 -100.74397277832031 -108.82405090332031
56.417533874511719 -100.46826934814453 -108.82793426513672
54.504947662353516 -100.13004302978516 -108.83909606933594
52.572662353515625 -100.03693389892578 -108.84921264648438
50.643589019775391 -100.11992645263672 -108.85850524902344
48.692955017089844 -100.70285034179688 -108.86531066894531
48.506736755371094 -100.89227294921875 -108.86521148681641
48.419548034667969 -102.80451965332031 -108.85465240478516
48.589202880859375 -102.97792053222656 -108.85279083251953
