# XYZ point cloud file
29.24012565612793 -120.36757659912109 -135.70822143554688
30.088146209716797 -121.12648010253906 -135.69084167480469
31.560203552246094 -122.18770599365234 -135.66236877441406
31.902729034423828 -122.47763061523438 -135.65560913085938
33.797355651855469 -122.66298675537109 -135.6253662109375
35.697418212890625 -122.61714172363281 -135.59657287597656
37.613666534423828 -122.32069396972656 -135.56913757324219
38.820629119873047 -122.01249694824219 -135.55264282226562
39.552688598632812 -121.83118438720703 -135.54275512695312
41.500244140625 -121.06240844726562 -135.51803588867188
43.070285797119141 -121.908447265625 -135.49098205566406
43.343048095703125 -122.08443450927734 -135.48622131347656
45.181678771972656 -123.21212768554688 -135.45436096191406
45.689136505126953 -123.7283935546875 -135.44465637207031
46.785079956054688 -125.57619476318359 -135.42063903808594
46.951446533203125 -125.74514007568359 -135.41752624511719
48.481300354003906 -127.40914916992188 -135.38897705078125
48.749919891357422 -127.68130493164062 -135.38406372070312
50.396797180175781 -129.23663330078125 -135.35504150390625
52.487258911132812 -129.39413452148438 -132.91217041015625
54.375335693359375 -129.85690307617188 -132.88548278808594
56.288040161132812 -129.90553283691406 -132.86056518554688
57.778564453125 -129.07978820800781 -132.84500122070312
58.276054382324219 -128.79812622070312 -132.83982849121094
60.271659851074219 -127.42118835449219 -132.82081604003906
60.592964172363281 -127.13423919677734 -132.818115234375
62.040794372558594 -125.22265625 -132.80889892578125
62.336349487304688 -124.87865447998047 -132.806884765625
63.540550231933594 -123.3096923828125 -132.7996826171875
64.438308715820312 -121.95028686523438 -132.7955322265625
64.86578369140625 -121.39134216308594 -132.79327392578125
65.481353759765625 -119.50039672851562 -132.79554748535156
66.227264404296875 -117.60604858398438 -132.79679870605469
66.67913818359375 -115.70943450927734 -132.802001953125
66.74554443359375 -115.59233093261719 -132.80178833007812
67.616477966308594 -113.80999755859375 -132.80192565917969
67.715263366699219 -111.93170166015625 -132.81187438964844
68.063423156738281 -110.03727722167969 -132.81947326660156
68.847686767578125 -108.14118957519531 -132.82249450683594
68.239288330078125 -106.28042602539062 -132.8416748046875
68.246139526367188 -104.39413452148438 -132.85433959960938
68.352691650390625 -102.51466369628906 -132.8662109375
67.711639404296875 -100.76963043212891 -132.88618469238281
67.660263061523438 -100.65541839599609 -132.88760375976562
67.187454223632812 -98.7806396484375 -132.90689086914062
66.448959350585938 -96.9219970703125 -132.92964172363281
66.092460632324219 -96.382225036621094 -132.93801879882812
65.317390441894531 -95.07305908203125 -132.9573974609375
64.32958984375 -94.000289916992188 -132.97781372070312
63.28057861328125 -93.246803283691406 -132.99653625488281
62.506374359130859 -92.650009155273438 -133.01083374023438
60.5963134765625 -92.544418334960938 -133.03532409667969
58.663467407226562 -92.6416015625 -133.0589599609375
56.722152709960938 -93.018119812011719 -133.080810546875
56.084529876708984 -93.42913818359375 -133.0858154296875
54.722175598144531 -94.243659973144531 -133.09715270996094
52.732078552246094 -95.218063354492188 -133.11581420898438
52.50396728515625 -95.397125244140625 -133.1175537109375
50.730796813964844 -96.519912719726562 -133.13276672363281
49.047405242919922 -97.360908508300781 -133.14939880371094
48.751197814941406 -97.54156494140625 -133.15208435058594
46.770240783691406 -98.466598510742188 -133.17268371582031
45.694873809814453 -99.321044921875 -133.181396484375
44.754653930664062 -100.06613922119141 -133.18928527832031
43.422935485839844 -101.26352691650391 -133.19956970214844
42.726573944091797 -101.88697052001953 -133.20513916015625
40.746757507324219 -103.03229522705078 -133.22573852539062
40.549446105957031 -103.2103271484375 -133.22743225097656
39.349586486816406 -105.11618804931641 -133.23185729980469
38.652095794677734 -105.78741455078125 -133.23764038085938
37.458320617675781 -107.04791259765625 -133.2469482421875
36.610828399658203 -107.94386291503906 -133.25379943847656
35.29766845703125 -108.97595977783203 -133.26687622070312
34.612312316894531 -109.49265289306641 -133.27401733398438
33.120964050292969 -110.90397644042969 -133.28793334960938
32.572792053222656 -111.57119750976562 -133.29217529296875
31.550384521484375 -112.82685852050781 -133.30032348632812
30.868141174316406 -114.71892547607422 -133.299560546875
31.014551162719727 -116.59120178222656 -133.2864990234375
30.899202346801758 -118.47911834716797 -133.27774047851562
31.690876007080078 -120.33571624755859 -133.25538635253906
32.014877319335938 -120.60684967041016 -133.24896240234375
33.890998840332031 -121.10047912597656 -133.21748352050781
35.823280334472656 -120.51545715332031 -133.19114685058594
36.795581817626953 -120.21309661865234 -133.1781005859375
37.757297515869141 -119.93016815185547 -133.16517639160156
39.6644287109375 -119.97996520996094 -133.13662719726562
41.584228515625 -119.68305969238281 -133.11004638671875
43.512565612792969 -119.27034759521484 -133.08447265625
44.766639709472656 -120.01834106445312 -133.06259155273438
45.345077514648438 -120.4752197265625 -133.05197143554688
46.377395629882812 -121.85352325439453 -133.03034973144531
47.120895385742188 -122.84468841552734 -133.01496887207031
47.755447387695312 -123.70391845703125 -133.00196838378906
48.891494750976562 -125.21414947509766 -132.97909545898438
49.156402587890625 -125.54408264160156 -132.97395324707031
50.501365661621094 -127.38571166992188 -132.94734191894531
50.66827392578125 -127.55462646484375 -132.94436645507812
52.310798645019531 -129.2158203125 -132.915283203125
54.302989959716797 -131.2509765625 -130.467041015625
56.191864013671875 -131.74269104003906 -130.44071960449219
57.273780822753906 -131.00408935546875 -130.42987060546875
58.191558837890625 -130.40420532226562 -130.42068481445312
59.859703063964844 -129.0546875 -130.40542602539062
60.203117370605469 -128.7191162109375 -130.40255737304688
61.522323608398438 -127.13774108886719 -130.39315795898438
62.262351989746094 -126.24404144287109 -130.38815307617188
63.168121337890625 -125.22114562988281 -130.3818359375
64.076019287109375 -123.32295227050781 -130.37985229492188
64.387680053710938 -122.88231658935547 -130.3782958984375
65.381805419921875 -121.40505981445312 -130.37379455566406
66.116119384765625 -119.51104736328125 -130.37478637695312
66.565620422363281 -117.62413787841797 -130.37957763671875
66.632499694824219 -117.49742126464844 -130.37948608398438
67.501907348632812 -115.71519470214844 -130.37922668457031
67.638595581054688 -113.83602142333984 -130.38839721679688
67.944976806640625 -111.952392578125 -130.39607238769531
68.728263854980469 -110.04682922363281 -130.39874267578125
68.958770751953125 -108.16478729248047 -130.40806579589844
68.607452392578125 -106.29743194580078 -130.42431640625
68.248466491699219 -104.42042541503906 -130.44111633300781
68.374794006347656 -102.54042816162109 -130.4527587890625
68.117095947265625 -100.66998291015625 -130.46914672851562
67.778640747070312 -99.850723266601562 -130.47908020019531
67.367591857910156 -98.802238464355469 -130.49165344238281
66.964797973632812 -96.934928894042969 -130.51042175292969
66.158317565917969 -95.501380920410156 -130.53099060058594
65.901939392089844 -95.084152221679688 -130.53727722167969
64.900283813476562 -93.231437683105469 -130.56391906738281
64.423004150390625 -92.742630004882812 -130.57356262207031
62.924949645996094 -91.393447875976562 -130.60275268554688
62.61907958984375 -91.131439208984375 -130.608642578125
60.725044250488281 -90.803764343261719 -130.63484191894531
58.803958892822266 -90.73675537109375 -130.65963745117188
56.858810424804688 -91.161628723144531 -130.68104553222656
56.221641540527344 -91.563140869140625 -130.68603515625
54.858066558837891 -92.387428283691406 -130.69715881347656
52.883140563964844 -93.140090942382812 -130.71728515625
52.246452331542969 -93.550956726074219 -130.7225341796875
50.886234283447266 -94.365028381347656 -130.73445129394531
48.909011840820312 -95.338676452636719 -130.75387573242188
48.70086669921875 -95.517196655273438 -130.75531005859375
46.878166198730469 -96.968231201171875 -130.76950073242188
46.238208770751953 -97.455856323242188 -130.77474975585938
44.867645263671875 -98.481231689453125 -130.78639221191406
43.789085388183594 -99.393424987792969 -130.79495239257812
42.824489593505859 -100.5048828125 -130.80059814453125
42.154144287109375 -101.32026672363281 -130.80439758300781
40.7957763671875 -103.2303466796875 -130.810546875
40.731948852539062 -103.30890655517578 -130.81092834472656
39.283302307128906 -105.14375305175781 -130.8194580078125
38.648433685302734 -105.90010070800781 -130.82369995117188
37.626247406005859 -107.06983184814453 -130.83102416992188
36.606147766113281 -108.97071075439453 -130.83378601074219
36.542655944824219 -109.04922485351562 -130.83425903320312
35.168838500976562 -110.88129425048828 -130.84326171875
34.465431213378906 -111.84089660644531 -130.84796142578125
33.674896240234375 -112.80252838134766 -130.85411071777344
32.553951263427734 -114.70500183105469 -130.85986328125
32.343269348144531 -115.27755737304688 -130.85978698730469
31.892324447631836 -116.596435546875 -130.85903930664062
31.776975631713867 -118.48435211181641 -130.8502197265625
32.090297698974609 -119.40981292724609 -130.84033203125
33.143394470214844 -120.3271484375 -130.81918334960938
33.925270080566406 -120.58729553222656 -130.805908203125
35.82537841796875 -120.54163360595703 -130.77734375
36.436897277832031 -120.24802398681641 -130.76969909667969
37.778537750244141 -119.63858032226562 -130.75299072265625
39.724136352539062 -119.05283355712891 -130.72735595703125
41.665107727050781 -118.40927886962891 -130.70257568359375
41.987831115722656 -118.2379150390625 -130.6988525390625
43.626781463623047 -117.45729064941406 -130.67961120605469
45.019584655761719 -118.16346740722656 -130.65585327148438
45.47174072265625 -118.44080352783203 -130.64796447753906
46.903045654296875 -119.99204254150391 -130.61952209472656
47.259048461914062 -120.57937622070312 -130.61143493652344
47.976402282714844 -121.84043121337891 -130.59494018554688
48.590778350830078 -123.70975494384766 -130.57708740234375
48.948207855224609 -124.29705047607422 -130.56936645507812
49.678493499755859 -125.55774688720703 -130.55337524414062
50.50360107421875 -127.41226196289062 -130.53373718261719
50.670524597167969 -127.58119964599609 -130.53071594238281
52.313037872314453 -129.242431640625 -130.50149536132812
52.489513397216797 -129.42074584960938 -130.4984130859375
54.135429382324219 -131.08201599121094 -130.46992492675781
56.155002593994141 -132.54936218261719 -128.02481079101562
58.084739685058594 -132.50148010253906 -128.00051879882812
60.071586608886719 -131.24018859863281 -127.98075866699219
60.372657775878906 -130.95375061035156 -127.97813415527344
61.837020874023438 -129.03213500976562 -127.96815490722656
62.13140869140625 -128.69773864746094 -127.96598815917969
63.333244323730469 -127.11920166015625 -127.95838928222656
64.227935791015625 -125.76950836181641 -127.95374298095703
64.654273986816406 -125.21062469482422 -127.95126342773438
65.266365051269531 -123.31970977783203 -127.95298004150391
65.92034912109375 -121.41812133789062 -127.95468139648438
66.46746826171875 -120.34632873535156 -127.95374298095703
66.91180419921875 -119.51755523681641 -127.95284271240234
67.410903930664062 -117.62930297851562 -127.95716857910156
68.011154174804688 -115.72879028320312 -127.96074676513672
68.612579345703125 -113.83770751953125 -127.96467590332031
68.731094360351562 -111.95877075195312 -127.97451019287109
68.851821899414062 -110.07002258300781 -127.9847412109375
68.973556518554688 -108.19068908691406 -127.995361328125
69.096817016601562 -106.31112670898438 -128.0062255859375
69.222213745117188 -104.42165374755859 -128.017578125
69.229789733886719 -102.54457092285156 -128.03048706054688
68.635787963867188 -100.68267822265625 -128.05061340332031
67.826438903808594 -99.249656677246094 -128.07049560546875
67.569839477539062 -98.822982788085938 -128.07669067382812
66.969413757324219 -96.960662841796875 -128.09771728515625
66.135185241699219 -95.922645568847656 -128.11557006835938
65.492042541503906 -95.12042236328125 -128.12948608398438
64.368499755859375 -93.5982666015625 -128.15489196777344
64.115692138671875 -93.277168273925781 -128.16055297851562
62.584121704101562 -91.707168579101562 -128.19181823730469
62.003059387207031 -91.442474365234375 -128.20115661621094
60.726768493652344 -90.8677978515625 -128.22174072265625
58.808361053466797 -90.762115478515625 -128.24676513671875
56.863273620605469 -91.186981201171875 -128.26823425292969
56.22607421875 -91.588470458984375 -128.273193359375
54.862449645996094 -92.412857055664062 -128.28443908691406
52.872390747070312 -93.377815246582031 -128.30303955078125
52.6434326171875 -93.566558837890625 -128.30459594726562
50.865428924560547 -94.747535705566406 -128.31927490234375
49.705009460449219 -95.517951965332031 -128.32907104492188
48.858657836914062 -96.145706176757812 -128.33586120605469
46.861766815185547 -97.292770385742188 -128.35481262207031
46.653861999511719 -97.471206665039062 -128.35636901855469
44.859306335449219 -98.689971923828125 -128.37246704101562
43.509803771972656 -99.42572021484375 -128.38618469238281
42.876396179199219 -99.835891723632812 -128.39222717285156
40.888946533203125 -101.07784271240234 -128.41189575195312
40.546310424804688 -101.38458251953125 -128.41470336914062
38.866569519042969 -102.72463989257812 -128.42977905273438
38.2518310546875 -103.31698608398438 -128.43467712402344
36.819953918457031 -104.92024993896484 -128.44476318359375
36.497138977050781 -105.23595428466797 -128.44743347167969
35.563209533691406 -107.1446533203125 -128.44862365722656
34.703178405761719 -108.24298095703125 -128.454345703125
34.027664184570312 -109.05771636962891 -128.45930480957031
33.127410888671875 -110.95542144775391 -128.46089172363281
32.579299926757812 -111.62263488769531 -128.465087890625
31.605499267578125 -112.87716674804688 -128.47230529785156
30.517324447631836 -114.26895904541016 -128.480712890625
30.096397399902344 -114.78871154785156 -128.48410034179688
28.861970901489258 -116.69364166259766 -128.49220275878906
29.252326965332031 -118.56980133056641 -128.47555541992188
30.17146110534668 -119.9139404296875 -128.453857421875
32.047950744628906 -120.21566772460938 -128.42332458496094
33.956336975097656 -120.17012023925781 -128.39447021484375
35.914024353027344 -119.17106628417969 -128.37037658691406
37.845497131347656 -118.63401031494141 -128.34455871582031
38.398517608642578 -118.35134887695312 -128.33795166015625
39.8143310546875 -117.67271423339844 -128.3209228515625
41.768264770507812 -116.82688140869141 -128.29730224609375
43.690757751464844 -116.52020263671875 -128.27143859863281
45.584457397460938 -116.70441436767578 -128.24359130859375
46.992195129394531 -118.14100646972656 -128.21575927734375
47.379913330078125 -118.67952728271484 -128.20742797851562
48.112827301025391 -119.98835754394531 -128.19013977050781
49.103195190429688 -121.76190948486328 -128.16726684570312
49.157478332519531 -121.83747863769531 -128.16610717773438
49.644706726074219 -123.71003723144531 -128.1500244140625
50.615287780761719 -125.56094360351562 -128.12789916992188
50.779823303222656 -125.76842498779297 -128.12472534179688
51.853282928466797 -127.40525054931641 -128.10279846191406
52.552749633789062 -128.3975830078125 -128.08903503417969
53.192314147949219 -129.24716186523438 -128.07688903808594
54.335708618164062 -130.76710510253906 -128.05546569824219
54.622230529785156 -131.0965576171875 -128.0504150390625
58.033668518066406 -133.63560485839844 -125.583984375
59.984489440917969 -133.03901672363281 -125.56198883056641
60.171131134033203 -132.86123657226562 -125.56036376953125
61.741607666015625 -130.94645690917969 -125.54880523681641
62.036209106445312 -130.60247802734375 -125.54663848876953
63.236461639404297 -129.02395629882812 -125.53877258300781
64.12982177734375 -127.67425537109375 -125.53396606445312
64.555732727050781 -127.11534118652344 -125.53136444091797
65.531471252441406 -125.21524047851562 -125.52852630615234
65.926193237304688 -123.32969665527344 -125.53292846679688
66.356788635253906 -122.37625122070312 -125.5325927734375
66.807662963867188 -121.42228698730469 -125.53211975097656
67.30499267578125 -119.53410339355469 -125.53607177734375
67.902984619140625 -117.64328002929688 -125.53937530517578
68.503242492675781 -115.74266052246094 -125.54296875
68.620071411132812 -113.86380767822266 -125.55252075195312
68.738571166992188 -111.98479461669922 -125.5623779296875
68.859222412109375 -110.09597778320312 -125.57266235351562
68.980873107910156 -108.21657562255859 -125.58322143554688
69.104110717773438 -106.33692169189453 -125.59413146972656
69.110809326171875 -104.45040130615234 -125.60676574707031
68.505355834960938 -102.58898162841797 -125.62672424316406
68.128921508789062 -100.72142028808594 -125.64438629150391
67.77459716796875 -100.13361358642578 -125.65278625488281
67.063262939453125 -98.861610412597656 -125.67047119140625
66.245674133300781 -97.004745483398438 -125.69406890869141
66.082794189453125 -96.797042846679688 -125.69760131835938
65.084518432617188 -95.156295776367188 -125.72209167480469
64.341178894042969 -94.106002807617188 -125.73930358886719
63.668853759765625 -93.313896179199219 -125.75370788574219
62.554393768310547 -92.243873596191406 -125.77587890625
61.497550964355469 -91.480514526367188 -125.79508972167969
60.733489990234375 -90.892753601074219 -125.80935668945312
58.815090179443359 -90.787071228027344 -125.83439636230469
56.869956970214844 -91.211898803710938 -125.85593414306641
56.232784271240234 -91.6134033203125 -125.86093902587891
54.869186401367188 -92.437767028808594 -125.87211608886719
52.879096984863281 -93.402748107910156 -125.89081573486328
52.650096893310547 -93.591522216796875 -125.89239501953125
50.872158050537109 -94.772499084472656 -125.90705871582031
49.711688995361328 -95.542953491210938 -125.91688537597656
48.865318298339844 -96.170677185058594 -125.923583984375
46.883201599121094 -97.105438232421875 -125.94387817382812
46.308021545410156 -97.504806518554688 -125.94892883300781
44.885993957519531 -98.425529479980469 -125.96199035644531
43.604484558105469 -99.448562622070312 -125.97260284423828
42.87054443359375 -100.04413604736328 -125.97872924804688
41.070716857910156 -101.39712524414062 -125.99485778808594
40.864173889160156 -101.56578063964844 -125.99664306640625
38.892921447753906 -103.32685089111328 -126.01296997070312
38.830413818359375 -103.38607788085938 -126.01346588134766
36.825370788574219 -104.96454620361328 -126.03213500976562
36.503768920898438 -105.26095581054688 -126.03489685058594
34.799999237060547 -106.88957977294922 -126.04942321777344
34.478302001953125 -107.19554138183594 -126.05219268798828
33.332988739013672 -109.09938812255859 -126.05706787109375
32.687759399414062 -110.05764770507812 -126.06063842773438
32.053443908691406 -111.00601959228516 -126.06437683105469
30.630084991455078 -112.60787200927734 -126.07621002197266
30.308467864990234 -112.93291473388672 -126.07917785644531
29.208518981933594 -114.83481597900391 -126.084716796875
28.537473678588867 -115.79335784912109 -126.08949279785156
27.925975799560547 -116.74081420898438 -126.09349060058594
28.40928840637207 -117.8839111328125 -126.07949829101562
28.967538833618164 -118.60192108154297 -126.06680297851562
30.216032028198242 -119.31320190429688 -126.04353332519531
31.84674072265625 -118.53400421142578 -126.02283477783203
32.169326782226562 -118.3436279296875 -126.01897430419922
34.092025756835938 -118.06704711914062 -125.99135589599609
35.992317199707031 -118.02157592773438 -125.96310424804688
37.9158935546875 -117.619384765625 -125.93681335449219
39.862197875976562 -117.03369140625 -125.91163635253906
40.845188140869141 -116.43278503417969 -125.90081787109375
41.840263366699219 -115.80263519287109 -125.89006042480469
43.777347564697266 -115.26479339599609 -125.86551666259766
45.2550048828125 -116.32492828369141 -125.83840942382812
45.599899291992188 -116.59532928466797 -125.83204650878906
47.136497497558594 -118.16342926025391 -125.80174255371094
47.400600433349609 -118.48385620117188 -125.79629516601562
48.463142395019531 -120.00579833984375 -125.77325439453125
49.152915954589844 -121.0753173828125 -125.75819396972656
49.723731994628906 -121.84966278076172 -125.74630737304688
50.515388488769531 -123.71469116210938 -125.72605133056641
50.875988006591797 -124.25385284423828 -125.71853637695312
51.712249755859375 -125.56005859375 -125.70098876953125
52.655624389648438 -126.72902679443359 -125.68289947509766
53.275169372558594 -127.39640045166016 -125.671630859375
54.251441955566406 -129.24740600585938 -125.65057373046875
54.41619873046875 -129.46446228027344 -125.64743041992188
55.4854736328125 -131.10174560546875 -125.62666320800781
56.188980102539062 -132.0845947265625 -125.61354827880859
57.106864929199219 -132.9371337890625 -125.59843444824219
57.951461791992188 -135.4344482421875 -123.16586303710938
59.895797729492188 -134.95347595214844 -123.14340209960938
60.082809448242188 -134.76608276367188 -123.14181518554688
61.918521881103516 -133.017822265625 -123.12608337402344
62.115234375 -132.83976745605469 -123.12441253662109
63.153690338134766 -130.93806457519531 -123.11956787109375
64.033218383789062 -129.63674926757812 -123.11454772949219
64.461715698242188 -129.02005004882812 -123.11209106445312
65.435646057128906 -127.11995697021484 -123.10894775390625
66.144790649414062 -125.2264404296875 -123.10944366455078
66.210723876953125 -125.10935211181641 -123.10919189453125
67.112968444824219 -123.32643890380859 -123.10725402832031
67.20361328125 -121.43875122070312 -123.11572265625
67.799766540527344 -119.5479736328125 -123.11872100830078
68.39776611328125 -117.65703582763672 -123.12196350097656
68.513404846191406 -115.76861572265625 -123.13126373291016
68.630142211914062 -113.88966369628906 -123.14083862304688
68.748489379882812 -112.01057434082031 -123.15074157714844
68.869163513183594 -110.12165832519531 -123.16099548339844
68.990715026855469 -108.24215698242188 -123.17156219482422
69.113845825195312 -106.36244964599609 -123.18247985839844
69.120513916015625 -104.47584533691406 -123.19511413574219
68.514991760253906 -102.61430358886719 -123.21507263183594
68.138519287109375 -100.74662017822266 -123.23275756835938
67.78082275390625 -100.20698547363281 -123.24082946777344
67.052978515625 -98.887199401855469 -123.25907135009766
66.053848266601562 -97.3719482421875 -123.28219604492188
65.79107666015625 -97.041595458984375 -123.28782653808594
64.5806884765625 -95.194229125976562 -123.31648254394531
64.295913696289062 -94.902900695800781 -123.32220458984375
62.790767669677734 -93.361221313476562 -123.35256195068359
62.506416320800781 -93.069747924804688 -123.35841369628906
60.694774627685547 -91.583511352539062 -123.39268493652344
60.570915222167969 -91.528793334960938 -123.39469146728516
58.822708129882812 -90.830818176269531 -123.42238616943359
56.878921508789062 -91.236328125 -123.44399261474609
56.24176025390625 -91.637832641601562 -123.44904327392578
54.878082275390625 -92.462226867675781 -123.46026611328125
52.88800048828125 -93.427230834960938 -123.47891998291016
52.659015655517578 -93.615966796875 -123.48056030273438
50.881072998046875 -94.796974182128906 -123.49520874023438
49.720672607421875 -95.567413330078125 -123.50502014160156
48.874259948730469 -96.195175170898438 -123.51176452636719
46.877349853515625 -97.342231750488281 -123.53070068359375
46.64990234375 -97.521171569824219 -123.53248596191406
44.872978210449219 -98.768379211425781 -123.54804992675781
44.1417236328125 -99.460311889648438 -123.55332946777344
42.813045501708984 -101.04286193847656 -123.56072998046875
42.486953735351562 -101.38778686523438 -123.56292724609375
41.030830383300781 -103.30036926269531 -123.57034301757812
40.734611511230469 -103.64446258544922 -123.57225036621094
39.528106689453125 -105.21366882324219 -123.57896423339844
38.629238128662109 -106.57315826416016 -123.58287811279297
38.202682495117188 -107.13197326660156 -123.58545684814453
37.358013153076172 -109.02881622314453 -123.58547973632812
36.4852294921875 -110.32948303222656 -123.58999633789062
36.056854248046875 -110.93626403808594 -123.59249877929688
35.575935363769531 -112.83354949951172 -123.58782196044922
36.238136291503906 -114.22232055664062 -123.56964111328125
36.637653350830078 -114.68414306640625 -123.56096649169922
38.055412292480469 -115.53504943847656 -123.53497314453125
39.980667114257812 -115.29618835449219 -123.50828552246094
41.885696411132812 -115.24994659423828 -123.48110961914062
43.786838531494141 -115.29012298583984 -123.45371246337891
45.391830444335938 -116.34719848632812 -123.4249267578125
45.615463256835938 -116.52444458007812 -123.42074584960938
47.44854736328125 -117.8834228515625 -123.38749694824219
47.714431762695312 -118.17497253417969 -123.38219451904297
49.238285064697266 -119.83942413330078 -123.35208129882812
49.404350280761719 -120.00841522216797 -123.34889221191406
50.184913635253906 -121.8642578125 -123.32843017578125
50.964584350585938 -122.93154907226562 -123.31235504150391
51.546012878417969 -123.71525573730469 -123.30059814453125
52.547149658203125 -125.56555938720703 -123.27812194824219
52.721710205078125 -125.77278900146484 -123.27481079101562
53.727519989013672 -127.41146850585938 -123.25384521484375
54.462158203125 -128.84541320800781 -123.2376708984375
54.723827362060547 -129.26210021972656 -123.23240661621094
55.348262786865234 -131.13165283203125 -123.21620941162109
56.175140380859375 -132.56355285644531 -123.19962310791016
56.437995910644531 -132.98028564453125 -123.19454956054688
57.323516845703125 -134.83421325683594 -123.17604064941406
58.142242431640625 -132.08927917480469 -120.76486206054688
60.045513153076172 -132.38851928710938 -120.73985290527344
61.952167510986328 -132.65879821777344 -120.71528625488281
63.275520324707031 -130.961669921875 -120.70632171630859
63.408138275146484 -129.07279968261719 -120.71293640136719
63.759330749511719 -127.18821716308594 -120.71726989746094
63.806343078613281 -125.31125640869141 -120.72550964355469
64.350929260253906 -124.23956298828125 -120.7242431640625
64.7933349609375 -123.41086578369141 -120.7230224609375
65.634849548339844 -121.50440216064453 -120.72268676757812
66.511306762695312 -120.2030029296875 -120.71916198730469
66.942428588867188 -119.59573364257812 -120.71733093261719
67.559951782226562 -117.70428466796875 -120.720458984375
68.40740966796875 -115.79731750488281 -120.72132110595703
68.642723083496094 -113.91525268554688 -120.72953796386719
68.879753112792969 -112.03307342529297 -120.7381591796875
68.947044372558594 -111.90626525878906 -120.73814392089844
69.821418762207031 -110.1231689453125 -120.73905944824219
69.972602844238281 -108.24275207519531 -120.74929809570312
70.046096801757812 -106.3641357421875 -120.76080322265625
69.825088500976562 -104.48323059082031 -120.77598571777344
69.484138488769531 -103.67369842529297 -120.78549194335938
69.070884704589844 -102.62534332275391 -120.79754638671875
68.4964599609375 -100.76260375976562 -120.81748962402344
67.819808959960938 -99.836318969726562 -120.83206176757812
67.143829345703125 -98.909889221191406 -120.84682464599609
66.044189453125 -97.705299377441406 -120.86886596679688
65.417854309082031 -97.075996398925781 -120.88105773925781
64.241111755371094 -95.873100280761719 -120.90440368652344
63.625652313232422 -95.243316650390625 -120.91667938232422
62.43719482421875 -94.233039855957031 -120.93907928466797
61.008781433105469 -93.430992126464844 -120.96305084228516
60.595314025878906 -93.161994934082031 -120.97039794921875
58.692543029785156 -92.834243774414062 -120.99693298339844
56.782615661621094 -92.766510009765625 -121.02197265625
54.839210510253906 -93.190971374511719 -121.04388427734375
53.96636962890625 -93.607803344726562 -121.05213928222656
52.853477478027344 -94.097969055175781 -121.06303405761719
50.898368835449219 -94.734100341796875 -121.0843505859375
49.731834411621094 -95.5914306640625 -121.09355163574219
48.885475158691406 -96.219200134277344 -121.10037231445312
46.888565063476562 -97.36627197265625 -121.11920166015625
46.700260162353516 -97.54425048828125 -121.12052917480469
44.849674224853516 -99.294143676757812 -121.13339996337891
44.661655426025391 -99.472084045410156 -121.13478088378906
43.593414306640625 -101.38548278808594 -121.13603210449219
42.714591979980469 -102.68735504150391 -121.13931274414062
42.2833251953125 -103.29472351074219 -121.14122009277344
40.655189514160156 -105.02828216552734 -121.15259552001953
40.457515716552734 -105.21591186523438 -121.15419006347656
39.219509124755859 -107.13223266601562 -121.15925598144531
38.552745819091797 -107.93741607666016 -121.16366577148438
37.642696380615234 -109.04667663574219 -121.16972351074219
36.848453521728516 -110.94214630126953 -121.16932678222656
36.72833251953125 -112.83086395263672 -121.15931701660156
37.946796417236328 -114.67771911621094 -121.13023376464844
38.111610412597656 -114.84687805175781 -121.12680053710938
39.995491027832031 -115.27285003662109 -121.09690856933594
41.897617340087891 -115.27485656738281 -121.06951904296875
43.802352905273438 -115.25730895996094 -121.04264068603516
45.706932067871094 -115.26837158203125 -121.01576232910156
47.3134765625 -116.32537078857422 -120.98728179931641
47.547054290771484 -116.50234222412109 -120.98297119140625
49.069507598876953 -118.1671142578125 -120.95265197753906
49.337383270263672 -118.42974090576172 -120.947509765625
50.878326416015625 -119.99765777587891 -120.91796875
51.127685546875 -120.41461181640625 -120.91233825683594
51.904945373535156 -121.84745025634766 -120.89433288574219
52.550403594970703 -123.71630859375 -120.87605285644531
52.830253601074219 -124.13251495361328 -120.87022399902344
53.650314331054688 -125.56430053710938 -120.85230255126953
54.261264801025391 -127.42445373535156 -120.83535766601562
54.531890869140625 -127.85053253173828 -120.82989501953125
55.356292724609375 -129.27272033691406 -120.81268310546875
56.308364868164062 -130.36483764648438 -120.79551696777344
57.103065490722656 -131.1146240234375 -120.78214263916016
58.05230712890625 -134.109375 -118.34622955322266
60.018386840820312 -133.22383117675781 -118.32530975341797
60.467128753662109 -132.9337158203125 -118.3209228515625
61.999382019042969 -132.09730529785156 -118.30562591552734
63.538230895996094 -130.981689453125 -118.29173278808594
63.917709350585938 -129.08660888671875 -118.29551696777344
64.134307861328125 -128.37895202636719 -118.29617309570312
64.476348876953125 -127.19673156738281 -118.29754638671875
64.888679504394531 -125.31053161621094 -118.30162811279297
64.379806518554688 -124.03420257568359 -118.31396484375
64.137321472167969 -123.45343017578125 -118.31988525390625
64.459709167480469 -122.65659332275391 -118.32009124755859
64.919212341308594 -121.54845428466797 -118.32029724121094
65.761825561523438 -119.65139770507812 -118.32032775878906
66.639427185058594 -118.34988403320312 -118.31704711914062
67.071029663085938 -117.74253845214844 -118.3153076171875
67.690765380859375 -115.84124755859375 -118.31881713867188
68.539161682128906 -113.94362640380859 -118.31997680664062
68.894821166992188 -112.05830383300781 -118.32725524902344
68.962089538574219 -111.93149566650391 -118.32720947265625
69.836410522460938 -110.14830780029297 -118.32815551757812
69.987472534179688 -108.26778411865234 -118.33844757080078
70.110366821289062 -106.38779449462891 -118.34930419921875
70.205802917480469 -104.49862670898438 -118.36091613769531
69.562240600585938 -102.7532958984375 -118.38033294677734
69.510696411132812 -102.63912200927734 -118.38175964355469
69.400726318359375 -100.76433563232422 -118.396240234375
68.185638427734375 -98.907928466796875 -118.42393493652344
67.919052124023438 -98.625808715820312 -118.42911529541016
66.399398803710938 -97.075431823730469 -118.45864868164062
66.1226806640625 -96.803169250488281 -118.46403503417969
64.4879150390625 -95.245681762695312 -118.49546813964844
64.312606811523438 -95.076728820800781 -118.4989013671875
62.498115539550781 -93.590805053710938 -118.53257751464844
62.283645629882812 -93.422760009765625 -118.53652954101562
60.674873352050781 -92.258842468261719 -118.56562805175781
58.772861480712891 -91.921249389648438 -118.59229278564453
56.855968475341797 -91.950042724609375 -118.61666870117188
54.913162231445312 -92.36480712890625 -118.63859558105469
52.951068878173828 -92.934005737304688 -118.65995788574219
51.869052886962891 -93.683578491210938 -118.66856384277344
50.943103790283203 -94.313529968261719 -118.67615509033203
48.968524932861328 -95.248588562011719 -118.69574737548828
48.382835388183594 -95.648330688476562 -118.70071411132812
46.959144592285156 -96.569473266601562 -118.71333312988281
45.763980865478516 -97.590850830078125 -118.72229766845703
44.920337677001953 -98.48797607421875 -118.72742462158203
44.0098876953125 -99.511741638183594 -118.73272705078125
43.294059753417969 -101.41675567626953 -118.72914123535156
42.751663208007812 -102.36389923095703 -118.730224609375
42.208992004394531 -103.32061767578125 -118.73123931884766
40.930328369140625 -105.22876739501953 -118.73635101318359
40.628032684326172 -105.66917419433594 -118.73773956298828
39.623802185058594 -107.14680480957031 -118.74232482910156
38.817901611328125 -109.04289245605469 -118.74159240722656
38.823722839355469 -110.91934967041016 -118.7294921875
40.207206726074219 -112.15621948242188 -118.7017822265625
42.091072082519531 -112.44746398925781 -118.67304992675781
44.003425598144531 -112.31440734863281 -118.64682006835938
44.939018249511719 -112.65715789794922 -118.63157653808594
45.864063262939453 -113.01934814453125 -118.61650848388672
47.727813720703125 -113.85863494873047 -118.58563232421875
48.307121276855469 -114.45040130615234 -118.5740966796875
49.505203247070312 -115.95989227294922 -118.54878234863281
49.76873779296875 -116.29001617431641 -118.54327392578125
51.104934692382812 -118.14211273193359 -118.51460266113281
51.268661499023438 -118.34967041015625 -118.51126861572266
52.336246490478516 -119.987060546875 -118.48788452148438
53.027408599853516 -121.05670166015625 -118.47293090820312
53.599639892578125 -121.83110046386719 -118.46127319335938
54.127754211425781 -123.70301818847656 -118.44454956054688
54.619106292724609 -125.56621551513672 -118.4287109375
54.671463012695312 -125.68032836914062 -118.42753601074219
55.36822509765625 -127.423095703125 -118.40998840332031
55.588294982910156 -129.29319763183594 -118.3984375
56.288356781005859 -131.04573059082031 -118.381591796875
56.341171264648438 -131.15983581542969 -118.38042449951172
56.968830108642578 -133.02012634277344 -118.36447143554688
58.06939697265625 -134.16426086425781 -115.93464660644531
60.013580322265625 -133.69300842285156 -115.91230773925781
61.186061859130859 -132.94244384765625 -115.9010009765625
62.002056121826172 -132.42202758789062 -115.89321899414062
63.982769012451172 -131.5263671875 -115.87306213378906
64.554634094238281 -130.9830322265625 -115.86856079101562
65.013107299804688 -129.08580017089844 -115.87159729003906
64.69232177734375 -127.21762847900391 -115.88412475585938
64.285881042480469 -126.025146484375 -115.89472961425781
64.037666320800781 -125.35790252685547 -115.90098571777344
63.760459899902344 -123.4888916015625 -115.91371917724609
64.255767822265625 -121.59096527099609 -115.91761779785156
64.567138671875 -121.15987396240234 -115.91615295410156
65.56243896484375 -119.6822509765625 -115.91217041015625
66.209182739257812 -117.78996276855469 -115.91494750976562
66.758041381835938 -116.71784210205078 -115.91450500488281
67.204299926757812 -115.87914276123047 -115.91400909423828
67.706329345703125 -113.99018859863281 -115.91923522949219
68.309097290039062 -112.09854125976562 -115.92361450195312
68.913963317871094 -110.197021484375 -115.9283447265625
69.035270690917969 -108.31717681884766 -115.93897247314453
69.158065795898438 -106.43707275390625 -115.94984436035156
69.164421081542969 -104.55010986328125 -115.96237945556641
68.084014892578125 -102.70025634765625 -115.98782348632812
67.696083068847656 -102.16133117675781 -115.99615478515625
66.87738037109375 -100.85334777832031 -116.01515197753906
65.941879272460938 -99.68304443359375 -116.03472900390625
65.31829833984375 -99.005500793457031 -116.04713439941406
64.140380859375 -97.80255126953125 -116.07026672363281
63.524391174316406 -97.172843933105469 -116.08244323730469
62.343109130859375 -96.046714782714844 -116.1053466796875
61.496963500976562 -95.34552001953125 -116.12120819091797
60.52471923828125 -94.628158569335938 -116.13876342773438
58.901817321777344 -93.531845092773438 -116.16764831542969
58.688457489013672 -93.354118347167969 -116.17170715332031
56.820152282714844 -92.69732666015625 -116.20072937011719
54.945316314697266 -92.156013488769531 -116.22927093505859
53.029769897460938 -92.068496704101562 -116.25506591796875
51.089908599853516 -92.482612609863281 -116.27762603759766
49.145362854003906 -92.9832763671875 -116.30001831054688
47.648815155029297 -93.810111999511719 -116.31398773193359
47.149742126464844 -94.0921630859375 -116.31867218017578
45.1854248046875 -94.920341491699219 -116.33953857421875
44.109699249267578 -95.775077819824219 -116.34806060791016
43.169151306152344 -96.520416259765625 -116.35568237304688
42.032928466796875 -97.703933715820312 -116.363037109375
41.090389251708984 -99.065666198730469 -116.36647033691406
40.652778625488281 -99.615615844726562 -116.36872863769531
40.143207550048828 -101.5157470703125 -116.36257934570312
39.538059234619141 -103.40817260742188 -116.35804748535156
38.8172607421875 -105.30292510986328 -116.35549926757812
38.750411987304688 -105.42971038818359 -116.35562133789062
37.882774353027344 -107.21214294433594 -116.35626220703125
37.828788757324219 -109.0904541015625 -116.34481811523438
38.450996398925781 -110.01885986328125 -116.32984924316406
40.328201293945312 -110.54170989990234 -116.29953002929688
41.252414703369141 -110.88515472412109 -116.28424072265625
42.184898376464844 -111.25720977783203 -116.26863098144531
44.075279235839844 -111.47113800048828 -116.24061584472656
45.976272583007812 -111.54029846191406 -116.21369934082031
47.864128112792969 -111.99433135986328 -116.18487548828125
48.628604888916016 -112.59130096435547 -116.17074584960938
49.689620971679688 -113.30595397949219 -116.15196228027344
51.19757080078125 -114.40389251708984 -116.12490081787109
51.510208129882812 -114.73284912109375 -116.11879730224609
52.52392578125 -116.24685668945312 -116.0963134765625
53.241020202636719 -117.8258056640625 -116.07772827148438
53.400222778320312 -118.11043548583984 -116.07399749755859
53.404716491699219 -119.98593139648438 -116.06344604492188
53.568119049072266 -121.85743713378906 -116.05113220214844
54.214359283447266 -123.72654724121094 -116.03279113769531
54.744632720947266 -124.7425537109375 -116.02069854736328
55.207389831542969 -125.57746887207031 -116.01050567626953
55.77978515625 -127.43891143798828 -115.99398803710938
56.439731597900391 -128.6441650390625 -115.97977447509766
56.807052612304688 -129.28915405273438 -115.97206115722656
57.324237823486328 -131.16177368164062 -115.95703125
57.538787841796875 -133.032470703125 -115.94613647460938
53.997955322265625 -139.06326293945312 -113.55601501464844
55.9100341796875 -139.15122985839844 -113.53115081787109
57.834587097167969 -139.2197265625 -113.50653076171875
58.402896881103516 -138.67646789550781 -113.50148010253906
59.855682373046875 -137.19729614257812 -113.48908996582031
60.30169677734375 -136.75326538085938 -113.48529815673828
60.753734588623047 -134.85594177246094 -113.48749542236328
61.3355712890625 -132.96519470214844 -113.48828125
61.919418334960938 -131.07449340820312 -113.48935699462891
62.140548706054688 -129.1832275390625 -113.49534606933594
62.2061767578125 -129.06614685058594 -113.49505615234375
63.063987731933594 -127.28421783447266 -113.49302673339844
63.377220153808594 -125.40034484863281 -113.49848937988281
64.146583557128906 -123.50510406494141 -113.49879455566406
64.375175476074219 -121.61373138427734 -113.50593566894531
64.614852905273438 -119.73162841796875 -113.51321411132812
64.681022644042969 -119.61453247070312 -113.51315307617188
65.547744750976562 -117.83208465576172 -113.51264953613281
65.633438110351562 -115.94407653808594 -113.5224609375
65.977066040039062 -114.05908203125 -113.52943420410156
66.668220520019531 -112.16516876220703 -113.53269195556641
67.005928039550781 -110.27037811279297 -113.54046630859375
66.998634338378906 -108.39373779296875 -113.55256652832031
66.4100341796875 -106.53164672851562 -113.57182312011719
65.607124328613281 -104.9539794921875 -113.59207153320312
65.438728332519531 -104.66941070556641 -113.59599304199219
64.735275268554688 -102.80979156494141 -113.61722564697266
63.925796508789062 -101.2318115234375 -113.63817596435547
63.767227172851562 -100.95655822753906 -113.64210510253906
62.436958312988281 -99.102516174316406 -113.67172241210938
62.171043395996094 -98.820281982421875 -113.67706298828125
60.655155181884766 -97.269058227539062 -113.70729064941406
60.379104614257812 -96.99664306640625 -113.7127685546875
58.748214721679688 -95.438186645507812 -113.7449951171875
58.573387145996094 -95.269119262695312 -113.74848937988281
56.732433319091797 -94.216522216796875 -113.77997589111328
55.90032958984375 -93.630050659179688 -113.79520416259766
54.909736633300781 -92.931732177734375 -113.81338500976562
53.01263427734375 -92.583389282226562 -113.84089660644531
51.082355499267578 -92.862205505371094 -113.86437225341797
49.120140075683594 -93.613883972167969 -113.88505554199219
48.881729125976562 -93.802871704101562 -113.88687133789062
47.106483459472656 -94.983383178710938 -113.90205383300781
46.036033630371094 -95.751434326171875 -113.91103363037109
45.084075927734375 -96.651390075683594 -113.91750335693359
44.261020660400391 -97.67340087890625 -113.92147827148438
42.99993896484375 -99.2548828125 -113.92765045166016
42.693954467773438 -99.58978271484375 -113.92955017089844
41.411865234375 -101.50852203369141 -113.93403625488281
40.871231079101562 -102.58091735839844 -113.93422698974609
40.415672302246094 -103.41041564941406 -113.93496704101562
40.026878356933594 -105.29744720458984 -113.92765045166016
39.873222351074219 -107.18814849853516 -113.91730499267578
40.51385498046875 -107.98152923583984 -113.90296936035156
41.792854309082031 -109.01927185058594 -113.87809753417969
42.325092315673828 -109.39144134521484 -113.86814880371094
44.215381622314453 -109.6055908203125 -113.84029388427734
46.119064331054688 -109.63629150390625 -113.81371307373047
48.006027221679688 -110.10021209716797 -113.78478240966797
48.621185302734375 -110.72987365722656 -113.77244567871094
49.801734924316406 -111.86517333984375 -113.74935913085938
50.491527557373047 -112.56980895996094 -113.73564147949219
51.591285705566406 -113.77419281005859 -113.71357727050781
52.218475341796875 -114.40328216552734 -113.701416015625
52.553520202636719 -116.27096557617188 -113.68585205078125
53.272079467773438 -117.66728973388672 -113.66830444335938
53.518367767333984 -118.13253021240234 -113.66230773925781
54.15191650390625 -119.99259948730469 -113.64353942871094
54.541725158691406 -121.85865783691406 -113.62826538085938
54.870559692382812 -122.94705200195312 -113.61819458007812
55.109745025634766 -123.72988128662109 -113.61097717285156
54.775554656982422 -125.61383056640625 -113.60562133789062
54.689712524414062 -126.08729553222656 -113.60438537597656
54.443222045898438 -127.49775695800781 -113.60057067871094
54.211006164550781 -129.37921142578125 -113.59457397460938
53.980228424072266 -131.27032470703125 -113.58882141113281
53.761619567871094 -133.15162658691406 -113.58330535888672
53.545036315917969 -135.03302001953125 -113.57809448242188
53.329780578613281 -136.92413330078125 -113.57305908203125
53.648056030273438 -138.79270935058594 -113.56159210205078
58.221343994140625 -132.19248962402344 -111.11988830566406
60.119819641113281 -132.58840942382812 -111.09432983398438
61.361061096191406 -131.11445617675781 -111.08563995361328
62.190299987792969 -129.81423950195312 -111.08145904541016
62.628196716308594 -129.19720458984375 -111.07899475097656
63.235610961914062 -127.30590057373047 -111.08064270019531
63.88458251953125 -125.41352844238281 -111.08221435546875
64.428932189941406 -124.34161376953125 -111.08103942871094
64.871223449707031 -123.51275634765625 -111.07998657226562
65.36651611328125 -121.61452484130859 -111.08405303955078
65.655464172363281 -119.73101806640625 -111.0908203125
66.430496215820312 -117.83525085449219 -111.09224700927734
66.674148559570312 -115.94306945800781 -111.10018920898438
66.790306091308594 -114.06359100341797 -111.10999298095703
66.908187866210938 -112.1839599609375 -111.11997985839844
66.919570922851562 -110.2972412109375 -111.13167572021484
66.665138244628906 -108.42667388916016 -111.14665222167969
65.701126098632812 -106.57389831542969 -111.17036437988281
65.535369873046875 -106.39516448974609 -111.17353820800781
63.999645233154297 -104.72994232177734 -111.20341491699219
63.732749938964844 -104.44783020019531 -111.20855712890625
62.221660614013672 -102.897216796875 -111.23781585693359
61.935554504394531 -102.61553955078125 -111.24331665039062
60.417190551757812 -101.06475830078125 -111.27317810058594
60.140708923339844 -100.79240417480469 -111.27854919433594
58.508087158203125 -99.224807739257812 -111.31040954589844
58.333034515380859 -99.055793762207031 -111.31382751464844
56.520488739013672 -97.569244384765625 -111.34783172607422
56.355476379394531 -97.399925231933594 -111.35122680664062
54.727054595947266 -95.840744018554688 -111.3837890625
54.147293090820312 -95.57562255859375 -111.393310546875
52.864040374755859 -95.0001220703125 -111.41436767578125
50.962982177734375 -94.8636474609375 -111.44068908691406
49.475677490234375 -95.690391540527344 -111.4544677734375
48.975746154785156 -95.982040405273438 -111.45901489257812
47.228111267089844 -97.624282836914062 -111.47067260742188
46.920757293701172 -97.968994140625 -111.47239685058594
45.71795654296875 -99.539657592773438 -111.47762298583984
44.814208984375 -100.90058135986328 -111.48046112060547
44.385520935058594 -101.45995330810547 -111.48246002197266
43.9556884765625 -103.34846496582031 -111.47537994384766
44.349082946777344 -105.216796875 -111.45722961425781
44.513015747070312 -105.39574432373047 -111.45375061035156
46.349380493164062 -106.4488525390625 -111.42140197753906
47.122413635253906 -107.03654479980469 -111.40687561035156
48.178581237792969 -107.79050445556641 -111.38755798339844
49.538360595703125 -108.85448455810547 -111.36221313476562
49.983371734619141 -109.39218139648438 -111.35275268554688
50.712039947509766 -110.70241546630859 -111.33457946777344
51.712287902832031 -112.22706604003906 -111.31173706054688
51.975593566894531 -112.557373046875 -111.30613708496094
52.593936920166016 -114.41838836669922 -111.28659820556641
52.575714111328125 -116.29500579833984 -111.27561950683594
53.273422241210938 -118.03830718994141 -111.25630187988281
53.32470703125 -118.16208648681641 -111.25492858886719
53.810951232910156 -120.02600860595703 -111.23796844482422
54.220458984375 -121.89173889160156 -111.22235107421875
54.454311370849609 -123.77139282226562 -111.20925903320312
54.800384521484375 -124.58052062988281 -111.20051574707031
55.221607208251953 -125.62826538085938 -111.189697265625
55.64666748046875 -127.49365234375 -111.17485046386719
56.471107482910156 -128.92594909667969 -111.15727233886719
56.733230590820312 -129.34281921386719 -111.15191650390625
57.427921295166016 -131.21138000488281 -111.13436889648438
58.364494323730469 -130.04994201660156 -108.71768188476562
60.2886962890625 -129.96406555175781 -108.69402313232422
