# XYZ point cloud file
38.986988067626953 -104.98363494873047 -136.71751403808594
38.133544921875 -105.65731811523438 -136.71757507324219
37.028030395507812 -106.76277923583984 -136.71743774414062
36.353828430175781 -107.61664581298828 -136.71720886230469
35.056880950927734 -109.25395965576172 -136.71694946289062
34.755832672119141 -109.57546234130859 -136.71701049804688
33.618236541748047 -111.54339599609375 -136.71647644042969
33.096508026123047 -112.21627807617188 -136.71659851074219
32.113800048828125 -113.50173187255859 -136.71693420410156
31.537368774414062 -115.45847320556641 -136.71614074707031
31.450199127197266 -117.42436218261719 -136.71475219726562
32.151142120361328 -119.37883758544922 -136.71226501464844
33.065456390380859 -120.18965148925781 -136.71029663085938
34.637371063232422 -121.3302001953125 -136.70721435546875
35.005565643310547 -121.64041900634766 -136.70652770996094
36.95977783203125 -121.87763977050781 -136.70358276367188
38.905738830566406 -121.87409973144531 -136.70103454589844
40.85345458984375 -121.60972595214844 -136.69883728027344
42.072944641113281 -121.31657409667969 -136.69764709472656
42.812873840332031 -121.1446533203125 -136.69697570800781
44.764328002929688 -120.38869476318359 -136.69554138183594
46.422870635986328 -121.30781555175781 -136.69378662109375
46.712684631347656 -121.49772644042969 -136.69346618652344
48.662528991699219 -122.7169189453125 -136.69169616699219
49.212486267089844 -123.26721954345703 -136.69119262695312
50.442413330078125 -125.21973419189453 -136.69003295898438
50.622642517089844 -125.39981842041016 -136.68992614746094
52.285720825195312 -127.17076873779297 -136.68902587890625
52.576469421386719 -127.46086883544922 -136.68890380859375
54.352214813232422 -129.12109375 -136.68844604492188
56.499229431152344 -129.30923461914062 -134.18975830078125
58.458206176757812 -129.83590698242188 -134.18978881835938
60.418212890625 -129.93138122558594 -134.19004821777344
61.896026611328125 -129.10562133789062 -134.19032287597656
62.388847351074219 -128.82365417480469 -134.19049072265625
64.351127624511719 -127.43508911132812 -134.19123840332031
64.663276672363281 -127.14353179931641 -134.19140625
66.033866882324219 -125.18482208251953 -134.1923828125
66.316238403320312 -124.83315277099609 -134.192626953125
67.456764221191406 -123.22584533691406 -134.19375610351562
68.295753479003906 -121.82982635498047 -134.19483947753906
68.700172424316406 -121.25717163085938 -134.19540405273438
69.219245910644531 -119.30036926269531 -134.19680786132812
69.870826721191406 -117.34308624267578 -134.1986083984375
70.221237182617188 -115.37650299072266 -134.20040893554688
70.282257080078125 -115.2559814453125 -134.20057678222656
71.067314147949219 -113.41844940185547 -134.20292663574219
71.057151794433594 -111.46266174316406 -134.20494079589844
71.30059814453125 -109.49604034423828 -134.20744323730469
71.989356994628906 -107.53805541992188 -134.21060180664062
71.256454467773438 -105.58393096923828 -134.21267700195312
71.150627136230469 -103.61791229248047 -134.21562194824219
71.146888732910156 -101.66149139404297 -134.2188720703125
70.38665771484375 -99.827461242675781 -134.22151184082031
70.327262878417969 -99.70721435546875 -134.22169494628906
69.731101989746094 -97.74212646484375 -134.22499084472656
68.864021301269531 -95.787673950195312 -134.22831726074219
68.466934204101562 -95.216728210449219 -134.22926330566406
67.595306396484375 -93.834121704101562 -134.231689453125
66.520278930664062 -92.692855834960938 -134.233642578125
65.401809692382812 -91.882835388183594 -134.23493957519531
64.573844909667969 -91.242630004882812 -134.236083984375
62.613311767578125 -91.087089538574219 -134.23574829101562
60.641433715820312 -91.142265319824219 -134.23512268066406
58.677379608154297 -91.488349914550781 -134.23406982421875
58.049564361572266 -91.901390075683594 -134.23306274414062
56.704238891601562 -92.71759033203125 -134.231201171875
54.725765228271484 -93.685699462890625 -134.22926330566406
54.502975463867188 -93.866867065429688 -134.22889709472656
52.75518798828125 -94.994850158691406 -134.22691345214844
51.082054138183594 -95.831512451171875 -134.22575378417969
50.789508819580078 -96.012779235839844 -134.22549438476562
48.816448211669922 -96.930183410644531 -134.22462463378906
47.766357421875 -97.795372009277344 -134.2235107421875
46.848041534423828 -98.549858093261719 -134.22267150878906
45.555686950683594 -99.766632080078125 -134.2213134765625
44.879661560058594 -100.40012359619141 -134.220703125
42.919708251953125 -101.54775238037109 -134.22042846679688
42.728225708007812 -101.72872924804688 -134.22030639648438
41.612663269042969 -103.68731689453125 -134.2181396484375
40.937934875488281 -104.37078094482422 -134.21775817871094
39.789653778076172 -105.65703582763672 -134.21711730957031
38.974372863769531 -106.57143402099609 -134.21676635742188
37.689666748046875 -107.61701202392578 -134.21694946289062
37.017723083496094 -108.13981628417969 -134.21713256835938
35.572410583496094 -109.57676696777344 -134.21733093261719
35.049858093261719 -110.25974273681641 -134.21725463867188
34.075675964355469 -111.54529571533203 -134.21726989746094
33.4876708984375 -113.50217437744141 -134.21614074707031
33.748008728027344 -115.45756530761719 -134.21395874023438
33.740509033203125 -117.42329406738281 -134.21241760253906
34.661243438720703 -119.37732696533203 -134.209716796875
35.009349822998047 -119.66754913330078 -134.20901489257812
36.962562561035156 -120.2257080078125 -134.20590209960938
38.909996032714844 -119.66059875488281 -134.20370483398438
39.889236450195312 -119.36798095703125 -134.20269775390625
40.858772277832031 -119.09539031982422 -134.20175170898438
42.816883087158203 -119.19188690185547 -134.19964599609375
44.767311096191406 -118.92726898193359 -134.19802856445312
46.719383239746094 -118.54221343994141 -134.19674682617188
48.048313140869141 -119.35167694091797 -134.19534301757812
48.667778015136719 -119.84172821044922 -134.19468688964844
49.806083679199219 -121.30328369140625 -134.19331359863281
50.625583648681641 -122.35433959960938 -134.19245910644531
51.325607299804688 -123.26524353027344 -134.19181823730469
52.576786041259766 -124.86672210693359 -134.19090270996094
52.867286682128906 -125.21697998046875 -134.19073486328125
54.350864410400391 -127.16870880126953 -134.19007873535156
54.531444549560547 -127.3487548828125 -134.19003295898438
56.308364868164062 -129.11920166015625 -134.18977355957031
58.460609436035156 -131.26202392578125 -131.69198608398438
60.421295166015625 -131.81867980957031 -131.69233703613281
61.486282348632812 -131.07414245605469 -131.69242858886719
62.390987396240234 -130.47036743164062 -131.69259643554688
64.020309448242188 -129.10273742675781 -131.69306945800781
64.352363586425781 -128.76101684570312 -131.69320678710938
65.610877990722656 -127.14356231689453 -131.69386291503906
66.316268920898438 -126.22933197021484 -131.69439697265625
67.183441162109375 -125.18428802490234 -131.69508361816406
68.002037048339844 -123.22688293457031 -131.6961669921875
68.295074462890625 -122.77488708496094 -131.69651794433594
69.225502014160156 -121.25825500488281 -131.69783020019531
69.865692138671875 -119.30109405517578 -131.69937133789062
70.214767456054688 -117.34461975097656 -131.70095825195312
70.275749206542969 -117.21409606933594 -131.70108032226562
71.059600830078125 -115.37667083740234 -131.70320129394531
71.0885009765625 -113.42086791992188 -131.70498657226562
71.290237426757812 -111.46449279785156 -131.70719909667969
71.977767944335938 -109.49660491943359 -131.71009826660156
72.101387023925781 -107.54019927978516 -131.71273803710938
71.630821228027344 -105.58534240722656 -131.71507263183594
71.151634216308594 -103.62036895751953 -131.71768188476562
71.168083190917969 -101.66388702392578 -131.72093200683594
70.792312622070312 -99.708366394042969 -131.72407531738281
70.397018432617188 -98.846534729003906 -131.72537231445312
69.913650512695312 -97.744071960449219 -131.72712707519531
69.389328002929688 -95.788665771484375 -131.73069763183594
68.478324890136719 -94.275749206542969 -131.73326110839844
68.190956115722656 -93.834945678710938 -131.73405456542969
67.054779052734375 -91.880851745605469 -131.73779296875
66.537162780761719 -91.360298156738281 -131.73873901367188
64.923469543457031 -89.919151306152344 -131.74139404296875
64.594772338867188 -89.638946533203125 -131.741943359375
62.637256622314453 -89.252510070800781 -131.7421875
60.667526245117188 -89.13702392578125 -131.74201965332031
58.702610015869141 -89.533340454101562 -131.74081420898438
58.074657440185547 -89.936378479003906 -131.73979187011719
56.728675842285156 -90.762687683105469 -131.73783874511719
54.752357482910156 -91.500015258789062 -131.736328125
54.125354766845703 -91.9129638671875 -131.73548889160156
52.781768798828125 -92.728996276855469 -131.73397827148438
50.815895080566406 -93.696815490722656 -131.7325439453125
50.613441467285156 -93.877899169921875 -131.73222351074219
48.834156036376953 -95.346969604492188 -131.72994995117188
48.208038330078125 -95.840019226074219 -131.72927856445312
46.865840911865234 -96.876434326171875 -131.72801208496094
45.815803527832031 -97.801765441894531 -131.72694396972656
44.894401550292969 -98.937515258789062 -131.7254638671875
44.256477355957031 -99.771629333496094 -131.72444152832031
42.979167938232422 -101.730712890625 -131.72207641601562
42.918498992919922 -101.81108856201172 -131.72201538085938
41.543788909912109 -103.68989562988281 -131.72024536132812
40.938285827636719 -104.46353912353516 -131.71966552734375
39.960468292236328 -105.65918731689453 -131.71891784667969
39.028121948242188 -107.61711883544922 -131.71723937988281
38.967678070068359 -107.69747161865234 -131.71722412109375
37.668212890625 -109.57563781738281 -131.7164306640625
37.003894805908203 -110.55982208251953 -131.71611022949219
36.250263214111328 -111.54412078857422 -131.71601867675781
35.213142395019531 -113.50178527832031 -131.7154541015625
35.030910491943359 -114.09384918212891 -131.71514892578125
34.6461181640625 -115.45853424072266 -131.71449279785156
34.638603210449219 -117.42424774169922 -131.71295166015625
35.014186859130859 -118.39640808105469 -131.71171569824219
36.147998809814453 -119.37722778320312 -131.70945739746094
36.965106964111328 -119.66659545898438 -131.70816040039062
38.911052703857422 -119.6630859375 -131.70567321777344
39.520854949951172 -119.37113952636719 -131.70512390136719
40.860813140869141 -118.76692962646484 -131.70396423339844
42.820968627929688 -118.20158386230469 -131.70233154296875
44.772716522216797 -117.57594299316406 -131.70100402832031
45.093372344970703 -117.40480804443359 -131.70085144042969
46.727008819580078 -116.6292724609375 -131.7001953125
48.195728302001953 -117.39836883544922 -131.69863891601562
48.675338745117188 -117.69821929931641 -131.69815063476562
50.232822418212891 -119.34945678710938 -131.69622802734375
50.631935119628906 -119.97031402587891 -131.6956787109375
51.440528869628906 -121.30217742919922 -131.69465637207031
52.178749084472656 -123.26582336425781 -131.69357299804688
52.578937530517578 -123.88658905029297 -131.6932373046875
53.399871826171875 -125.21826171875 -131.69265747070312
54.351894378662109 -127.17119598388672 -131.69210815429688
54.532482147216797 -127.35124969482422 -131.69206237792969
56.309391021728516 -129.12167358398438 -131.6917724609375
56.500255584716797 -129.31172180175781 -131.6917724609375
58.279548645019531 -131.08200073242188 -131.69192504882812
60.425670623779297 -132.633056640625 -129.19485473632812
62.396987915039062 -132.62815856933594 -129.19534301757812
64.357666015625 -131.36001586914062 -129.19580078125
64.649276733398438 -131.06851196289062 -129.19589233398438
66.037422180175781 -129.09988403320312 -129.19642639160156
66.319320678710938 -128.75827026367188 -129.19656372070312
67.457733154296875 -127.14106750488281 -129.19734191894531
68.294853210449219 -125.75518798828125 -129.19808959960938
68.698532104492188 -125.18258666992188 -129.198486328125
69.214996337890625 -123.2259521484375 -129.19944763183594
69.773216247558594 -121.25908660888672 -129.20066833496094
70.27001953125 -120.15467834472656 -129.20162963867188
70.675811767578125 -119.30118560791016 -129.20245361328125
71.075431823730469 -117.34456634521484 -129.2041015625
71.577362060546875 -115.37753295898438 -129.20610046386719
72.080619812011719 -113.42039489746094 -129.20834350585938
72.090629577636719 -111.46453857421875 -129.21037292480469
72.10198974609375 -109.49854278564453 -129.21266174316406
72.114585876464844 -107.54244995117188 -129.21519470214844
72.128471374511719 -105.58621215820312 -129.21795654296875
72.143722534179688 -103.61983489990234 -129.22096252441406
72.039047241210938 -101.66368865966797 -129.22409057617188
71.320075988769531 -99.709136962890625 -129.2269287109375
70.406486511230469 -98.196510314941406 -129.22901916503906
70.11846923828125 -97.745750427246094 -129.22966003417969
69.392433166503906 -95.790901184082031 -129.23307800292969
68.476860046386719 -94.689491271972656 -129.23475646972656
67.770751953125 -93.838325500488281 -129.23614501953125
66.529945373535156 -92.225753784179688 -129.23904418945312
66.251945495605469 -91.885238647460938 -129.23968505859375
64.590682983398438 -90.213356018066406 -129.24285888671875
63.98028564453125 -89.923843383789062 -129.24331665039062
62.639839172363281 -89.294876098632812 -129.24441528320312
60.670627593994141 -89.139236450195312 -129.24433898925781
58.705699920654297 -89.535545349121094 -129.24313354492188
58.077747344970703 -89.938591003417969 -129.24212646484375
56.731777191162109 -90.764900207519531 -129.24018859863281
54.752811431884766 -91.723060607910156 -129.23818969726562
54.529781341552734 -91.914283752441406 -129.23779296875
52.78057861328125 -93.102584838867188 -129.23551940917969
51.638832092285156 -93.8779296875 -129.23420715332031
50.809917449951172 -94.512016296386719 -129.23313903808594
48.833934783935547 -95.660324096679688 -129.23170471191406
48.631721496582031 -95.841377258300781 -129.2314453125
46.86700439453125 -97.069343566894531 -129.23007202148438
45.528785705566406 -97.8045654296875 -129.22958374023438
44.904521942138672 -98.217239379882812 -129.22926330566406
42.942806243896484 -99.465309143066406 -129.22862243652344
42.61004638671875 -99.777000427246094 -129.22834777832031
40.969093322753906 -101.13465881347656 -129.22758483886719
40.374515533447266 -101.73778533935547 -129.2271728515625
39.002838134765625 -103.37567901611328 -129.22599792480469
38.690811157226562 -103.69729614257812 -129.22587585449219
37.847312927246094 -105.66518402099609 -129.22389221191406
37.031059265136719 -106.79021453857422 -129.22332763671875
36.386932373046875 -107.62397003173828 -129.2230224609375
35.576580047607422 -109.58148193359375 -129.22161865234375
35.054035186767578 -110.26446533203125 -129.22154235839844
34.129692077636719 -111.54993438720703 -129.22145080566406
33.095859527587891 -112.97594451904297 -129.22152709960938
32.694747924804688 -113.50819396972656 -129.22163391113281
31.540561676025391 -115.46585083007812 -129.22171020507812
32.050960540771484 -117.43079376220703 -129.21931457519531
33.072399139404297 -118.85323333740234 -129.21669006347656
35.014839172363281 -119.21099090576172 -129.21351623535156
36.969535827636719 -119.20758056640625 -129.21080017089844
38.918525695800781 -118.21127319335938 -129.20896911621094
40.867397308349609 -117.69618988037109 -129.20710754394531
41.417793273925781 -117.41434478759766 -129.20672607421875
42.829204559326172 -116.73970794677734 -129.20582580566406
44.782070159912109 -115.90343475341797 -129.20475769042969
46.73406982421875 -115.62867736816406 -129.20350646972656
48.685272216796875 -115.86526489257812 -129.20205688476562
50.212100982666016 -117.39633941650391 -129.2000732421875
50.641014099121094 -117.96701812744141 -129.199462890625
51.4686279296875 -119.34904479980469 -129.19819641113281
52.586753845214844 -121.22169494628906 -129.19677734375
52.646736145019531 -121.30178833007812 -129.19671630859375
53.254871368408203 -123.26570892333984 -129.19570922851562
54.356040954589844 -125.2183837890625 -129.19486999511719
54.536468505859375 -125.43855285644531 -129.19476318359375
55.729953765869141 -127.17031860351562 -129.19432067871094
56.502986907958984 -128.22123718261719 -129.19416809082031
57.206230163574219 -129.12188720703125 -129.19413757324219
58.463134765625 -130.73301696777344 -129.19425964355469
58.775012969970703 -131.0831298828125 -129.19435119628906
62.404403686523438 -133.78323364257812 -126.6983642578125
64.365821838378906 -133.20684814453125 -126.69891357421875
64.546714782714844 -133.02592468261719 -126.69894409179688
66.044326782226562 -131.06710815429688 -126.69929504394531
66.325996398925781 -130.71548461914062 -126.69940185546875
67.463333129882812 -129.09832763671875 -126.69998931884766
68.299545288085938 -127.71250915527344 -126.7005615234375
68.702842712402344 -127.13993072509766 -126.70091247558594
69.591148376464844 -125.18235778808594 -126.70191192626953
69.8858642578125 -123.22629547119141 -126.70273590087891
70.270759582519531 -122.24257659912109 -126.70342254638672
70.676239013671875 -121.25877380371094 -126.70421600341797
71.074554443359375 -119.30223846435547 -126.70558929443359
71.57513427734375 -117.34531402587891 -126.70734405517578
72.077133178710938 -115.37826538085938 -126.7093505859375
72.085845947265625 -113.42250061035156 -126.71113586425781
72.095855712890625 -111.46663665771484 -126.71318817138672
72.107223510742188 -109.50063323974609 -126.71547698974609
72.119819641113281 -107.54452514648438 -126.71798706054688
72.133697509765625 -105.58828735351562 -126.72074890136719
72.027809143066406 -103.62224578857422 -126.72364807128906
71.297470092773438 -101.66785430908203 -126.72621917724609
70.800621032714844 -99.712654113769531 -126.72926330566406
70.402999877929688 -99.091659545898438 -126.73009490966797
69.599227905273438 -97.749244689941406 -126.73204803466797
68.651519775390625 -95.794975280761719 -126.73529052734375
68.472442626953125 -95.574691772460938 -126.73561096191406
67.352691650390625 -93.841484069824219 -126.73862457275391
66.529220581054688 -92.729629516601562 -126.74061584472656
65.793800354003906 -91.888473510742188 -126.74215698242188
64.589271545410156 -90.74737548828125 -126.74429321289062
63.462100982666016 -89.92718505859375 -126.74583435058594
62.645008087158203 -89.296867370605469 -126.74710845947266
60.675792694091797 -89.141212463378906 -126.74704742431641
58.710865020751953 -89.537521362304688 -126.74586486816406
58.082912445068359 -89.940582275390625 -126.74486541748047
56.736946105957031 -90.766899108886719 -126.74291229248047
54.757976531982422 -91.725059509277344 -126.74093627929688
54.534950256347656 -91.916267395019531 -126.74052429199219
52.785751342773438 -93.104583740234375 -126.73828125
51.644012451171875 -93.879920959472656 -126.73697662353516
50.815093994140625 -94.514022827148438 -126.73593902587891
48.841472625732422 -95.4415283203125 -126.73494720458984
48.276397705078125 -95.844131469726562 -126.73444366455078
46.875251770019531 -96.770271301269531 -126.73345947265625
45.623985290527344 -97.806411743164062 -126.73227691650391
44.907829284667969 -98.409912109375 -126.73168182373047
43.144977569580078 -99.778022766113281 -126.73063659667969
42.943477630615234 -99.948989868164062 -126.73049926757812
41.028923034667969 -101.73862457275391 -126.72923278808594
40.968471527099609 -101.79892730712891 -126.72920227050781
39.007850646972656 -103.39777374267578 -126.72872161865234
38.695968627929688 -103.69933319091797 -126.72860717773438
37.046596527099609 -105.35760498046875 -126.72811889648438
36.735038757324219 -105.66914367675781 -126.72807312011719
35.674034118652344 -107.62722015380859 -126.72675323486328
35.069328308105469 -108.61133575439453 -126.72628021240234
34.475090026855469 -109.58536529541016 -126.72592163085938
33.110237121582031 -111.22264099121094 -126.72606658935547
32.799552917480469 -111.55414581298828 -126.72618103027344
31.783498764038086 -113.51170349121094 -126.72576904296875
31.151569366455078 -114.49565124511719 -126.72586822509766
30.579860687255859 -115.46943664550781 -126.72597503662109
31.142648696899414 -116.67209625244141 -126.72402954101562
31.757316589355469 -117.43335723876953 -126.72242736816406
33.079616546630859 -118.20344543457031 -126.71977233886719
34.706707000732422 -117.42852020263672 -126.71787261962891
35.026393890380859 -117.2374267578125 -126.71754455566406
36.981975555419922 -116.99335479736328 -126.71504974365234
38.927925109863281 -116.98986053466797 -126.71261596679688
40.876476287841797 -116.61516571044922 -126.71070861816406
42.837059020996094 -116.0498046875 -126.70921325683594
43.809173583984375 -115.44615173339844 -126.70883178710938
44.791851043701172 -114.81236267089844 -126.70855712890625
46.745037078857422 -114.29689025878906 -126.70756530761719
48.321735382080078 -115.43692016601562 -126.70552062988281
48.691051483154297 -115.72696685791016 -126.70506286621094
50.357589721679688 -117.39813995361328 -126.702880859375
50.647003173828125 -117.73847198486328 -126.7025146484375
51.824691772460938 -119.35037994384766 -126.70095825195312
52.593708038330078 -120.48179626464844 -126.70004272460938
53.223609924316406 -121.30262756347656 -126.69941711425781
54.142848968505859 -123.26582336425781 -126.69834899902344
54.543380737304688 -123.83644104003906 -126.69805908203125
55.475204467773438 -125.21794128417969 -126.697509765625
56.508438110351562 -126.45879364013672 -126.69715881347656
57.181034088134766 -127.16905975341797 -126.69701385498047
58.286296844482422 -129.12149047851562 -126.69692993164062
58.467269897460938 -129.35163879394531 -126.69695281982422
59.654624938964844 -131.08317565917969 -126.69717407226562
60.430076599121094 -132.12393188476562 -126.69744873046875
61.417102813720703 -133.03379821777344 -126.6978759765625
62.416168212890625 -135.6298828125 -124.20203399658203
64.377555847167969 -135.17381286621094 -124.20256805419922
64.558303833007812 -134.98289489746094 -124.20257568359375
66.3370361328125 -133.20384216308594 -124.20291137695312
66.528129577636719 -133.02287292480469 -124.20297241210938
67.482444763183594 -131.06538391113281 -124.20318603515625
68.307685852050781 -129.72976684570312 -124.20362854003906
68.7105712890625 -129.0970458984375 -124.20389556884766
69.597572326660156 -127.13955688476562 -124.20466613769531
70.213760375976562 -125.18267059326172 -124.20550537109375
70.274391174316406 -125.06220245361328 -124.20558929443359
71.093734741210938 -123.22499847412109 -124.20684051513672
71.077079772949219 -121.25965881347656 -124.20768737792969
71.576362609863281 -119.30281829833984 -124.20918273925781
72.077018737792969 -117.34588623046875 -124.21095275878906
72.084480285644531 -115.38019561767578 -124.2125244140625
72.093185424804688 -113.42443084716797 -124.21432495117188
72.103195190429688 -111.46855163574219 -124.21637725830078
72.114540100097656 -109.50253295898438 -124.21865844726562
72.12713623046875 -107.54641723632812 -124.22117614746094
72.141014099121094 -105.59016418457031 -124.22391510009766
72.035133361816406 -103.62409973144531 -124.22681427001953
71.304779052734375 -101.66970062255859 -124.22939300537109
70.80792236328125 -99.714485168457031 -124.23240661621094
70.409812927246094 -99.143653869628906 -124.233154296875
69.586357116699219 -97.751113891601562 -124.23516845703125
68.4736328125 -96.148544311523438 -124.23757934570312
68.185035705566406 -95.798088073730469 -124.23809814453125
66.836013793945312 -93.844696044921875 -124.24143981933594
66.527229309082031 -93.534393310546875 -124.241943359375
64.894760131835938 -91.892654418945312 -124.24483489990234
64.586380004882812 -91.582298278808594 -124.24541473388672
62.643486022949219 -89.991302490234375 -124.24848175048828
62.513442993164062 -89.931404113769531 -124.24858093261719
60.682765960693359 -89.163040161132812 -124.25005340576172
58.718097686767578 -89.539283752441406 -124.24893951416016
58.090141296386719 -89.942329406738281 -124.24793243408203
56.744178771972656 -90.768653869628906 -124.24600982666016
54.765205383300781 -91.726821899414062 -124.24404144287109
54.542179107666016 -91.918037414550781 -124.24365997314453
52.792984008789062 -93.106361389160156 -124.24142456054688
51.6512451171875 -93.881698608398438 -124.2401123046875
50.82232666015625 -94.515800476074219 -124.23907470703125
48.846332550048828 -95.664108276367188 -124.23764038085938
48.624099731445312 -95.84521484375 -124.23738098144531
46.879093170166016 -97.103248596191406 -124.23594665527344
46.171504974365234 -97.80712890625 -124.23503875732422
44.905349731445312 -99.425254821777344 -124.23293304443359
44.592014312744141 -99.777069091796875 -124.2325439453125
43.214603424072266 -101.73638153076172 -124.23026275634766
42.931694030761719 -102.08809661865234 -124.22991943359375
41.789119720458984 -103.69558715820312 -124.22837066650391
40.949050903320312 -105.09169769287109 -124.22707366943359
40.545238494873047 -105.66428375244141 -124.22665405273438
39.792453765869141 -107.62191772460938 -124.22472381591797
38.975067138671875 -108.95758056640625 -124.22389984130859
38.571949005126953 -109.58024597167969 -124.22359466552734
38.191341400146484 -111.54695892333984 -124.22175598144531
38.952289581298828 -113.01002502441406 -124.21929168701172
39.389148712158203 -113.50069427490234 -124.21829223632812
40.892807006835938 -114.42066192626953 -124.21575927734375
42.852142333984375 -114.21632385253906 -124.21401977539062
44.801822662353516 -114.21249389648438 -124.21234130859375
46.752334594726562 -114.29878997802734 -124.21080017089844
48.459205627441406 -115.43855285644531 -124.20870208740234
48.698764801025391 -115.62858581542969 -124.20841217041016
50.656600952148438 -117.08855438232422 -124.20626068115234
50.946113586425781 -117.39878845214844 -124.20588684082031
52.604545593261719 -119.17007446289062 -124.20405578613281
52.784534454345703 -119.35018920898438 -124.20388793945312
53.692329406738281 -121.30352020263672 -124.20254516601562
54.552886962890625 -122.43461608886719 -124.20182800292969
55.193771362304688 -123.265380859375 -124.20139312744141
56.325801849365234 -125.21793365478516 -124.20062255859375
56.516387939453125 -125.43807220458984 -124.2005615234375
57.640357971191406 -127.16996765136719 -124.2001953125
58.474296569824219 -128.68190002441406 -124.20008850097656
58.765869140625 -129.12232971191406 -124.20010375976562
59.511180877685547 -131.08555603027344 -124.20027160644531
60.438167572021484 -132.59713745117188 -124.20064544677734
60.73052978515625 -133.03753662109375 -124.20079803466797
61.740467071533203 -134.98995971679688 -124.20159149169922
62.418178558349609 -132.1229248046875 -121.70443725585938
64.381317138671875 -132.47889709472656 -121.70520782470703
66.345748901367188 -132.80467224121094 -121.70620727539062
67.602760314941406 -131.06695556640625 -121.70665740966797
67.631317138671875 -129.10177612304688 -121.70661926269531
67.882926940917969 -127.14598083496094 -121.70693969726562
67.823394775390625 -125.19093322753906 -121.70729827880859
68.318412780761719 -124.08665466308594 -121.70794677734375
68.722816467285156 -123.23326110839844 -121.70852661132812
69.472526550292969 -121.26585388183594 -121.70993041992188
70.29266357421875 -119.92990112304688 -121.71126556396484
70.697868347167969 -119.30704498291016 -121.71195983886719
71.21856689453125 -117.35005950927734 -121.71373748779297
71.972816467285156 -115.38227844238281 -121.7159423828125
72.102638244628906 -113.42616271972656 -121.71785736083984
72.233772277832031 -111.46991729736328 -121.72000885009766
72.2950439453125 -111.33937072753906 -121.72019958496094
73.083023071289062 -109.50151824951172 -121.72304534912109
73.125885009765625 -107.54529571533203 -121.72559356689453
73.089271545410156 -105.58917236328125 -121.72825622558594
72.751129150390625 -103.62374877929688 -121.73094177246094
72.354339599609375 -102.77206420898438 -121.73191833496094
71.869209289550781 -101.66977691650391 -121.73332977294922
71.170433044433594 -99.715126037597656 -121.73616027832031
70.42315673828125 -98.733848571777344 -121.73738098144531
69.676414489746094 -97.75250244140625 -121.73867797851562
68.479629516601562 -96.471290588378906 -121.74037933349609
67.801307678222656 -95.800750732421875 -121.74132537841797
66.525535583496094 -94.519584655761719 -121.74326324462891
65.858161926269531 -93.848907470703125 -121.74434661865234
64.581695556640625 -92.768310546875 -121.74617767333984
63.072193145751953 -91.898963928222656 -121.74757385253906
62.632972717285156 -91.609001159667969 -121.74810791015625
60.666431427001953 -91.222480773925781 -121.74856567382812
58.707954406738281 -91.106819152832031 -121.74862670898438
56.74456787109375 -91.502967834472656 -121.74775695800781
55.876232147216797 -91.916534423828125 -121.74688720703125
54.76654052734375 -92.400886535644531 -121.74596405029297
52.803321838378906 -93.017578125 -121.74508666992188
51.660530090332031 -93.883255004882812 -121.74358367919922
50.831615447998047 -94.517364501953125 -121.74254608154297
48.855628967285156 -95.665672302246094 -121.74112701416016
48.673431396484375 -95.846694946289062 -121.74085998535156
46.883113861083984 -97.626670837402344 -121.73838806152344
46.701160430908203 -97.807670593261719 -121.7381591796875
45.721622467041016 -99.776458740234375 -121.73516845703125
44.899223327636719 -101.11264038085938 -121.73342895507812
44.493724822998047 -101.73554229736328 -121.73268127441406
42.929229736328125 -103.50444030761719 -121.73112487792969
42.737781524658203 -103.6954345703125 -121.73097991943359
41.583446502685547 -105.66401672363281 -121.72906494140625
40.948127746582031 -106.48783874511719 -121.72855377197266
40.081348419189453 -107.62305450439453 -121.72789764404297
39.379844665527344 -109.58046722412109 -121.72615814208984
39.3685302734375 -111.54653930664062 -121.723876953125
40.726627349853516 -113.49993896484375 -121.7203369140625
40.905555725097656 -113.68014526367188 -121.71998596191406
42.861709594726562 -114.16788482666016 -121.71761322021484
44.811168670654297 -114.21417999267578 -121.71588897705078
46.761966705322266 -114.24031066894531 -121.71444702148438
48.713886260986328 -114.29640960693359 -121.71318817138672
50.421890258789062 -115.43606567382812 -121.7113037109375
50.671619415283203 -115.62606048583984 -121.71104431152344
52.328838348388672 -117.39747619628906 -121.708984375
52.618656158447266 -117.67763519287109 -121.70868682861328
54.28851318359375 -119.34853363037109 -121.70710754394531
54.5682373046875 -119.78911590576172 -121.70677947998047
55.44769287109375 -121.30125427246094 -121.70579528808594
56.217041015625 -123.26478576660156 -121.70482635498047
56.527660369873047 -123.70524597167969 -121.70463562011719
57.449886322021484 -125.21709442138672 -121.70412445068359
58.182205200195312 -127.17050933837891 -121.70374298095703
58.483573913574219 -127.62095642089844 -121.70368194580078
59.408447265625 -129.12263488769531 -121.70364379882812
60.444656372070312 -130.28309631347656 -121.70380401611328
61.300205230712891 -131.08302307128906 -121.70403289794922
62.433601379394531 -134.19989013671875 -119.20863342285156
64.394378662109375 -133.32273864746094 -119.20909881591797
64.836837768554688 -133.03085327148438 -119.20922088623047
66.356285095214844 -132.19480895996094 -119.20982360839844
67.866302490234375 -131.06797790527344 -119.21054077148438
68.146865844726562 -129.10212707519531 -119.21070098876953
68.328033447265625 -128.36973571777344 -119.21086120605469
68.610237121582031 -127.14574432373047 -119.21118927001953
68.923721313476562 -125.18967437744141 -119.21183013916016
68.330284118652344 -123.84764099121094 -119.21187591552734
68.048881530761719 -123.23671722412109 -119.2119140625
68.332435607910156 -122.41371154785156 -119.21244049072266
68.7379150390625 -121.26947784423828 -119.2132568359375
69.488929748535156 -119.31197357177734 -119.21489715576172
70.309928894042969 -117.97595977783203 -119.21640014648438
70.715553283691406 -117.35306549072266 -119.2171630859375
71.237571716308594 -115.38592529296875 -119.21916961669922
71.993080139160156 -113.42804718017578 -119.22159576416016
72.245323181152344 -111.47145843505859 -119.22385406494141
72.306587219238281 -111.34089660644531 -119.22405242919922
73.094558715820312 -109.50302886962891 -119.22688293457031
73.137405395507812 -107.54678344726562 -119.22940063476562
73.151260375976562 -105.59049224853516 -119.23213195800781
73.136177062988281 -103.6241455078125 -119.23507690429688
72.37420654296875 -101.79020690917969 -119.23735046386719
72.314697265625 -101.66998291015625 -119.23750305175781
72.090126037597656 -99.713966369628906 -119.24069976806641
70.736846923828125 -97.750968933105469 -119.24324035644531
70.44732666015625 -97.450736999511719 -119.24359130859375
68.800582885742188 -95.799430847167969 -119.24571228027344
68.501258850097656 -95.50921630859375 -119.24610137939453
66.735877990722656 -93.847946166992188 -119.24857330322266
66.5465087890625 -93.667793273925781 -119.24887084960938
64.601226806640625 -92.077033996582031 -119.25145721435547
64.371826171875 -91.896965026855469 -119.25175476074219
62.656059265136719 -90.646659851074219 -119.25408172607422
60.689743041992188 -90.25006103515625 -119.25457763671875
58.730037689208984 -90.234786987304688 -119.25440216064453
56.766654968261719 -90.62091064453125 -119.25353240966797
54.792606353759766 -91.16754150390625 -119.25253295898438
53.730117797851562 -91.922767639160156 -119.25104522705078
52.82000732421875 -92.557167053222656 -119.24988555908203
50.854522705078125 -93.484870910644531 -119.24855804443359
50.278816223144531 -93.887565612792969 -119.24794006347656
48.876171112060547 -94.81390380859375 -119.24667358398438
47.713531494140625 -95.850028991699219 -119.24522399902344
46.903202056884766 -96.764938354492188 -119.24388122558594
46.032035827636719 -97.810379028320312 -119.24245452880859
45.412837982177734 -99.778465270996094 -119.23924255371094
44.913799285888672 -100.75279235839844 -119.23788452148438
44.415065765380859 -101.73710632324219 -119.23657989501953
43.21893310546875 -103.69593811035156 -119.23439788818359
42.935459136962891 -104.14796447753906 -119.23395538330078
41.994472503662109 -105.66468811035156 -119.2325439453125
41.281295776367188 -107.62230682373047 -119.23049926757812
41.398643493652344 -109.57823944091797 -119.22785949707031
42.889820098876953 -110.89949798583984 -119.22489166259766
44.837577819824219 -111.24675750732422 -119.22285461425781
46.789035797119141 -111.15254211425781 -119.22154235839844
47.767898559570312 -111.53167724609375 -119.22050476074219
48.736988067626953 -111.93085479736328 -119.21951293945312
50.695720672607422 -112.84940338134766 -119.21759033203125
51.324020385742188 -113.47990417480469 -119.21669769287109
52.640094757080078 -115.08168792724609 -119.21473693847656
52.929435729980469 -115.43206787109375 -119.21433258056641
54.406520843505859 -117.39433288574219 -119.21237945556641
54.586368560791016 -117.61455535888672 -119.21217346191406
55.7752685546875 -119.3466796875 -119.21080780029297
56.545318603515625 -120.47802734375 -119.21005249023438
57.176063537597656 -121.29880523681641 -119.20957946777344
57.8253173828125 -123.26260375976562 -119.20866394042969
58.435855865478516 -125.21638488769531 -119.20802307128906
58.496044158935547 -125.33657073974609 -119.20798492431641
59.309127807617188 -127.16946411132812 -119.20764923095703
59.641109466552734 -129.12376403808594 -119.20748901367188
60.456878662109375 -130.96652221679688 -119.2076416015625
60.517333984375 -131.086669921875 -119.20764923095703
61.264385223388672 -133.03981018066406 -119.20807647705078
62.447307586669922 -134.23149108886719 -116.71265411376953
64.408943176269531 -133.78543090820312 -116.71324157714844
65.565505981445312 -133.03056335449219 -116.71358489990234
66.370452880859375 -132.50715637207031 -116.71387481689453
68.344375610351562 -131.61972045898438 -116.71491241455078
68.898193359375 -131.06683349609375 -116.71523284912109
69.259513854980469 -129.10073852539062 -116.71548461914062
68.8255615234375 -127.14670562744141 -116.71541595458984
68.342071533203125 -125.89464569091797 -116.71537780761719
68.050224304199219 -125.19351959228516 -116.71537780761719
67.659355163574219 -123.23924255371094 -116.7158203125
68.055999755859375 -121.27277374267578 -116.71697998046875
68.349311828613281 -120.83075714111328 -116.71737670898438
69.280731201171875 -119.31398773193359 -116.71891021728516
69.831436157226562 -117.35691833496094 -116.72064971923828
70.329696655273438 -116.25236511230469 -116.72189331054688
70.736648559570312 -115.38873291015625 -116.72292327880859
71.13885498046875 -113.43182373046875 -116.72504425048828
71.643295288085938 -111.47451782226562 -116.72749328613281
72.149154663085938 -109.50705718994141 -116.73017883300781
72.161720275878906 -107.55088806152344 -116.732666015625
72.175559997558594 -105.59458923339844 -116.73538208007812
72.06964111328125 -103.62847137451172 -116.73825073242188
70.854942321777344 -101.67537689208984 -116.74041748046875
70.426193237304688 -101.10464477539062 -116.74105834960938
69.510940551757812 -99.722450256347656 -116.74282073974609
68.484344482421875 -98.480964660644531 -116.74441528320312
67.806076049804688 -97.760292053222656 -116.74535369873047
66.529449462890625 -96.47918701171875 -116.74714660644531
65.861640930175781 -95.808570861816406 -116.74814605712891
64.585777282714844 -94.607566833496094 -116.75006103515625
63.678173065185547 -93.857177734375 -116.75129699707031
62.640472412109375 -93.086982727050781 -116.75263977050781
60.914302825927734 -91.906913757324219 -116.75485992431641
60.685321807861328 -91.716773986816406 -116.75526428222656
58.734203338623047 -90.98876953125 -116.75672149658203
56.78302001953125 -90.381057739257812 -116.75814819335938
54.817298889160156 -90.24505615234375 -116.75871276855469
52.856437683105469 -90.630897521972656 -116.75829315185547
50.895786285400391 -91.106948852539062 -116.75791168212891
49.413078308105469 -91.933189392089844 -116.75672912597656
48.918968200683594 -92.215278625488281 -116.75634002685547
46.957149505615234 -93.032310485839844 -116.75570678710938
45.9066162109375 -93.897590637207031 -116.75455474853516
44.987918853759766 -94.65216064453125 -116.75364685058594
43.894905090332031 -95.858657836914062 -116.75202941894531
43.010734558105469 -97.255340576171875 -116.75002288818359
42.595306396484375 -97.818107604980469 -116.74931335449219
42.186679840087891 -99.785781860351562 -116.74606323242188
41.679531097412109 -101.74346160888672 -116.74314117431641
41.053840637207031 -103.70118713378906 -116.74056243896484
40.99285888671875 -103.83172607421875 -116.74041748046875
40.209724426269531 -105.66919708251953 -116.73845672607422
40.265872955322266 -107.62541961669922 -116.73566436767578
40.958595275878906 -108.60726928710938 -116.73368072509766
42.913379669189453 -109.19546508789062 -116.73109436035156
43.880752563476562 -109.57478332519531 -116.72979736328125
44.858310699462891 -109.984130859375 -116.72852325439453
46.807689666748047 -110.25105285644531 -116.726806640625
48.759220123291016 -110.36736297607422 -116.72550964355469
50.719741821289062 -110.88475799560547 -116.72396087646484
51.53802490234375 -111.52491760253906 -116.72293090820312
52.666831970214844 -112.29473114013672 -116.72171020507812
54.27581787109375 -113.47461700439453 -116.72007751464844
54.615287780761719 -113.82488250732422 -116.71967315673828
55.742286682128906 -115.42698669433594 -116.718017578125
56.569141387939453 -117.08983612060547 -116.716552734375
56.748809814453125 -117.39027404785156 -116.71632385253906
56.8631591796875 -119.34554290771484 -116.71495819091797
57.13946533203125 -121.30033111572266 -116.71380615234375
57.909255981445312 -123.26387023925781 -116.71286773681641
58.510643005371094 -124.3353271484375 -116.71250152587891
59.032291412353516 -125.21643829345703 -116.71224212646484
59.724796295166016 -127.16995239257812 -116.71186065673828
60.468772888183594 -128.44148254394531 -116.7117919921875
60.881294250488281 -129.12225341796875 -116.71180725097656
61.516490936279297 -131.08576965332031 -116.71193695068359
61.841278076171875 -133.03996276855469 -116.71224975585938
58.546783447265625 -139.2149658203125 -114.21818542480469
60.507396697998047 -139.3505859375 -114.21847534179688
62.479290008544922 -139.46603393554688 -114.21896362304688
63.030570983886719 -138.91331481933594 -114.21884918212891
64.434432983398438 -137.406005859375 -114.21865081787109
64.865936279296875 -136.95378112792969 -114.21865081787109
65.222908020019531 -134.98789978027344 -114.21814727783203
65.712181091308594 -133.0316162109375 -114.21796417236328
66.20281982421875 -131.07530212402344 -114.21800994873047
66.322067260742188 -129.10984802246094 -114.21810150146484
66.3824462890625 -128.9893798828125 -114.2181396484375
67.157981872558594 -127.15248870849609 -114.21881103515625
67.370536804199219 -125.1966552734375 -114.21939086914062
68.048049926757812 -123.23954010009766 -114.22048950195312
68.172561645507812 -121.27377319335938 -114.22149658203125
68.308433532714844 -119.31789398193359 -114.22273254394531
68.369239807128906 -119.1973876953125 -114.22286224365234
69.151344299316406 -117.36002349853516 -114.22465515136719
69.1285400390625 -115.39436340332031 -114.22624206542969
69.369171142578125 -113.43790435791016 -114.22821044921875
69.964088439941406 -111.48036956787109 -114.23066711425781
70.197303771972656 -109.51366424560547 -114.23310089111328
70.0787353515625 -107.55785369873047 -114.23550415039062
69.366439819335938 -105.60353088378906 -114.23770904541016
68.45166015625 -103.94060516357422 -114.23957824707031
68.262535095214844 -103.64012145996094 -114.23994445800781
67.432319641113281 -101.68584442138672 -114.24258422851562
66.510231018066406 -100.02262878417969 -114.24495697021484
66.331611633300781 -99.732109069824219 -114.24537658691406
64.860122680664062 -97.769142150878906 -114.24831390380859
64.5711669921875 -97.468849182128906 -114.24877166748047
62.927650451660156 -95.817176818847656 -114.25143432617188
62.62890625 -95.526893615722656 -114.25193786621094
60.866954803466797 -93.865234375 -114.25498962402344
60.677963256835938 -93.685035705566406 -114.25534057617188
58.731136322021484 -92.545547485351562 -114.25759887695312
57.844455718994141 -91.915290832519531 -114.25895690917969
56.788887023925781 -91.164932250976562 -114.26068115234375
54.826423645019531 -90.75787353515625 -114.26186370849609
52.867321014404297 -91.003181457519531 -114.26177978515625
50.903602600097656 -91.740211486816406 -114.26082611083984
50.67083740234375 -91.931434631347656 -114.26049041748047
48.923896789550781 -93.119544982910156 -114.25871276855469
47.873729705810547 -93.894569396972656 -114.25765228271484
46.952682495117188 -94.809806823730469 -114.25630950927734
46.170909881591797 -95.855178833007812 -114.25470733642578
44.973773956298828 -97.47332763671875 -114.25238800048828
44.680313110351562 -97.815109252929688 -114.25196838378906
43.481502532958984 -99.784317016601562 -114.24931335449219
42.991634368896484 -100.88906860351562 -114.247802734375
42.5743408203125 -101.74278259277344 -114.24671936035156
42.288242340087891 -103.69991302490234 -114.24382781982422
42.243175506591797 -105.66648101806641 -114.24089813232422
42.94671630859375 -106.50790405273438 -114.23908996582031
44.318744659423828 -107.61883544921875 -114.23642730712891
44.886146545410156 -108.01898956298828 -114.23545837402344
46.835391998291016 -108.28594970703125 -114.23373413085938
48.787132263183594 -108.36216735839844 -114.23250579833984
50.747280120849609 -108.88964080810547 -114.23089599609375
51.414615631103516 -109.56027984619141 -114.22981262207031
52.690742492675781 -110.77118682861328 -114.22793579101562
53.438732147216797 -111.52180480957031 -114.22689819335938
54.635894775390625 -112.80294799804688 -114.22525787353516
55.315013885498047 -113.47339630126953 -114.22447204589844
55.767997741699219 -115.42811584472656 -114.22257232666016
56.585498809814453 -116.90046691894531 -114.22127532958984
56.864913940429688 -117.39122009277344 -114.22087097167969
57.622035980224609 -119.34497833251953 -114.21947479248047
58.129478454589844 -121.29924011230469 -114.21833038330078
58.529098510742188 -122.44142913818359 -114.21775817871094
58.819141387939453 -123.26297760009766 -114.21739959716797
58.585758209228516 -125.21884155273438 -114.21669006347656
58.525108337402344 -125.71031188964844 -114.21654510498047
58.353675842285156 -127.17462158203125 -114.21619415283203
58.223358154296875 -129.13008117675781 -114.21593475341797
58.094352722167969 -131.09548950195312 -114.21590423583984
57.976673126220703 -133.05078125 -114.21608734130859
57.86029052734375 -135.00605773925781 -114.21651458740234
57.745223999023438 -136.97126770019531 -114.21714782714844
58.173908233642578 -138.92512512207031 -114.218017578125
62.476898193359375 -132.12872314453125 -111.72125244140625
64.440238952636719 -132.58499145507812 -111.72195434570312
65.626358032226562 -131.07803344726562 -111.72235107421875
66.400726318359375 -129.74253845214844 -111.72274780273438
66.813423156738281 -129.10980224609375 -111.72299957275391
67.326980590820312 -127.15325164794922 -111.72355651855469
67.882232666015625 -125.19649505615234 -111.72437286376953
68.377265930175781 -124.0921630859375 -111.72505187988281
68.781661987304688 -123.23873138427734 -111.72565460205078
69.178436279296875 -121.27220153808594 -111.72685241699219
69.364761352539062 -119.31615447998047 -111.7281494140625
70.046577453613281 -117.35866546630859 -111.73000335693359
70.185127258300781 -115.39253234863281 -111.73169708251953
70.193817138671875 -113.43667602539062 -111.73353576660156
70.203788757324219 -111.48070526123047 -111.73557281494141
70.104148864746094 -109.514892578125 -111.73776245117188
69.733421325683594 -107.55974578857422 -111.73998260498047
68.638084411621094 -105.6064453125 -111.74196624755859
68.458053588867188 -105.41629791259766 -111.74211883544922
66.788803100585938 -103.64498138427734 -111.74384307861328
66.499069213867188 -103.34474182128906 -111.74418640136719
64.861320495605469 -101.69351196289062 -111.74610900878906
64.551841735839844 -101.39329528808594 -111.74647521972656
62.906173706054688 -99.741859436035156 -111.748779296875
62.6070556640625 -99.451606750488281 -111.74921417236328
60.843055725097656 -97.780174255371094 -111.75189208984375
60.653820037841797 -97.600006103515625 -111.75218200683594
58.710269927978516 -96.009048461914062 -111.75506591796875
58.531330108642578 -95.828834533691406 -111.75542449951172
56.771568298339844 -94.166915893554688 -111.75883483886719
56.162353515625 -93.87725830078125 -111.75949096679688
54.814502716064453 -93.248001098632812 -111.76100921630859
52.860511779785156 -93.0616455078125 -111.76188659667969
51.387386322021484 -93.887908935546875 -111.7606201171875
50.893039703369141 -94.180061340332031 -111.76021575927734
49.201805114746094 -95.8497314453125 -111.757568359375
48.907661437988281 -96.201614379882812 -111.75702667236328
47.769802093505859 -97.809722900390625 -111.75457000732422
46.925441741943359 -99.206352233886719 -111.75251007080078
46.519748687744141 -99.779167175292969 -111.75175476074219
46.192020416259766 -101.736572265625 -111.74861145019531
46.706130981445312 -103.69214630126953 -111.74514770507812
46.884761810302734 -103.88240814208984 -111.74473571777344
48.828212738037109 -105.02219390869141 -111.74188232421875
49.65484619140625 -105.65251159667969 -111.74056243896484
50.781185150146484 -106.46273040771484 -111.73892211914062
52.236763000488281 -107.60321807861328 -111.73683166503906
52.724300384521484 -108.17395782470703 -111.73593139648438
53.547985076904297 -109.55644226074219 -111.73397064208984
54.6622314453125 -111.16889953613281 -111.73185729980469
54.951313018798828 -111.51930236816406 -111.73139953613281
55.694065093994141 -113.47349548339844 -111.729248046875
