# XYZ point cloud file
66.80572509765625 -106.07228088378906 -140.78005981445312
66.863677978515625 -104.13407897949219 -140.7882080078125
66.902816772460938 -102.20580291748047 -140.79670715332031
66.190521240234375 -100.40541076660156 -140.80575561523438
66.134376525878906 -100.28746795654297 -140.80636596679688
65.577629089355469 -98.356346130371094 -140.81626892089844
64.772628784179688 -96.438003540039062 -140.82676696777344
64.382286071777344 -95.879142761230469 -140.83013916015625
63.560302734375 -94.524452209472656 -140.83824157714844
62.526500701904297 -93.27117919921875 -140.84637451171875
61.721961975097656 -92.61834716796875 -140.85111999511719
60.635776519775391 -91.771080017089844 -140.8575439453125
58.705551147460938 -91.171485900878906 -140.86431884765625
56.757587432861328 -91.402992248535156 -140.86692810058594
54.787990570068359 -92.297470092773438 -140.86631774902344
54.157684326171875 -92.710678100585938 -140.86553955078125
52.798709869384766 -93.528289794921875 -140.8643798828125
50.830120086669922 -94.501373291015625 -140.86421203613281
50.645435333251953 -94.681610107421875 -140.86378479003906
48.834274291992188 -96.344970703125 -140.86013793945312
48.537158966064453 -96.635284423828125 -140.85951232910156
46.827445983886719 -98.30694580078125 -140.85617065429688
46.540992736816406 -98.587188720703125 -140.85568237304688
45.11187744140625 -100.54201507568359 -140.85069274902344
44.810966491699219 -100.98058319091797 -140.84957885742188
43.853538513183594 -102.48468017578125 -140.84574890136719
43.062297821044922 -104.42168426513672 -140.8397216796875
42.761974334716797 -104.8699951171875 -140.83877563476562
41.807540893554688 -106.37364959716797 -140.83563232421875
41.009929656982422 -108.31027984619141 -140.83049011230469
40.720672607421875 -108.74847412109375 -140.82975769042969
39.759376525878906 -110.25183868408203 -140.82736206054688
38.974956512451172 -112.19778442382812 -140.82296752929688
38.676712036132812 -112.63597869873047 -140.82249450683594
37.728355407714844 -114.13889312744141 -140.82075500488281
37.056415557861328 -116.07333374023438 -140.81681823730469
36.672111511230469 -118.01424407958984 -140.81208801269531
36.608283996582031 -118.20270538330078 -140.81178283691406
36.082466125488281 -119.94747924804688 -140.80859375
36.545379638671875 -120.81166076660156 -140.80430603027344
37.142585754394531 -121.86196899414062 -140.79902648925781
38.419387817382812 -123.01313781738281 -140.79104614257812
39.716114044189453 -123.76882171630859 -140.78428649902344
40.329994201660156 -124.15689086914062 -140.7811279296875
42.23919677734375 -125.00409698486328 -140.77236938476562
44.155895233154297 -125.5843505859375 -140.76466369628906
44.233840942382812 -125.6427001953125 -140.76426696777344
46.062355041503906 -126.72756958007812 -140.75613403320312
47.4228515625 -127.53137969970703 -140.75033569335938
47.9798583984375 -127.91987609863281 -140.74789428710938
49.899337768554688 -128.6280517578125 -140.74118041992188
51.203544616699219 -129.41258239746094 -140.73626708984375
51.801651000976562 -130.15544128417969 -138.27085876464844
53.750389099121094 -130.06295776367188 -138.26646423339844
55.689407348632812 -130.03961181640625 -138.26229858398438
57.639533996582031 -129.53202819824219 -138.25944519042969
57.872257232666016 -129.34152221679688 -138.2593994140625
59.619941711425781 -128.09542846679688 -138.25881958007812
60.331882476806641 -127.38541412353516 -138.2591552734375
61.613945007324219 -125.66079711914062 -138.26101684570312
61.798076629638672 -125.44120788574219 -138.26126098632812
62.977348327636719 -123.50039672851562 -138.26429748535156
63.624431610107422 -122.67247772216797 -138.26554870605469
64.508377075195312 -121.54521942138672 -138.26739501953125
65.162773132324219 -119.61061859130859 -138.27201843261719
65.678390502929688 -118.51742553710938 -138.27461242675781
66.098564147949219 -117.67237854003906 -138.27671813964844
66.536911010742188 -115.73033905029297 -138.28237915039062
67.0765380859375 -113.79676055908203 -138.28826904296875
67.597862243652344 -111.86327362060547 -138.2945556640625
67.561309814453125 -109.9267578125 -138.3017578125
67.615982055664062 -107.99880981445312 -138.30918884277344
67.672157287597656 -106.07069396972656 -138.31695556640625
67.730133056640625 -104.13248443603516 -138.32508850097656
67.4095458984375 -102.208740234375 -138.33389282226562
66.980606079101562 -100.28614044189453 -138.34317016601562
66.65338134765625 -98.352165222167969 -138.35272216796875
66.27392578125 -97.743820190429688 -138.35614013671875
65.498603820800781 -96.438247680664062 -138.36355590820312
64.615249633789062 -94.520637512207031 -138.37448120117188
64.43341064453125 -94.29541015625 -138.37588500976562
63.314670562744141 -92.607925415039062 -138.38641357421875
62.578529357910156 -91.706932067871094 -138.392333984375
61.109561920166016 -90.696174621582031 -138.40023803710938
60.680938720703125 -90.424423217773438 -138.40251159667969
58.742561340332031 -90.062339782714844 -138.40802001953125
56.917682647705078 -90.747550964355469 -138.40785217285156
56.776313781738281 -90.808639526367188 -138.40782165527344
54.811378479003906 -91.564582824707031 -138.40792846679688
53.539089202880859 -92.727523803710938 -138.40458679199219
52.802303314208984 -93.359611511230469 -138.40298461914062
50.827613830566406 -94.510833740234375 -138.40194702148438
50.632987976074219 -94.691200256347656 -138.40150451660156
48.835395812988281 -96.245590209960938 -138.39840698242188
48.256999969482422 -96.64801025390625 -138.39801025390625
46.850456237792969 -97.534805297851562 -138.39765930175781
45.46856689453125 -98.60906982421875 -138.39659118652344
44.86767578125 -99.130287170410156 -138.39596557617188
43.317497253417969 -100.57213592529297 -138.39413452148438
42.875762939453125 -101.09140014648438 -138.3931884765625
41.862228393554688 -102.51693725585938 -138.39002990722656
40.859729766845703 -103.94219970703125 -138.38717651367188
40.419086456298828 -104.4613037109375 -138.38644409179688
39.363224029541016 -106.41088104248047 -138.3819580078125
38.830085754394531 -107.07920837402344 -138.38113403320312
37.884841918945312 -108.3551025390625 -138.3795166015625
36.833133697509766 -109.59253692626953 -138.378662109375
36.152202606201172 -110.30189514160156 -138.37858581542969
34.84930419921875 -111.76924133300781 -138.3782958984375
34.431781768798828 -112.25813293457031 -138.37820434570312
33.03948974609375 -114.20060729980469 -138.37709045410156
32.846263885498047 -114.43002319335938 -138.37709045410156
31.501699447631836 -116.14447021484375 -138.37710571289062
30.891714096069336 -118.08786010742188 -138.37356567382812
30.844936370849609 -120.01506805419922 -138.36790466308594
31.498992919921875 -121.93443298339844 -138.35954284667969
32.640857696533203 -122.83068084716797 -138.35218811035156
34.574554443359375 -122.74983215332031 -138.34429931640625
36.498489379882812 -122.72816467285156 -138.33668518066406
38.429019927978516 -122.47901916503906 -138.32997131347656
40.351108551025391 -123.09910583496094 -138.32133483886719
42.26580810546875 -123.6795654296875 -138.31320190429688
42.373092651367188 -123.74747467041016 -138.31265258789062
44.175857543945312 -124.54636383056641 -138.30473327636719
45.865074157714844 -125.63286590576172 -138.29681396484375
46.079231262207031 -125.80814361572266 -138.29579162597656
47.998008728027344 -126.91155242919922 -138.28765869140625
48.649501800537109 -127.526123046875 -138.28446960449219
49.89495849609375 -128.70646667480469 -138.27859497070312
50.853042602539062 -129.42597961425781 -138.274658203125
51.81201171875 -129.61125183105469 -135.81008911132812
53.738166809082031 -130.67465209960938 -135.80345153808594
55.670356750488281 -131.00697326660156 -135.79864501953125
57.617786407470703 -130.62785339355469 -135.79551696777344
59.591129302978516 -129.51736450195312 -135.79412841796875
59.774177551269531 -129.32743835449219 -135.79420471191406
61.573837280273438 -127.55706024169922 -135.79505920410156
61.756977081298828 -127.37701416015625 -135.79513549804688
62.934658050537109 -125.43628692626953 -135.79786682128906
63.581043243408203 -124.60842895507812 -135.7989501953125
64.463874816894531 -123.49110412597656 -135.80058288574219
65.316627502441406 -121.54426574707031 -135.80471801757812
65.617507934570312 -121.05644226074219 -135.80570983886719
66.460746765136719 -119.60353088378906 -135.80886840820312
66.977256774902344 -117.67048645019531 -135.81410217285156
67.405754089355469 -115.72853851318359 -135.81985473632812
67.685691833496094 -113.79819488525391 -135.8260498046875
67.748786926269531 -113.67881774902344 -135.82635498046875
68.567047119140625 -111.86015319824219 -135.83201599121094
68.600433349609375 -109.92274475097656 -135.83917236328125
68.695114135742188 -107.99429321289062 -135.8465576171875
68.711296081542969 -106.066650390625 -135.85433959960938
68.789268493652344 -104.128173828125 -135.8624267578125
68.074996948242188 -102.32803344726562 -135.87104797363281
68.01873779296875 -102.21011352539062 -135.87161254882812
67.739585876464844 -100.28564453125 -135.88067626953125
67.172492980957031 -98.354690551757812 -135.89045715332031
66.302268981933594 -96.882278442382812 -135.89865112304688
66.027473449707031 -96.440689086914062 -135.90115356445312
65.28369140625 -94.521331787109375 -135.911865234375
64.460891723632812 -93.493019104003906 -135.91830444335938
63.703468322753906 -92.612167358398438 -135.92401123046875
62.584541320800781 -91.537849426269531 -135.93148803710938
60.660079956054688 -91.017532348632812 -135.93745422363281
58.704879760742188 -91.130622863769531 -135.94038391113281
56.740314483642578 -91.837272644042969 -135.94050598144531
55.586463928222656 -92.711990356445312 -135.93830871582031
54.749698638916016 -93.345359802246094 -135.93678283691406
52.763565063476562 -94.496917724609375 -135.9354248046875
52.568817138671875 -94.67730712890625 -135.93496704101562
50.769866943359375 -96.231880187988281 -135.93156433105469
50.191047668457031 -96.634368896484375 -135.93109130859375
48.794998168945312 -97.471733093261719 -135.93075561523438
47.162647247314453 -98.598518371582031 -135.92988586425781
46.806488037109375 -98.88946533203125 -135.92958068847656
44.831123352050781 -100.27706909179688 -135.92901611328125
44.524990081787109 -100.56737518310547 -135.9285888671875
42.843803405761719 -102.11935424804688 -135.9268798828125
42.1588134765625 -102.522705078125 -135.92735290527344
40.882480621337891 -103.19968414306641 -135.9287109375
38.9158935546875 -104.19081115722656 -135.931396484375
38.590831756591797 -104.49108123779297 -135.93130493164062
36.943092346191406 -105.78485107421875 -135.93199157714844
36.0845947265625 -106.45674896240234 -135.93247985839844
34.967605590820312 -107.55653381347656 -135.93238830566406
34.282634735107422 -108.40431976318359 -135.93174743652344
32.965293884277344 -110.02997589111328 -135.93083190917969
32.660789489746094 -110.349609375 -135.930908203125
31.494277954101562 -112.29954528808594 -135.92857360839844
30.964271545410156 -112.96748352050781 -135.928466796875
29.965734481811523 -114.24330902099609 -135.9283447265625
29.354850769042969 -116.17695617675781 -135.92453002929688
29.227584838867188 -118.11508941650391 -135.91886901855469
29.879753112792969 -120.03470611572266 -135.91009521484375
30.766633987426758 -120.82529449462891 -135.90383911132812
32.296829223632812 -121.93470001220703 -135.89405822753906
32.654365539550781 -122.23699188232422 -135.89170837402344
34.581287384033203 -122.45259094238281 -135.88314819335938
36.505203247070312 -122.43093872070312 -135.87556457519531
38.436439514160156 -122.15216827392578 -135.86903381347656
39.648361206054688 -121.85182952880859 -135.86543273925781
40.383644104003906 -121.67544555664062 -135.86331176757812
42.329261779785156 -120.91209411621094 -135.85877990722656
43.950679779052734 -121.80208587646484 -135.8509521484375
44.233440399169922 -121.98645782470703 -135.84954833984375
46.137126922607422 -123.16928863525391 -135.84049987792969
46.669906616210938 -123.70632171630859 -135.83753967285156
47.846809387207031 -125.61858367919922 -135.829345703125
48.021476745605469 -125.79432678222656 -135.82841491699219
49.631137847900391 -127.52352142333984 -135.820068359375
49.913002014160156 -127.80661773681641 -135.81867980957031
51.636959075927734 -129.42567443847656 -135.81089782714844
53.761360168457031 -129.59677124023438 -133.34429931640625
55.690086364746094 -130.09703063964844 -133.33909606933594
57.628746032714844 -130.17236328125 -133.3350830078125
59.108600616455078 -129.34442138671875 -133.3341064453125
59.602260589599609 -129.06182861328125 -133.33381652832031
61.573551177978516 -127.67460632324219 -133.33360290527344
61.888587951660156 -127.38428497314453 -133.33372497558594
63.285869598388672 -125.44084167480469 -133.33619689941406
63.572715759277344 -125.09156799316406 -133.33663940429688
64.735404968261719 -123.49662780761719 -133.339111328125
65.595268249511719 -122.11279296875 -133.34173583984375
66.00775146484375 -121.5445556640625 -133.34280395507812
66.562599182128906 -119.61112976074219 -133.34764099121094
67.249053955078125 -117.67595672607422 -133.35275268554688
67.63763427734375 -115.7344970703125 -133.35853576660156
67.70062255859375 -115.61512756347656 -133.35885620117188
68.517433166503906 -113.79661560058594 -133.36418151855469
68.549041748046875 -111.86923217773438 -133.37095642089844
68.832443237304688 -109.92866516113281 -133.37786865234375
69.55712890625 -107.99224090576172 -133.38471984863281
68.873306274414062 -106.07344818115234 -133.39308166503906
68.811294555664062 -104.13672637939453 -133.40132141113281
68.8504638671875 -102.20842742919922 -133.40969848632812
68.137619018554688 -100.40808868408203 -133.41856384277344
68.0814208984375 -100.29014587402344 -133.41921997070312
67.534248352050781 -98.358932495117188 -133.42889404296875
66.718650817871094 -96.440780639648438 -133.43917846679688
66.337989807128906 -95.881820678710938 -133.44241333007812
65.505409240722656 -94.52734375 -133.45033264160156
64.466072082519531 -93.412712097167969 -133.45748901367188
63.376399993896484 -92.625038146972656 -133.46322631835938
62.570743560791016 -92.001914978027344 -133.4677734375
60.6326904296875 -91.867637634277344 -133.47171020507812
58.678913116455078 -91.941146850585938 -133.47488403320312
56.726593017578125 -92.301345825195312 -133.47688293457031
56.095794677734375 -92.714630126953125 -133.47604370117188
54.745754241943359 -93.532279968261719 -133.47470092773438
52.765766143798828 -94.505706787109375 -133.47427368164062
52.541194915771484 -94.686447143554688 -133.47389221191406
50.786266326904297 -95.815193176269531 -133.47257995605469
49.1119384765625 -96.655929565429688 -133.47283935546875
48.818382263183594 -96.837409973144531 -133.4727783203125
46.845703125 -97.760520935058594 -133.473876953125
45.787601470947266 -98.623359680175781 -133.47283935546875
44.862388610839844 -99.375762939453125 -133.47209167480469
43.557094573974609 -100.58735656738281 -133.47053527832031
42.874443054199219 -101.21817779541016 -133.4698486328125
40.910594940185547 -102.36776733398438 -133.47126770019531
40.717239379882812 -102.54794311523438 -133.47109985351562
39.571159362792969 -104.48889923095703 -133.46661376953125
38.889007568359375 -105.16883850097656 -133.46615600585938
37.725536346435547 -106.44731140136719 -133.46502685546875
36.899547576904297 -107.35610961914062 -133.46444702148438
35.606708526611328 -108.39852905273438 -133.46524047851562
34.931045532226562 -108.92001342773438 -133.46583557128906
33.4713134765625 -110.34956359863281 -133.46620178222656
32.940101623535156 -111.02748870849609 -133.4658203125
31.949680328369141 -112.30341339111328 -133.46525573730469
31.326984405517578 -114.23735046386719 -133.46099853515625
31.543115615844727 -116.16197204589844 -133.45350646972656
31.494541168212891 -118.09919738769531 -133.44744873046875
32.363998413085938 -120.01628112792969 -133.43788146972656
32.702072143554688 -120.29905700683594 -133.43560791015625
34.621337890625 -120.83094787597656 -133.42617797851562
36.558383941650391 -120.25593566894531 -133.42024230957031
37.532680511474609 -119.95840454101562 -133.41744995117188
38.496990203857422 -119.68071746826172 -133.41465759277344
40.431339263916016 -119.75738525390625 -133.40753173828125
42.365814208984375 -119.47821807861328 -133.40176391601562
44.304683685302734 -119.08027648925781 -133.39669799804688
45.602394104003906 -119.86530303955078 -133.39031982421875
46.205020904541016 -120.34228515625 -133.38710021972656
47.300861358642578 -121.77164459228516 -133.37982177734375
48.089931488037109 -122.79953002929688 -133.374755859375
48.763832092285156 -123.69044494628906 -133.37052917480469
49.969108581542969 -125.25656890869141 -133.36334228515625
50.249427795410156 -125.59893798828125 -133.36178588867188
51.678020477294922 -127.50800323486328 -133.35371398925781
51.853099822998047 -127.68368530273438 -133.35289001464844
53.576244354248047 -129.41131591796875 -133.34512329101562
55.667640686035156 -131.50860595703125 -130.87568664550781
57.597869873046875 -132.03842163085938 -130.87083435058594
58.667167663574219 -131.29452514648438 -130.87025451660156
59.575057983398438 -130.69082641601562 -130.86982727050781
61.215965270996094 -129.32745361328125 -130.86988830566406
61.551670074462891 -128.98748779296875 -130.87007141113281
62.830757141113281 -127.38143920898438 -130.8717041015625
63.547946929931641 -126.47368621826172 -130.87277221679688
64.428199768066406 -125.43547058105469 -130.87405395507812
65.279106140136719 -123.49860382080078 -130.87782287597656
65.578689575195312 -123.05033874511719 -130.878662109375
66.531753540039062 -121.54673767089844 -130.881591796875
67.206634521484375 -119.61179351806641 -130.88638305664062
67.593376159667969 -117.68032836914062 -130.891845703125
67.656517028808594 -117.55110168457031 -130.89216613769531
68.47186279296875 -115.73270416259766 -130.89715576171875
68.541900634765625 -113.80496215820312 -130.90359497070312
68.78350830078125 -111.87492370605469 -130.91018676757812
69.506942749023438 -109.92879486083984 -130.91671752929688
69.671630859375 -107.99941253662109 -130.92402648925781
69.247756958007812 -106.07730865478516 -130.93217468261719
68.815765380859375 -104.145263671875 -130.94071960449219
68.874946594238281 -102.21668243408203 -130.94908142089844
68.545700073242188 -100.29280853271484 -130.9581298828125
68.173080444335938 -99.447174072265625 -130.96246337890625
67.718605041503906 -98.365158081054688 -130.96804809570312
67.242584228515625 -96.442695617675781 -130.97793579101562
66.373794555664062 -94.96014404296875 -130.98638916015625
66.098968505859375 -94.528388977050781 -130.98890686035156
65.017219543457031 -92.612998962402344 -131.000244140625
64.51617431640625 -92.104827880859375 -131.00361633300781
62.950241088867188 -90.699684143066406 -131.01350402832031
62.631004333496094 -90.426605224609375 -131.01545715332031
60.701122283935547 -90.064613342285156 -131.02066040039062
58.753311157226562 -89.969818115234375 -131.02474975585938
56.798934936523438 -90.379562377929688 -131.02642822265625
56.168220520019531 -90.78302001953125 -131.02558898925781
54.817241668701172 -91.610694885253906 -131.02410888671875
52.844463348388672 -92.356613159179688 -131.02473449707031
52.214614868164062 -92.769760131835938 -131.02407836914062
50.866615295410156 -93.587142944335938 -131.02325439453125
48.899543762207031 -94.560028076171875 -131.02346801757812
48.695182800292969 -94.740478515625 -131.02313232421875
46.901889801025391 -96.205635070800781 -131.02082824707031
46.271472930908203 -96.697639465332031 -131.02024841308594
44.9205322265625 -97.732009887695312 -131.01927185058594
43.861274719238281 -98.654106140136719 -131.01817321777344
42.924762725830078 -99.782363891601562 -131.01582336425781
42.275352478027344 -100.61054992675781 -131.01406860351562
40.968986511230469 -102.55363464355469 -131.00965881347656
40.907211303710938 -102.63343048095703 -131.009521484375
39.506557464599609 -104.49816131591797 -131.0062255859375
38.890892028808594 -105.26634216308594 -131.00514221191406
37.897994995117188 -106.45391845703125 -131.00375366210938
36.933731079101562 -108.39231872558594 -130.99948120117188
36.87225341796875 -108.47206878662109 -130.9993896484375
35.547019958496094 -110.33517456054688 -130.99720764160156
34.869155883789062 -111.31129455566406 -130.99620056152344
34.103096008300781 -112.28830718994141 -130.99559020996094
33.036247253417969 -114.22718048095703 -130.99301147460938
32.84356689453125 -114.81235504150391 -130.99176025390625
32.4344482421875 -116.1607666015625 -130.98890686035156
32.385860443115234 -118.09797668457031 -130.98280334472656
32.736850738525391 -119.05250549316406 -130.97837829589844
33.837253570556641 -120.008544921875 -130.97097778320312
34.639026641845703 -120.28610992431641 -130.9669189453125
36.562961578369141 -120.26450347900391 -130.95950317382812
37.171943664550781 -119.97112274169922 -130.95803833007812
38.509441375732422 -119.36317443847656 -130.95494079589844
40.459625244140625 -118.78765106201172 -130.94976806640625
42.403018951416016 -118.1527099609375 -130.9451904296875
42.723731994628906 -117.98104858398438 -130.94467163085938
44.355945587158203 -117.20134735107422 -130.94197082519531
45.792667388916016 -117.94526672363281 -130.93516540527344
46.260860443115234 -118.23616790771484 -130.93289184570312
47.767238616943359 -119.84847259521484 -130.92355346679688
48.149169921875 -120.45645141601562 -130.92071533203125
48.921604156494141 -121.76114654541016 -130.91485595703125
49.611560821533203 -123.68905639648438 -130.90774536132812
49.994850158691406 -124.29693603515625 -130.90513610839844
50.780021667480469 -125.60131072998047 -130.89985656738281
51.682533264160156 -127.51663970947266 -130.89303588867188
51.857620239257812 -127.69235229492188 -130.8922119140625
53.580738067626953 -129.41996765136719 -130.88441467285156
53.765876770019531 -129.60542297363281 -130.88357543945312
55.491966247558594 -131.33291625976562 -130.87637329101562
57.590137481689453 -132.84716796875 -128.40907287597656
59.542324066162109 -132.82351684570312 -128.40557861328125
61.509189605712891 -131.55496215820312 -128.40473937988281
61.803787231445312 -131.26490783691406 -128.40484619140625
63.217937469482422 -129.31150817871094 -128.40672302246094
63.504058837890625 -128.97213745117188 -128.40702819824219
64.664283752441406 -127.36745452880859 -128.40901184082031
65.52166748046875 -125.99361419677734 -128.41117858886719
65.933204650878906 -125.42543029785156 -128.41204833984375
66.484848022460938 -123.4921875 -128.41632080078125
67.078361511230469 -121.5484619140625 -128.42092895507812
67.593460083007812 -120.45526885986328 -128.4234619140625
68.013290405273438 -119.6102294921875 -128.42549133300781
68.450111389160156 -117.6781005859375 -128.43092346191406
68.988815307617188 -115.73469543457031 -128.4366455078125
69.528953552246094 -113.80098724365234 -128.44265747070312
69.58050537109375 -111.87332153320312 -128.44943237304688
69.633934020996094 -109.93560028076172 -128.45657348632812
69.6885986328125 -108.00758361816406 -128.46397399902344
69.744735717773438 -106.07938385009766 -128.47164916992188
69.802719116210938 -104.14110565185547 -128.479736328125
69.741844177246094 -102.21401977539062 -128.48818969726562
69.072456359863281 -100.29444122314453 -128.49748229980469
68.200714111328125 -98.812339782714844 -128.50531005859375
67.925338745117188 -98.370811462402344 -128.5076904296875
67.249465942382812 -96.450859069824219 -128.51773071289062
66.366950988769531 -95.374015808105469 -128.524169921875
65.686515808105469 -94.54180908203125 -128.52926635742188
64.493492126464844 -92.964126586914062 -128.53892517089844
64.225753784179688 -92.631118774414062 -128.54107666015625
62.617893218994141 -90.998916625976562 -128.55215454101562
62.019882202148438 -90.719406127929688 -128.55462646484375
60.706565856933594 -90.112281799316406 -128.56016540527344
58.760139465332031 -89.977882385253906 -128.564453125
56.805824279785156 -90.38763427734375 -128.566162109375
56.175090789794922 -90.79107666015625 -128.56532287597656
54.824104309082031 -91.618759155273438 -128.56387329101562
52.843769073486328 -92.582435607910156 -128.56341552734375
52.618747711181641 -92.773109436035156 -128.56297302246094
50.860965728759766 -93.961402893066406 -128.56120300292969
49.713756561279297 -94.736671447753906 -128.56027221679688
48.879352569580078 -95.369705200195312 -128.559326171875
46.898597717285156 -96.520500183105469 -128.5592041015625
46.694473266601562 -96.700904846191406 -128.55892944335938
44.921298980712891 -97.928131103515625 -128.55824279785156
43.581165313720703 -98.665496826171875 -128.55889892578125
42.954490661621094 -99.078170776367188 -128.55897521972656
40.986549377441406 -100.32685089111328 -128.55967712402344
40.65057373046875 -100.63721466064453 -128.55941772460938
38.997817993164062 -101.99079132080078 -128.55899047851562
38.396621704101562 -102.5908203125 -128.55848693847656
37.004432678222656 -104.218017578125 -128.55645751953125
36.688865661621094 -104.53792572021484 -128.55624389648438
35.812164306640625 -106.48538970947266 -128.55137634277344
34.980800628662109 -107.60179138183594 -128.55001831054688
34.325958251953125 -108.42948913574219 -128.54927062988281
33.482803344726562 -110.36624145507812 -128.54508972167969
32.951637268066406 -111.04418182373047 -128.54466247558594
32.010482788085938 -112.31956481933594 -128.54380798339844
30.958301544189453 -113.73442840576172 -128.54312133789062
30.550567626953125 -114.26262664794922 -128.54298400878906
29.368560791015625 -116.20248413085938 -128.54150390625
29.831916809082031 -118.13423919677734 -128.53317260742188
30.811893463134766 -119.52662658691406 -128.52464294433594
32.7244873046875 -119.86128234863281 -128.515625
34.656883239746094 -119.83980560302734 -128.50791931152344
36.604499816894531 -118.83985900878906 -128.50346374511719
38.542274475097656 -118.31405639648438 -128.49795532226562
39.092433929443359 -118.03115081787109 -128.49688720703125
40.502315521240234 -117.35308074951172 -128.49411010742188
42.45135498046875 -116.51058197021484 -128.49032592773438
44.387947082519531 -116.22135162353516 -128.48509216308594
46.313186645507812 -116.43595886230469 -128.47857666015625
47.791538238525391 -117.93016815185547 -128.46946716308594
48.203968048095703 -118.48842620849609 -128.46658325195312
48.993946075439453 -119.84239196777344 -128.46029663085938
50.061431884765625 -121.67702484130859 -128.45211791992188
50.119163513183594 -121.75537872314453 -128.45172119140625
50.680404663085938 -123.68482208251953 -128.44500732421875
51.730232238769531 -125.59846496582031 -128.43743896484375
51.904335021972656 -125.81368255615234 -128.43647766113281
53.050407409667969 -127.50878143310547 -128.42971801757812
53.794406890869141 -128.53697204589844 -128.42567443847656
54.472469329833984 -129.41778564453125 -128.42225646972656
55.684597015380859 -130.99345397949219 -128.41644287109375
55.986434936523438 -131.33552551269531 -128.41510009765625
59.531455993652344 -133.96800231933594 -125.94370269775391
61.485328674316406 -133.38125610351562 -125.94152069091797
61.668060302734375 -133.20120239257812 -125.94155120849609
63.190097808837891 -131.25639343261719 -125.9429931640625
63.476070404052734 -130.90716552734375 -125.94326019287109
64.635002136230469 -129.30252075195312 -125.94505310058594
65.491218566894531 -127.92874145507812 -125.94697570800781
65.902290344238281 -127.36058044433594 -125.94779968261719
66.821990966796875 -125.42280578613281 -125.95136260986328
67.153900146484375 -123.49224853515625 -125.95597076416016
67.55548095703125 -122.51906585693359 -125.95811462402344
67.977508544921875 -121.54560089111328 -125.96035766601562
68.412712097167969 -119.61355590820312 -125.96548461914062
68.9495849609375 -117.68013000488281 -125.97086334228516
69.488410949707031 -115.73668670654297 -125.97659301757812
69.538383483886719 -113.80911254882812 -125.98307800292969
69.589958190917969 -111.88141632080078 -125.98987579345703
69.643363952636719 -109.94366455078125 -125.99697875976562
69.697990417480469 -108.01563262939453 -126.00438690185547
69.754119873046875 -106.08740234375 -126.01206207275391
69.692054748535156 -104.15061950683594 -126.02020263671875
69.011222839355469 -102.23135375976562 -126.02923583984375
68.561943054199219 -100.30895233154297 -126.03833770751953
68.181694030761719 -99.700706481933594 -126.04155731201172
67.415077209472656 -98.385269165039062 -126.04859924316406
66.519577026367188 -96.468040466308594 -126.05888366699219
66.347068786621094 -96.25262451171875 -126.0601806640625
65.276504516601562 -94.554893493652344 -126.07002258300781
64.48565673828125 -93.466766357421875 -126.07665252685547
63.776092529296875 -92.644622802734375 -126.08193969726562
62.608665466308594 -91.531295776367188 -126.08958435058594
61.510780334472656 -90.733566284179688 -126.09561157226562
60.715782165527344 -90.1199951171875 -126.10030364990234
58.769363403320312 -89.985588073730469 -126.10462951660156
56.815036773681641 -90.395339965820312 -126.10633850097656
56.184295654296875 -90.798789978027344 -126.10553741455078
54.833328247070312 -91.626480102539062 -126.10411071777344
52.852989196777344 -92.590164184570312 -126.10367584228516
52.627964019775391 -92.780838012695312 -126.10322570800781
50.870220184326172 -93.969146728515625 -126.10150909423828
49.722995758056641 -94.744430541992188 -126.10054779052734
48.888603210449219 -95.377464294433594 -126.09963989257812
46.915069580078125 -96.310554504394531 -126.1005859375
46.347026824951172 -96.712814331054688 -126.10028076171875
44.940265655517578 -97.6390380859375 -126.09996795654297
43.679485321044922 -98.672248840332031 -126.09893798828125
42.957717895507812 -99.27392578125 -126.09841918945312
41.183845520019531 -100.63905334472656 -126.09792327880859
40.980796813964844 -100.80947875976562 -126.09778594970703
39.048000335693359 -102.59142303466797 -126.09645843505859
38.986881256103516 -102.65143585205078 -126.09641265869141
37.013088226318359 -104.24559783935547 -126.09660339355469
36.698150634765625 -104.54572296142578 -126.09648895263672
35.031272888183594 -106.19547271728516 -126.09585571289062
34.716476440429688 -106.50540161132812 -126.09578704833984
33.625286102294922 -108.44512176513672 -126.09221649169922
33.006328582763672 -109.42061614990234 -126.09084320068359
32.398017883300781 -110.38606262207031 -126.08962249755859
31.013919830322266 -112.01221466064453 -126.08924102783203
30.699756622314453 -112.34178161621094 -126.08934783935547
29.654022216796875 -114.28030395507812 -126.08686828613281
29.008708953857422 -115.25576019287109 -126.08627319335938
28.423233032226562 -116.22065734863281 -126.08558654785156
28.954294204711914 -117.40077209472656 -126.07939147949219
29.545936584472656 -118.14537048339844 -126.07441711425781
30.836820602416992 -118.89216613769531 -126.06653594970703
32.461265563964844 -118.11353302001953 -126.06222534179688
32.781284332275391 -117.92227935791016 -126.06155395507812
34.719623565673828 -117.66366577148438 -126.05467224121094
36.643623352050781 -117.64213562011719 -126.04744720458984
38.578178405761719 -117.25468444824219 -126.04157257080078
40.528903961181641 -116.67915344238281 -126.03665161132812
41.503059387207031 -116.07514953613281 -126.03535461425781
42.488372802734375 -115.44129180908203 -126.03428649902344
44.431251525878906 -114.91484832763672 -126.02993774414062
45.966899871826172 -116.02332305908203 -126.02151489257812
46.326148986816406 -116.30564880371094 -126.01952362060547
47.939796447753906 -117.93660736083984 -126.00959777832031
48.219001770019531 -118.26922607421875 -126.00778198242188
49.350574493408203 -119.84638214111328 -125.99984741210938
50.087997436523438 -120.95394897460938 -125.99462890625
50.694324493408203 -121.75677490234375 -125.99078369140625
51.563560485839844 -123.68254852294922 -125.9832763671875
51.948223114013672 -124.24100494384766 -125.98085784912109
52.842292785644531 -125.59345245361328 -125.97525024414062
53.839771270751953 -126.80632781982422 -125.96997833251953
54.491165161132812 -127.49980163574219 -125.96686553955078
55.54608154296875 -129.41322326660156 -125.96028900146484
55.720619201660156 -129.6383056640625 -125.95941162109375
56.8616943359375 -131.33334350585938 -125.95359802246094
57.608936309814453 -132.35159301757812 -125.95014953613281
58.568397521972656 -133.23883056640625 -125.94672393798828
59.512062072753906 -135.79408264160156 -123.48117065429688
61.463523864746094 -135.32594299316406 -123.47868347167969
61.646244049072266 -135.13604736328125 -123.47874450683594
63.442897796630859 -133.36569213867188 -123.47920227050781
63.635738372802734 -133.18551635742188 -123.47926330566406
64.619697570800781 -131.24716186523438 -123.481689453125
65.463813781738281 -129.92294311523438 -123.48335266113281
65.875579833984375 -129.29551696777344 -123.48417663574219
66.793663024902344 -127.35780334472656 -123.48748779296875
67.443771362304688 -125.42330932617188 -123.49143218994141
67.50628662109375 -125.30399322509766 -123.49164581298828
68.355613708496094 -123.48549652099609 -123.49546051025391
68.379486083984375 -121.54874420166016 -123.50074005126953
68.91473388671875 -119.61540222167969 -123.50582122802734
69.451683044433594 -117.68193817138672 -123.51123809814453
69.500343322753906 -115.74459838867188 -123.5174560546875
69.550346374511719 -113.81700134277344 -123.52392578125
69.601882934570312 -111.88925933837891 -123.53071594238281
69.655235290527344 -109.95147705078125 -123.53785705566406
69.709869384765625 -108.02340698242188 -123.54523468017578
69.765960693359375 -106.09513854980469 -123.55292510986328
69.703887939453125 -104.15831756591797 -123.56105804443359
69.023002624511719 -102.239013671875 -123.57003784179688
68.573699951171875 -100.31657409667969 -123.57910919189453
68.191848754882812 -99.757759094238281 -123.58209991455078
67.406806945800781 -98.393104553222656 -123.58937072753906
66.340011596679688 -96.824165344238281 -123.59819030761719
66.061920166015625 -96.481483459472656 -123.6002197265625
64.769126892089844 -94.568878173828125 -123.61142730712891
64.47021484375 -94.265968322753906 -123.61338043212891
62.890026092529297 -92.663246154785156 -123.62394714355469
62.591571807861328 -92.360260009765625 -123.62598419189453
60.703140258789062 -90.810440063476562 -123.63732147216797
60.575729370117188 -90.752639770507812 -123.63785552978516
58.78021240234375 -90.012741088867188 -123.64512634277344
56.826549530029297 -90.402679443359375 -123.64697265625
56.195838928222656 -90.806144714355469 -123.64617156982422
54.844875335693359 -91.633842468261719 -123.64476776123047
52.864543914794922 -92.5975341796875 -123.64439392089844
52.639545440673828 -92.788200378417969 -123.64395141601562
50.881763458251953 -93.976524353027344 -123.6422119140625
49.73455810546875 -94.751808166503906 -123.64129638671875
48.900161743164062 -95.384857177734375 -123.64041137695312
46.919425964355469 -96.535652160644531 -123.64027404785156
46.695499420166016 -96.716300964355469 -123.64006042480469
44.941173553466797 -97.972976684570312 -123.63919067382812
44.225589752197266 -98.673545837402344 -123.63806915283203
42.937400817871094 -100.28057098388672 -123.63461303710938
42.619743347167969 -100.63031768798828 -123.63401031494141
41.214332580566406 -102.57459259033203 -123.6298828125
40.926834106445312 -102.92391967773438 -123.62933349609375
39.761711120605469 -104.51908111572266 -123.62635803222656
38.900581359863281 -105.90301513671875 -123.62351989746094
38.488807678222656 -106.47113800048828 -123.62261962890625
37.702129364013672 -108.40763092041016 -123.61756134033203
36.865184783935547 -109.73163604736328 -123.61544036865234
36.453208923339844 -110.34906005859375 -123.61460876464844
36.034915924072266 -112.29090118408203 -123.60889434814453
36.756233215332031 -113.72572326660156 -123.60101318359375
37.177783966064453 -114.20523071289062 -123.59779357910156
38.645210266113281 -115.09782409667969 -123.58939361572266
40.587169647216797 -114.87810516357422 -123.58341979980469
42.515560150146484 -114.85597229003906 -123.57712554931641
44.443099975585938 -114.92257690429688 -123.57085418701172
46.107536315917969 -116.02958679199219 -123.56208038330078
46.340507507324219 -116.21458435058594 -123.56077575683594
48.246818542480469 -117.63465881347656 -123.55075836181641
48.526779174804688 -117.9376220703125 -123.54901885986328
50.130760192871094 -119.66727447509766 -123.53936004638672
50.30511474609375 -119.84303283691406 -123.53836059570312
51.162918090820312 -121.75922393798828 -123.53056335449219
51.991214752197266 -122.86560821533203 -123.52542877197266
52.608413696289062 -123.67811584472656 -123.521728515625
53.688941955566406 -125.59140014648438 -123.51419830322266
53.873123168945312 -125.80650329589844 -123.51323699951172
54.950626373291016 -127.50243377685547 -123.5067138671875
55.745803833007812 -128.98439025878906 -123.50162506103516
56.025642395019531 -129.41563415527344 -123.50008392333984
56.724445343017578 -131.34324645996094 -123.49455261230469
57.612449645996094 -132.82405090332031 -123.48991394042969
57.893310546875 -133.25526428222656 -123.48858642578125
58.855297088623047 -135.16984558105469 -123.48338317871094
59.587787628173828 -132.34397888183594 -121.02828979492188
61.525112152099609 -132.67607116699219 -121.02437591552734
63.464645385742188 -132.97842407226562 -121.02086639404297
64.744148254394531 -131.25376892089844 -121.02250671386719
64.811439514160156 -129.31669616699219 -121.02658081054688
65.099884033203125 -127.38675689697266 -121.03063201904297
65.080413818359375 -125.46055603027344 -121.03536987304688
65.593315124511719 -124.36750793457031 -121.03752136230469
66.011390686035156 -123.52256774902344 -121.03926086425781
66.794631958007812 -121.57642364501953 -121.04368591308594
67.634857177734375 -120.25189971923828 -121.04657745361328
68.049285888671875 -119.63414764404297 -121.04795074462891
68.606040954589844 -117.70040893554688 -121.05331420898438
69.394775390625 -115.75377655029297 -121.05879974365234
69.564773559570312 -113.82462310791016 -121.06517028808594
69.736312866210938 -111.89533996582031 -121.07186889648438
69.799827575683594 -111.76606750488281 -121.072265625
70.620040893554688 -109.947021484375 -121.07825469970703
70.704612731933594 -108.01850891113281 -121.0855712890625
70.710662841796875 -106.0908203125 -121.09331512451172
70.418350219726562 -104.15684509277344 -121.10159301757812
70.043769836425781 -103.32122802734375 -121.10554504394531
69.587181091308594 -102.23941802978516 -121.11070251464844
68.937736511230469 -100.31946563720703 -121.11992645263672
68.219009399414062 -99.359451293945312 -121.1251220703125
67.500877380371094 -98.39935302734375 -121.13046264648438
66.3436279296875 -97.148002624511719 -121.13783264160156
65.686592102050781 -96.493583679199219 -121.141845703125
64.451377868652344 -95.242973327636719 -121.14970397949219
63.805301666259766 -94.588264465332031 -121.15390014648438
62.565185546875 -93.535293579101562 -121.16116333007812
61.0897216796875 -92.692832946777344 -121.16792297363281
60.661231994628906 -92.41119384765625 -121.17015838623047
58.722606658935547 -92.04913330078125 -121.17561340332031
56.786159515380859 -91.9539794921875 -121.17998504638672
54.833587646484375 -92.363449096679688 -121.18216705322266
53.964797973632812 -92.779541015625 -121.18197631835938
52.855560302734375 -93.267707824707031 -121.18209838867188
50.898700714111328 -93.894454956054688 -121.18377685546875
49.748466491699219 -94.758834838867188 -121.18243408203125
48.914081573486328 -95.391883850097656 -121.18153381347656
46.933315277099609 -96.542686462402344 -121.18141937255859
46.749053955078125 -96.722885131835938 -121.18106079101562
44.938365936279297 -98.494544982910156 -121.17794036865234
44.754360198974609 -98.674690246582031 -121.17765045166016
43.742008209228516 -100.62474822998047 -121.1717529296875
42.899154663085938 -101.94962310791016 -121.16841888427734
42.484413146972656 -102.56743621826172 -121.16701507568359
40.898338317871094 -104.32569122314453 -121.16453552246094
40.704841613769531 -104.51573944091797 -121.16439819335938
39.520439147949219 -106.46689605712891 -121.16020965576172
38.874320983886719 -107.28479766845703 -121.15913391113281
37.992664337158203 -108.41175079345703 -121.15769958496094
37.256988525390625 -110.34749603271484 -121.15283203125
37.203823089599609 -112.28530120849609 -121.14573669433594
38.505306243896484 -114.19778442382812 -121.13422393798828
38.678440093994141 -114.37371826171875 -121.13301086425781
40.602630615234375 -114.83606719970703 -121.12479400634766
42.529754638671875 -114.86338043212891 -121.118408203125
44.458877563476562 -114.87071228027344 -121.11235809326172
46.388660430908203 -114.90749359130859 -121.10649108886719
48.054428100585938 -116.01435852050781 -121.09803009033203
48.297527313232422 -116.19921875 -121.09674835205078
49.90008544921875 -117.92906188964844 -121.08680725097656
50.180992126464844 -118.20237731933594 -121.08522796630859
51.798637390136719 -119.83299255371094 -121.07610321044922
52.066295623779297 -120.26449584960938 -121.07415008544922
52.905361175537109 -121.74620056152344 -121.06779479980469
53.626434326171875 -123.67377471923828 -121.06072998046875
53.924842834472656 -124.10485076904297 -121.05888366699219
54.806884765625 -125.58588409423828 -121.05303955078125
55.49224853515625 -127.50388336181641 -121.04682922363281
55.781524658203125 -127.94489288330078 -121.04515075683594
56.667068481445312 -129.41590881347656 -121.03997802734375
57.669891357421875 -130.54963684082031 -121.03553771972656
58.501205444335938 -131.32981872558594 -121.03230285644531
59.568134307861328 -134.39697265625 -118.56576538085938
61.527248382568359 -133.51382446289062 -118.56414031982422
61.971218109130859 -133.221923828125 -118.56401824951172
63.492782592773438 -132.38345336914062 -118.56336212158203
65.010971069335938 -131.25846862792969 -118.56356048583984
65.327911376953125 -129.31828308105469 -118.56733703613281
65.522018432617188 -128.59471130371094 -118.56876373291016
65.826171875 -127.38569641113281 -118.57122802734375
66.176254272460938 -125.45487976074219 -118.57556915283203
65.615570068359375 -124.13793182373047 -118.57973480224609
65.349227905273438 -123.53855133056641 -118.58168792724609
65.647010803222656 -122.7247314453125 -118.58357238769531
66.072303771972656 -121.59314727783203 -118.58621978759766
66.856880187988281 -119.65671539306641 -118.59091186523438
67.698150634765625 -118.33208465576172 -118.59400177001953
68.11309814453125 -117.71425628662109 -118.59544372558594
68.671623229980469 -115.77047729492188 -118.60120391845703
69.461647033691406 -113.83352661132812 -118.60694885253906
69.753173828125 -111.90267181396484 -118.61347961425781
69.816673278808594 -111.77339935302734 -118.61391448974609
70.636856079101562 -109.95431518554688 -118.61984252929688
70.72137451171875 -108.02574920654297 -118.62717437744141
70.777427673339844 -106.09736633300781 -118.63482666015625
70.805213928222656 -104.15929412841797 -118.64282989501953
70.090225219726562 -102.35897827148438 -118.65125274658203
70.03387451171875 -102.24104309082031 -118.65183258056641
69.854286193847656 -100.31507110595703 -118.66053771972656
68.556732177734375 -98.393165588378906 -118.67076873779297
68.276512145996094 -98.100021362304688 -118.67244720458984
66.681648254394531 -96.488174438476562 -118.68208312988281
66.391593933105469 -96.204971313476562 -118.683837890625
64.679801940917969 -94.5843505859375 -118.69413757324219
64.496238708496094 -94.408584594726562 -118.69528198242188
62.605045318603516 -92.859100341796875 -118.70598602294922
62.381855010986328 -92.68377685546875 -118.70725250244141
60.710678100585938 -91.467613220214844 -118.71636199951172
58.772483825683594 -91.095573425292969 -118.72190856933594
56.832511901855469 -91.099380493164062 -118.725830078125
54.880157470703125 -91.49896240234375 -118.72799682617188
52.913875579833984 -92.056838989257812 -118.72963714599609
51.845390319824219 -92.811630249023438 -118.72840881347656
50.930496215820312 -93.445793151855469 -118.72749328613281
48.964691162109375 -94.379135131835938 -118.72793579101562
48.38604736328125 -94.781631469726562 -118.7275390625
46.977535247802734 -95.708183288574219 -118.72692108154297
45.804229736328125 -96.740669250488281 -118.72528076171875
44.982307434082031 -97.650283813476562 -118.72335815429688
44.097381591796875 -98.689117431640625 -118.72115325927734
43.441581726074219 -100.63511657714844 -118.7142333984375
42.926548004150391 -101.60026550292969 -118.71148681640625
42.411705017089844 -102.57523345947266 -118.70880126953125
41.185886383056641 -104.51731109619141 -118.70441436767578
40.895675659179688 -104.96550750732422 -118.70345306396484
39.932121276855469 -106.46928405761719 -118.70040893554688
39.184562683105469 -108.40545654296875 -118.69518280029297
39.258651733398438 -110.33213806152344 -118.68740844726562
40.705173492431641 -111.62042236328125 -118.67767333984375
42.624225616455078 -111.94439697265625 -118.67023468017578
44.556632995605469 -111.83316802978516 -118.66468811035156
45.516910552978516 -112.19754028320312 -118.66047668457031
46.467147827148438 -112.58177947998047 -118.65630340576172
48.385585784912109 -113.46841430664062 -118.64775848388672
48.993881225585938 -114.08380126953125 -118.64393615722656
50.262271881103516 -115.64980316162109 -118.63521575927734
50.541183471679688 -115.99233245849609 -118.63336181640625
51.961738586425781 -117.91199493408203 -118.62351226806641
52.135116577148438 -118.12729644775391 -118.62242126464844
53.275672912597656 -119.82286834716797 -118.61444091796875
54.014366149902344 -120.93038940429688 -118.60938262939453
54.621730804443359 -121.73319244384766 -118.605712890625
55.224033355712891 -123.6622314453125 -118.59895324707031
55.788558959960938 -125.58177947998047 -118.59264373779297
55.845695495605469 -125.69964599609375 -118.59221649169922
56.613590240478516 -127.49813842773438 -118.58613586425781
56.903049468994141 -129.42091369628906 -118.58106994628906
57.674129486083984 -131.22918701171875 -118.57559204101562
57.731613159179688 -131.34701538085938 -118.57522583007812
58.432907104492188 -133.26480102539062 -118.56999969482422
59.587261199951172 -134.43418884277344 -116.10737609863281
61.538860321044922 -133.97590637207031 -116.10494232177734
62.69921875 -133.22090148925781 -116.1046142578125
63.506843566894531 -132.69735717773438 -116.10443115234375
65.479934692382812 -131.80390930175781 -116.10355377197266
66.03955078125 -131.25367736816406 -116.10397338867188
66.4365234375 -129.31242370605469 -116.10777282714844
66.045585632324219 -127.39070892333984 -116.11280822753906
65.591758728027344 -126.16133880615234 -116.11641693115234
65.3167724609375 -125.47314453125 -116.11856079101562
64.969329833984375 -123.55084991455078 -116.12415313720703
65.402595520019531 -121.60898590087891 -116.12905120849609
65.702301025390625 -121.1705322265625 -116.12992858886719
66.656517028808594 -119.66670227050781 -116.13319396972656
67.242897033691406 -117.73257446289062 -116.13848114013672
67.759696960449219 -116.63914489746094 -116.14137268066406
68.18109130859375 -115.78404235839844 -116.14372253417969
68.62091064453125 -113.8514404296875 -116.14979553222656
69.162361145019531 -111.91742706298828 -116.15606689453125
69.705673217773438 -109.97332763671875 -116.16270446777344
69.760162353515625 -108.04510498046875 -116.17003631591797
69.816154479980469 -106.11668395996094 -116.17767333984375
69.75390625 -104.17971038818359 -116.18573760986328
68.592994689941406 -102.26629638671875 -116.19522857666016
68.180702209472656 -101.70787811279297 -116.19813537597656
67.30426025390625 -100.35426330566406 -116.20523071289062
66.314598083496094 -99.140403747558594 -116.2120361328125
65.658599853515625 -98.436538696289062 -116.21617126464844
64.422355651855469 -97.185989379882812 -116.22381591796875
