# XYZ point cloud file
70.508544921875 -103.73992156982422 -134.04710388183594
70.5091552734375 -101.78693389892578 -134.05099487304688
69.754043579101562 -99.956840515136719 -134.05430603027344
69.69500732421875 -99.836860656738281 -134.05451965332031
69.104118347167969 -97.875778198242188 -134.05856323242188
68.242706298828125 -95.925544738769531 -134.06266784667969
67.84747314453125 -95.355972290039062 -134.06385803222656
66.98028564453125 -93.976600646972656 -134.06687927246094
65.909416198730469 -92.838333129882812 -134.06936645507812
64.794418334960938 -92.030776977539062 -134.07110595703125
63.969146728515625 -91.392463684082031 -134.07257080078125
62.011783599853516 -91.239105224609375 -134.07252502441406
60.042655944824219 -91.296066284179688 -134.07215881347656
58.080696105957031 -91.643447875976562 -134.07127380371094
57.452850341796875 -92.056388854980469 -134.07020568847656
56.107631683349609 -92.872474670410156 -134.0682373046875
54.129959106445312 -93.840805053710938 -134.06626892089844
53.907093048095703 -94.021865844726562 -134.06588745117188
52.159442901611328 -95.149559020996094 -134.06376647949219
50.487060546875 -95.986335754394531 -134.0626220703125
50.194580078125 -96.167564392089844 -134.06236267089844
48.222648620605469 -97.085212707519531 -134.0615234375
47.172332763671875 -97.949874877929688 -134.06033325195312
46.253852844238281 -98.703903198242188 -134.05938720703125
44.9609375 -99.91973876953125 -134.05789184570312
44.284645080566406 -100.55274200439453 -134.05722045898438
42.325546264648438 -101.70014953613281 -134.05696105957031
42.134002685546875 -101.88097381591797 -134.05682373046875
41.016075134277344 -103.83714294433594 -134.05429077148438
40.341049194335938 -104.52001190185547 -134.05386352539062
39.192043304443359 -105.80503845214844 -134.05307006835938
38.376258850097656 -106.71855163574219 -134.0526123046875
37.0916748046875 -107.763427734375 -134.05278015136719
36.419864654541016 -108.28589630126953 -134.052978515625
34.974208831787109 -109.72157287597656 -134.05308532714844
34.451210021972656 -110.40380859375 -134.05296325683594
33.476203918457031 -111.68792724609375 -134.0528564453125
32.885307312011719 -113.641845703125 -134.05131530761719
33.141197204589844 -115.59352874755859 -134.04853820800781
33.129795074462891 -117.55574798583984 -134.04647827148438
34.044979095458984 -119.50548553466797 -134.04301452636719
34.391868591308594 -119.79488372802734 -134.04216003417969
36.340320587158203 -120.35031890869141 -134.03843688964844
38.285251617431641 -119.78450012207031 -134.035888671875
39.263263702392578 -119.49152374267578 -134.03471374511719
40.231563568115234 -119.21855926513672 -134.03361511230469
42.185985565185547 -119.3131103515625 -134.03105163574219
44.133506774902344 -119.04720306396484 -134.02908325195312
46.082958221435547 -118.66103363037109 -134.02748107910156
47.408050537109375 -119.46782684326172 -134.02560424804688
48.025524139404297 -119.9564208984375 -134.02471923828125
49.159122467041016 -121.41428375244141 -134.02275085449219
49.975257873535156 -122.46268463134766 -134.021484375
50.672431945800781 -123.37128448486328 -134.02049255371094
51.918609619140625 -124.96868896484375 -134.01899719238281
52.207992553710938 -125.31805419921875 -134.01869201660156
53.6856689453125 -127.26485443115234 -134.017333984375
53.865634918212891 -127.44440460205078 -134.01722717285156
55.636631011962891 -129.2099609375 -134.01628112792969
57.782440185546875 -131.34756469726562 -131.52322387695312
59.7392578125 -131.90135192871094 -131.52316284179688
60.803962707519531 -131.15716552734375 -131.52325439453125
61.708415985107422 -130.5535888671875 -131.52342224121094
63.337787628173828 -129.1868896484375 -131.52398681640625
63.66998291015625 -128.845458984375 -131.52415466308594
64.929618835449219 -127.22972869873047 -131.52503967285156
65.635696411132812 -126.31645202636719 -131.52561950683594
66.503578186035156 -125.27245330810547 -131.5264892578125
67.324684143066406 -123.31777954101562 -131.52793884277344
67.6181640625 -122.86631011962891 -131.52838134765625
68.550224304199219 -121.35148620605469 -131.52995300292969
69.193344116210938 -119.397216796875 -131.53192138671875
69.545768737792969 -117.44392395019531 -131.53395080566406
69.606918334960938 -117.31356811523438 -131.53413391113281
70.393409729003906 -115.47864532470703 -131.53666687011719
70.426246643066406 -113.52630615234375 -131.53901672363281
70.631744384765625 -111.57321166992188 -131.541748046875
71.322494506835938 -109.60813903808594 -131.545166015625
71.450119018554688 -107.65505981445312 -131.54838562011719
70.984375 -105.70412445068359 -131.55136108398438
70.510093688964844 -103.74306488037109 -131.55462646484375
70.5308837890625 -101.78998565673828 -131.55853271484375
70.160003662109375 -99.838233947753906 -131.5623779296875
69.767181396484375 -98.978286743164062 -131.56399536132812
69.286979675292969 -97.878211975097656 -131.566162109375
68.767868041992188 -95.92669677734375 -131.57048034667969
67.861618041992188 -94.417289733886719 -131.57369995117188
67.575691223144531 -93.977508544921875 -131.57467651367188
66.445671081542969 -92.027862548828125 -131.57923889160156
65.930015563964844 -91.508697509765625 -131.58042907714844
64.322029113769531 -90.071586608886719 -131.58380126953125
63.994461059570312 -89.792167663574219 -131.58451843261719
62.040679931640625 -89.408279418945312 -131.58515930175781
60.0740966796875 -89.294868469238281 -131.58529663085938
58.111137390136719 -89.692398071289062 -131.58421325683594
57.483169555664062 -90.095359802246094 -131.58314514160156
56.137264251708984 -90.921546936035156 -131.5810546875
54.162254333496094 -91.659477233886719 -131.57962036132812
53.535247802734375 -92.072334289550781 -131.57875061035156
52.191867828369141 -92.888214111328125 -131.5771484375
50.226894378662109 -93.856216430664062 -131.57571411132812
50.024333953857422 -94.037193298339844 -131.57537841796875
48.244564056396484 -95.50537109375 -131.57289123535156
47.618350982666016 -95.998161315917969 -131.57217407226562
46.276008605957031 -97.034011840820312 -131.57081604003906
45.225643157958984 -97.958709716796875 -131.56962585449219
44.303241729736328 -99.093345642089844 -131.56794738769531
43.664531707763672 -99.92657470703125 -131.5667724609375
42.385059356689453 -101.88341522216797 -131.56404113769531
42.324321746826172 -101.96370697021484 -131.56394958496094
40.947883605957031 -103.84046936035156 -131.5618896484375
40.341773986816406 -104.61330413818359 -131.56118774414062
39.363113403320312 -105.80772399902344 -131.56031799316406
38.428249359130859 -107.76303100585938 -131.55824279785156
38.367755889892578 -107.84329223632812 -131.55818176269531
37.066688537597656 -109.71929931640625 -131.55714416503906
36.401535034179688 -110.70233917236328 -131.55670166015625
35.647266387939453 -111.685546875 -131.5565185546875
34.608070373535156 -113.64063262939453 -131.5556640625
34.424972534179688 -114.23180389404297 -131.55523681640625
34.038154602050781 -115.59440612792969 -131.55429077148438
34.026763916015625 -117.55661773681641 -131.55223083496094
34.399734497070312 -118.52670288085938 -131.5506591796875
35.52947998046875 -119.50476837158203 -131.54786682128906
36.344512939453125 -119.79290008544922 -131.54629516601562
38.286861419677734 -119.78765869140625 -131.5433349609375
38.896102905273438 -119.49569702148438 -131.54270935058594
40.234817504882812 -118.89138793945312 -131.54141235351562
42.192577362060547 -118.32527923583984 -131.53945922851562
44.142116546630859 -117.698974609375 -131.53790283203125
44.462551116943359 -117.52786254882812 -131.5377197265625
46.094917297363281 -116.75221252441406 -131.53692626953125
47.559612274169922 -117.51858520507812 -131.53488159179688
48.037822723388672 -117.81744384765625 -131.53422546386719
49.589485168457031 -119.46427917480469 -131.53158569335938
49.986732482910156 -120.08364105224609 -131.53079223632812
50.79144287109375 -121.41234588623047 -131.52928161621094
51.524742126464844 -123.37176513671875 -131.527587890625
51.923137664794922 -123.99103546142578 -131.52703857421875
52.740287780761719 -125.31951904296875 -131.52598571777344
53.687252044677734 -127.26803588867188 -131.52487182617188
53.867221832275391 -127.44758605957031 -131.52473449707031
55.638214111328125 -129.213134765625 -131.52377319335938
55.828449249267578 -129.40266418457031 -131.52369689941406
57.601966857910156 -131.16802978515625 -131.52322387695312
59.742927551269531 -132.71493530273438 -129.03103637695312
61.711383819580078 -132.70817565917969 -129.03125
63.671436309814453 -131.4404296875 -129.03172302246094
63.963142395019531 -131.14920043945312 -129.03181457519531
65.352775573730469 -129.18278503417969 -129.03260803222656
65.634902954101562 -128.84150695800781 -129.03277587890625
66.774635314941406 -127.22612762451172 -129.03378295898438
67.613136291503906 -125.84192657470703 -129.03475952148438
68.017318725585938 -125.26997375488281 -129.03523254394531
68.536697387695312 -123.31635284423828 -129.03660583496094
69.097892761230469 -121.35247039794922 -129.03826904296875
69.596160888671875 -120.24956512451172 -129.03945922851562
70.003074645996094 -119.39720153808594 -129.04046630859375
70.405998229980469 -117.44369506835938 -129.04255676269531
70.911186218261719 -115.47968292236328 -129.0450439453125
71.417755126953125 -113.52554321289062 -129.04776000976562
71.431770324707031 -111.57314300537109 -129.05035400390625
71.447235107421875 -109.61062622070312 -129.05323791503906
71.463966369628906 -107.65796661376953 -129.05633544921875
71.4820556640625 -105.70516204833984 -129.05970764160156
71.5015869140625 -103.74222564697266 -129.0633544921875
71.401390075683594 -101.78959655761719 -129.06712341308594
70.687744140625 -99.839149475097656 -129.07069396972656
69.778785705566406 -98.330055236816406 -129.0733642578125
69.4921875 -97.880355834960938 -129.07421875
68.771614074707031 -95.929588317871094 -129.078369140625
67.859840393066406 -94.830970764160156 -129.08053588867188
67.156692504882812 -93.981956481933594 -129.08230590820312
65.92138671875 -92.37335205078125 -129.08592224121094
65.644584655761719 -92.03369140625 -129.08671569824219
63.989639282226562 -90.366256713867188 -129.09072875976562
63.380809783935547 -90.077835083007812 -129.09135437011719
62.043800354003906 -89.451217651367188 -129.09284973144531
60.077835083007812 -89.2977294921875 -129.09310913085938
58.114883422851562 -89.695243835449219 -129.092041015625
57.486911773681641 -90.098220825195312 -129.09097290039062
56.141006469726562 -90.924415588378906 -129.08892822265625
54.162822723388672 -91.8828125 -129.08688354492188
53.939697265625 -92.073921203613281 -129.08645629882812
52.190460205078125 -93.2618408203125 -129.08407592773438
51.048732757568359 -94.036911010742188 -129.08267211914062
50.219676971435547 -94.670700073242188 -129.08154296875
48.244274139404297 -95.81884765625 -129.08004760742188
48.041980743408203 -95.999794006347656 -129.07977294921875
46.277385711669922 -97.227249145507812 -129.07829284667969
44.939773559570312 -97.962425231933594 -129.07783508300781
44.315654754638672 -98.374946594238281 -129.07752990722656
42.354496002197266 -99.62261962890625 -129.07685852050781
42.021636962890625 -99.934074401855469 -129.07655334472656
40.380538940429688 -101.29084014892578 -129.07568359375
39.785678863525391 -101.8934326171875 -129.07522583007812
38.412864685058594 -103.52970886230469 -129.07382202148438
38.100700378417969 -103.85102844238281 -129.07366943359375
37.254470825195312 -105.81623077392578 -129.07124328613281
36.437294006347656 -106.94000244140625 -129.07054138183594
35.792572021484375 -107.77285003662109 -129.07015991210938
34.979591369628906 -109.72763061523438 -129.068359375
34.45660400390625 -110.40986633300781 -129.06820678710938
33.531337738037109 -111.69385528564453 -129.06794738769531
32.496547698974609 -113.11823272705078 -129.06790161132812
32.095127105712891 -113.64987945556641 -129.06796264648438
30.939212799072266 -115.60506439208984 -129.06782531738281
31.444728851318359 -117.56605529785156 -129.06474304199219
32.461418151855469 -118.98506927490234 -129.06147766113281
34.399456024169922 -119.34049987792969 -129.0577392578125
36.350490570068359 -119.33537292480469 -129.05451965332031
38.297817230224609 -118.33911895751953 -129.05250549316406
40.244163513183594 -117.82321929931641 -129.05032348632812
40.794120788574219 -117.54137420654297 -129.04989624023438
42.204341888427734 -116.86667633056641 -129.04885864257812
44.155448913574219 -116.03014373779297 -129.047607421875
46.104640960693359 -115.75408172607422 -129.0460205078125
48.052047729492188 -115.98844909667969 -129.04412841796875
49.573287963867188 -117.51537322998047 -129.04142761230469
50.000377655029297 -118.08461761474609 -129.04060363769531
50.82391357421875 -119.46338653564453 -129.03883361816406
51.936630249023438 -121.33161926269531 -129.0367431640625
51.996364593505859 -121.41151428222656 -129.03666687011719
52.599811553955078 -123.37131500244141 -129.03506469726562
53.695598602294922 -125.31942749023438 -129.0335693359375
53.875347137451172 -125.53902435302734 -129.03340148925781
55.063819885253906 -127.26654052734375 -129.0323486328125
55.833782196044922 -128.3148193359375 -129.03182983398438
56.534347534179688 -129.21318054199219 -129.031494140625
57.786548614501953 -130.8201904296875 -129.0311279296875
58.097358703613281 -131.16938781738281 -129.03105163574219
61.717639923095703 -133.86181640625 -126.53953552246094
63.677253723144531 -133.28462219238281 -126.53997039794922
63.858180999755859 -133.10383605957031 -126.54000091552734
65.357040405273438 -131.14712524414062 -126.54058837890625
65.638931274414062 -130.79585266113281 -126.54072570800781
66.777549743652344 -129.18052673339844 -126.54152679443359
67.615097045898438 -127.79639434814453 -126.54232788085938
68.018867492675781 -127.22446441650391 -126.54275512695312
68.909538269042969 -125.26954650878906 -126.54411315917969
69.207466125488281 -123.31671142578125 -126.54534912109375
69.593711853027344 -122.33438873291016 -126.54623413085938
70.000511169433594 -121.35195159912109 -126.54721832275391
70.402061462402344 -119.39852142333984 -126.54909515380859
70.905815124511719 -117.44462585449219 -126.55130767822266
71.411087036132812 -115.4805908203125 -126.55380249023438
71.423751831054688 -113.52830505371094 -126.55612945556641
71.437759399414062 -111.57589721679688 -126.55873107910156
71.453224182128906 -109.61335754394531 -126.56159210205078
71.469955444335938 -107.66069793701172 -126.56470489501953
71.488021850585938 -105.7078857421875 -126.56804656982422
71.386589050292969 -103.74538421630859 -126.57158660888672
70.661506652832031 -101.79513549804688 -126.57486724853516
70.169708251953125 -99.843826293945312 -126.57859802246094
69.774024963378906 -99.224288940429688 -126.57968139648438
68.974380493164062 -97.884994506835938 -126.5821533203125
68.032455444335938 -95.935035705566406 -126.58618927001953
67.8541259765625 -95.715293884277344 -126.58662414550781
66.739944458007812 -93.986160278320312 -126.59033203125
65.920242309570312 -92.87701416015625 -126.59285736083984
65.187820434570312 -92.038002014160156 -126.59477233886719
63.987701416015625 -90.900009155273438 -126.59746551513672
62.864120483398438 -90.082305908203125 -126.59944915771484
62.049713134765625 -89.453819274902344 -126.60106658935547
60.083740234375 -89.300338745117188 -126.60131072998047
58.120792388916016 -89.697853088378906 -126.60026550292969
57.492824554443359 -90.100830078125 -126.59922027587891
56.146915435791016 -90.927024841308594 -126.59718322753906
54.168743133544922 -91.885421752929688 -126.59516906738281
53.945602416992188 -92.076530456542969 -126.59474182128906
52.196376800537109 -93.26446533203125 -126.59235382080078
51.054649353027344 -94.039535522460938 -126.59097290039062
50.225582122802734 -94.673332214355469 -126.58985137939453
48.253055572509766 -95.601058959960938 -126.58889770507812
47.687999725341797 -96.003494262695312 -126.58836364746094
46.287067413330078 -96.929313659667969 -126.58732604980469
45.035568237304688 -97.964813232421875 -126.58604431152344
44.319267272949219 -98.56793212890625 -126.58538818359375
42.556373596191406 -99.935264587402344 -126.58423614501953
42.354843139648438 -100.10610198974609 -126.5841064453125
40.439670562744141 -101.89434814453125 -126.58265686035156
40.379192352294922 -101.95460510253906 -126.58261108398438
38.4185791015625 -103.55239868164062 -126.58206939697266
38.106601715087891 -103.85369873046875 -126.58193206787109
36.456645965576172 -105.51052856445312 -126.581298828125
36.144985198974609 -105.82177734375 -126.58121490478516
35.081756591796875 -107.77735137939453 -126.57955932617188
34.476104736328125 -108.76026153564453 -126.57895660400391
33.880931854248047 -109.73309326171875 -126.57844543457031
32.515254974365234 -111.36865997314453 -126.57843780517578
32.204490661621094 -111.69985198974609 -126.57853698730469
31.186378479003906 -113.65481567382812 -126.57783508300781
30.553688049316406 -114.63755035400391 -126.57783508300781
29.981136322021484 -115.61009979248047 -126.57781219482422
30.540431976318359 -116.81013488769531 -126.57540893554688
31.152416229248047 -117.56951141357422 -126.57344818115234
32.470638275146484 -118.33708190917969 -126.57023620605469
34.096164703369141 -117.5621337890625 -126.568115234375
34.415622711181641 -117.37110900878906 -126.56777954101562
36.368007659912109 -117.12575531005859 -126.56488800048828
38.310367584228516 -117.12054443359375 -126.56198883056641
40.256126403808594 -116.74478912353516 -126.55975341796875
42.214328765869141 -116.17866516113281 -126.55796813964844
43.185939788818359 -115.57521820068359 -126.55755615234375
44.168174743652344 -114.94165802001953 -126.55724334716797
46.119045257568359 -114.42533111572266 -126.55598449707031
47.690761566162109 -115.56186676025391 -126.55333709716797
48.058876037597656 -115.85105895996094 -126.552734375
49.719310760498047 -117.51769256591797 -126.54977416992188
50.007583618164062 -117.85713958740234 -126.54924774169922
51.180183410644531 -119.46504974365234 -126.54707336425781
51.945774078369141 -120.59371185302734 -126.54572296142578
52.573081970214844 -121.41246032714844 -126.54480743408203
53.487144470214844 -123.37126922607422 -126.54308319091797
53.885982513427734 -123.94048309326172 -126.54259490966797
54.813789367675781 -125.31861114501953 -126.54157257080078
55.843162536621094 -126.55623626708984 -126.540771484375
56.513439178466797 -127.26457977294922 -126.54036712646484
57.613559722900391 -129.21241760253906 -126.53964996337891
57.793846130371094 -129.44198608398438 -126.53958892822266
58.976417541503906 -131.16928100585938 -126.53929138183594
59.748973846435547 -132.20741271972656 -126.53926086425781
60.733016967773438 -133.11468505859375 -126.53935241699219
61.727237701416016 -135.70579528808594 -124.04840087890625
63.686614990234375 -135.24868774414062 -124.04877471923828
63.867408752441406 -135.05793762207031 -124.04878234863281
65.646652221679688 -133.28038024902344 -124.04927062988281
65.837783813476562 -133.09956359863281 -124.04934692382812
66.794120788574219 -131.14468383789062 -124.04986572265625
67.620574951171875 -129.81068420410156 -124.05048370361328
68.024017333984375 -129.17872619628906 -124.05083465576172
68.913307189941406 -127.22388458251953 -124.05195617675781
69.532241821289062 -125.26992797851562 -124.05319976806641
69.592994689941406 -125.14960479736328 -124.05329132080078
70.414665222167969 -123.31490325927734 -124.05491638183594
70.401725769042969 -121.35309600830078 -124.05623626708984
70.90411376953125 -119.39927673339844 -124.05818176269531
71.407951354980469 -117.44535064697266 -124.0604248046875
71.419296264648438 -115.48316192626953 -124.06252288818359
71.431953430175781 -113.53086090087891 -124.06488037109375
71.445960998535156 -111.57843780517578 -124.06747436523438
71.461410522460938 -109.61589050292969 -124.07033538818359
71.478134155273438 -107.6632080078125 -124.07343292236328
71.496192932128906 -105.71038818359375 -124.07676696777344
71.394744873046875 -103.74787139892578 -124.08030700683594
70.669677734375 -101.79759979248047 -124.08357238769531
70.1778564453125 -99.846275329589844 -124.08729553222656
69.781570434570312 -99.276817321777344 -124.08823394775391
68.962371826171875 -97.887504577636719 -124.09082794189453
67.854827880859375 -96.288787841796875 -124.09391021728516
67.567436218261719 -95.939216613769531 -124.0946044921875
66.224807739257812 -93.990493774414062 -124.09877014160156
65.917198181152344 -93.6810302734375 -124.09941101074219
64.290885925292969 -92.043655395507812 -124.10309600830078
63.983676910400391 -91.734138488769531 -124.10383605957031
62.04736328125 -90.147705078125 -124.10773468017578
61.917671203613281 -90.088043212890625 -124.10787963867188
60.09149169921875 -89.322731018066406 -124.10987091064453
58.12884521484375 -89.700210571289062 -124.10888671875
57.500873565673828 -90.103179931640625 -124.10784912109375
56.154975891113281 -90.92938232421875 -124.10581970214844
54.176803588867188 -91.887786865234375 -124.10381317138672
53.95367431640625 -92.078895568847656 -124.1033935546875
52.204437255859375 -93.266838073730469 -124.10102844238281
51.062717437744141 -94.041915893554688 -124.09964752197266
50.233657836914062 -94.675704956054688 -124.09855651855469
48.258251190185547 -95.823867797851562 -124.09706115722656
48.035964965820312 -96.004867553710938 -124.0968017578125
46.290992736816406 -97.262336730957031 -124.09523010253906
45.582996368408203 -97.965652465820312 -124.09423828125
44.315326690673828 -99.582130432128906 -124.09184265136719
44.001739501953125 -99.933616638183594 -124.09138488769531
42.622344970703125 -101.89076995849609 -124.08875274658203
42.339145660400391 -102.24212646484375 -124.08836364746094
41.195045471191406 -103.84783935546875 -124.08655548095703
40.353424072265625 -105.24226379394531 -124.08499145507812
39.949104309082031 -105.81421661376953 -124.08446502685547
39.193466186523438 -107.76907348632812 -124.08209991455078
38.374732971191406 -109.10311126708984 -124.08106231689453
37.971038818359375 -109.72503662109375 -124.08067321777344
37.587024688720703 -111.68861389160156 -124.07833862304688
38.343570709228516 -113.14841461181641 -124.07530975341797
38.778633117675781 -113.63783264160156 -124.07406616210938
40.277702331542969 -114.55481719970703 -124.07095336914062
42.233943939208984 -114.34908294677734 -124.06883239746094
44.180210113525391 -114.34348297119141 -124.06674957275391
46.127189636230469 -114.42784881591797 -124.06480407714844
47.828876495361328 -115.56401062011719 -124.06204223632812
48.067638397216797 -115.75347900390625 -124.06165313720703
50.019306182861328 -117.20901489257812 -124.05873870849609
50.307743072509766 -117.5184326171875 -124.05824279785156
51.960006713867188 -119.28499603271484 -124.05564880371094
52.139350891113281 -119.46459197998047 -124.05540466308594
53.04193115234375 -121.41356658935547 -124.05340576171875
53.89898681640625 -122.54181671142578 -124.05227661132812
54.537288665771484 -123.37047576904297 -124.05152130126953
55.663944244384766 -125.31845092773438 -124.05012512207031
55.853839874267578 -125.53800964355469 -124.04997253417969
56.972942352294922 -127.26570892333984 -124.04903411865234
57.802932739257812 -128.77410888671875 -124.04845428466797
58.093288421630859 -129.21347045898438 -124.04833221435547
58.834079742431641 -131.17245483398438 -124.04795837402344
59.757133483886719 -132.68040466308594 -124.04788208007812
60.048328399658203 -133.11972045898438 -124.04790496826172
61.053562164306641 -135.06767272949219 -124.04817962646484
61.736064910888672 -132.20582580566406 -121.55707550048828
63.695823669433594 -132.55928039550781 -121.5574951171875
65.657012939453125 -132.88259887695312 -121.55817413330078
66.915275573730469 -131.14678955078125 -121.55888366699219
66.947196960449219 -129.18513488769531 -121.55924987792969
67.201919555664062 -127.23260498046875 -121.55997467041016
67.145988464355469 -125.2811279296875 -121.56081390380859
67.642379760742188 -124.17835235595703 -121.56167602539062
68.047813415527344 -123.32609558105469 -121.56240844726562
68.800247192382812 -121.36149597167969 -121.56422424316406
69.621833801269531 -120.02713775634766 -121.56581115722656
70.027725219726562 -119.40499877929688 -121.56662750244141
70.551559448242188 -117.45099639892578 -121.56883239746094
71.308753967285156 -115.48599243164062 -121.571533203125
71.442367553710938 -113.53321838378906 -121.57396697998047
71.577346801757812 -111.58031463623047 -121.57668304443359
71.638809204101562 -111.44992828369141 -121.576904296875
72.429634094238281 -109.61455535888672 -121.58020782470703
72.476585388183594 -107.66172790527344 -121.58333587646484
72.444229125976562 -105.70906829833984 -121.58659362792969
72.110801696777344 -103.74742889404297 -121.58992767333984
71.716400146484375 -102.89762115478516 -121.59123992919922
71.234336853027344 -101.7977294921875 -121.59303283691406
70.540847778320312 -99.847160339355469 -121.59657287597656
69.796783447265625 -98.868316650390625 -121.59819793701172
69.053260803222656 -97.889404296875 -121.59990692138672
67.861030578613281 -96.611572265625 -121.60218048095703
67.185188293457031 -95.942863464355469 -121.60341644287109
65.914138793945312 -94.665122985839844 -121.60594940185547
65.249267578125 -93.996246337890625 -121.60737609863281
63.977134704589844 -92.918724060058594 -121.60971069335938
62.471832275390625 -92.052322387695312 -121.61162567138672
62.033939361572266 -91.763275146484375 -121.61233520507812
60.071189880371094 -91.379310607910156 -121.61318206787109
58.115913391113281 -91.265701293945312 -121.61357879638672
56.154563903808594 -91.663047790527344 -121.61284637451172
55.286582946777344 -92.076736450195312 -121.61196899414062
54.177482604980469 -92.561302185058594 -121.61106109619141
52.215908050537109 -93.17877197265625 -121.61027526855469
51.072925567626953 -94.044044494628906 -121.60868835449219
50.243873596191406 -94.677841186523438 -121.60758209228516
48.268474578857422 -95.825996398925781 -121.60610961914062
48.086162567138672 -96.006889343261719 -121.60579681396484
46.294746398925781 -97.785446166992188 -121.60308837890625
46.112701416015625 -97.966285705566406 -121.60282897949219
45.130355834960938 -99.932594299316406 -121.599365234375
44.306377410888672 -101.26720428466797 -121.59733581542969
43.900180816650391 -101.88938140869141 -121.59648132324219
42.334510803222656 -103.65660858154297 -121.59466552734375
42.142986297607422 -103.84745025634766 -121.59452056884766
40.986400604248047 -105.81362152099609 -121.59226226806641
40.350440979003906 -106.63657379150391 -121.59160614013672
39.4827880859375 -107.77055358886719 -121.59078979492188
38.778419494628906 -109.72515106201172 -121.58861541748047
38.763019561767578 -111.68776702880859 -121.58575439453125
40.114643096923828 -113.63649749755859 -121.58139038085938
40.292888641357422 -113.81621551513672 -121.5809326171875
42.244560241699219 -114.30133819580078 -121.57799530029297
44.190513610839844 -114.34578704833984 -121.57587432861328
46.137901306152344 -114.37009429931641 -121.57402038574219
48.086402893066406 -114.42428588867188 -121.57238006591797
49.789260864257812 -115.56032562255859 -121.56986236572266
50.038200378417969 -115.74976348876953 -121.56950378417969
51.689193725585938 -117.51645660400391 -121.56667327880859
51.977993011474609 -117.79582977294922 -121.56624603271484
53.64190673828125 -119.46217346191406 -121.56397247314453
53.920337677001953 -119.90169525146484 -121.56346893310547
54.795505523681641 -121.41030120849609 -121.56195831298828
55.559959411621094 -123.36956024169922 -121.56037902832031
55.869274139404297 -123.80892944335938 -121.56003570556641
56.787303924560547 -125.31718444824219 -121.55900573730469
57.514961242675781 -127.26638031005859 -121.55804443359375
57.8150634765625 -127.71573638916016 -121.55783081054688
58.735904693603516 -129.21380615234375 -121.55731964111328
59.768547058105469 -130.37120056152344 -121.55709838867188
60.621486663818359 -131.16888427734375 -121.55703735351562
61.749111175537109 -134.2796630859375 -119.06639862060547
63.708560943603516 -133.40225219726562 -119.06679534912109
64.150901794433594 -133.11044311523438 -119.06692504882812
65.669677734375 -132.27445983886719 -119.06749725341797
67.1795654296875 -131.14820861816406 -119.06829071044922
67.463150024414062 -129.18562316894531 -119.06884002685547
67.645362854003906 -128.45437622070312 -119.06915283203125
67.929351806640625 -127.23230743408203 -119.06974029541016
68.245964050292969 -125.27944183349609 -119.07080078125
67.655754089355469 -123.94039154052734 -119.07122039794922
67.375846862792969 -123.33084106445312 -119.07145690917969
67.66058349609375 -122.509033203125 -119.0721435546875
68.06768798828125 -121.36646270751953 -119.07319641113281
68.821441650390625 -119.41172027587891 -119.07526397705078
69.643966674804688 -118.07729339599609 -119.0770263671875
70.050277709960938 -117.45511627197266 -119.07793426513672
70.575538635253906 -115.490966796875 -119.08041381835938
71.334022521972656 -113.53582000732422 -119.08332061767578
71.5899658203125 -111.58245086669922 -119.08610534667969
71.651420593261719 -111.45205688476562 -119.08632659912109
72.442230224609375 -109.61666107177734 -119.08963775634766
72.489173889160156 -107.663818359375 -119.09273529052734
72.507217407226562 -105.71094512939453 -119.09606170654297
72.496444702148438 -103.74803161621094 -119.099609375
71.739494323730469 -101.91804504394531 -119.10256195068359
71.680328369140625 -101.79808807373047 -119.10275268554688
71.460433959960938 -99.845680236816406 -119.10660552978516
70.113380432128906 -97.887420654296875 -119.10995483398438
69.824920654296875 -97.587982177734375 -119.11042785644531
68.184173583984375 -95.941123962402344 -119.11326599121094
67.88592529296875 -95.651702880859375 -119.11381530761719
66.126823425292969 -93.995002746582031 -119.11705017089844
65.938133239746094 -93.815345764160156 -119.11741638183594
63.999320983886719 -92.229194641113281 -119.12083435058594
63.770668029785156 -92.049636840820312 -119.12123107910156
62.060333251953125 -90.803108215332031 -119.12419128417969
60.097824096679688 -90.409072875976562 -119.1251220703125
58.141090393066406 -90.395683288574219 -119.12525177001953
56.179763793945312 -90.783012390136719 -119.12452697753906
54.207454681396484 -91.330574035644531 -119.12362670898438
53.144855499267578 -92.085517883300781 -119.12206268310547
52.234695434570312 -92.719688415527344 -119.12080383300781
50.270195007324219 -93.64764404296875 -119.11952972412109
49.694480895996094 -94.050178527832031 -119.11886596679688
48.291984558105469 -94.976219177246094 -119.11753845214844
47.128890991210938 -96.011650085449219 -119.11592102050781
46.317821502685547 -96.925727844238281 -119.11443328857422
45.44573974609375 -97.970161437988281 -119.11282348632812
44.823139190673828 -99.9354248046875 -119.10906982421875
44.322772979736328 -100.90852355957031 -119.10751342773438
43.822704315185547 -101.89158630371094 -119.10597991943359
42.624340057373047 -103.84809875488281 -119.10340118408203
42.340370178222656 -104.29958343505859 -119.10286712646484
41.397739410400391 -105.81449890136719 -119.1011962890625
40.681636810302734 -107.76932525634766 -119.09869384765625
40.794647216796875 -109.72172546386719 -119.095458984375
42.280403137207031 -111.039306640625 -119.09178924560547
44.224025726318359 -111.38420867919922 -119.08925628662109
46.172336578369141 -111.28838348388672 -119.08760070800781
47.148746490478516 -111.66593170166016 -119.08625793457031
48.115379333496094 -112.06352233886719 -119.08496856689453
50.0689697265625 -112.97862243652344 -119.08243560791016
50.6949462890625 -113.607421875 -119.08124542236328
52.005638122558594 -115.20512390136719 -119.07859802246094
52.293807983398438 -115.55460357666016 -119.07805633544922
53.764636993408203 -117.51198577880859 -119.0753173828125
53.943771362304688 -117.73164367675781 -119.07504272460938
55.127422332763672 -119.45953369140625 -119.07299041748047
55.894092559814453 -120.58812713623047 -119.07183837890625
56.522300720214844 -121.40682983398438 -119.071044921875
57.1668701171875 -123.36648559570312 -119.06954193115234
57.772865295410156 -125.31616973876953 -119.06833648681641
57.832744598388672 -125.43607330322266 -119.06828308105469
58.641288757324219 -127.264892578125 -119.06737518310547
58.969314575195312 -129.21534729003906 -119.06671142578125
59.780689239501953 -131.05401611328125 -119.06635284423828
59.840843200683594 -131.17388916015625 -119.06632232666016
60.583492279052734 -133.122802734375 -119.06622314453125
61.763946533203125 -134.31185913085938 -116.57598114013672
63.723564147949219 -133.86471557617188 -116.57639312744141
64.879783630371094 -133.110107421875 -116.57675933837891
65.684494018554688 -132.58686828613281 -116.57708740234375
67.657279968261719 -131.69912719726562 -116.57805633544922
68.2113037109375 -131.14669799804688 -116.57845306396484
68.575546264648438 -129.18377685546875 -116.5791015625
68.145599365234375 -127.23368072509766 -116.57952117919922
67.664993286132812 -125.98432922363281 -116.57982635498047
67.374809265136719 -125.28475189208984 -116.58003997802734
66.988059997558594 -123.33435821533203 -116.58100891113281
67.387870788574219 -121.37102508544922 -116.58262634277344
67.681617736816406 -120.92950439453125 -116.58309936523438
68.614715576171875 -119.41455078125 -116.58491516113281
69.168510437011719 -117.46043395996094 -116.58712768554688
69.668289184570312 -116.35736083984375 -116.58859252929688
70.076446533203125 -115.49485778808594 -116.58982086181641
70.482070922851562 -113.54103088378906 -116.59245300292969
70.989875793457031 -111.58669281005859 -116.59540557861328
71.499198913574219 -109.62220764160156 -116.59861755371094
71.515892028808594 -107.66946411132812 -116.60171508789062
71.533905029296875 -105.71657562255859 -116.60501098632812
71.432411193847656 -103.75399780273438 -116.60848236083984
70.223602294921875 -101.80548095703125 -116.61140441894531
69.79669189453125 -101.23617553710938 -116.61228179931641
68.885749816894531 -99.857261657714844 -116.61458587646484
67.863349914550781 -98.618934631347656 -116.61671447753906
67.187629699707031 -97.900161743164062 -116.61796569824219
65.915695190429688 -96.622512817382812 -116.62032318115234
65.250358581542969 -95.953681945800781 -116.62166595458984
63.979072570800781 -94.7559814453125 -116.6241455078125
63.074512481689453 -94.007743835449219 -116.62575531005859
62.040111541748047 -93.2398681640625 -116.62749481201172
60.319229125976562 -92.063446044921875 -116.63037109375
60.091037750244141 -91.87384033203125 -116.63084411621094
58.144554138183594 -91.14892578125 -116.63285064697266
56.197795867919922 -90.544090270996094 -116.63478851318359
54.235439300537109 -90.410148620605469 -116.63572692871094
52.276748657226562 -90.797164916992188 -116.635498046875
50.318130493164062 -91.27423095703125 -116.63527679443359
48.83587646484375 -92.100433349609375 -116.63406372070312
48.341926574707031 -92.382499694824219 -116.63367462158203
46.381462097167969 -93.199928283691406 -116.63311004638672
45.330692291259766 -94.064689636230469 -116.63186645507812
44.411808013916016 -94.818809509277344 -116.63087463378906
43.317886352539062 -96.024223327636719 -116.62905883789062
42.432048797607422 -97.4193115234375 -116.62677001953125
42.016063690185547 -97.981498718261719 -116.62595367431641
41.603713989257812 -99.9461669921875 -116.62210845947266
41.093097686767578 -101.90090942382812 -116.61867523193359
40.464187622070312 -103.85581207275391 -116.61560821533203
40.403038024902344 -103.98616790771484 -116.61545562744141
39.617324829101562 -105.82113647460938 -116.61307525634766
39.669178009033203 -107.77388763427734 -116.60967254638672
40.358577728271484 -108.75340270996094 -116.60725402832031
42.308639526367188 -109.33882141113281 -116.60408782958984
43.273513793945312 -109.71660614013672 -116.60247802734375
44.248512268066406 -110.12435150146484 -116.60089111328125
46.193992614746094 -110.38902282714844 -116.59870910644531
48.141986846923828 -110.50334930419922 -116.59701538085938
50.098182678222656 -111.01802825927734 -116.594970703125
50.913791656494141 -111.65628814697266 -116.59361267089844
52.039188385009766 -112.42369079589844 -116.59197235107422
53.643184661865234 -113.59998321533203 -116.58972930908203
53.981414794921875 -113.94930267333984 -116.58915710449219
55.103404998779297 -115.54747772216797 -116.58689117431641
55.925662994384766 -117.20658874511719 -116.58484649658203
56.104465484619141 -117.50630950927734 -116.58451080322266
56.214801788330078 -119.45797729492188 -116.58260345458984
56.486942291259766 -121.40899658203125 -116.58089447021484
57.251869201660156 -123.36827850341797 -116.579345703125
57.850357055664062 -124.43724060058594 -116.57860565185547
58.369590759277344 -125.31626129150391 -116.57809448242188
59.057540893554688 -127.26561737060547 -116.57711029052734
59.798164367675781 -128.53414916992188 -116.57666015625
60.208885192871094 -129.21328735351562 -116.57646942138672
60.839756011962891 -131.17266845703125 -116.57607269287109
61.160762786865234 -133.123046875 -116.57591247558594
57.862472534179688 -139.2906494140625 -114.08665466308594
59.819984436035156 -139.42417907714844 -114.08663177490234
61.788864135742188 -139.53758239746094 -114.08683013916016
62.340236663818359 -138.98530578613281 -114.08674621582031
63.744487762451172 -137.47938537597656 -114.086669921875
64.176109313964844 -137.02755737304688 -114.08669281005859
64.535743713378906 -135.06488037109375 -114.08655548095703
65.027580261230469 -133.11164855957031 -114.08672332763672
65.520843505859375 -131.15837097167969 -114.08714294433594
65.643310546875 -129.19631958007812 -114.08763885498047
65.703826904296875 -129.07601928710938 -114.08770751953125
66.481536865234375 -127.24167633056641 -114.08869934082031
66.697341918945312 -125.28916168212891 -114.08974456787109
67.377548217773438 -123.33487701416016 -114.09125518798828
67.505577087402344 -121.37249755859375 -114.09273529052734
67.644996643066406 -119.41999053955078 -114.09445190429688
67.705963134765625 -119.29964447021484 -114.09458923339844
68.4906005859375 -117.46479034423828 -114.09680938720703
68.471733093261719 -115.50263977050781 -114.09894561767578
68.715972900390625 -113.54941558837891 -114.10142517089844
69.314117431640625 -111.59474945068359 -114.1043701171875
69.551132202148438 -109.63130187988281 -114.10736083984375
69.436843872070312 -107.67903900146484 -114.11032867431641
68.729698181152344 -105.72883605957031 -114.11324310302734
67.819755554199219 -104.06969451904297 -114.11573028564453
67.631546020507812 -103.76992797851562 -114.11620330810547
66.806770324707031 -101.81985473632812 -114.11956787109375
65.889678955078125 -100.16043090820312 -114.12258148193359
65.711944580078125 -99.870574951171875 -114.12312316894531
64.246963500976562 -97.912422180175781 -114.12690734863281
63.959117889404297 -97.6129150390625 -114.12748718261719
62.321735382080078 -95.965660095214844 -114.13092803955078
62.024101257324219 -95.676162719726562 -114.13156890869141
60.268585205078125 -94.019027709960938 -114.13541412353516
60.080268859863281 -93.839309692382812 -114.13584899902344
58.139026641845703 -92.703605651855469 -114.13878631591797
57.255172729492188 -92.075241088867188 -114.14052581787109
56.203010559082031 -91.3271484375 -114.14265441894531
54.244548797607422 -90.922599792480469 -114.14429473876953
52.287940979003906 -91.169319152832031 -114.14443206787109
50.325637817382812 -91.90692138671875 -114.1435546875
50.092803955078125 -92.098037719726562 -114.14320373535156
48.345935821533203 -93.285743713378906 -114.14131927490234
47.295700073242188 -94.060409545898438 -114.14016723632812
46.37408447265625 -94.974937438964844 -114.13870239257812
45.591213226318359 -96.01922607421875 -114.13687896728516
44.392406463623047 -97.635696411132812 -114.13426971435547
44.098678588867188 -97.977157592773438 -114.13378143310547
42.897487640380859 -99.944068908691406 -114.13072967529297
42.406009674072266 -101.04735565185547 -114.12895202636719
41.987548828125 -101.89995574951172 -114.127685546875
41.697643280029297 -103.85396575927734 -114.12419891357422
41.648384094238281 -105.81715393066406 -114.12070465087891
42.348873138427734 -106.65648651123047 -114.11849212646484
43.716136932373047 -107.76423645019531 -114.11522674560547
44.281692504882812 -108.16318511962891 -114.11400604248047
46.227035522460938 -108.42791748046875 -114.11184692382812
48.175331115722656 -108.502197265625 -114.11021423339844
50.131126403808594 -109.02694702148438 -114.10811614990234
50.795951843261719 -109.69579315185547 -114.10669708251953
52.067481994628906 -110.90337371826172 -114.10426330566406
52.812717437744141 -111.65196228027344 -114.10285949707031
54.005340576171875 -112.92971801757812 -114.10067749023438
54.682022094726562 -113.59833526611328 -114.09957885742188
55.130352020263672 -115.54915618896484 -114.09706115722656
55.943660736083984 -117.01811981201172 -114.09522247314453
56.221664428710938 -117.50772094726562 -114.09465789794922
56.973823547363281 -119.457275390625 -114.09260559082031
57.47674560546875 -121.40756225585938 -114.09088134765625
57.873607635498047 -122.54731750488281 -114.0899658203125
58.16168212890625 -123.36711120605469 -114.08937835693359
57.925052642822266 -125.31968688964844 -114.08821105957031
57.86358642578125 -125.81032562255859 -114.08795166015625
57.689773559570312 -127.27216339111328 -114.08728790283203
57.556190490722656 -129.22422790527344 -114.08657836914062
57.423973083496094 -131.18621826171875 -114.08612060546875
57.30316162109375 -133.13809204101562 -114.08589935302734
57.183712005615234 -135.0899658203125 -114.08592224121094
57.065643310546875 -137.05174255371094 -114.08618927001953
57.490604400634766 -139.00166320800781 -114.08660888671875
61.799758911132812 -132.21406555175781 -111.59624481201172
63.759563446044922 -132.66761779785156 -111.5965576171875
64.946586608886719 -131.16226196289062 -111.59715270996094
65.722190856933594 -129.82841491699219 -111.59773254394531
66.135429382324219 -129.1964111328125 -111.59810638427734
66.651748657226562 -127.24285888671875 -111.59905242919922
67.20977783203125 -125.28908538818359 -111.60028839111328
67.706161499023438 -124.18625640869141 -111.60116577148438
68.111602783203125 -123.33395385742188 -111.6019287109375
68.511528015136719 -121.37054443359375 -111.60357666015625
68.701347351074219 -119.41780853271484 -111.60537719726562
69.386070251464844 -117.46314239501953 -111.60767364501953
69.528335571289062 -115.50035858154297 -111.60989379882812
69.540931701660156 -113.54794311523438 -111.61227416992188
69.554885864257812 -111.59541320800781 -111.61486053466797
69.45947265625 -109.6331787109375 -111.61764526367188
69.093376159667969 -107.68180847167969 -111.6204833984375
68.003669738769531 -105.73299407958984 -111.62319183349609
67.824287414550781 -105.54336547851562 -111.62344360351562
66.161155700683594 -103.77674865722656 -111.62590789794922
65.872482299804688 -103.47731781005859 -111.62636566162109
64.24066162109375 -101.83054351806641 -111.62901306152344
63.932289123535156 -101.53115081787109 -111.62953186035156
62.292659759521484 -99.8841552734375 -111.63257598876953
61.994632720947266 -99.594688415527344 -111.63314819335938
60.236991882324219 -97.927810668945312 -111.63661193847656
60.048454284667969 -97.748130798339844 -111.63700103759766
58.111431121826172 -96.161750793457031 -111.64069366455078
57.933181762695312 -95.982009887695312 -111.64112854003906
56.179962158203125 -94.324569702148438 -111.64536285400391
55.572357177734375 -94.035964965820312 -111.64621734619141
54.228069305419922 -93.409042358398438 -111.64817047119141
52.277599334716797 -93.224815368652344 -111.6494140625
50.804916381835938 -94.051055908203125 -111.64812469482422
50.310676574707031 -94.343147277832031 -111.64768981933594
48.61834716796875 -96.011550903320312 -111.64480590820312
48.323886871337891 -96.36309814453125 -111.64419555664062
47.184249877929688 -97.969490051269531 -111.64139556884766
46.338142395019531 -99.364509582519531 -111.63904571533203
45.931850433349609 -99.93670654296875 -111.63816833496094
45.600307464599609 -101.89103698730469 -111.63447570800781
46.109237670898438 -103.84275817871094 -111.63029479980469
46.287151336669922 -104.03253936767578 -111.62978363037109
48.224849700927734 -105.16856384277344 -111.62623596191406
49.048748016357422 -105.79702758789062 -111.62457275390625
50.171493530273438 -106.60478973388672 -111.62245941162109
51.622264862060547 -107.74193572998047 -111.61978912353516
52.107803344726562 -108.31121063232422 -111.61863708496094
52.927261352539062 -109.69051361083984 -111.61613464355469
54.036376953125 -111.299072265625 -111.61334991455078
54.32427978515625 -111.64859771728516 -111.61275482177734
55.061862945556641 -113.5986328125 -111.60993957519531
55.149433135986328 -115.55065155029297 -111.60751342773438
55.960758209228516 -117.38005065917969 -111.60529327392578
56.02020263671875 -117.50998687744141 -111.60514068603516
56.621883392333984 -119.4600830078125 -111.60310363769531
57.144821166992188 -121.41033172607422 -111.60133361816406
57.488609313964844 -123.37107849121094 -111.59983062744141
57.887165069580078 -124.22054290771484 -111.59923553466797
58.375652313232422 -125.31990051269531 -111.59853363037109
58.913047790527344 -127.26982116699219 -111.59751892089844
59.834007263183594 -128.77799987792969 -111.596923828125
60.124588012695312 -129.21736145019531 -111.59677124023438
60.936229705810547 -131.17619323730469 -111.59632110595703
61.822441101074219 -129.96382141113281 -109.10723114013672
63.782329559326172 -129.91697692871094 -109.10763549804688
64.637840270996094 -129.203369140625 -109.10807037353516
65.746368408203125 -127.8182373046875 -109.10898590087891
66.159942626953125 -127.24625396728516 -109.10938262939453
66.6776123046875 -125.29258728027344 -109.110595703125
67.23699951171875 -123.33868408203125 -109.11209869384766
67.734146118164062 -122.23579406738281 -109.11309814453125
68.140213012695312 -121.37342834472656 -109.11398315429688
68.541458129882812 -119.41989135742188 -109.11588287353516
68.732620239257812 -117.46701049804688 -109.11790466308594
69.418746948242188 -115.50218963623047 -109.12042999267578
69.562294006347656 -113.54927062988281 -109.12289428710938
69.57623291015625 -111.59670257568359 -109.12548065185547
69.480789184570312 -109.63441467285156 -109.12828063964844
69.114662170410156 -107.68302154541016 -109.131103515625
68.024940490722656 -105.73415374755859 -109.13380432128906
67.845550537109375 -105.54452514648438 -109.13404846191406
66.081764221191406 -103.77823638916016 -109.13649749755859
65.892463684082031 -103.5986328125 -109.13675689697266
63.943355560302734 -102.46379089355469 -109.13831329345703
63.045505523681641 -101.8359375 -109.13935089111328
61.998725891113281 -101.08835601806641 -109.14068603515625
60.03466796875 -100.70449829101562 -109.14131164550781
58.578521728515625 -99.898040771484375 -109.14303588867188
58.090259552001953 -99.609169006347656 -109.14369201660156
56.139003753662109 -99.234977722167969 -109.14481353759766
54.176124572753906 -99.111114501953125 -109.14564514160156
52.22247314453125 -99.167404174804688 -109.14629364013672
50.264171600341797 -99.734481811523438 -109.14611053466797
50.081882476806641 -99.925369262695312 -109.14582824707031
50.060005187988281 -101.87881469726562 -109.14189147949219
50.238143920898438 -102.05857086181641 -109.14143371582031
51.991035461425781 -103.82602691650391 -109.13712310791016
52.169208526611328 -104.02577209472656 -109.13668823242188
53.704166412353516 -105.78363800048828 -109.13288879394531
54.099037170410156 -106.40330505371094 -109.13168334960938
54.908596038818359 -107.73263549804688 -109.12921905517578
55.212661743164062 -109.68437194824219 -109.12606048583984
56.020252227783203 -111.51416778564453 -109.12319183349609
56.079425811767578 -111.64413452148438 -109.12301635742188
