# XYZ point cloud file
44.726303100585938 -100.34783935546875 -133.17469787597656
43.380813598632812 -101.53974914550781 -133.20864868164062
42.677284240722656 -102.16029357910156 -133.22636413574219
40.682609558105469 -103.3021240234375 -133.27545166015625
40.483306884765625 -103.47928619384766 -133.28062438964844
39.263740539550781 -105.37408447265625 -133.3150634765625
38.558685302734375 -106.0419921875 -133.33380126953125
37.350997924804688 -107.29606628417969 -133.36628723144531
36.4935302734375 -108.18748474121094 -133.38951110839844
35.168300628662109 -109.21510314941406 -133.42449951171875
34.476821899414062 -109.72962188720703 -133.44271850585938
32.969520568847656 -111.13406372070312 -133.48379516601562
32.414230346679688 -111.79765319824219 -133.49974060058594
31.378290176391602 -113.04640960693359 -133.52958679199219
30.67780876159668 -114.926025390625 -133.55474853515625
30.808006286621094 -116.78404235839844 -133.5604248046875
30.675664901733398 -118.65818786621094 -133.57255554199219
31.452787399291992 -120.49894714355469 -133.56355285644531
31.775032043457031 -120.76728820800781 -133.557373046875
33.651165008544922 -121.25266265869141 -133.51579284667969
35.593002319335938 -120.66738128662109 -133.46751403808594
36.570175170898438 -120.36492156982422 -133.44320678710938
37.53668212890625 -120.08179473876953 -133.41937255859375
39.447853088378906 -120.12657165527344 -133.37580871582031
41.374893188476562 -119.82718658447266 -133.33029174804688
43.311504364013672 -119.41282653808594 -133.284423828125
44.562046051025391 -120.15217590332031 -133.26023864746094
45.137805938720703 -120.60420989990234 -133.24967956542969
46.160480499267578 -121.96971893310547 -133.234130859375
46.897014617919922 -122.95158386230469 -133.22315979003906
47.525569915771484 -123.8028564453125 -133.21426391601562
48.650959014892578 -125.29901885986328 -133.197998046875
48.913764953613281 -125.6258544921875 -133.19416809082031
50.245849609375 -127.45037841796875 -133.17593383789062
50.411598205566406 -127.61764526367188 -133.17341613769531
52.043682098388672 -129.26243591308594 -133.1483154296875
54.011676788330078 -131.29638671875 -130.75552368164062
55.901252746582031 -131.77998352050781 -130.71884155273438
56.992523193359375 -131.04421997070312 -130.69140625
57.917877197265625 -130.44667053222656 -130.66847229003906
59.602378845214844 -129.10317993164062 -130.62541198730469
59.949592590332031 -128.76927185058594 -130.61622619628906
61.286293029785156 -127.19651031494141 -130.57945251464844
62.036186218261719 -126.30762481689453 -130.55892944335938
62.953376770019531 -125.29021453857422 -130.53451538085938
63.880538940429688 -123.40390014648438 -130.50515747070312
64.196876525878906 -122.9658203125 -130.4964599609375
65.206626892089844 -121.49704742431641 -130.46832275390625
65.959609985351562 -119.61534881591797 -130.44357299804688
66.427009582519531 -117.74136352539062 -130.42474365234375
66.495208740234375 -117.61543273925781 -130.4228515625
67.38262939453125 -115.84428405761719 -130.39686584472656
67.536209106445312 -113.97862243652344 -130.38510131835938
67.859947204589844 -112.10813903808594 -130.37042236328125
68.662078857421875 -110.21470642089844 -130.34698486328125
68.909721374511719 -108.34588623046875 -130.334716796875
68.573822021484375 -106.49312591552734 -130.33409118652344
68.230300903320312 -104.63075256347656 -130.33413696289062
68.373329162597656 -102.76412200927734 -130.32514953613281
68.131210327148438 -100.90790557861328 -130.323974609375
67.798973083496094 -100.09548950195312 -130.32797241210938
67.395965576171875 -99.055671691894531 -130.33290100097656
67.008262634277344 -97.202835083007812 -130.33540344238281
66.21209716796875 -95.781646728515625 -130.34738159179688
65.958625793457031 -95.368080139160156 -130.35153198242188
64.97021484375 -93.531158447265625 -130.36674499511719
64.496002197265625 -93.047073364257812 -130.37513732910156
63.00567626953125 -91.711334228515625 -130.40200805664062
62.701286315917969 -91.451950073242188 -130.40769958496094
60.80517578125 -91.131423950195312 -130.44528198242188
58.8797607421875 -91.069671630859375 -130.48445129394531
56.926055908203125 -91.496376037597656 -130.52583312988281
56.283847808837891 -91.896575927734375 -130.54017639160156
54.909629821777344 -92.718406677246094 -130.5706787109375
52.923198699951172 -93.470558166503906 -130.61434936523438
52.281417846679688 -93.880012512207031 -130.62905883789062
50.910758972167969 -94.691703796386719 -130.66044616699219
48.920166015625 -95.663093566894531 -130.70596313476562
48.709892272949219 -95.840873718261719 -130.71109008789062
46.8701171875 -97.285911560058594 -130.75517272949219
46.224357604980469 -97.771476745605469 -130.77072143554688
44.841354370117188 -98.792778015136719 -130.80422973632812
43.752197265625 -99.700958251953125 -130.831298828125
42.775588989257812 -100.80662536621094 -130.85653686523438
42.096443176269531 -101.61769104003906 -130.87451171875
40.718002319335938 -103.51707458496094 -130.91197204589844
40.6533203125 -103.59513854980469 -130.91368103027344
39.185081481933594 -105.42001342773438 -130.95364379882812
38.541915893554688 -106.17234802246094 -130.9710693359375
37.507026672363281 -107.33589935302734 -130.99909973144531
36.467826843261719 -109.22517395019531 -131.03056335449219
36.4034423828125 -109.30326843261719 -131.03240966796875
35.010215759277344 -111.125 -131.07217407226562
34.296646118164062 -112.07920074462891 -131.09283447265625
33.495834350585938 -113.03553771972656 -131.11579895019531
32.355430603027344 -114.92655181884766 -131.15080261230469
32.139240264892578 -115.49533843994141 -131.15852355957031
31.675655364990234 -116.80542755126953 -131.17556762695312
31.54334831237793 -118.67955780029297 -131.18771362304688
31.849206924438477 -119.59735107421875 -131.1851806640625
32.896682739257812 -120.50533294677734 -131.16535949707031
33.678047180175781 -120.76166534423828 -131.14839172363281
35.583000183105469 -120.71176147460938 -131.10383605957031
36.198413848876953 -120.41889953613281 -131.08810424804688
37.54864501953125 -119.81081390380859 -131.05392456054688
39.504013061523438 -119.22474670410156 -131.00625610351562
41.455421447753906 -118.58130645751953 -130.95870971679688
41.780426025390625 -118.41042327880859 -130.95053100585938
43.430267333984375 -117.63172149658203 -130.90963745117188
44.820270538330078 -118.32926940917969 -130.88198852539062
45.271095275878906 -118.6033935546875 -130.87333679199219
46.692256927490234 -120.13951110839844 -130.84963989257812
47.043918609619141 -120.72160339355469 -130.844970703125
47.751876831054688 -121.97149658203125 -130.8359375
48.351242065429688 -123.82529449462891 -130.83285522460938
48.704444885253906 -124.4073486328125 -130.82844543457031
49.425418853759766 -125.65683746337891 -130.81983947753906
50.236328125 -127.49549865722656 -130.81300354003906
50.402122497558594 -127.66280364990234 -130.81040954589844
52.034271240234375 -129.30764770507812 -130.78524780273438
52.209579467773438 -129.48422241210938 -130.78257751464844
53.845191955566406 -131.129150390625 -130.75801086425781
55.845985412597656 -132.59962463378906 -128.36210632324219
57.781288146972656 -132.54751586914062 -128.3214111328125
59.784523010253906 -131.29092407226562 -128.27227783203125
60.088829040527344 -131.00588989257812 -128.2642822265625
61.574081420898438 -129.09506225585938 -128.22218322753906
61.872238159179688 -128.76246643066406 -128.21405029296875
63.091072082519531 -127.1927490234375 -128.18022155761719
64.000129699707031 -125.85099792480469 -128.15428161621094
64.432594299316406 -125.29522705078125 -128.14242553710938
65.062881469726562 -123.41686248779297 -128.1192626953125
65.735427856445312 -121.52783203125 -128.09579467773438
66.293403625488281 -120.46267700195312 -128.07913208007812
66.74627685546875 -119.63897705078125 -128.06582641601562
67.263290405273438 -117.76354217529297 -128.04629516601562
67.881919860839844 -115.87561798095703 -128.02510070800781
68.50164794921875 -113.99699401855469 -128.00434875488281
68.636917114257812 -112.13161468505859 -127.9935302734375
68.774581909179688 -110.25653076171875 -127.98281860351562
68.913032531738281 -108.39065551757812 -127.97272491455078
69.053009033203125 -106.52456665039062 -127.96304321289062
69.195297241210938 -104.64859008789062 -127.95346069335938
69.219276428222656 -102.78517913818359 -127.94671630859375
68.639808654785156 -100.938232421875 -127.95199584960938
67.840728759765625 -99.517684936523438 -127.96329498291016
67.587188720703125 -99.094718933105469 -127.96711730957031
67.001213073730469 -97.247322082519531 -127.97340393066406
66.173782348632812 -96.218902587890625 -127.98703765869141
65.535835266113281 -95.424034118652344 -127.99766540527344
64.422500610351562 -93.915611267089844 -128.01602172851562
64.171730041503906 -93.597450256347656 -128.02020263671875
62.649673461914062 -92.042457580566406 -128.04745483398438
62.069389343261719 -91.781097412109375 -128.05851745605469
60.794647216796875 -91.213729858398438 -128.08319091796875
58.872329711914062 -91.11358642578125 -128.12220764160156
56.918533325195312 -91.540245056152344 -128.16354370117188
56.276199340820312 -91.940528869628906 -128.17779541015625
54.902130126953125 -92.762351989746094 -128.20835876464844
52.898670196533203 -93.72528076171875 -128.2529296875
52.667404174804688 -93.913261413574219 -128.25828552246094
50.874698638916016 -95.090103149414062 -128.29954528808594
49.7047119140625 -95.857826232910156 -128.32676696777344
48.8507080078125 -96.483024597167969 -128.3470458984375
46.83880615234375 -97.626663208007812 -128.3941650390625
46.628822326660156 -97.804313659667969 -128.39927673339844
44.819259643554688 -99.018547058105469 -128.44273376464844
43.459903717041016 -99.752197265625 -128.47515869140625
42.821380615234375 -100.16091156005859 -128.49075317382812
40.818168640136719 -101.39858245849609 -128.53964233398438
40.471961975097656 -101.70384979248047 -128.54853820800781
38.776466369628906 -103.0380859375 -128.59136962890625
38.155017852783203 -103.62757873535156 -128.607666015625
36.705631256103516 -105.22245788574219 -128.64646911621094
36.3792724609375 -105.53663635253906 -128.65525817871094
35.426372528076172 -107.43347930908203 -128.68429565429688
34.554546356201172 -108.52572631835938 -128.70857238769531
33.870285034179688 -109.33602142333984 -128.727783203125
32.951259613037109 -111.22177124023438 -128.75692749023438
32.395980834960938 -111.88536071777344 -128.77262878417969
31.408830642700195 -113.13282012939453 -128.80119323730469
30.305900573730469 -114.51681518554688 -128.83309936523438
29.879423141479492 -115.03369903564453 -128.84552001953125
28.625364303588867 -116.92726898193359 -128.88375854492188
29.000179290771484 -118.78864288330078 -128.88400268554688
29.909540176391602 -120.12056732177734 -128.86921691894531
31.787544250488281 -120.41564178466797 -128.826904296875
33.700870513916016 -120.36590576171875 -128.78204345703125
35.671890258789062 -119.36976623535156 -128.73159790039062
37.612716674804688 -118.83212280273438 -128.68421936035156
38.169582366943359 -118.55027770996094 -128.670166015625
39.594795227050781 -117.87329864501953 -128.63458251953125
41.5609130859375 -117.02916717529297 -128.58589172363281
43.490875244140625 -116.72015380859375 -128.54118347167969
45.387603759765625 -116.89842224121094 -128.49974060058594
46.786270141601562 -118.32088470458984 -128.47581481933594
47.17022705078125 -118.85444641113281 -128.47013854980469
47.893402099609375 -120.15174102783203 -128.46078491210938
48.87060546875 -121.90969848632812 -128.4486083984375
48.924346923828125 -121.98454284667969 -128.44783020019531
49.396400451660156 -123.84189605712891 -128.44755554199219
50.353080749511719 -125.67658996582031 -128.43714904785156
50.516201019287109 -125.882080078125 -128.43464660644531
51.578071594238281 -127.50413513183594 -128.42132568359375
52.270614624023438 -128.48736572265625 -128.41226196289062
52.904365539550781 -129.32908630371094 -128.40380859375
54.037422180175781 -130.83493041992188 -128.38897705078125
54.321754455566406 -131.16131591796875 -128.38504028320312
57.708988189697266 -133.69232177734375 -125.96748352050781
59.670372009277344 -133.09556579589844 -125.92330932617188
59.859020233154297 -132.91867065429688 -125.9183349609375
61.450538635253906 -131.01445007324219 -125.87405395507812
61.74896240234375 -130.67230224609375 -125.8658447265625
62.966361999511719 -129.10269165039062 -125.83181762695312
63.873954772949219 -127.76090240478516 -125.80567932128906
64.305908203125 -127.20513916015625 -125.79392242431641
65.301002502441406 -125.31685638427734 -125.76315307617188
65.71337890625 -123.44432830810547 -125.74456787109375
66.153511047363281 -122.49695587158203 -125.73078918457031
66.614059448242188 -121.54898071289062 -125.71669769287109
67.129287719726562 -119.67354583740234 -125.69691467285156
67.745475769042969 -117.79531860351562 -125.67538452148438
68.364097595214844 -115.90725708007812 -125.65428161621094
68.497772216796875 -114.04197692871094 -125.64303588867188
68.632980346679688 -112.17657470703125 -125.63224792480469
68.770469665527344 -110.30132293701172 -125.6217041015625
68.908889770507812 -108.43546295166016 -125.61144256591797
69.04888916015625 -106.56920623779297 -125.60182189941406
69.072036743164062 -104.69651031494141 -125.59451293945312
68.481193542480469 -102.85009765625 -125.59970092773438
68.119926452636719 -100.99701690673828 -125.600830078125
67.769683837890625 -100.41434478759766 -125.60586547851562
67.067451477050781 -99.153274536132812 -125.61581420898438
66.263763427734375 -97.311882019042969 -125.62641143798828
66.102203369140625 -97.106063842773438 -125.62914276123047
65.115402221679688 -95.479606628417969 -125.64425659179688
64.379180908203125 -94.43865966796875 -125.65635681152344
63.711883544921875 -93.653778076171875 -125.66778564453125
62.603607177734375 -92.594223022460938 -125.68756103515625
61.550552368164062 -91.839004516601562 -125.7071533203125
60.789505004882812 -91.257225036621094 -125.72120666503906
58.867057800292969 -91.156997680664062 -125.76028442382812
56.913169860839844 -91.583656311035156 -125.80150604248047
56.270881652832031 -91.983818054199219 -125.8157958984375
54.896766662597656 -92.805656433105469 -125.84649658203125
52.893234252929688 -93.768623352050781 -125.89106750488281
52.662021636962891 -93.956626892089844 -125.89643859863281
50.869270324707031 -95.133445739746094 -125.93776702880859
49.699195861816406 -95.901168823242188 -125.96492004394531
48.845191955566406 -96.526443481445312 -125.98509216308594
46.849891662597656 -97.459228515625 -126.03120422363281
46.269817352294922 -97.8570556640625 -126.04499053955078
44.836235046386719 -98.774505615234375 -126.07933807373047
43.542591094970703 -99.793182373046875 -126.111083984375
42.801643371582031 -100.38618469238281 -126.12957763671875
40.985469818115234 -101.7335205078125 -126.17437744140625
40.777000427246094 -101.90145874023438 -126.17958068847656
38.785430908203125 -103.65428161621094 -126.23066711425781
38.722267150878906 -103.71324920654297 -126.23239898681641
36.698532104492188 -105.28477478027344 -126.28394317626953
36.373626708984375 -105.57981109619141 -126.29252624511719
34.651359558105469 -107.20042419433594 -126.33822631835938
34.326274871826172 -107.50486755371094 -126.34688568115234
33.161468505859375 -109.39731597900391 -126.38127136230469
32.506313323974609 -110.35005187988281 -126.40035247802734
31.86213493347168 -111.29281616210938 -126.41926574707031
30.421394348144531 -112.88615417480469 -126.45970916748047
30.096078872680664 -113.20944976806641 -126.46853637695312
28.976921081542969 -115.09978485107422 -126.50324249267578
28.295925140380859 -116.05272674560547 -126.52351379394531
27.674768447875977 -116.9945068359375 -126.54252624511719
28.149080276489258 -118.12804412841797 -126.53700256347656
28.702327728271484 -118.83943939208984 -126.52736663818359
29.947334289550781 -119.54250335693359 -126.50176239013672
31.588729858398438 -118.76539611816406 -126.45965576171875
31.913753509521484 -118.57568359375 -126.45130157470703
33.843299865722656 -118.29665374755859 -126.40519714355469
35.74859619140625 -118.24712371826172 -126.36123657226562
37.680320739746094 -117.84343719482422 -126.31510925292969
39.636474609375 -117.25756072998047 -126.26798248291016
40.627185821533203 -116.65877532958984 -126.24287414550781
41.630294799804688 -116.03098297119141 -126.21742248535156
43.576911926269531 -115.49256896972656 -126.17127990722656
45.048957824707031 -116.54127502441406 -126.14372253417969
45.392402648925781 -116.80885314941406 -126.13714599609375
46.919036865234375 -118.36160278320312 -126.11106872558594
47.180961608886719 -118.67901611328125 -126.10693359375
48.232784271240234 -120.18698883056641 -126.09150695800781
48.914825439453125 -121.24688720703125 -126.08205413818359
49.480415344238281 -122.01407623291016 -126.07386779785156
50.257671356201172 -123.86319732666016 -126.06683349609375
50.614456176757812 -124.39751434326172 -126.06201934814453
51.441387176513672 -125.69196319580078 -126.05155944824219
52.377006530761719 -126.84991455078125 -126.03800201416016
52.992385864257812 -127.5108642578125 -126.02862548828125
53.9549560546875 -129.345703125 -126.01905822753906
54.118263244628906 -129.56077575683594 -126.0169677734375
55.176029205322266 -131.18331909179688 -126.00452423095703
55.872871398925781 -132.15718078613281 -125.99588012695312
56.785774230957031 -133.00119018554688 -125.98213958740234
57.599895477294922 -135.4969482421875 -123.61871337890625
59.553806304931641 -135.01506042480469 -123.57549285888672
59.742973327636719 -134.82864379882812 -123.57044982910156
61.598907470703125 -133.08908081054688 -123.52163696289062
61.797706604003906 -132.91188049316406 -123.51655578613281
62.855621337890625 -131.02191162109375 -123.48361206054688
63.748947143554688 -129.72817993164062 -123.45782470703125
64.183982849121094 -129.11502075195312 -123.44545745849609
65.177253723144531 -127.22673034667969 -123.41469573974609
65.9049072265625 -125.34564971923828 -123.38965606689453
65.97198486328125 -125.229248046875 -123.38775634765625
66.892509460449219 -123.45738220214844 -123.35987854003906
66.99981689453125 -121.58350372314453 -123.34784698486328
67.614242553710938 -119.70528411865234 -123.3260498046875
68.230430603027344 -117.82693481445312 -123.30473327636719
68.362899780273438 -115.95216369628906 -123.29331207275391
68.49639892578125 -114.08677673339844 -123.28211975097656
68.631591796875 -112.22127532958984 -123.27127838134766
68.76904296875 -110.34591674804688 -123.26084899902344
68.907302856445312 -108.47994232177734 -123.25068664550781
69.047164916992188 -106.61359405517578 -123.24085998535156
69.070281982421875 -104.74079895019531 -123.233642578125
68.479202270507812 -102.89422607421875 -123.23873138427734
68.117912292480469 -101.04102325439453 -123.23979187011719
67.763900756835938 -100.50615692138672 -123.24509429931641
67.04547119140625 -99.197669982910156 -123.255126953125
66.056732177734375 -97.69586181640625 -123.27040100097656
65.796028137207031 -97.368515014648438 -123.27446746826172
64.598396301269531 -95.537353515625 -123.2933349609375
64.315353393554688 -95.248802185058594 -123.29824829101562
62.819374084472656 -93.721824645996094 -123.32421875
62.5367431640625 -93.433135986328125 -123.329345703125
60.733016967773438 -91.961921691894531 -123.36226654052734
60.609294891357422 -91.907890319824219 -123.36474609375
58.862510681152344 -91.219184875488281 -123.39888000488281
56.910190582275391 -91.626548767089844 -123.43997192382812
56.267787933349609 -92.026741027832031 -123.45426177978516
54.893569946289062 -92.848556518554688 -123.48487854003906
52.890029907226562 -93.811515808105469 -123.52955627441406
52.658843994140625 -93.999481201171875 -123.53483581542969
50.866092681884766 -95.176322937011719 -123.57608795166016
49.696075439453125 -95.944038391113281 -123.60324096679688
48.842010498046875 -96.5693359375 -123.62348175048828
46.830059051513672 -97.712875366210938 -123.67047882080078
46.600440979003906 -97.891014099121094 -123.67601776123047
44.808189392089844 -99.133438110351562 -123.71912384033203
44.069000244140625 -99.822067260742188 -123.73757171630859
42.723167419433594 -101.39630889892578 -123.77243804931641
42.393310546875 -101.73941040039062 -123.78096008300781
40.916778564453125 -103.64148712158203 -123.82038116455078
40.616916656494141 -103.98371124267578 -123.828369140625
39.393585205078125 -105.54431915283203 -123.86157989501953
38.480442047119141 -106.8958740234375 -123.88725280761719
38.048103332519531 -107.45156860351562 -123.89921569824219
37.184738159179688 -109.33639526367188 -123.92625427246094
36.298347473144531 -110.62945556640625 -123.95179748535156
35.863594055175781 -111.23273468017578 -123.96409606933594
35.364837646484375 -113.11709594726562 -123.98381042480469
36.016403198242188 -114.49405670166016 -123.97507476806641
36.412895202636719 -114.95150756835938 -123.968017578125
37.826583862304688 -115.79283905029297 -123.93966674804688
39.758647918701172 -115.55130004882812 -123.89494323730469
41.668838500976562 -115.50091552734375 -123.85200500488281
43.574378967285156 -115.53639221191406 -123.80967712402344
45.174167633056641 -116.58177185058594 -123.77928161621094
45.39678955078125 -116.75717163085938 -123.77527618408203
47.222618103027344 -118.10166168212891 -123.74159240722656
47.486629486083984 -118.39045715332031 -123.7371826171875
48.999717712402344 -120.038818359375 -123.71240234375
49.164802551269531 -120.20614624023438 -123.70974731445312
49.931079864501953 -122.04630279541016 -123.70252227783203
50.703453063964844 -123.10378265380859 -123.69142150878906
51.279518127441406 -123.88020324707031 -123.68313598632812
52.267005920410156 -125.71437072753906 -123.67210388183594
52.440208435058594 -125.91963195800781 -123.66957092285156
53.434463500976562 -127.54368591308594 -123.65758514404297
54.158462524414062 -128.96514892578125 -123.65043640136719
54.417160034179688 -129.37812805175781 -123.64736175537109
55.026935577392578 -131.23231506347656 -123.64566040039062
55.843559265136719 -132.65156555175781 -123.63720703125
56.103534698486328 -133.06459045410156 -123.63433837890625
56.975479125976562 -134.90269470214844 -123.62773132324219
57.809089660644531 -132.19522094726562 -121.23149108886719
59.715095520019531 -132.48788452148438 -121.19424438476562
61.624824523925781 -132.75172424316406 -121.15693664550781
62.966564178466797 -131.06410217285156 -121.11976623535156
63.115966796875 -129.18894958496094 -121.10558319091797
63.484504699707031 -127.31753540039062 -121.08743286132812
63.548049926757812 -125.45448303222656 -121.07591247558594
64.103538513183594 -124.389404296875 -121.05886077880859
64.554481506347656 -123.56582641601562 -121.04542541503906
65.414932250976562 -121.67153930664062 -121.01847839355469
66.305252075195312 -120.377685546875 -120.99424743652344
66.74285888671875 -119.77389526367188 -120.98255157470703
67.378707885742188 -117.89496612548828 -120.96083068847656
68.245231628417969 -116.00003051757812 -120.93494415283203
68.497673034667969 -114.13130187988281 -120.92147064208984
68.751724243164062 -112.26232147216797 -120.90843200683594
68.820281982421875 -112.13634490966797 -120.90650939941406
69.712654113769531 -110.36419677734375 -120.88188171386719
69.880630493164062 -108.49720001220703 -120.87117767333984
69.970756530761719 -106.63208770751953 -120.86228942871094
69.765373229980469 -104.76541900634766 -120.85953521728516
69.430496215820312 -103.96256256103516 -120.86306762695312
69.025100708007812 -102.92284393310547 -120.8675537109375
68.4652099609375 -101.07499694824219 -120.87234497070312
67.794792175292969 -100.15699005126953 -120.882568359375
67.1248779296875 -99.2388916015625 -120.89297485351562
66.032646179199219 -98.045677185058594 -120.91094970703125
65.410026550292969 -97.42242431640625 -120.92136383056641
64.240463256835938 -96.23101806640625 -120.94135284423828
63.628673553466797 -95.607254028320312 -120.95186614990234
62.445709228515625 -94.607086181640625 -120.97293090820312
61.020355224609375 -93.814193725585938 -120.99977111816406
60.608028411865234 -93.548149108886719 -121.00743103027344
58.702980041503906 -93.227371215820312 -121.04548645019531
56.788684844970703 -93.164764404296875 -121.08480834960938
54.836448669433594 -93.590866088867188 -121.1265869140625
53.957748413085938 -94.006858825683594 -121.14604187011719
52.837661743164062 -94.496185302734375 -121.17097473144531
50.872028350830078 -95.132408142089844 -121.21440887451172
49.695075988769531 -95.986412048339844 -121.24200439453125
48.841068267822266 -96.611686706542969 -121.26213073730469
46.8291015625 -97.755149841308594 -121.30897521972656
46.638668060302734 -97.932304382324219 -121.31370544433594
44.768157958984375 -99.673942565917969 -121.36005401611328
44.578163146972656 -99.851036071777344 -121.36468505859375
43.490512847900391 -101.7530517578125 -121.39508056640625
42.598037719726562 -103.04753112792969 -121.41920471191406
42.160362243652344 -103.65139770507812 -121.43096923828125
40.513137817382812 -105.37609100341797 -121.47398376464844
40.313232421875 -105.56284332275391 -121.4791259765625
39.055282592773438 -107.46792602539062 -121.51458740234375
38.379898071289062 -108.26874542236328 -121.53294372558594
37.457855224609375 -109.37190246582031 -121.55807495117188
36.645092010498047 -111.25518798828125 -121.58425903320312
36.508087158203125 -113.13024139404297 -121.59544372558594
37.713249206542969 -114.96059417724609 -121.57633209228516
37.876956939697266 -115.12821197509766 -121.57339477539062
39.761817932128906 -115.546630859375 -121.53300476074219
41.668693542480469 -115.54421997070312 -121.49052429199219
43.578559875488281 -115.52236175537109 -121.44808197021484
45.487812042236328 -115.52896118164062 -121.40613555908203
47.089187622070312 -116.57434844970703 -121.37599945068359
47.321891784667969 -116.74943542480469 -121.37165832519531
48.833560943603516 -118.398193359375 -121.34660339355469
49.099922180175781 -118.65828704833984 -121.34211730957031
50.631183624267578 -120.21080017089844 -121.31690979003906
50.877540588378906 -120.62409973144531 -121.3135986328125
51.644325256347656 -122.04447174072266 -121.30440521240234
52.275054931640625 -123.89779663085938 -121.30072784423828
52.552001953125 -124.31027221679688 -121.29690551757812
53.361824035644531 -125.72941589355469 -121.28743743896484
53.958179473876953 -127.57426452636719 -121.28496551513672
54.225784301757812 -127.99652099609375 -121.28175354003906
55.040061950683594 -129.40615844726562 -121.27281951904297
55.985210418701172 -130.4879150390625 -121.25924682617188
56.775611877441406 -131.23028564453125 -121.24716186523438
57.690395355224609 -134.21954345703125 -118.88430786132812
59.669681549072266 -133.33607482910156 -118.83839416503906
60.122135162353516 -133.04713439941406 -118.82745361328125
61.666061401367188 -132.21336364746094 -118.79106903076172
63.21893310546875 -131.10247802734375 -118.75315856933594
63.615806579589844 -129.2205810546875 -118.73432159423828
63.839279174804688 -128.51768493652344 -118.725830078125
64.192474365234375 -127.34344482421875 -118.71213531494141
64.622444152832031 -125.47028350830078 -118.69326019287109
64.123245239257812 -124.20462799072266 -118.69648742675781
63.885032653808594 -123.6287841796875 -118.69827270507812
64.215385437011719 -122.83706665039062 -118.68763732910156
64.685791015625 -121.73602294921875 -118.67243957519531
65.547355651855469 -119.85110473632812 -118.64581298828125
66.438720703125 -118.55712890625 -118.62199401855469
66.876861572265625 -117.95325469970703 -118.61036682128906
67.515022277832031 -116.06447601318359 -118.58894348144531
68.382339477539062 -114.17881011962891 -118.56342315673828
68.755378723144531 -112.30650329589844 -118.54808044433594
68.823997497558594 -112.18048095703125 -118.546142578125
69.716278076171875 -110.40822601318359 -118.52143096923828
69.884109497070312 -108.54112243652344 -118.51071166992188
70.023704528808594 -106.67444610595703 -118.5009765625
70.135696411132812 -104.79882049560547 -118.49197387695312
69.505393981933594 -103.06766510009766 -118.49821472167969
69.4547119140625 -102.95441436767578 -118.49873352050781
69.360572814941406 -101.0933837890625 -118.49446868896484
68.15814208984375 -99.253311157226562 -118.51217651367188
67.893165588378906 -98.973907470703125 -118.51647186279297
66.382713317871094 -97.438346862792969 -118.54158020019531
66.107536315917969 -97.168678283691406 -118.54623413085938
64.481636047363281 -95.626289367675781 -118.57413482666016
64.307411193847656 -95.458930969238281 -118.5771484375
62.500572204589844 -93.988006591796875 -118.6094970703125
62.287063598632812 -93.821678161621094 -118.61319732666016
60.683830261230469 -92.669898986816406 -118.64273071289062
58.779541015625 -92.33929443359375 -118.6807861328125
56.857322692871094 -92.372467041015625 -118.72029876708984
54.905685424804688 -92.788986206054688 -118.76193237304688
52.933521270751953 -93.358749389648438 -118.80474090576172
51.842308044433594 -94.105567932128906 -118.82980346679688
50.90850830078125 -94.73321533203125 -118.85137939453125
48.920627593994141 -95.666213989257812 -118.89642333984375
48.329978942871094 -96.064529418945312 -118.91018676757812
46.894554138183594 -96.982429504394531 -118.94392395019531
45.687580108642578 -97.999214172363281 -118.97315979003906
44.833869934082031 -98.891822814941406 -118.99462890625
43.912269592285156 -99.910331726074219 -119.01809692382812
43.178047180175781 -101.80322265625 -119.04057312011719
42.626033782958984 -102.74473571777344 -119.05597686767578
42.073616027832031 -103.69575500488281 -119.07156372070312
40.775043487548828 -105.59287261962891 -119.10736083984375
40.468166351318359 -106.03082275390625 -119.11569213867188
39.448532104492188 -107.49991607666016 -119.14415740966797
38.623928070068359 -109.38390350341797 -119.17012023925781
38.613349914550781 -111.24652862548828 -119.17803955078125
39.989536285400391 -112.47116088867188 -119.15254211425781
41.875648498535156 -112.75592041015625 -119.11199951171875
43.793991088867188 -112.61952209472656 -119.06900024414062
44.728996276855469 -112.95751953125 -119.04989624023438
45.653251647949219 -113.31493377685547 -119.03129577636719
47.514564514160156 -114.14365386962891 -118.99461364746094
48.090225219726562 -114.72970581054688 -118.98468017578125
49.278182983398438 -116.22519683837891 -118.96586608886719
49.539604187011719 -116.55225372314453 -118.96175384521484
50.863082885742188 -118.38747406005859 -118.94198608398438
51.025459289550781 -118.59310150146484 -118.93943786621094
52.081520080566406 -120.21581268310547 -118.92489624023438
52.765308380126953 -121.27580261230469 -118.91553497314453
53.332122802734375 -122.04311370849609 -118.90747833251953
53.845439910888672 -123.89981842041016 -118.90615844726562
54.321846008300781 -125.74801635742188 -118.90593719482422
54.373359680175781 -125.86109924316406 -118.90556335449219
55.05682373046875 -127.58931732177734 -118.90052795410156
55.261241912841797 -129.4449462890625 -118.90683746337891
55.948066711425781 -131.1827392578125 -118.90242004394531
56.000034332275391 -131.29585266113281 -118.9019775390625
56.613365173339844 -133.14089965820312 -118.90007019042969
57.696041107177734 -134.29299926757812 -116.52278900146484
59.649906158447266 -133.82080078125 -116.47990417480469
60.832118988037109 -133.07321166992188 -116.45143127441406
61.655017852783203 -132.55474853515625 -116.43173217773438
63.649169921875 -131.66123962402344 -116.38646697998047
64.227371215820312 -131.12059020996094 -116.37158203125
64.7034912109375 -129.23641967773438 -116.35147857666016
64.397941589355469 -127.3828125 -116.34717559814453
64.000625610351562 -126.20014190673828 -116.34870910644531
63.757518768310547 -125.53842163085938 -116.35004425048828
63.495723724365234 -123.68387603759766 -116.34552764892578
64.008956909179688 -121.79891204833984 -116.32566833496094
64.3250732421875 -121.37028503417969 -116.3170166015625
65.335945129394531 -119.90126037597656 -116.28971862792969
66.001045227050781 -118.02143096923828 -116.26758575439453
66.560752868652344 -116.95592498779297 -116.25143432617188
67.015594482421875 -116.12234497070312 -116.23854064941406
67.535575866699219 -114.24611663818359 -116.21995544433594
68.156387329101562 -112.36692810058594 -116.19969177246094
68.779594421386719 -110.47786712646484 -116.17966461181641
68.917572021484375 -108.61139678955078 -116.16947174072266
69.05694580078125 -106.74472045898438 -116.15968322753906
69.079620361328125 -104.87136840820312 -116.15235137939453
68.012115478515625 -103.03754425048828 -116.16683959960938
67.627769470214844 -102.50340270996094 -116.17256164550781
66.818038940429688 -101.20687866210938 -116.18424987792969
65.890068054199219 -100.04722595214844 -116.19877624511719
65.270431518554688 -99.376052856445312 -116.20894622802734
64.099647521972656 -98.184585571289062 -116.22866821289062
63.487403869628906 -97.560768127441406 -116.23899841308594
62.312435150146484 -96.445579528808594 -116.25942993164062
61.470001220703125 -95.75140380859375 -116.27435302734375
60.501258850097656 -95.041473388671875 -116.29183959960938
58.88336181640625 -93.956840515136719 -116.32197570800781
58.670829772949219 -93.780838012695312 -116.32585144042969
56.803119659423828 -93.133110046386719 -116.36244201660156
54.927818298339844 -92.600067138671875 -116.39990234375
53.0079345703125 -92.51763916015625 -116.43980407714844
51.059417724609375 -92.933349609375 -116.48199462890625
49.105415344238281 -93.434974670410156 -116.52476501464844
47.597854614257812 -94.259414672851562 -116.55947875976562
47.094997406005859 -94.540565490722656 -116.57089996337891
45.118484497070312 -95.367355346679688 -116.6160888671875
44.0325927734375 -96.218490600585938 -116.64218139648438
43.083141326904297 -96.960624694824219 -116.66514587402344
41.933822631835938 -98.138275146484375 -116.69405364990234
40.977062225341797 -99.49237060546875 -116.71958923339844
40.533554077148438 -100.03932952880859 -116.73115539550781
40.006217956542969 -101.92694091796875 -116.74919891357422
39.383094787597656 -103.80702209472656 -116.76982116699219
38.643989562988281 -105.68970489501953 -116.79335021972656
38.575820922851562 -105.81566619873047 -116.7952880859375
37.690444946289062 -107.58699798583984 -116.82187652587891
37.619972229003906 -109.45169067382812 -116.8309326171875
38.235649108886719 -110.37188720703125 -116.8211669921875
40.113075256347656 -110.88674926757812 -116.78150939941406
41.036579132080078 -111.2255859375 -116.76247406005859
41.968284606933594 -111.59272003173828 -116.74362182617188
43.861572265625 -111.80088043212891 -116.70292663574219
45.766952514648438 -111.86512756347656 -116.66162109375
47.655872344970703 -112.31153869628906 -116.62260437011719
48.417125701904297 -112.90231323242188 -116.60880279541016
49.474723815917969 -113.60926055908203 -116.5892333984375
50.977184295654297 -114.69560241699219 -116.56178283691406
51.287757873535156 -115.02132415771484 -116.5565185546875
52.290931701660156 -116.52180480957031 -116.54216003417969
52.996208190917969 -118.08737182617188 -116.53440093994141
53.153327941894531 -118.36949157714844 -116.5325927734375
53.141426086425781 -120.23106384277344 -116.54158020019531
53.289009094238281 -122.0882568359375 -116.54776000976562
53.920677185058594 -123.94190979003906 -116.54388427734375
54.443534851074219 -124.94911193847656 -116.53811645507812
54.900360107421875 -125.77678680419922 -116.53286743164062
55.458221435546875 -127.62300109863281 -116.53115844726562
56.109504699707031 -128.81773376464844 -116.52412414550781
56.472286224365234 -129.45710754394531 -116.52021026611328
56.974700927734375 -131.31459045410156 -116.5203857421875
57.173686981201172 -133.17082214355469 -116.52689361572266
53.560470581054688 -139.18363952636719 -114.2760009765625
55.477127075195312 -139.26675415039062 -114.23663330078125
57.406562805175781 -139.3304443359375 -114.19715118408203
57.981178283691406 -138.78996276855469 -114.1820068359375
59.450653076171875 -137.31849670410156 -114.14290618896484
59.901752471923828 -136.87677001953125 -114.13117980957031
60.371330261230469 -134.99250793457031 -114.11042785644531
60.971050262451172 -133.11445617675781 -114.08725738525391
61.572772979736328 -131.23652648925781 -114.06423950195312
61.810836791992188 -129.35871887207031 -114.04895782470703
61.877655029296875 -129.242431640625 -114.04676818847656
62.753311157226562 -127.47175598144531 -114.01963806152344
63.083755493164062 -125.60115814208984 -114.00300598144531
63.871746063232422 -123.71816253662109 -113.97732543945312
64.117446899414062 -121.84026336669922 -113.96309661865234
64.374076843261719 -119.97153472900391 -113.94876098632812
64.441520690917969 -119.85518646240234 -113.9468994140625
65.326194763183594 -118.08386993408203 -113.92082214355469
65.428565979003906 -116.20956420898438 -113.91012573242188
65.789581298828125 -114.33766174316406 -113.89479827880859
66.499099731445312 -112.45599365234375 -113.87258911132812
66.854194641113281 -110.57423400878906 -113.85770416259766
66.863067626953125 -108.71133422851562 -113.85018920898438
66.288902282714844 -106.86414337158203 -113.85433959960938
65.497322082519531 -105.29978942871094 -113.86436462402344
65.330879211425781 -105.01772308349609 -113.86652374267578
64.641632080078125 -103.17322540283203 -113.87375640869141
63.843399047851562 -101.60854339599609 -113.88438415527344
63.686721801757812 -101.33567047119141 -113.88664245605469
62.368721008300781 -99.498077392578125 -113.90706634521484
62.104408264160156 -99.218490600585938 -113.91156005859375
60.597671508789062 -97.681961059570312 -113.93728637695312
60.323177337646484 -97.412109375 -113.94187927246094
58.701137542724609 -95.868614196777344 -113.9703369140625
58.527313232421875 -95.701133728027344 -113.97355651855469
56.690315246582031 -94.66033935546875 -114.00827026367188
55.860885620117188 -94.079940795898438 -114.02359771728516
54.873683929443359 -93.388771057128906 -114.04214477539062
52.974422454833984 -93.04730224609375 -114.08079528808594
51.036544799804688 -93.328704833984375 -114.12228393554688
49.062644958496094 -94.079551696777344 -114.16632080078125
48.821975708007812 -94.267715454101562 -114.17185974121094
47.031959533691406 -95.443939208984375 -114.21357727050781
45.9520263671875 -96.208961486816406 -114.23910522460938
44.989845275878906 -97.104637145996094 -114.26261901855469
44.155841827392578 -98.1212158203125 -114.28402709960938
42.877799987792969 -99.694267272949219 -114.31700897216797
42.568111419677734 -100.02745056152344 -114.32504272460938
41.266128540039062 -101.93521881103516 -114.36003875732422
40.714851379394531 -103.0010986328125 -114.37592315673828
40.250900268554688 -103.82563781738281 -114.38902282714844
39.84466552734375 -105.6998291015625 -114.40518188476562
39.674171447753906 -107.5771484375 -114.41622924804688
40.309547424316406 -108.36323547363281 -114.40544128417969
41.582809448242188 -109.39057922363281 -114.38153076171875
42.113143920898438 -109.75893402099609 -114.37147521972656
44.006553649902344 -109.96723937988281 -114.3310546875
45.9149169921875 -109.99339294433594 -114.28959655761719
47.802970886230469 -110.44962310791016 -114.25076293945312
48.414279937744141 -111.07331848144531 -114.24026489257812
49.588035583496094 -112.19752502441406 -114.21992492675781
50.273544311523438 -112.89539337158203 -114.20823669433594
51.365764617919922 -114.08834838867188 -114.19023132324219
51.989128112792969 -114.71136474609375 -114.17987060546875
52.308868408203125 -116.56443023681641 -114.18116760253906
53.017185211181641 -117.94876098632812 -114.17274475097656
53.260227203369141 -118.41002655029297 -114.16966247558594
53.879249572753906 -120.25479125976562 -114.16545104980469
54.253921508789062 -122.10609436035156 -114.16671752929688
54.574165344238281 -123.18563079833984 -114.16546630859375
54.807235717773438 -123.96212005615234 -114.16453552246094
54.455818176269531 -125.83279418945312 -114.18142700195312
54.365623474121094 -126.30287933349609 -114.18577575683594
54.106224060058594 -127.70335388183594 -114.19866943359375
53.857120513916016 -129.57133483886719 -114.21406555175781
53.609352111816406 -131.4488525390625 -114.2296142578125
53.374050140380859 -133.31661987304688 -114.24507904052734
53.140602111816406 -135.18447875976562 -114.26083374023438
52.908676147460938 -137.06196594238281 -114.27680969238281
53.2119140625 -138.91595458984375 -114.28163909912109
57.843551635742188 -132.37353515625 -111.7852783203125
59.744091033935547 -132.76225280761719 -111.74837493896484
61.001571655273438 -131.29644775390625 -111.71474456787109
61.844440460205078 -130.00399780273438 -111.69053649902344
62.2889404296875 -129.39060974121094 -111.67819213867188
62.914390563964844 -127.51190185546875 -111.65554809570312
63.581520080566406 -125.63217926025391 -111.63226318359375
64.136825561523438 -124.56692504882812 -111.61572265625
64.587493896484375 -123.74319458007812 -111.60255432128906
65.100616455078125 -121.85786437988281 -111.58296966552734
65.406730651855469 -119.987548828125 -111.56787109375
66.200408935546875 -118.10394287109375 -111.54316711425781
66.461128234863281 -116.22515106201172 -111.52944946289062
66.593917846679688 -114.35918426513672 -111.51864624023438
66.728363037109375 -112.49300384521484 -111.50801086425781
66.756050109863281 -110.62004852294922 -111.499755859375
66.51702880859375 -108.76370239257812 -111.49710845947266
65.5662841796875 -106.92667388916016 -111.50883483886719
65.401580810546875 -106.74962615966797 -111.51145935058594
63.875762939453125 -105.10011291503906 -111.53565979003906
63.610569000244141 -104.82061767578125 -111.5401611328125
62.108589172363281 -103.28474426269531 -111.56472778320312
61.824043273925781 -103.00582122802734 -111.56951904296875
60.314720153808594 -101.46973419189453 -111.59478759765625
60.039894104003906 -101.19996643066406 -111.59952545166016
58.416114807128906 -99.647422790527344 -111.62746429443359
58.242073059082031 -99.479965209960938 -111.63052368164062
56.437255859375 -98.008277893066406 -111.66287231445312
56.273220062255859 -97.840560913085938 -111.66568756103516
54.653759002685547 -96.296195983886719 -111.69439697265625
54.074684143066406 -96.034271240234375 -111.70576477050781
52.792762756347656 -95.465805053710938 -111.73063659667969
50.887752532958984 -95.33465576171875 -111.77018737792969
49.389389038085938 -96.158859252929688 -111.804443359375
48.885650634765625 -96.449615478515625 -111.81597900390625
47.119148254394531 -98.084136962890625 -111.85874938964844
46.807968139648438 -98.427093505859375 -111.86660766601562
45.588470458984375 -99.989265441894531 -111.89797210693359
44.67059326171875 -101.34242248535156 -111.92241668701172
44.235984802246094 -101.89872741699219 -111.93388366699219
43.788597106933594 -103.77460479736328 -111.95037841796875
44.166793823242188 -105.62852478027344 -111.94904327392578
44.329700469970703 -105.80587005615234 -111.9462890625
46.161815643310547 -106.84725189208984 -111.91078948974609
46.931831359863281 -107.42892456054688 -111.89654541015625
47.984199523925781 -108.17496490478516 -111.876953125
49.338516235351562 -109.2281494140625 -111.85220336914062
49.779964447021484 -109.76089477539062 -111.84494018554688
50.499214172363281 -111.05983734130859 -111.83506011962891
51.489032745361328 -112.571044921875 -111.82048034667969
51.750225067138672 -112.8983154296875 -111.8162841796875
52.354087829589844 -114.74420166015625 -111.81167602539062
52.319427490234375 -116.60699462890625 -111.82075500488281
53.003860473632812 -118.33582305908203 -111.81412506103516
53.054328918457031 -118.45859527587891 -111.81365966796875
53.525714874267578 -120.30757141113281 -111.81240844726562
53.920127868652344 -122.15849304199219 -111.8131103515625
54.138359069824219 -124.02369689941406 -111.81785583496094
54.478359222412109 -124.82597351074219 -111.81478118896484
54.891769409179688 -125.86495971679688 -111.81146240234375
55.301971435546875 -127.71548461914062 -111.81251525878906
56.116401672363281 -129.13533020019531 -111.80323791503906
56.375694274902344 -129.54840087890625 -111.80001831054688
57.056282043457031 -131.4014892578125 -111.79597473144531
57.994598388671875 -130.26556396484375 -109.40899658203125
59.925125122070312 -130.176025390625 -109.36913299560547
60.809391021728516 -129.4744873046875 -109.34724426269531
61.983230590820312 -128.12541198730469 -109.31640625
62.424507141113281 -127.56937408447266 -109.30451965332031
63.051704406738281 -125.69049835205078 -109.28242492675781
63.720508575439453 -123.81055450439453 -109.25942993164062
64.276695251464844 -122.74519348144531 -109.2430419921875
64.728729248046875 -121.91175079345703 -109.22993469238281
65.242774963378906 -120.03573608398438 -109.21073913574219
65.550430297851562 -118.16513061523438 -109.1959228515625
66.346321105957031 -116.27165985107422 -109.17163848876953
66.607864379882812 -114.40204620361328 -109.158203125
66.742050170898438 -112.53569030761719 -109.14773559570312
66.769546508789062 -110.66249084472656 -109.13944244384766
66.530242919921875 -108.80589294433594 -109.13682556152344
65.579147338867188 -106.96858215332031 -109.14856719970703
65.414466857910156 -106.79152679443359 -109.15113830566406
63.789421081542969 -105.14438629150391 -109.17753601074219
63.614372253417969 -104.97714233398438 -109.18038940429688
61.768280029296875 -103.93788146972656 -109.2137451171875
60.924427032470703 -103.35861206054688 -109.22864532470703
59.941780090332031 -102.66836547851562 -109.24613952636719
58.03485107421875 -102.34717559814453 -109.28398132324219
56.653861999511719 -101.61006164550781 -109.30979919433594
56.191913604736328 -101.34527587890625 -109.31833648681641
54.297447204589844 -101.03276062011719 -109.35655212402344
52.376220703125 -100.95973205566406 -109.3963623046875
50.453140258789062 -101.05858612060547 -109.43710327148438
48.493995666503906 -101.64585113525391 -109.48054504394531
48.302970886230469 -101.83253479003906 -109.48526000976562
48.159866333007812 -103.70060729980469 -109.49508666992188
48.32366943359375 -103.86837005615234 -109.49232482910156
49.935539245605469 -105.51760101318359 -109.46415710449219
50.098171234130859 -105.70443725585938 -109.46141052246094
51.496856689453125 -107.34913635253906 -109.43848419189453
51.846271514892578 -107.9322509765625 -109.43338012695312
52.559089660644531 -109.18390655517578 -109.42327880859375
52.736740112304688 -111.04196166992188 -109.42703247070312
53.416889190673828 -112.77172088623047 -109.42008209228516
53.466938018798828 -112.89449310302734 -109.41966247558594
53.667572021484375 -114.75141143798828 -109.42333984375
54.16552734375 -116.60016632080078 -109.42127990722656
54.22100830078125 -118.47017669677734 -109.42851257324219
54.002681732177734 -120.33782196044922 -109.44171142578125
54.681480407714844 -122.06680297851562 -109.43582153320312
54.732929229736328 -122.18003082275391 -109.43533325195312
54.941543579101562 -124.04562377929688 -109.4400634765625
55.448818206787109 -125.89372253417969 -109.43890380859375
55.829803466796875 -127.74528503417969 -109.44046020507812
56.189281463623047 -128.27989196777344 -109.43576049804688
57.200485229492188 -129.57060241699219 -109.42174530029297
59.968666076660156 -129.8179931640625 -107.00473022460938
60.273269653320312 -129.53294372558594 -106.99702453613281
61.759128570556641 -127.63117218017578 -106.95693969726562
62.066810607910156 -127.15504455566406 -106.94842529296875
62.970314025878906 -125.73664855957031 -106.92306518554688
63.193077087402344 -123.86845397949219 -106.90934753417969
64.042427062988281 -121.97385406494141 -106.88325500488281
64.417495727539062 -120.10144805908203 -106.86692810058594
64.484825134277344 -119.98503112792969 -106.86502838134766
65.408729553222656 -118.21222686767578 -106.83830261230469
65.520294189453125 -116.33710479736328 -106.82777404785156
66.138450622558594 -114.45758056640625 -106.80734252929688
