# XYZ point cloud file
46.772468566894531 -98.552330017089844 -133.16331481933594
45.695327758789062 -99.404884338378906 -133.17501831054688
44.753746032714844 -100.14838409423828 -133.18537902832031
43.419540405273438 -101.34302520751953 -133.19952392578125
42.721870422363281 -101.96503448486328 -133.20703125
40.740055084228516 -103.10826110839844 -133.23283386230469
40.542396545410156 -103.285888671875 -133.23504638671875
39.338081359863281 -105.18663024902344 -133.24336242675781
38.639202117919922 -105.85626220703125 -133.25111389160156
37.442756652832031 -107.11367797851562 -133.26400756835938
36.593353271484375 -108.00746917724609 -133.27325439453125
35.278190612792969 -109.03732299804688 -133.29002380371094
34.591835021972656 -109.5528564453125 -133.29904174804688
33.097545623779297 -110.96086120605469 -133.31723022460938
32.547832489013672 -111.62641906738281 -133.32316589355469
31.522651672363281 -112.87886810302734 -133.33442687988281
30.835762023925781 -114.76548767089844 -133.33644104003906
30.977039337158203 -116.63179779052734 -133.32412719726562
30.856744766235352 -118.51385498046875 -133.31674194335938
31.643020629882812 -120.36402893066406 -133.29367065429688
31.966053009033203 -120.63408660888672 -133.28662109375
33.839824676513672 -121.12477874755859 -133.2510986328125
35.772571563720703 -120.54017639160156 -133.21994018554688
36.745033264160156 -120.23805236816406 -133.20442199707031
37.707015991210938 -119.955322265625 -133.18913269042969
39.612937927246094 -120.00354766845703 -133.15618896484375
41.532432556152344 -119.70616149902344 -133.12507629394531
43.4608154296875 -119.29335784912109 -133.09469604492188
44.712162017822266 -120.03802490234375 -133.07038879394531
45.289115905761719 -120.49304962158203 -133.05862426757812
46.317138671875 -121.86623382568359 -133.03543090820312
47.057575225830078 -122.85374450683594 -133.01899719238281
47.689537048339844 -123.70980072021484 -133.0050048828125
48.820938110351562 -125.21443939208984 -132.98037719726562
49.084831237792969 -125.54315185546875 -132.97480773925781
50.424186706542969 -127.37797546386719 -132.94618225097656
50.590522766113281 -127.54624938964844 -132.94288635253906
52.227790832519531 -129.20103454589844 -132.9110107421875
54.211288452148438 -131.23228454589844 -130.4700927734375
56.097969055175781 -131.72111511230469 -130.43971252441406
57.181327819824219 -130.98403930664062 -130.4259033203125
58.100128173828125 -130.38534545898438 -130.41429138183594
59.77105712890625 -129.03884887695312 -130.39439392089844
60.115219116210938 -128.70408630371094 -130.39054870605469
61.437995910644531 -127.12674713134766 -130.37724304199219
62.180030822753906 -126.23532104492188 -130.3699951171875
63.088088989257812 -125.21495056152344 -130.36106872558594
64.000633239746094 -123.32205963134766 -130.35595703125
64.313308715820312 -122.88259124755859 -130.35336303710938
65.310920715332031 -121.40922546386719 -130.34573364257812
66.049819946289062 -119.52063751220703 -130.343994140625
66.504188537597656 -117.63932800292969 -130.34669494628906
66.571434020996094 -117.51295471191406 -130.34640502929688
67.445083618164062 -115.73571014404297 -130.3431396484375
67.586685180664062 -113.8623046875 -130.35098266601562
67.897926330566406 -111.98435974121094 -130.35682678222656
68.685997009277344 -110.08419799804688 -130.35671997070312
68.921348571777344 -108.20783996582031 -130.364501953125
68.575164794921875 -106.3465576171875 -130.38050842285156
68.221397399902344 -104.47571563720703 -130.39714050292969
68.3526611328125 -102.60146331787109 -130.40740966796875
68.099983215332031 -100.73696899414062 -130.42337036132812
67.763870239257812 -99.920539855957031 -130.43354797363281
67.355804443359375 -98.875587463378906 -130.44650268554688
66.958145141601562 -97.014320373535156 -130.46522521972656
66.155891418457031 -95.585784912109375 -130.48683166503906
65.900718688964844 -95.1700439453125 -130.49346923828125
64.904396057128906 -93.323745727539062 -130.52133178710938
64.428680419921875 -92.83685302734375 -130.53184509277344
62.934909820556641 -91.492874145507812 -130.56358337402344
62.629913330078125 -91.231887817382812 -130.57009887695312
60.737709045410156 -90.906631469726562 -130.60032653808594
58.817718505859375 -90.841270446777344 -130.62937927246094
56.87249755859375 -91.266304016113281 -130.65541076660156
56.234626770019531 -91.667007446289062 -130.66204833984375
54.869575500488281 -92.489845275878906 -130.67669677734375
52.893684387207031 -93.241615295410156 -130.70167541503906
52.256278991699219 -93.651718139648438 -130.70858764648438
50.894660949707031 -94.464317321777344 -130.72407531738281
48.915931701660156 -95.436386108398438 -130.74848937988281
48.707382202148438 -95.614471435546875 -130.75054931640625
46.881778717041016 -97.062385559082031 -130.76968383789062
46.240921020507812 -97.548942565917969 -130.77667236328125
44.868385314941406 -98.572189331054688 -130.79203796386719
43.787940979003906 -99.4822998046875 -130.8035888671875
42.820968627929688 -100.59102630615234 -130.8121337890625
42.14874267578125 -101.40434265136719 -130.81790161132812
40.786033630371094 -103.30950164794922 -130.82830810546875
40.722099304199219 -103.38783264160156 -130.82879638671875
39.269397735595703 -105.21800994873047 -130.84178161621094
38.632820129394531 -105.97244262695312 -130.84783935546875
37.608047485351562 -107.13926696777344 -130.85829162597656
36.583511352539062 -109.03495788574219 -130.86457824707031
36.519798278808594 -109.11325073242188 -130.86518859863281
35.141868591308594 -110.94057464599609 -130.87844848632812
34.436214447021484 -111.897705078125 -130.88540649414062
33.643608093261719 -112.85688781738281 -130.89385986328125
32.518135070800781 -114.75424194335938 -130.90338134765625
32.306106567382812 -115.32511901855469 -130.904052734375
31.851900100708008 -116.64018249511719 -130.90521240234375
31.731496810913086 -118.52222442626953 -130.89773559570312
32.042152404785156 -119.44456481933594 -130.88766479492188
33.092266082763672 -120.3582763671875 -130.86468505859375
33.872962951660156 -120.61705017089844 -130.84970092773438
35.772102355957031 -120.57009887695312 -130.81671142578125
36.384098052978516 -120.27696990966797 -130.8074951171875
37.726615905761719 -119.66847229003906 -130.78729248046875
39.672561645507812 -119.08315277099609 -130.75686645507812
41.614337921142578 -118.44022369384766 -130.72718811035156
41.937355041503906 -118.26914215087891 -130.72262573242188
43.577423095703125 -117.48979187011719 -130.69917297363281
44.967586517333984 -118.19272613525391 -130.67254638671875
45.418746948242188 -118.46884918212891 -130.66375732421875
46.845119476318359 -120.01414489746094 -130.6329345703125
47.1993408203125 -120.59937286376953 -130.62437438964844
47.912948608398438 -121.85592651367188 -130.6070556640625
48.522006988525391 -123.71893310546875 -130.58883666992188
48.877662658691406 -124.30408477783203 -130.58065795898438
49.604255676269531 -125.56026458740234 -130.56367492675781
50.424018859863281 -127.40836334228516 -130.54319763183594
50.590389251708984 -127.57662200927734 -130.53990173339844
52.227630615234375 -129.23146057128906 -130.50791931152344
52.403602600097656 -129.40911865234375 -130.50448608398438
54.044265747070312 -131.06399536132812 -130.47320556640625
56.056678771972656 -132.52920532226562 -128.03494262695312
57.985561370849609 -132.48014831542969 -128.00621032714844
59.974868774414062 -131.22140502929688 -127.98117065429688
60.276531219482422 -130.93563842773438 -127.97781372070312
61.745307922363281 -129.0189208984375 -127.96330261230469
62.040431976318359 -128.68544006347656 -127.96034240722656
63.245853424072266 -127.11093902587891 -127.948974609375
64.143692016601562 -125.76485443115234 -127.94158935546875
64.571426391601562 -125.20740509033203 -127.93775177001953
65.1881103515625 -123.32198333740234 -127.93698120117188
65.846824645996094 -121.42587280273438 -127.93614196777344
66.39654541015625 -120.3570556640625 -127.93333435058594
66.842872619628906 -119.53054809570312 -127.93099975585938
67.346694946289062 -117.64784240722656 -127.93302154541016
67.951812744140625 -115.75286102294922 -127.93423461914062
68.557960510253906 -113.86728668212891 -127.935791015625
68.681358337402344 -111.99413299560547 -127.94426727294922
68.807144165039062 -110.11122894287109 -127.95323181152344
68.933738708496094 -108.23765563964844 -127.96245574951172
69.061874389648438 -106.36387634277344 -127.9720458984375
69.19232177734375 -104.48019409179688 -127.98208618164062
69.204879760742188 -102.60892486572266 -127.99395751953125
68.616081237792969 -100.75323486328125 -128.014404296875
67.810867309570312 -99.325286865234375 -128.035400390625
67.555511474609375 -98.900070190429688 -128.04183959960938
66.960342407226562 -97.043930053710938 -128.06320190429688
66.129219055175781 -96.009757995605469 -128.08236694335938
65.488525390625 -95.210472106933594 -128.09716796875
64.369583129882812 -93.693801879882812 -128.12442016601562
64.117691040039062 -93.373870849609375 -128.13038635253906
62.591087341308594 -91.809799194335938 -128.16433715820312
62.010993957519531 -91.546356201171875 -128.1748046875
60.73681640625 -90.974349975585938 -128.19790649414062
58.819690704345703 -90.870460510253906 -128.22723388671875
56.874458312988281 -91.295440673828125 -128.2532958984375
56.236553192138672 -91.696174621582031 -128.2598876953125
54.871479034423828 -92.519012451171875 -128.27462768554688
52.879928588867188 -93.482513427734375 -128.29832458496094
52.650558471679688 -93.670860290527344 -128.30046081542969
50.870426177978516 -94.849472045898438 -128.31980895996094
49.708572387695312 -95.618408203125 -128.33270263671875
48.860927581787109 -96.244804382324219 -128.34172058105469
46.862037658691406 -97.389762878417969 -128.36585998535156
46.653873443603516 -97.567840576171875 -128.36793518066406
44.857101440429688 -98.784111022949219 -128.38888549804688
43.506301879882812 -99.5185546875 -128.40614318847656
42.872169494628906 -99.92791748046875 -128.41392517089844
40.882438659667969 -101.16744995117188 -128.43881225585938
40.539146423339844 -101.47349548339844 -128.44253540039062
38.856826782226562 -102.81056213378906 -128.46221923828125
38.240829467773438 -103.40151977539062 -128.46888732910156
36.805488586425781 -105.00081634521484 -128.48329162597656
36.482017517089844 -105.31575012207031 -128.48689270019531
35.543502807617188 -107.21918487548828 -128.49128723144531
34.681007385253906 -108.31466674804688 -128.4996337890625
34.003684997558594 -109.12735748291016 -128.50660705566406
33.098899841308594 -111.019775390625 -128.51138305664062
32.54925537109375 -111.68531799316406 -128.51724243164062
31.572696685791016 -112.93659210205078 -128.52743530273438
30.481409072875977 -114.32478332519531 -128.53915405273438
30.059377670288086 -114.84326171875 -128.54386901855469
28.82054328918457 -116.74301910400391 -128.55584716796875
29.205713272094727 -118.61305236816406 -128.53948974609375
30.120637893676758 -119.95234680175781 -128.5164794921875
31.995204925537109 -120.25177001953125 -128.48176574707031
33.902755737304688 -120.20498657226562 -128.44854736328125
35.861892700195312 -119.20765686035156 -128.41928100585938
37.793769836425781 -118.6708984375 -128.3887939453125
38.347335815429688 -118.38874053955078 -128.38067626953125
39.764045715332031 -117.71115875244141 -128.3599853515625
41.71923828125 -116.86660766601562 -128.33139038085938
43.641448974609375 -116.55948638916016 -128.30093383789062
45.533588409423828 -116.74177551269531 -128.26878356933594
46.936744689941406 -118.17281341552734 -128.23857116699219
47.322898864746094 -118.70931243896484 -128.22966003417969
48.051925659179688 -120.01353454589844 -128.21151733398438
49.037063598632812 -121.78078460693359 -128.18727111816406
49.09100341796875 -121.85610961914062 -128.18608093261719
49.573051452636719 -123.72237396240234 -128.16995239257812
50.538177490234375 -125.56675720214844 -128.14668273925781
50.702095031738281 -125.77342224121094 -128.14323425292969
51.770668029785156 -127.40437316894531 -128.11978149414062
52.4671630859375 -128.39306640625 -128.10502624511719
53.104160308837891 -129.23953247070312 -128.09185791015625
54.242942810058594 -130.75387573242188 -128.06877136230469
54.528427124023438 -131.08209228515625 -128.06320190429688
57.929290771484375 -133.61476135253906 -125.60116577148438
59.88079833984375 -133.01866149902344 -125.57430267333984
60.067878723144531 -132.84126281738281 -125.57217407226562
61.64263916015625 -130.93136596679688 -125.55596160888672
61.937965393066406 -130.58828735351562 -125.55291748046875
63.141845703125 -129.01377868652344 -125.54133605957031
64.038330078125 -127.66770935058594 -125.53375244140625
64.465469360351562 -127.11025238037109 -125.52989959716797
65.445877075195312 -125.21540832519531 -125.52377319335938
65.845306396484375 -123.33548736572266 -125.52619934082031
66.278305053710938 -122.38468933105469 -125.52429962158203
66.7314453125 -121.43344116210938 -125.52225494384766
67.233551025390625 -119.55076599121094 -125.52409362792969
67.8363037109375 -117.66545867919922 -125.52488708496094
68.441368103027344 -115.77033996582031 -125.52615356445312
68.563102722167969 -113.89730834960938 -125.53427886962891
68.686492919921875 -112.02407073974609 -125.54289245605469
68.81207275390625 -110.14105224609375 -125.55184173583984
68.938735961914062 -108.26744079589844 -125.56109619140625
69.066848754882812 -106.39354705810547 -125.57064819335938
69.078536987304688 -104.51290130615234 -125.58229064941406
68.47833251953125 -102.65767669677734 -125.60249328613281
68.107040405273438 -100.79617309570312 -125.62004089355469
67.754379272460938 -100.21045684814453 -125.62892150878906
67.046638488769531 -98.942916870117188 -125.64748382568359
66.234474182128906 -97.092391967773438 -125.67190551757812
66.072151184082031 -96.885429382324219 -125.67572021484375
65.07867431640625 -95.250473022460938 -125.70162200927734
64.338539123535156 -94.203964233398438 -125.71983337402344
63.668609619140625 -93.414749145507812 -125.73536682128906
62.557487487792969 -92.348800659179688 -125.75942993164062
61.503204345703125 -91.588577270507812 -125.78056335449219
60.741035461425781 -91.003143310546875 -125.7962646484375
58.823928833007812 -90.899169921875 -125.82554626464844
56.878639221191406 -91.324142456054688 -125.85162353515625
56.240737915039062 -91.724891662597656 -125.8582763671875
54.875625610351562 -92.5477294921875 -125.87297058105469
52.884124755859375 -93.511245727539062 -125.89667510986328
52.654769897460938 -93.6995849609375 -125.89888763427734
50.874565124511719 -94.878227233886719 -125.91826629638672
49.712722778320312 -95.647148132324219 -125.93112182617188
48.865100860595703 -96.2735595703125 -125.94016265869141
46.881515502929688 -97.206871032714844 -125.96549987792969
46.305633544921875 -97.60540771484375 -125.97201538085938
44.881996154785156 -98.524314880371094 -125.9888916015625
43.598403930664062 -99.545135498046875 -126.00302886962891
42.863269805908203 -100.13938903808594 -126.01115417480469
41.060813903808594 -101.48944091796875 -126.03218078613281
40.853950500488281 -101.65769958496094 -126.03447723388672
38.879066467285156 -103.41471099853516 -126.05628967285156
38.816459655761719 -103.47380828857422 -126.05699157714844
36.80828857421875 -105.04875946044922 -126.08120727539062
36.486103057861328 -105.34449768066406 -126.08488464355469
34.778892517089844 -106.96925354003906 -126.10424041748047
34.456581115722656 -107.27449798583984 -126.10797119140625
33.306861877441406 -109.17318725585938 -126.11656188964844
32.659408569335938 -110.12893676757812 -126.1221923828125
32.022857666015625 -111.07479095458984 -126.1279296875
30.59613037109375 -112.67259979248047 -126.14395904541016
30.27375602722168 -112.99689483642578 -126.14784240722656
29.169338226318359 -114.89360046386719 -126.15702819824219
28.496162414550781 -115.84964752197266 -126.16386413574219
27.882452011108398 -116.79454040527344 -126.169921875
28.36250114440918 -117.93374633789062 -126.15538024902344
28.918451309204102 -118.64912414550781 -126.141845703125
30.164375305175781 -119.35728454589844 -126.11615753173828
31.796291351318359 -118.57936859130859 -126.09130859375
32.11920166015625 -118.38935089111328 -126.08657073974609
34.041522979736328 -118.11223602294922 -126.05441284179688
35.940872192382812 -118.06558227539062 -126.02175903320312
37.864433288574219 -117.66329193115234 -125.99085998535156
39.811172485351562 -117.07804870605469 -125.96084594726562
40.795215606689453 -116.47830963134766 -125.94738006591797
41.791484832763672 -115.84941101074219 -125.93403625488281
43.728889465332031 -115.31190490722656 -125.90470886230469
45.202991485595703 -116.36762237548828 -125.87482452392578
45.546943664550781 -116.63690948486328 -125.86775207519531
47.078544616699219 -118.19898986816406 -125.83486938476562
47.341659545898438 -118.51821899414062 -125.82896423339844
48.399612426757812 -120.03458404541016 -125.80448913574219
49.086128234863281 -121.10025024414062 -125.78831481933594
49.654605865478516 -121.87173461914062 -125.77561950683594
50.440876007080078 -123.73030853271484 -125.75469207763672
50.799884796142578 -124.26752471923828 -125.74663543701172
51.632255554199219 -125.56902313232422 -125.72792053222656
52.572093963623047 -126.73363494873047 -125.70832824707031
53.189590454101562 -127.39842224121094 -125.69602203369141
54.160446166992188 -129.242919921875 -125.67378997802734
54.32452392578125 -129.459228515625 -125.67043304443359
55.388973236083984 -131.09062194824219 -125.64808654785156
56.089622497558594 -132.06985473632812 -125.634033203125
57.004737854003906 -132.91908264160156 -125.61726379394531
57.840213775634766 -135.41201782226562 -123.19476318359375
59.784957885742188 -134.93122863769531 -123.16770935058594
59.972328186035156 -134.74427795410156 -123.16554260253906
61.811782836914062 -133.00018310546875 -123.14464569091797
62.008895874023438 -132.82252502441406 -123.14242553710938
63.0518798828125 -130.92605590820312 -123.1341552734375
63.934478759765625 -129.62820434570312 -123.12635803222656
64.364341735839844 -129.01309204101562 -123.12261962890625
65.342819213867188 -127.11824798583984 -123.11622619628906
66.056541442871094 -125.23017120361328 -123.11393737792969
66.122756958007812 -125.11337280273438 -123.11354064941406
67.02935791015625 -123.33537292480469 -123.10858917236328
67.124900817871094 -121.45357513427734 -123.11571502685547
67.725784301757812 -119.56826019287109 -123.11624145507812
68.328567504882812 -117.68285369873047 -123.11715698242188
68.449081420898438 -115.80021667480469 -123.12515258789062
68.57073974609375 -113.92706298828125 -123.13337707519531
68.694076538085938 -112.05374908447266 -123.14197540283203
68.819625854492188 -110.17067718505859 -123.15094757080078
68.946128845214844 -108.29692840576172 -123.16017913818359
69.074172973632812 -106.42295837402344 -123.16982269287109
69.085823059082031 -104.54222106933594 -123.18135833740234
68.485595703125 -102.6868896484375 -123.20164489746094
68.114227294921875 -100.82527923583984 -123.2191162109375
67.758056640625 -100.28755950927734 -123.22773742675781
67.033958435058594 -98.972381591796875 -123.246826171875
66.039329528808594 -97.4625244140625 -123.27145385742188
65.777603149414062 -97.133384704589844 -123.27745056152344
64.572654724121094 -95.292594909667969 -123.30774688720703
64.288848876953125 -95.002349853515625 -123.31398773193359
62.788368225097656 -93.466468811035156 -123.34693145751953
62.504920959472656 -93.176109313964844 -123.35315704345703
60.698085784912109 -91.695724487304688 -123.3907470703125
60.574466705322266 -91.641281127929688 -123.39295196533203
58.828956604003906 -90.946662902832031 -123.4241943359375
56.885093688964844 -91.352371215820312 -123.45041656494141
56.247222900390625 -91.753097534179688 -123.45709991455078
54.882125854492188 -92.575973510742188 -123.47183227539062
52.890480041503906 -93.53948974609375 -123.49547576904297
52.661155700683594 -93.727836608886719 -123.49772644042969
50.880973815917969 -94.906448364257812 -123.51709747314453
49.719120025634766 -95.675407409667969 -123.52992248535156
48.871517181396484 -96.30181884765625 -123.53895568847656
46.872550964355469 -97.446784973144531 -123.56303405761719
46.644752502441406 -97.625335693359375 -123.56551361083984
44.865524291992188 -98.869979858398438 -123.5858154296875
44.132804870605469 -99.560264587402344 -123.5931396484375
42.8006591796875 -101.13890075683594 -123.60448455810547
42.473854064941406 -101.48296356201172 -123.60760498046875
41.013412475585938 -103.39067077636719 -123.61949157714844
40.716468811035156 -103.73390197753906 -123.62222290039062
39.506362915039062 -105.299072265625 -123.63261413574219
38.604324340820312 -106.65496826171875 -123.63938903808594
38.176567077636719 -107.21234130859375 -123.64319610595703
37.327312469482422 -109.10385894775391 -123.64633178710938
36.451522827148438 -110.40108489990234 -123.65351104736328
36.021812438964844 -111.00624847412109 -123.657470703125
35.536148071289062 -112.89797210693359 -123.65502166748047
36.194168090820312 -114.28189849853516 -123.63605499267578
36.592292785644531 -114.74202728271484 -123.62673950195312
38.006984710693359 -115.58930969238281 -123.59806823730469
39.931842803955078 -115.34976959228516 -123.56680297851562
41.835845947265625 -115.30230712890625 -123.53517913818359
43.735969543457031 -115.34100341796875 -123.50355529785156
45.337295532226562 -116.39362335205078 -123.4716796875
45.560348510742188 -116.57012939453125 -123.46710205078125
47.38873291015625 -117.92353820800781 -123.43041229248047
47.653701782226562 -118.2139892578125 -123.42465209960938
49.172348022460938 -119.87212371826172 -123.39205932617188
49.337913513183594 -120.04048156738281 -123.38861083984375
50.113075256347656 -121.88986206054688 -123.36740112304688
50.88958740234375 -122.95328521728516 -123.35018920898438
51.468704223632812 -123.73408508300781 -123.33749389648438
52.464412689208984 -125.577880859375 -123.31379699707031
52.638229370117188 -125.78431701660156 -123.31019592285156
53.639328002929688 -127.41716003417969 -123.28788757324219
54.369743347167969 -128.84605407714844 -123.2708740234375
54.630241394042969 -129.26123046875 -123.26521301269531
55.249465942382812 -131.12449645996094 -123.24862670898438
56.072212219238281 -132.55136108398438 -123.23101806640625
56.333786010742188 -132.96656799316406 -123.22556304931641
57.214164733886719 -134.81413269042969 -123.20607757568359
58.037353515625 -132.08119201660156 -120.80207824707031
59.939006805419922 -132.37815856933594 -120.77290344238281
61.844158172607422 -132.64630126953125 -120.744140625
63.171318054199219 -130.95347595214844 -120.73119354248047
63.308746337890625 -129.0704345703125 -120.73650360107422
63.664730072021484 -127.19149780273438 -120.73896789550781
63.716629028320312 -125.32038879394531 -120.74611663818359
64.26385498046875 -124.25163269042969 -120.74297332763672
64.708244323730469 -123.42522430419922 -120.74026489257812
65.554397583007812 -121.52412414550781 -120.73697662353516
66.433860778808594 -120.22618103027344 -120.73072052001953
66.866363525390625 -119.62050628662109 -120.7275390625
67.488655090332031 -117.73455047607422 -120.72825622558594
68.340782165527344 -115.83290863037109 -120.72607421875
68.581024169921875 -113.95658874511719 -120.73283386230469
68.822868347167969 -112.080078125 -120.73980712890625
68.890510559082031 -111.95361328125 -120.73954772949219
69.769203186035156 -110.17543792724609 -120.737548828125
69.925216674804688 -108.30079650878906 -120.74643707275391
70.00372314453125 -106.42797088623047 -120.75672912597656
69.787742614746094 -104.55306243896484 -120.77143859863281
69.4490966796875 -103.74629974365234 -120.78120422363281
69.038787841796875 -102.70145416259766 -120.79362487792969
68.469558715820312 -100.84488677978516 -120.81378173828125
67.795623779296875 -99.92193603515625 -120.82942199707031
67.122451782226562 -98.998870849609375 -120.84516906738281
66.0264892578125 -97.798805236816406 -120.86897277832031
65.402061462402344 -97.171890258789062 -120.88224792480469
64.229034423828125 -95.9735107421875 -120.90753936767578
63.615478515625 -95.346099853515625 -120.92086029052734
62.430267333984375 -94.339797973632812 -120.94538116455078
61.004669189453125 -93.541252136230469 -120.97206115722656
60.592121124267578 -93.273345947265625 -120.98017883300781
58.691120147705078 -92.947952270507812 -121.01082611083984
56.782405853271484 -92.881851196289062 -121.04011535644531
54.838840484619141 -93.306404113769531 -121.06665802001953
53.965328216552734 -93.72259521484375 -121.07704162597656
52.851749420166016 -94.212059020996094 -121.09080505371094
50.896011352539062 -94.847640991210938 -121.11674499511719
49.727798461914062 -95.703163146972656 -121.12910461425781
48.880195617675781 -96.329627990722656 -121.13816070556641
46.881309509277344 -97.474578857421875 -121.16215515136719
46.692626953125 -97.652137756347656 -121.16401672363281
44.838413238525391 -99.39794921875 -121.18209838867188
44.649936676025391 -99.575447082519531 -121.18403625488281
43.577201843261719 -101.48371887207031 -121.18882751464844
42.695411682128906 -102.78223419189453 -121.19484710693359
42.262699127197266 -103.38800048828125 -121.19808959960938
40.630912780761719 -105.11727142333984 -121.21421813964844
40.432727813720703 -105.30448913574219 -121.21638488769531
39.190330505371094 -107.21571350097656 -121.22531890869141
38.521835327148438 -108.01885986328125 -121.23170471191406
37.609348297119141 -109.12528228759766 -121.24053192138672
36.810501098632812 -111.015380859375 -121.24297332763672
36.685409545898438 -112.89832305908203 -121.23443603515625
37.898170471191406 -114.73853302001953 -121.20363616943359
38.062507629394531 -114.90708923339844 -121.19993591308594
39.944267272949219 -115.33041381835938 -121.16595458984375
41.845390319824219 -115.3310546875 -121.13429260253906
43.749126434326172 -115.31217193603516 -121.10295867919922
45.652717590332031 -115.3218994140625 -121.07177734375
47.255538940429688 -116.3743896484375 -121.04025268554688
47.488540649414062 -116.55068969726562 -121.0355224609375
49.005760192871094 -118.20909118652344 -121.00263977050781
49.272789001464844 -118.47073364257812 -120.99703979492188
50.808815002441406 -120.03261566162109 -120.96490478515625
51.056892395019531 -120.44807434082031 -120.95897674560547
51.830047607421875 -121.87588500976562 -120.93992614746094
52.470165252685547 -123.73841857910156 -120.92129516601562
52.748802185058594 -124.15309143066406 -120.91508483886719
53.564628601074219 -125.57979583740234 -120.89610290527344
54.170486450195312 -127.43367767333984 -120.87879943847656
54.439849853515625 -127.85822296142578 -120.87291717529297
55.260047912597656 -129.275390625 -120.85464477539062
56.208839416503906 -130.3634033203125 -120.83599090576172
57.001243591308594 -131.11032104492188 -120.82120513916016
57.940055847167969 -134.09904479980469 -118.39546203613281
59.907455444335938 -133.21490478515625 -118.3695068359375
60.356719970703125 -132.9254150390625 -118.364013671875
61.890556335449219 -132.09054565429688 -118.34476470947266
63.43170166015625 -130.97731018066406 -118.3267822265625
63.815883636474609 -129.08787536621094 -118.32867431640625
64.0341796875 -128.38224792480469 -118.32833099365234
64.379173278808594 -127.20351409912109 -118.32829284667969
64.79632568359375 -125.32289886474609 -118.33039855957031
64.291091918945312 -124.05088806152344 -118.34324645996094
64.050071716308594 -123.47216033935547 -118.34928894042969
64.374534606933594 -122.67752838134766 -118.34828948974609
64.836700439453125 -121.57255554199219 -118.34687805175781
65.6839599609375 -119.68088531494141 -118.34391021728516
66.564483642578125 -118.38280487060547 -118.33793640136719
66.997535705566406 -117.77702331542969 -118.33486938476562
67.622055053710938 -115.88126373291016 -118.33599090576172
68.475128173828125 -113.98893737792969 -118.33418273925781
68.835525512695312 -112.10924530029297 -118.33956909179688
68.903106689453125 -111.98281097412109 -118.33936309814453
69.78179931640625 -110.20449829101562 -118.33740234375
69.937713623046875 -108.32971954345703 -118.34628295898438
70.065544128417969 -106.45545196533203 -118.35587310791016
70.165939331054688 -104.57208251953125 -118.36622619628906
69.527206420898438 -102.83259582519531 -118.38620758056641
69.475959777832031 -102.71882629394531 -118.38761901855469
69.370994567871094 -100.84987640380859 -118.40132141113281
68.161346435546875 -99.000083923339844 -118.43064880371094
67.8956298828125 -98.719024658203125 -118.43632507324219
66.38079833984375 -97.174522399902344 -118.46836853027344
66.1048583984375 -96.903289794921875 -118.47418212890625
64.474899291992188 -95.35174560546875 -118.50849914550781
64.300247192382812 -95.183433532714844 -118.51219177246094
62.490447998046875 -93.703369140625 -118.54909515380859
62.276527404785156 -93.535987854003906 -118.55339050292969
60.671607971191406 -92.376724243164062 -118.58546447753906
58.771347045898438 -92.041557312011719 -118.61619567871094
56.855293273925781 -92.071647644042969 -118.64479827880859
54.912364959716797 -92.486526489257812 -118.67132568359375
52.949764251708984 -93.055412292480469 -118.69741821289062
51.866462707519531 -93.803466796875 -118.70890808105469
50.939346313476562 -94.432121276855469 -118.71888732910156
48.963245391845703 -95.365730285644531 -118.74345397949219
48.3768310546875 -95.764671325683594 -118.74998474121094
46.951385498046875 -96.684013366699219 -118.76631164550781
45.754199981689453 -97.703117370605469 -118.77855682373047
44.908554077148438 -98.598007202148438 -118.7861328125
43.995929718017578 -99.619293212890625 -118.79412841796875
43.275440216064453 -101.51889801025391 -118.79330444335938
42.730789184570312 -102.46352386474609 -118.79606628417969
42.185882568359375 -103.41764068603516 -118.79888153076172
40.902839660644531 -105.32077789306641 -118.80805969238281
40.599514007568359 -105.76007080078125 -118.81031036376953
39.591964721679688 -107.2337646484375 -118.81806945800781
38.781410217285156 -109.12457275390625 -118.82032775878906
38.782264709472656 -110.99514770507812 -118.80930328369141
40.161689758300781 -112.22721862792969 -118.77919006347656
42.043758392333984 -112.51622009277344 -118.74629211425781
43.955455780029297 -112.38223266601562 -118.71567535400391
44.889656066894531 -112.7232666015625 -118.69850921630859
45.813289642333984 -113.08370971679688 -118.68147277832031
47.673896789550781 -113.91902160644531 -118.64684295654297
48.251369476318359 -114.50853729248047 -118.63432312011719
49.444774627685547 -116.01242065429688 -118.60719299316406
49.707229614257812 -116.34133148193359 -118.60127258300781
51.037799835205078 -118.18667602539062 -118.57064819335938
51.200916290283203 -118.39349365234375 -118.5670166015625
52.263671875 -120.02498626708984 -118.54216003417969
52.951725006103516 -121.09075164794922 -118.52621459960938
53.521507263183594 -121.86233520507812 -118.51365661621094
54.044509887695312 -123.72795867919922 -118.49686431884766
54.530693054199219 -125.58500671386719 -118.48092651367188
54.582817077636719 -125.69873809814453 -118.47969055175781
55.274562835693359 -127.43553924560547 -118.46160888671875
55.489608764648438 -129.29963684082031 -118.4505615234375
56.184806823730469 -131.04617309570312 -118.43304443359375
56.237220764160156 -131.159912109375 -118.43184661865234
56.859794616699219 -133.01394653320312 -118.41551208496094
57.954647064208984 -134.15779113769531 -115.99440002441406
59.899299621582031 -133.68666076660156 -115.96737670898438
61.073062896728516 -132.93766784667969 -115.95295715332031
61.890167236328125 -132.41824340820312 -115.94306945800781
63.872333526611328 -131.52401733398438 -115.91798400878906
64.445335388183594 -130.98199462890625 -115.91184997558594
64.908584594726562 -129.09033203125 -115.91279602050781
64.592803955078125 -127.22822570800781 -115.92507934570312
64.189628601074219 -126.03974151611328 -115.93589019775391
63.943294525146484 -125.37472534179688 -115.94236755371094
63.671012878417969 -123.51174926757812 -115.95469665527344
64.171134948730469 -121.61943817138672 -115.95643615722656
64.483535766601562 -121.18948364257812 -115.95399475097656
65.482254028320312 -119.71578216552734 -115.94696807861328
66.133682250976562 -117.82890319824219 -115.94720458984375
66.685066223144531 -116.75974273681641 -115.94495391845703
67.133407592773438 -115.92334747314453 -115.94306945800781
67.640235900878906 -114.03996276855469 -115.94607543945312
68.247596740722656 -112.15379333496094 -115.947998046875
68.857269287109375 -110.25772094726562 -115.95036315917969
68.983497619628906 -108.38362121582031 -115.95967864990234
69.111328125 -106.50926208496094 -115.96922302246094
69.122482299804688 -104.62810516357422 -115.98077392578125
68.047477722167969 -102.78472900390625 -116.00761413574219
67.661155700683594 -102.24775695800781 -116.01652526855469
66.84625244140625 -100.94439697265625 -116.03656005859375
65.914176940917969 -99.778366088867188 -116.05757141113281
65.292625427246094 -99.103340148925781 -116.07102966308594
64.118522644042969 -97.90496826171875 -116.09612274169922
63.504486083984375 -97.277565002441406 -116.10931396484375
62.32666015625 -96.155784606933594 -116.13428497314453
61.482818603515625 -95.457283020019531 -116.15158843994141
60.512825012207031 -94.742820739746094 -116.17091369628906
58.893600463867188 -93.650985717773438 -116.20283508300781
58.680828094482422 -93.473976135253906 -116.20725250244141
56.815132141113281 -92.820503234863281 -116.24002838134766
54.942668914794922 -92.282173156738281 -116.27243041992188
53.028316497802734 -92.196250915527344 -116.30246734619141
51.088241577148438 -92.610458374023438 -116.32963562011719
49.143470764160156 -93.110931396484375 -116.35658264160156
47.645473480224609 -93.936363220214844 -116.37448883056641
47.14593505859375 -94.217857360839844 -116.38038635253906
45.180488586425781 -95.044845581054688 -116.40608215332031
44.103080749511719 -95.897735595703125 -116.41757965087891
43.161041259765625 -96.6414794921875 -116.42778015136719
42.022300720214844 -97.822128295898438 -116.43833160400391
41.076591491699219 -99.180335998535156 -116.44473266601562
40.637828826904297 -99.728858947753906 -116.44833374023438
40.12353515625 -101.62356567382812 -116.44435119628906
39.513713836669922 -103.51055908203125 -116.44235229492188
38.788314819335938 -105.39996337890625 -116.44253540039062
38.7210693359375 -105.52639770507812 -116.44288635253906
37.84918212890625 -107.30390167236328 -116.44654846191406
37.790283203125 -109.17646026611328 -116.43630981445312
38.409637451171875 -110.10155487060547 -116.42048645019531
40.284553527832031 -110.62149047851562 -116.38623809814453
41.207260131835938 -110.96324920654297 -116.36900329589844
42.138298034667969 -111.33345031738281 -116.3515625
44.027076721191406 -111.54545593261719 -116.31942749023438
45.926979064941406 -111.61302947998047 -116.28821563720703
47.812641143798828 -112.06436920166016 -116.25535583496094
48.575119018554688 -112.65892791748047 -116.23983764648438
49.633758544921875 -113.37060546875 -116.21905517578125
51.138076782226562 -114.46403503417969 -116.18923950195312
51.449630737304688 -114.79177093505859 -116.18258666992188
52.458778381347656 -116.30028533935547 -116.15868377685547
53.171367645263672 -117.87384033203125 -116.13932800292969
53.329784393310547 -118.15743255615234 -116.13542175292969
53.329315185546875 -120.02704620361328 -116.12592315673828
53.487621307373047 -121.89258575439453 -116.11431121826172
54.128623962402344 -123.75537109375 -116.09555053710938
54.656036376953125 -124.767822265625 -116.08280944824219
55.116321563720703 -125.59981536865234 -116.07199096679688
55.683601379394531 -127.45497131347656 -116.05520629882812
56.340084075927734 -128.65597534179688 -116.04011535644531
56.70556640625 -129.29875183105469 -116.03196716308594
57.217636108398438 -131.16520690917969 -116.01675415039062
57.427192687988281 -133.02984619140625 -116.00637817382812
53.870326995849609 -139.04838562011719 -113.63816833496094
55.781219482421875 -139.13482666015625 -113.60899353027344
57.704784393310547 -139.20176696777344 -113.580078125
58.274238586425781 -138.6597900390625 -113.57345581054688
59.730110168457031 -137.18418884277344 -113.55696105957031
60.177154541015625 -136.74127197265625 -113.55197143554688
60.633888244628906 -134.84954833984375 -113.55201721191406
61.220352172851562 -132.96421813964844 -113.55047607421875
61.80877685546875 -131.07899475097656 -113.54924011230469
62.034843444824219 -129.19343566894531 -113.5537109375
62.100673675537109 -129.07669067382812 -113.55326843261719
62.962722778320312 -127.29975891113281 -113.54832458496094
63.280727386474609 -125.42150115966797 -113.55202484130859
64.054733276367188 -123.53167724609375 -113.54949951171875
64.288154602050781 -121.64604187011719 -113.55510711669922
64.532669067382812 -119.7696533203125 -113.56080627441406
64.599136352539062 -119.65287017822266 -113.56051635742188
65.470146179199219 -117.87538146972656 -113.55708312988281
65.560775756835938 -115.99322509765625 -113.56561279296875
65.909278869628906 -114.11385345458984 -113.57087707519531
66.605026245117188 -112.22532653808594 -113.57151794433594
66.947578430175781 -110.33615875244141 -113.57745361328125
66.945236206054688 -108.46537017822266 -113.58855438232422
66.361831665039062 -106.60945129394531 -113.60808563232422
65.563362121582031 -105.03723907470703 -113.62923431396484
65.395767211914062 -104.75366973876953 -113.63338470458984
64.697624206542969 -102.90029907226562 -113.65519714355469
63.892578125 -101.32774353027344 -113.67708587646484
63.734798431396484 -101.05341339111328 -113.68117523193359
62.410003662109375 -99.206039428710938 -113.71278381347656
62.144927978515625 -98.924835205078125 -113.71851348876953
60.633857727050781 -97.379470825195312 -113.75128936767578
60.358745574951172 -97.108062744140625 -113.75718688964844
58.732627868652344 -95.555511474609375 -113.79218292236328
58.558357238769531 -95.387069702148438 -113.79598236083984
56.720989227294922 -94.3389892578125 -113.83100891113281
55.890830993652344 -93.7548828125 -113.84773254394531
54.902587890625 -93.059349060058594 -113.86769104003906
53.007293701171875 -92.713371276855469 -113.89929962158203
51.077224731445312 -92.992721557617188 -113.92721557617188
49.114086151123047 -93.743484497070312 -113.95262908935547
48.875297546386719 -93.932022094726562 -113.95514678955078
47.097885131835938 -95.110214233398438 -113.97499084472656
46.025932312011719 -95.87664794921875 -113.98683166503906
45.072074890136719 -96.774528503417969 -113.99594116210938
44.246788024902344 -97.793968200683594 -114.00231170654297
42.982177734375 -99.371490478515625 -114.01222229003906
42.675437927246094 -99.705574035644531 -114.0150146484375
41.388954162597656 -101.61932373046875 -114.02352142333984
40.845874786376953 -102.68876647949219 -114.02554321289062
40.388362884521484 -103.51602172851562 -114.02783203125
39.99468994140625 -105.39748382568359 -114.02252197265625
39.836170196533203 -107.28250885009766 -114.01357269287109
40.474346160888672 -108.07290649414062 -113.99830627441406
41.749916076660156 -109.10657501220703 -113.97114562988281
42.280937194824219 -109.47723388671875 -113.96025848388672
44.169609069824219 -109.68946838378906 -113.92823791503906
46.072257995605469 -109.71875 -113.89736175537109
47.957038879394531 -110.17991638183594 -113.86452484130859
48.570281982421875 -110.80721282958984 -113.85115814208984
49.74713134765625 -111.93813323974609 -113.82598876953125
50.434776306152344 -112.64009094238281 -113.81118774414062
51.530868530273438 -113.83995819091797 -113.7872314453125
52.155986785888672 -114.46664428710938 -113.77401733398438
52.485950469970703 -116.32825469970703 -113.75875854492188
53.200477600097656 -117.71971130371094 -113.74034118652344
53.44549560546875 -118.18331909179688 -113.73410797119141
54.073844909667969 -120.03711700439453 -113.71498107910156
54.458423614501953 -121.89704895019531 -113.69978332519531
54.784290313720703 -122.98182678222656 -113.68958282470703
55.021293640136719 -123.76201629638672 -113.68223571777344
54.682357788085938 -125.64031982421875 -113.6787109375
54.595314025878906 -126.11237335205078 -113.67788696289062
54.345230102539062 -127.51856994628906 -113.67547607421875
54.108283996582031 -129.39433288574219 -113.67100524902344
53.872581481933594 -131.27969360351562 -113.66679382324219
53.649169921875 -133.1552734375 -113.66281127929688
53.427867889404297 -135.03096008300781 -113.6590576171875
53.207901000976562 -136.91635131835938 -113.65556335449219
53.521255493164062 -138.7789306640625 -113.64436340332031
58.107131958007812 -132.20010375976562 -111.19921875
60.003852844238281 -132.59346008300781 -111.169677734375
61.248382568359375 -131.12326049804688 -111.15737915039062
62.080600738525391 -129.82647705078125 -111.15060424804688
62.519992828369141 -129.21115112304688 -111.14683532714844
63.132072448730469 -127.32526397705078 -111.14608001708984
63.785598754882812 -125.43836212158203 -111.14511108398438
64.332595825195312 -124.369384765625 -111.1422119140625
64.776863098144531 -123.54280853271484 -111.13969421386719
65.276817321777344 -121.650146484375 -111.14161682128906
65.570587158203125 -119.77231597900391 -111.14675903320312
66.350296020507812 -117.88191223144531 -111.14535522460938
66.598663330078125 -115.99545288085938 -111.15176391601562
66.719833374023438 -114.12173461914062 -111.16020965576172
66.842529296875 -112.24787139892578 -111.16899108886719
66.858901977539062 -110.36698150634766 -111.1795654296875
66.609481811523438 -108.50238037109375 -111.19405364990234
65.650772094726562 -106.65599822998047 -111.21894836425781
65.485549926757812 -106.47794342041016 -111.22238159179688
63.95489501953125 -104.81895446777344 -111.25474548339844
63.688861846923828 -104.53790283203125 -111.26036071777344
62.182464599609375 -102.99313354492188 -111.29208374023438
61.897216796875 -102.71253204345703 -111.29808044433594
60.383647918701172 -101.16756439208984 -111.33045196533203
60.1080322265625 -100.89620971679688 -111.33628082275391
58.480262756347656 -99.334587097167969 -111.37087249755859
58.305686950683594 -99.166229248046875 -111.37462615966797
56.497871398925781 -97.68548583984375 -111.41184234619141
56.333469390869141 -97.51678466796875 -111.41548919677734
54.709907531738281 -95.963546752929688 -111.45075988769531
54.131149291992188 -95.699592590332031 -111.46150970458984
52.850013732910156 -95.126724243164062 -111.48513793945312
50.950283050537109 -94.991996765136719 -111.5155029296875
49.461524963378906 -95.817176818847656 -111.53303527832031
48.961074829101562 -96.108345031738281 -111.53895568847656
47.209911346435547 -97.746749877929688 -111.55546569824219
46.90185546875 -98.090621948242188 -111.55800628662109
45.695594787597656 -99.657318115234375 -111.56690979003906
44.788692474365234 -101.01467132568359 -111.57257080078125
44.358814239501953 -101.57266235351562 -111.57585144042969
43.924121856689453 -103.45566558837891 -111.57077026367188
44.312351226806641 -105.31796264648438 -111.55284118652344
44.475761413574219 -105.49629211425781 -111.54914855957031
46.308456420898438 -106.54488372802734 -111.51325225830078
47.079559326171875 -107.13021087646484 -111.49735260009766
48.133201599121094 -107.88111877441406 -111.47608947753906
49.489524841308594 -108.94087219238281 -111.44833374023438
49.932872772216797 -109.47658538818359 -111.43820190429688
50.657707214355469 -110.78221893310547 -111.41917419433594
51.653465270996094 -112.30142211914062 -111.39484405517578
51.915756225585938 -112.63054656982422 -111.38888549804688
52.528945922851562 -114.48532867431641 -111.36900329589844
52.505744934082031 -116.35609436035156 -111.35910034179688
53.198432922363281 -118.093505859375 -111.33912658691406
53.249465942382812 -118.21686553955078 -111.33772277832031
53.730598449707031 -120.07459259033203 -111.32073974609375
54.134963989257812 -121.93421173095703 -111.30523681640625
54.363807678222656 -123.80785369873047 -111.2926025390625
54.707496643066406 -124.61418914794922 -111.28358459472656
55.125831604003906 -125.65837097167969 -111.27229309082031
55.545883178710938 -127.51765441894531 -111.25755310058594
56.366294860839844 -128.9449462890625 -111.23887634277344
56.62713623046875 -129.36029052734375 -111.23318481445312
57.316749572753906 -131.22256469726562 -111.21502685546875
58.253677368164062 -130.06813049316406 -108.80616760253906
60.177261352539062 -129.98117065429688 -108.77809143066406
61.05438232421875 -129.27801513671875 -108.76823425292969
62.216133117675781 -127.92490386962891 -108.75721740722656
62.652618408203125 -127.36708831787109 -108.75336456298828
63.266433715820312 -125.48111724853516 -108.7530517578125
63.921657562255859 -123.59403228759766 -108.75244140625
64.4696044921875 -122.52493286132812 -108.74973297119141
64.915122985839844 -121.68865966796875 -108.7474365234375
65.41619873046875 -119.80535888671875 -108.74968719482422
65.71148681640625 -117.92723846435547 -108.75514221191406
66.493301391601562 -116.02693176269531 -108.75405883789062
66.742668151855469 -114.14971923828125 -108.76076507568359
66.865219116210938 -112.27564239501953 -108.76956176757812
66.881332397460938 -110.39459991455078 -108.78009033203125
66.631675720214844 -108.52980041503906 -108.79470062255859
65.672706604003906 -106.68316650390625 -108.81954956054688
65.507530212402344 -106.50508117675781 -108.82301330566406
63.877914428710938 -104.84840393066406 -108.85675048828125
63.702545166015625 -104.68017578125 -108.86039733886719
61.856163024902344 -103.63350677490234 -108.89385986328125
61.011695861816406 -103.05048370361328 -108.91001892089844
60.028141021728516 -102.35577392578125 -108.92897033691406
58.125499725341797 -102.03014373779297 -108.95946502685547
56.744461059570312 -101.28774261474609 -108.98506164550781
56.282466888427734 -101.02104949951172 -108.9937744140625
54.392364501953125 -100.70424652099609 -109.02462768554688
52.476840972900391 -100.62788391113281 -109.05448913574219
50.560569763183594 -100.72413635253906 -109.0836181640625
48.611091613769531 -101.31075286865234 -109.11038208007812
48.421867370605469 -101.49789428710938 -109.11212158203125
48.290473937988281 -103.37352752685547 -109.10218811035156
48.454765319824219 -103.54222106933594 -109.09857177734375
50.071418762207031 -105.20088195800781 -109.06282043457031
50.234722137451172 -105.38872528076172 -109.05906677246094
51.6387939453125 -107.04254913330078 -109.02699279785156
51.990554809570312 -107.62867736816406 -109.01800537109375
52.708663940429688 -108.88678741455078 -108.99935913085938
52.896881103515625 -110.75300598144531 -108.98545837402344
53.58526611328125 -112.4912109375 -108.96482849121094
53.635971069335938 -112.61460113525391 -108.96337890625
53.847183227539062 -114.47981262207031 -108.9495849609375
54.354721069335938 -116.33733367919922 -108.93162536621094
54.421287536621094 -118.21544647216797 -108.92059326171875
54.215034484863281 -120.0908203125 -108.91403961181641
54.902015686035156 -121.82839965820312 -108.89478302001953
54.953952789306641 -121.94216918945312 -108.8934326171875
55.173229217529297 -123.81626892089844 -108.88095855712891
55.689994812011719 -125.67324066162109 -108.86427307128906
56.08087158203125 -127.53345489501953 -108.849853515625
56.442432403564453 -128.07096862792969 -108.84192657470703
57.458015441894531 -129.36886596679688 -108.82101440429688
60.226932525634766 -129.60662841796875 -106.37942504882812
60.528793334960938 -129.32083129882812 -106.376220703125
61.998359680175781 -127.41315460205078 -106.36325073242188
62.302131652832031 -126.93540954589844 -106.3609619140625
63.194198608398438 -125.51224517822266 -106.35466766357422
63.404960632324219 -123.63630676269531 -106.36051940917969
64.240081787109375 -121.73490142822266 -106.35774230957031
64.6025390625 -119.85498046875 -106.36202239990234
64.668991088867188 -119.73818206787109 -106.36167907714844
65.579216003417969 -117.95932006835938 -106.35791015625
