# XYZ point cloud file
76.50439453125 -98.947532653808594 -135.33256530761719
75.892875671386719 -96.969154357910156 -135.33372497558594
75.008705139160156 -95.000999450683594 -135.33479309082031
74.605873107910156 -94.425765991210938 -135.33500671386719
73.720443725585938 -93.033004760742188 -135.33570861816406
72.632064819335938 -91.882652282714844 -135.33609008789062
71.502204895019531 -91.065475463867188 -135.33615112304688
70.665283203125 -90.419761657714844 -135.3363037109375
68.693595886230469 -90.259307861328125 -135.335205078125
66.711517333984375 -90.31085205078125 -135.33403015136719
64.738960266113281 -90.655128479003906 -135.33265686035156
64.110610961914062 -91.069412231445312 -135.3319091796875
62.763301849365234 -91.887886047363281 -135.33045959472656
60.779548645019531 -92.858047485351562 -135.32872009277344
60.556644439697266 -93.039878845214844 -135.32846069335938
58.805438995361328 -94.171409606933594 -135.32681274414062
57.126693725585938 -95.010063171386719 -135.32562255859375
56.833351135253906 -95.191902160644531 -135.32537841796875
54.852390289306641 -96.111381530761719 -135.32423400878906
53.800334930419922 -96.979988098144531 -135.32333374023438
52.880062103271484 -97.737480163574219 -135.32261657714844
51.585563659667969 -98.95947265625 -135.32154846191406
50.908214569091797 -99.595710754394531 -135.321044921875
48.939456939697266 -100.74714660644531 -135.32028198242188
48.747501373291016 -100.92891693115234 -135.32015991210938
47.634235382080078 -102.89776611328125 -135.31889343261719
46.957672119140625 -103.58439636230469 -135.31852722167969
45.806636810302734 -104.87681579589844 -135.31794738769531
44.989105224609375 -105.79563140869141 -135.31758117675781
43.698360443115234 -106.84574890136719 -135.31733703613281
43.022968292236328 -107.37080383300781 -135.31727600097656
41.571395874023438 -108.81458282470703 -135.31704711914062
41.047206878662109 -109.50109100341797 -135.31692504882812
40.069732666015625 -110.79330444335938 -135.31678771972656
39.484699249267578 -112.76171875 -135.31631469726562
39.755641937255859 -114.72994995117188 -135.31562805175781
39.755573272705078 -116.708251953125 -135.315185546875
40.692054748535156 -118.67626190185547 -135.31448364257812
41.044464111328125 -118.96889495849609 -135.31431579589844
43.017791748046875 -119.53368377685547 -135.31356811523438
44.981056213378906 -118.96800994873047 -135.31304931640625
45.967990875244141 -118.67505645751953 -135.3128662109375
46.945037841796875 -118.40229034423828 -135.31269836425781
48.920082092285156 -118.50265502929688 -135.31240844726562
50.88555908203125 -118.2396240234375 -135.31231689453125
52.851680755615234 -117.85544586181641 -135.3123779296875
54.193496704101562 -118.67250823974609 -135.31233215332031
54.819217681884766 -119.16683959960938 -135.31236267089844
55.970481872558594 -120.63995361328125 -135.31240844726562
56.798954010009766 -121.69936370849609 -135.31253051757812
57.506458282470703 -122.61750030517578 -135.31266784667969
58.770408630371094 -124.23178863525391 -135.31304931640625
59.063720703125 -124.58489227294922 -135.31315612792969
60.561489105224609 -126.55225372314453 -135.31387329101562
60.743625640869141 -126.73383331298828 -135.31396484375
62.53515625 -128.51933288574219 -135.31498718261719
64.702613830566406 -130.67857360839844 -132.79621887207031
66.675178527832031 -131.24276733398438 -132.79740905761719
67.744926452636719 -130.49542236328125 -132.79776000976562
68.653518676757812 -129.88943481445312 -132.79811096191406
70.28887939453125 -128.51606750488281 -132.79879760742188
70.621963500976562 -128.1727294921875 -132.7989501953125
71.883399963378906 -126.54721069335938 -132.79951477050781
72.590110778808594 -125.62840270996094 -132.79991149902344
73.458816528320312 -124.57829284667969 -132.80044555664062
74.276046752929688 -122.60977935791016 -132.80096435546875
74.569107055664062 -122.15544128417969 -132.80120849609375
75.499069213867188 -120.63087463378906 -132.80201721191406
76.135696411132812 -118.66236114501953 -132.80271911621094
76.479354858398438 -116.69398498535156 -132.80332946777344
76.540092468261719 -116.562744140625 -132.80340576171875
77.320014953613281 -114.71517181396484 -132.80451965332031
77.34100341796875 -112.74688720703125 -132.80511474609375
77.53485107421875 -110.77847290039062 -132.80599975585938
78.215644836425781 -108.79959869384766 -132.80747985839844
78.329849243164062 -106.83113861083984 -132.80859375
77.847061157226562 -104.86299133300781 -132.80924987792969
77.354896545410156 -102.88472747802734 -132.81008911132812
77.359710693359375 -100.91616821289062 -132.81149291992188
76.970199584960938 -98.947807312011719 -132.81265258789062
76.567733764648438 -98.079841613769531 -132.81301879882812
76.075088500976562 -96.969619750976562 -132.81355285644531
75.535133361816406 -95.001243591308594 -132.81489562988281
74.609458923339844 -93.477279663085938 -132.81562805175781
74.317626953125 -93.033210754394531 -132.81584167480469
73.161766052246094 -91.065055847167969 -132.81703186035156
72.637794494628906 -90.540328979492188 -132.81721496582031
71.005165100097656 -89.087326049804688 -132.81770324707031
70.672630310058594 -88.804794311523438 -132.81781005859375
68.70208740234375 -88.412101745605469 -132.8170166015625
66.720817565917969 -88.291999816894531 -132.81605529785156
64.747894287109375 -88.686775207519531 -132.81459045410156
64.11944580078125 -89.090980529785156 -132.8138427734375
62.771831512451172 -89.919570922851562 -132.81233215332031
60.788753509521484 -90.657539367675781 -132.810791015625
60.160839080810547 -91.07177734375 -132.81013488769531
58.814479827880859 -91.890182495117188 -132.80888366699219
56.842189788818359 -92.860221862792969 -132.80743408203125
56.639625549316406 -93.042030334472656 -132.80722045898438
54.858058929443359 -94.516769409179688 -132.80548095703125
54.230777740478516 -95.011695861816406 -132.80491638183594
52.885597229003906 -96.052047729492188 -132.80386352539062
51.833694458007812 -96.981208801269531 -132.802978515625
50.912544250488281 -98.122314453125 -132.802001953125
50.274898529052734 -98.960441589355469 -132.80131530761719
48.999412536621094 -100.92942810058594 -132.79986572265625
48.938732147216797 -101.01020050048828 -132.7998046875
47.563671112060547 -102.89836120605469 -132.79861450195312
46.957447052001953 -103.67583465576172 -132.79820251464844
45.977840423583984 -104.87734985351562 -132.79762268066406
45.047752380371094 -106.84603118896484 -132.79669189453125
44.987197875976562 -106.92678833007812 -132.79666137695312
43.685501098632812 -108.81474304199219 -132.79606628417969
43.019844055175781 -109.80411529541016 -132.79580688476562
42.263832092285156 -110.79347229003906 -132.79563903808594
41.225643157958984 -112.76198577880859 -132.7952880859375
41.044178009033203 -113.35755157470703 -132.79518127441406
40.661293029785156 -114.73036956787109 -132.794921875
40.661228179931641 -116.70867156982422 -132.79449462890625
41.043891906738281 -117.68764495849609 -132.79417419433594
42.191761016845703 -118.67653656005859 -132.79360961914062
43.017425537109375 -118.96905517578125 -132.79331970214844
44.98101806640625 -118.96858215332031 -132.79277038574219
45.595256805419922 -118.67573547363281 -132.79264831542969
46.944862365722656 -118.06979370117188 -132.79246520996094
48.919673919677734 -117.5040283203125 -132.79228210449219
50.885120391845703 -116.87764739990234 -132.79226684570312
51.207714080810547 -116.70595550537109 -132.79228210449219
52.851295471191406 -115.92823028564453 -132.79244995117188
54.334053039550781 -116.70488739013672 -132.79240417480469
54.818340301513672 -117.00751495361328 -132.79238891601562
56.3929443359375 -118.67226409912109 -132.79237365722656
56.796962738037109 -119.29787445068359 -132.79238891601562
57.615436553955078 -120.639892578125 -132.79244995117188
58.364414215087891 -122.61773681640625 -132.79258728027344
58.769001007080078 -123.24331665039062 -132.792724609375
59.598785400390625 -124.58524322509766 -132.79304504394531
60.561439514160156 -126.55283355712891 -132.79359436035156
60.743576049804688 -126.73440551757812 -132.79368591308594
62.535102844238281 -128.51991271972656 -132.79469299316406
62.727462768554688 -128.71157836914062 -132.7947998046875
64.520240783691406 -130.49700927734375 -132.79608154296875
66.678497314453125 -132.06069946289062 -130.277587890625
68.660354614257812 -132.0596923828125 -130.27873229980469
70.629302978515625 -130.78707885742188 -130.27955627441406
70.92193603515625 -130.49424743652344 -130.2796630859375
72.313529968261719 -128.51545715332031 -130.28013610839844
72.596138000488281 -128.17216491699219 -130.28025817871094
73.736541748046875 -126.54666137695312 -130.28082275390625
74.574295043945312 -125.15342712402344 -130.28131103515625
74.978347778320312 -124.57791137695312 -130.28157043457031
75.492019653320312 -122.60955810546875 -130.28190612792969
76.046943664550781 -120.63104248046875 -130.28239440917969
76.542304992675781 -119.52051544189453 -130.28291320800781
76.946929931640625 -118.66236114501953 -130.28335571289062
77.341293334960938 -116.69393920898438 -130.28402709960938
77.837669372558594 -114.71533203125 -130.284912109375
78.334754943847656 -112.74674987792969 -130.28594970703125
78.336166381835938 -110.77845001220703 -130.28666687011719
78.338272094726562 -108.80001068115234 -130.28752136230469
78.341033935546875 -106.83161926269531 -130.28851318359375
78.344497680664062 -104.86315155029297 -130.28964233398438
78.348655700683594 -102.88455963134766 -130.29090881347656
78.231903076171875 -100.91607666015625 -130.29220581054688
77.497947692871094 -98.947952270507812 -130.29304504394531
76.570869445800781 -97.424095153808594 -130.29348754882812
76.278678894042969 -96.969970703125 -130.29364013671875
75.53619384765625 -95.001724243164062 -130.2947998046875
74.608901977539062 -93.891716003417969 -130.29512023925781
73.893531799316406 -93.033950805664062 -130.29541015625
72.635078430175781 -91.409156799316406 -130.29615783691406
72.353202819824219 -91.066024780273438 -130.29631042480469
70.671005249023438 -89.380813598632812 -130.29702758789062
70.055274963378906 -89.088356018066406 -130.29695129394531
68.702957153320312 -88.452964782714844 -130.29685974121094
66.721885681152344 -88.292472839355469 -130.29592895507812
64.74896240234375 -88.687255859375 -130.29449462890625
64.120506286621094 -89.091461181640625 -130.29374694824219
62.772895812988281 -89.920059204101562 -130.292236328125
60.788848876953125 -90.880149841308594 -130.29045104980469
60.565837860107422 -91.07208251953125 -130.29017639160156
58.813995361328125 -92.264244079589844 -130.28840637207031
57.670150756835938 -93.042121887207031 -130.28733825683594
56.840038299560547 -93.678535461425781 -130.28651428222656
54.857967376708984 -94.830238342285156 -130.28509521484375
54.655532836914062 -95.012039184570312 -130.28489685058594
52.886005401611328 -96.244361877441406 -130.28361511230469
51.542350769042969 -96.981788635253906 -130.28292846679688
50.915897369384766 -97.395919799804688 -130.28256225585938
48.946399688720703 -98.648353576660156 -130.2816162109375
48.612892150878906 -98.961402893066406 -130.28138732910156
46.966606140136719 -100.32472991943359 -130.28053283691406
46.370613098144531 -100.93059539794922 -130.28018188476562
44.996692657470703 -102.57643127441406 -130.27928161621094
44.683742523193359 -102.89955139160156 -130.27914428710938
43.843799591064453 -104.87832641601562 -130.27809143066406
43.02618408203125 -106.00911712646484 -130.27764892578125
42.380481719970703 -106.84709930419922 -130.27738952636719
41.572433471679688 -108.81565856933594 -130.27667236328125
41.048248291015625 -109.50216674804688 -130.27656555175781
40.121082305908203 -110.79437255859375 -130.27638244628906
39.083595275878906 -112.22789764404297 -130.27629089355469
38.680835723876953 -112.76293182373047 -130.27629089355469
37.523246765136719 -114.73139953613281 -130.27626037597656
38.046257019042969 -116.70963287353516 -130.27555847167969
39.082839965820312 -118.14270782470703 -130.27484130859375
41.045272827148438 -118.50569152832031 -130.27397155761719
43.018268585205078 -118.50527191162109 -130.27330017089844
44.981498718261719 -117.50560760498047 -130.27290344238281
46.945629119873047 -116.99034118652344 -130.2725830078125
47.499717712402344 -116.70757293701172 -130.27255249023438
48.920520782470703 -116.03092193603516 -130.27250671386719
50.886146545410156 -115.19257354736328 -130.2725830078125
52.852443695068359 -114.91941070556641 -130.27265930175781
54.819339752197266 -115.16094970703125 -130.27276611328125
56.363121032714844 -116.70464324951172 -130.27264404296875
56.797176361083984 -117.27977752685547 -130.27261352539062
57.635387420654297 -118.67227172851562 -130.2725830078125
58.767219543457031 -120.55917358398438 -130.27268981933594
58.827861785888672 -120.63990020751953 -130.272705078125
59.445732116699219 -122.6177978515625 -130.27284240722656
60.559158325195312 -124.58533477783203 -130.27328491210938
60.741287231445312 -124.80729675292969 -130.27336120605469
61.946224212646484 -126.55272674560547 -130.27401733398438
62.726165771484375 -127.61204528808594 -130.27450561523438
63.435333251953125 -128.52001953125 -130.27499389648438
64.702316284179688 -130.14422607421875 -130.27597045898438
65.016517639160156 -130.49728393554688 -130.27622985839844
68.665946960449219 -133.22068786621094 -127.75926971435547
70.636650085449219 -132.64442443847656 -127.76031494140625
70.818222045898438 -132.46266174316406 -127.76036071777344
72.320472717285156 -130.49391174316406 -127.76077270507812
72.602920532226562 -130.14054870605469 -127.76087951660156
73.742782592773438 -128.51507568359375 -127.76132965087891
74.580047607421875 -127.12186431884766 -127.76171875
74.983901977539062 -126.54635620117188 -127.76195526123047
75.871559143066406 -124.57780456542969 -127.76246643066406
76.162521362304688 -122.60958862304688 -127.76261138916016
76.546249389648438 -121.62026977539062 -127.762939453125
76.950439453125 -120.63092041015625 -127.76332092285156
77.344123840332031 -118.66253662109375 -127.76385498046875
77.839805603027344 -116.69405364990234 -127.76461029052734
78.336219787597656 -114.71543884277344 -127.76551818847656
78.336936950683594 -112.74716949462891 -127.76609802246094
78.338348388671875 -110.77886962890625 -127.76680755615234
78.340446472167969 -108.80043029785156 -127.76766967773438
78.343215942382812 -106.83202362060547 -127.76865386962891
78.3466796875 -104.86355590820312 -127.76976776123047
78.229263305664062 -102.88504791259766 -127.77091979980469
77.4844970703125 -100.91698455810547 -127.77162933349609
76.973434448242188 -98.948692321777344 -127.77268981933594
76.570220947265625 -98.323036193847656 -127.77284240722656
75.754287719726562 -96.970703125 -127.77330780029297
74.789146423339844 -95.002593994140625 -127.7742919921875
74.607734680175781 -94.780586242675781 -127.77436828613281
73.470573425292969 -93.034599304199219 -127.77519989013672
72.635116577148438 -91.914382934570312 -127.77571868896484
71.889877319335938 -91.066696166992188 -127.77608489990234
70.670722961425781 -89.916358947753906 -127.77651977539062
69.531455993652344 -89.089035034179688 -127.77672576904297
68.705116271972656 -88.453353881835938 -127.77695465087891
66.724044799804688 -88.292861938476562 -127.77603149414062
64.751129150390625 -88.687652587890625 -127.77461242675781
64.1226806640625 -89.091850280761719 -127.77385711669922
62.775062561035156 -89.920448303222656 -127.77235412597656
60.791023254394531 -90.880546569824219 -127.77059173583984
60.568012237548828 -91.072479248046875 -127.77030944824219
58.816169738769531 -92.264633178710938 -127.76853942871094
57.672325134277344 -93.042526245117188 -127.76747894287109
56.842208862304688 -93.678939819335938 -127.76666259765625
54.860965728759766 -94.608512878417969 -127.76544952392578
54.294540405273438 -95.012565612792969 -127.7650146484375
52.88922119140625 -95.941879272460938 -127.76404571533203
51.635272979736328 -96.982162475585938 -127.76308441162109
50.917461395263672 -97.588142395019531 -127.76255798339844
49.149211883544922 -98.961662292480469 -127.76149749755859
48.9471435546875 -99.133346557617188 -127.76136779785156
47.027622222900391 -100.93085479736328 -127.76022338867188
46.967014312744141 -100.99142456054688 -127.76018524169922
44.998817443847656 -102.59703063964844 -127.75942993164062
44.685916900634766 -102.89995574951172 -127.75929260253906
43.031009674072266 -104.56597137451172 -127.7586669921875
42.718299865722656 -104.87897491455078 -127.75856018066406
41.657878875732422 -106.84764862060547 -127.75778961181641
41.052501678466797 -107.83701324462891 -127.75749206542969
40.457435607910156 -108.81627655029297 -127.75724792480469
39.087158203125 -110.46186065673828 -127.75708770751953
38.774959564208984 -110.79501342773438 -127.75709533691406
37.757503509521484 -112.76349639892578 -127.75685882568359
37.123367309570312 -113.75277709960938 -127.75686645507812
36.549812316894531 -114.73195648193359 -127.75689697265625
37.122959136962891 -115.94308471679688 -127.75630187988281
37.74664306640625 -116.71010589599609 -127.75583648681641
39.084796905517578 -117.48706817626953 -127.75506591796875
40.724853515625 -116.70958709716797 -127.75452423095703
41.046890258789062 -116.51775360107422 -127.75444030761719
43.019866943359375 -116.27510833740234 -127.75381469726562
44.98345947265625 -116.27464294433594 -127.75328063964844
46.947700500488281 -115.90068054199219 -127.75297546386719
48.922725677490234 -115.33490753173828 -127.75284576416016
49.900482177734375 -114.72901153564453 -127.75292205810547
50.888568878173828 -114.09281921386719 -127.7530517578125
52.855010986328125 -113.57740783691406 -127.75322723388672
54.448333740234375 -114.72749328613281 -127.75301361083984
54.821544647216797 -115.02007293701172 -127.75299072265625
56.506580352783203 -116.70500183105469 -127.75285339355469
56.799304962158203 -117.04805755615234 -127.75284576416016
57.990856170654297 -118.67256164550781 -127.75285339355469
58.768836975097656 -119.81275177001953 -127.75292205810547
59.405532836914062 -120.64008331298828 -127.75303649902344
60.336502075195312 -122.61784362792969 -127.75328063964844
60.741165161132812 -123.19294738769531 -127.75342559814453
61.682422637939453 -124.58528137207031 -127.75382995605469
62.724956512451172 -125.83625793457031 -127.75437164306641
63.403163909912109 -126.55249786376953 -127.75473785400391
64.51873779296875 -128.51992797851562 -127.75560760498047
64.701171875 -128.751953125 -127.75575256347656
65.898048400878906 -130.49728393554688 -127.75679779052734
66.679229736328125 -131.54646301269531 -127.75753021240234
67.672683715820312 -132.46430969238281 -127.75839233398438
68.675193786621094 -135.07794189453125 -125.24037933349609
70.6461181640625 -134.62275695800781 -125.24142456054688
70.827583312988281 -134.43093872070312 -125.24147033691406
72.613059997558594 -132.64372253417969 -125.24201965332031
72.804817199707031 -132.46192932128906 -125.24210357666016
73.760948181152344 -130.49346923828125 -125.2421875
74.587745666503906 -129.1507568359375 -125.24247741699219
74.991249084472656 -128.51470947265625 -125.24266052246094
75.878227233886719 -126.54619598388672 -125.24303436279297
76.492576599121094 -124.57779693603516 -125.24333953857422
76.553153991699219 -124.45664978027344 -125.24337768554688
77.371025085449219 -122.60919189453125 -125.24401092529297
77.348747253417969 -120.63102722167969 -125.24404144287109
77.84375 -118.66257476806641 -125.24465942382812
78.3394775390625 -116.69408416748047 -125.24542999267578
78.339515686035156 -114.71578216552734 -125.24588012695312
78.340232849121094 -112.74751281738281 -125.24645233154297
78.341636657714844 -110.77920532226562 -125.24717712402344
78.343742370605469 -108.80075836181641 -125.24802398681641
78.346511840820312 -106.83235931396484 -125.24900054931641
78.349967956542969 -104.8638916015625 -125.25012969970703
78.232559204101562 -102.88536834716797 -125.25126647949219
77.487785339355469 -100.91729736328125 -125.25196838378906
76.976722717285156 -98.949012756347656 -125.25302124023438
76.573348999023438 -98.373817443847656 -125.25315093994141
75.737319946289062 -96.971031188964844 -125.25362396240234
74.608924865722656 -95.356376647949219 -125.25415802001953
74.316619873046875 -95.003196716308594 -125.25424957275391
72.947547912597656 -93.035232543945312 -125.25511932373047
72.63507080078125 -92.722427368164062 -125.25521087646484
70.982536315917969 -91.067527770996094 -125.25579071044922
70.670272827148438 -90.754707336425781 -125.25591278076172
68.705116271972656 -89.150375366210938 -125.25647735595703
68.573928833007812 -89.089866638183594 -125.25646209716797
66.72723388671875 -88.313346862792969 -125.25633239746094
64.754402160644531 -88.687950134277344 -125.25494384765625
64.125961303710938 -89.092147827148438 -125.25418853759766
62.778335571289062 -89.920745849609375 -125.25270080566406
60.794296264648438 -90.880859375 -125.25093841552734
60.571281433105469 -91.072784423828125 -125.25066375732422
58.819446563720703 -92.264938354492188 -125.24889373779297
57.675601959228516 -93.042839050292969 -125.24784088134766
56.845489501953125 -93.679244995117188 -125.24703216552734
54.863422393798828 -94.830940246582031 -125.24561309814453
54.640815734863281 -95.01275634765625 -125.24541473388672
52.891353607177734 -96.275367736816406 -125.24411010742188
52.183063507080078 -96.982307434082031 -125.24345397949219
50.917587280273438 -98.608131408691406 -125.2420654296875
50.604007720947266 -98.961563110351562 -125.24178314208984
49.2276611328125 -100.93058013916016 -125.24034118652344
48.944557189941406 -101.28398895263672 -125.24009704589844
47.80194091796875 -102.89952850341797 -125.23908233642578
46.962677001953125 -104.30294799804688 -125.23828887939453
46.558559417724609 -104.87844085693359 -125.23799896240234
45.809688568115234 -106.84708404541016 -125.23701477050781
44.991893768310547 -108.18983459472656 -125.23649597167969
44.588241577148438 -108.81578063964844 -125.23629760742188
44.213546752929688 -110.7943115234375 -125.23551940917969
44.987876892089844 -112.26784515380859 -125.23477935791016
45.430740356445312 -112.76233673095703 -125.23451995849609
46.951408386230469 -113.69056701660156 -125.23394012451172
48.926486968994141 -113.48813629150391 -125.23374938964844
50.892078399658203 -113.487548828125 -125.23363494873047
52.858303070068359 -113.57775115966797 -125.233642578125
54.582775115966797 -114.72779083251953 -125.23345184326172
54.824859619140625 -114.91947937011719 -125.23342132568359
56.802501678466797 -116.39235687255859 -125.23339080810547
57.09521484375 -116.70512390136719 -125.23337554931641
58.771377563476562 -118.49091339111328 -125.23347473144531
58.953189849853516 -118.67252349853516 -125.23348999023438
59.873298645019531 -120.64024353027344 -125.23357391357422
60.742816925048828 -121.78033447265625 -125.23380279541016
61.390125274658203 -122.61773681640625 -125.23402404785156
62.534248352050781 -124.58525085449219 -125.23454284667969
62.726535797119141 -124.80720520019531 -125.23463439941406
63.861152648925781 -126.55264282226562 -125.23531341552734
64.702972412109375 -128.07615661621094 -125.2359619140625
64.997016906738281 -128.52006530761719 -125.2362060546875
65.749710083007812 -130.49772644042969 -125.23707580566406
66.683845520019531 -132.02114868164062 -125.238037109375
66.978317260742188 -132.46502685546875 -125.23834991455078
67.995498657226562 -134.43243408203125 -125.23969268798828
68.668777465820312 -131.54611206054688 -122.71954345703125
70.6422119140625 -131.90840148925781 -122.72089385986328
72.616279602050781 -132.24032592773438 -122.72238922119141
73.876693725585938 -130.49369812011719 -122.72279357910156
73.902313232421875 -128.51565551757812 -122.72232818603516
74.151336669921875 -126.54751586914062 -122.72216033935547
74.087234497070312 -124.57952117919922 -122.72188568115234
74.581672668457031 -123.46904754638672 -122.72221374511719
74.985549926757812 -122.61093902587891 -122.72251892089844
75.732795715332031 -120.63230895996094 -122.72317504882812
76.552055358886719 -119.2894287109375 -122.72398376464844
76.956825256347656 -118.66341400146484 -122.72441101074219
77.472732543945312 -116.69490814208984 -122.72518157958984
78.222366333007812 -114.71611785888672 -122.72631072998047
78.344650268554688 -112.74777221679688 -122.72701263427734
78.467628479003906 -110.77938842773438 -122.72783660888672
78.528526306152344 -110.64813232421875 -122.72795104980469
79.310623168945312 -108.80037689208984 -122.72948455810547
79.343795776367188 -106.83194732666016 -122.73049926757812
79.296592712402344 -104.86350250244141 -122.73155975341797
78.946128845214844 -102.88513946533203 -122.73246765136719
78.542900085449219 -102.02732086181641 -122.73267364501953
78.049308776855469 -100.91716766357422 -122.73300933837891
77.335617065429688 -98.949005126953125 -122.73388671875
76.57904052734375 -97.960121154785156 -122.73402404785156
75.822738647460938 -96.971206665039062 -122.73422241210938
74.612167358398438 -95.679672241210938 -122.73439025878906
73.926231384277344 -95.003669738769531 -122.73447418212891
72.635551452636719 -93.712104797363281 -122.73474884033203
71.960197448730469 -93.036041259765625 -122.73493194580078
70.669578552246094 -91.946357727050781 -122.73516845703125
69.1458740234375 -91.06878662109375 -122.73513793945312
68.702163696289062 -90.776214599609375 -122.73518371582031
66.722061157226562 -90.383491516113281 -122.73451995849609
64.751548767089844 -90.263313293457031 -122.73368072509766
62.779438018798828 -90.658042907714844 -122.732421875
61.908870697021484 -91.072410583496094 -122.73165893554688
60.795772552490234 -91.557540893554688 -122.73075103759766
58.824203491210938 -92.174278259277344 -122.72954559326172
57.679985046386719 -93.043045043945312 -122.72840118408203
56.849872589111328 -93.679450988769531 -122.72760009765625
54.867805480957031 -94.831161499023438 -122.72617340087891
54.685546875 -95.012962341308594 -122.72598266601562
52.893970489501953 -96.800582885742188 -122.72421264648438
52.711837768554688 -96.98236083984375 -122.72405242919922
51.737598419189453 -98.961448669433594 -122.72235870361328
50.917125701904297 -100.30440521240234 -122.72130584716797
50.512203216552734 -100.93044281005859 -122.72084045410156
48.945507049560547 -102.70764923095703 -122.71967315673828
48.753585815429688 -102.89951324462891 -122.71955871582031
47.600673675537109 -104.87841796875 -122.71842193603516
46.964401245117188 -105.70634460449219 -122.71803283691406
46.096122741699219 -106.84726715087891 -122.71754455566406
45.398334503173828 -108.81584930419922 -122.71669006347656
45.396240234375 -110.79429626464844 -122.71582794189453
46.774887084960938 -112.76225280761719 -122.71485137939453
46.956123352050781 -112.94389343261719 -122.71475982666016
48.930904388427734 -113.43794250488281 -122.71436309814453
50.896472930908203 -113.48780059814453 -122.71424865722656
52.862724304199219 -113.51744079589844 -122.71425628662109
54.829643249511719 -113.57731628417969 -122.71440887451172
56.554702758789062 -114.72732543945312 -122.71434020996094
56.806968688964844 -114.91899871826172 -122.71434020996094
58.482479095458984 -116.70484161376953 -122.71430206298828
58.775295257568359 -116.98732757568359 -122.71432495117188
60.462085723876953 -118.67215728759766 -122.71453857421875
60.745086669921875 -119.11611938476562 -122.71457672119141
61.634941101074219 -120.63974761962891 -122.71475219726562
62.414752960205078 -122.61756134033203 -122.71498107910156
62.728481292724609 -123.06150054931641 -122.71511840820312
63.660110473632812 -124.58502197265625 -122.71559143066406
64.401138305664062 -126.55268859863281 -122.71613311767578
64.705192565917969 -127.00668334960938 -122.71633911132812
65.638191223144531 -128.52006530761719 -122.71707916259766
66.682113647460938 -129.69021606445312 -122.71788024902344
67.543525695800781 -130.49713134765625 -122.71857452392578
68.680427551269531 -133.63539123535156 -120.20100402832031
70.650184631347656 -132.75634765625 -120.20191955566406
71.094474792480469 -132.46342468261719 -120.20211029052734
72.62005615234375 -131.62495422363281 -120.20290374755859
74.135284423828125 -130.49380493164062 -120.20371246337891
74.413978576660156 -128.51557922363281 -120.20344543457031
74.594619750976562 -127.77874755859375 -120.20345306396484
74.875648498535156 -126.54731750488281 -120.20346832275391
75.186141967773438 -124.57909393310547 -120.20350646972656
74.586875915527344 -123.22704315185547 -120.20295715332031
74.302658081054688 -122.61155700683594 -120.20273590087891
74.585182189941406 -121.78378295898438 -120.20295715332031
74.989067077636719 -120.63296508789062 -120.20332336425781
75.73699951171875 -118.66436767578125 -120.20412445068359
76.556732177734375 -117.32147216796875 -120.20501708984375
76.961715698242188 -116.69542694091797 -120.20549011230469
77.478309631347656 -114.71678924560547 -120.20639038085938
78.228614807128906 -112.74803161621094 -120.20764923095703
78.473167419433594 -110.77956390380859 -120.20858764648438
78.5340576171875 -110.64830780029297 -120.20870208740234
79.316162109375 -108.80055236816406 -120.21022033691406
79.349319458007812 -106.83210754394531 -120.21123504638672
79.352767944335938 -104.86363983154297 -120.21234130859375
79.326522827148438 -102.88504791259766 -120.21356201171875
78.550895690917969 -101.03812408447266 -120.214111328125
78.490432739257812 -100.91702270507812 -120.21414184570312
78.252777099609375 -98.94854736328125 -120.21542358398438
76.881431579589844 -96.970664978027344 -120.21584320068359
76.588737487792969 -96.667984008789062 -120.21585083007812
74.923828125 -95.003173828125 -120.21598815917969
74.621177673339844 -94.7105712890625 -120.21601867675781
72.836006164550781 -93.03564453125 -120.21628570556641
72.644432067871094 -92.854019165039062 -120.21633148193359
70.678009033203125 -91.249786376953125 -120.21662902832031
70.44610595703125 -91.06817626953125 -120.2166748046875
68.711967468261719 -89.807014465332031 -120.21696472167969
66.731971740722656 -89.404182434082031 -120.21632385253906
64.761016845703125 -89.384986877441406 -120.21539306640625
62.788887023925781 -89.769615173339844 -120.21413421630859
60.806644439697266 -90.315750122070312 -120.21283721923828
59.743015289306641 -91.073471069335938 -120.21169281005859
58.831619262695312 -91.709945678710938 -120.21077728271484
56.859462738037109 -92.639633178710938 -120.20940399169922
56.282615661621094 -93.043701171875 -120.20889282226562
54.876491546630859 -93.973098754882812 -120.207763671875
53.712535858154297 -95.013427734375 -120.2066650390625
52.902397155761719 -95.932449340820312 -120.20577239990234
52.031585693359375 -96.982719421386719 -120.20479583740234
51.420429229736328 -98.961685180664062 -120.20313262939453
50.923606872558594 -99.941116333007812 -120.20236968994141
50.426959991455078 -100.93061828613281 -120.20163726806641
49.232749938964844 -102.8995361328125 -120.2003173828125
48.949542999267578 -103.3538818359375 -120.20002746582031
48.009212493896484 -104.87847137451172 -120.19916534423828
47.300457000732422 -106.84712982177734 -120.19813537597656
47.428680419921875 -108.81550598144531 -120.19712829589844
48.938743591308594 -110.14751434326172 -120.19636535644531
50.904006958007812 -110.50020599365234 -120.19611358642578
52.870365142822266 -110.40872955322266 -120.19619750976562
53.858440399169922 -110.79196166992188 -120.19611358642578
54.83660888671875 -111.19537353515625 -120.19605255126953
56.813632965087891 -112.12325286865234 -120.19601440429688
57.4490966796875 -112.7589111328125 -120.1959228515625
58.780899047851562 -114.37335205078125 -120.19573211669922
59.073600769042969 -114.72650146484375 -120.19572448730469
60.567966461181641 -116.70415496826172 -120.19570159912109
60.749786376953125 -116.92612457275391 -120.19571685791016
61.952297210693359 -118.67169952392578 -120.19585418701172
62.730815887451172 -119.81185150146484 -120.19602966308594
63.367950439453125 -120.63916015625 -120.19622039794922
64.0267333984375 -122.61702728271484 -120.19644165039062
64.645843505859375 -124.58477020263672 -120.19680023193359
64.706672668457031 -124.70586395263672 -120.19683837890625
65.528495788574219 -126.55236053466797 -120.19743347167969
65.866096496582031 -128.52018737792969 -120.19795227050781
66.689338684082031 -130.376708984375 -120.19881439208984
66.75030517578125 -130.49777221679688 -120.19888305664062
67.503875732421875 -132.46531677246094 -120.19991302490234
68.6871337890625 -133.66583251953125 -117.68193054199219
70.658187866210938 -133.22073364257812 -117.68299865722656
71.819488525390625 -132.46319580078125 -117.68352508544922
72.6275634765625 -131.93798828125 -117.68392181396484
74.609031677246094 -131.04876708984375 -117.68515014648438
75.1644287109375 -130.49337768554688 -117.68544006347656
75.524185180664062 -128.51510620117188 -117.68525695800781
75.084770202636719 -126.54734802246094 -117.6845703125
74.596572875976562 -125.28607177734375 -117.68403625488281
74.301856994628906 -124.57976531982422 -117.68373870849609
73.904380798339844 -122.61193084716797 -117.68335723876953
74.297157287597656 -120.63349914550781 -117.68373107910156
74.590385437011719 -120.18923950195312 -117.68399047851562
75.520881652832031 -118.66461944580078 -117.68489074707031
76.067047119140625 -116.69610595703125 -117.6856689453125
76.563186645507812 -115.58552551269531 -117.68632507324219
76.968399047851562 -114.71722412109375 -117.6868896484375
77.3641357421875 -112.74869537353516 -117.68781280517578
77.861862182617188 -110.78005981445312 -117.68896484375
78.360328674316406 -108.80127716064453 -117.69027709960938
78.363090515136719 -106.83285522460938 -117.69125366210938
78.366531372070312 -104.86437225341797 -117.69235229492188
78.249122619628906 -102.88584136962891 -117.6934814453125
77.018165588378906 -100.91806793212891 -117.69375610351562
76.584205627441406 -100.34290313720703 -117.69380187988281
75.656539916992188 -98.950302124023438 -117.69410705566406
74.617538452148438 -97.699073791503906 -117.69429016113281
73.9315185546875 -96.972579956054688 -117.69438171386719
72.640396118164062 -95.681068420410156 -117.69454956054688
71.964805603027344 -95.005027770996094 -117.6947021484375
70.674263000488281 -93.794197082519531 -117.69497680664062
69.756683349609375 -93.0374755859375 -117.69513702392578
68.707962036132812 -92.260604858398438 -117.69528198242188
66.963661193847656 -91.070106506347656 -117.695556640625
66.731964111328125 -90.878387451171875 -117.69563293457031
64.764167785644531 -90.142303466796875 -117.69547271728516
62.796581268310547 -89.527297973632812 -117.69532775878906
60.817420959472656 -89.386833190917969 -117.69478607177734
58.846656799316406 -89.771339416503906 -117.69379425048828
56.876178741455078 -90.246688842773438 -117.69284820556641
55.389175415039062 -91.0751953125 -117.69171905517578
54.893592834472656 -91.358078002929688 -117.69136047363281
52.923183441162109 -92.176589965820312 -117.69033813476562
51.870895385742188 -93.045242309570312 -117.68942260742188
50.950416564941406 -93.802764892578125 -117.68867492675781
49.857162475585938 -95.014663696289062 -117.68756103515625
48.975372314453125 -96.418281555175781 -117.68634033203125
48.560287475585938 -96.9837646484375 -117.68588256835938
48.161128997802734 -98.962677001953125 -117.68428039550781
47.661933898925781 -100.93144226074219 -117.68282318115234
47.042552947998047 -102.90017700195312 -117.68153381347656
46.981807708740234 -103.03143310546875 -117.68145751953125
46.202259063720703 -104.87901306152344 -117.68041229248047
46.269355773925781 -106.84747314453125 -117.67928314208984
46.973091125488281 -107.8365478515625 -117.67864990234375
48.947311401367188 -108.43158721923828 -117.67813873291016
49.924507141113281 -108.81488800048828 -117.67789459228516
50.911937713623047 -109.22843933105469 -117.67766571044922
52.877910614013672 -109.50035095214844 -117.67758941650391
54.8447265625 -109.62080383300781 -117.67770385742188
56.821895599365234 -110.14495849609375 -117.67779541015625
57.648902893066406 -110.79063415527344 -117.67768859863281
58.788948059082031 -111.56740570068359 -117.67765808105469
60.413806915283203 -112.75778961181641 -117.67770385742188
60.756980895996094 -113.11091613769531 -117.67769622802734
61.897739410400391 -114.72538757324219 -117.67760467529297
62.736118316650391 -116.40050506591797 -117.67752838134766
62.917995452880859 -116.70320892333984 -117.67754364013672
63.039867401123047 -118.67131805419922 -117.67726898193359
63.324066162109375 -120.63932800292969 -117.67720031738281
64.104103088378906 -122.61712646484375 -117.67745971679688
64.711830139160156 -123.69675445556641 -117.67775726318359
65.238662719726562 -124.58463287353516 -117.67806243896484
65.939445495605469 -126.55230712890625 -117.67860412597656
66.690055847167969 -127.83365631103516 -117.67919158935547
67.106056213378906 -128.51971435546875 -117.67954254150391
67.747779846191406 -130.4974365234375 -117.68037414550781
68.076744079589844 -132.46519470214844 -117.68114471435547
64.7596435546875 -138.67337036132812 -115.16328430175781
66.731292724609375 -138.81370544433594 -115.16432189941406
68.713653564453125 -138.93382263183594 -115.16548156738281
69.267707824707031 -138.37847900390625 -115.16550445556641
70.678138732910156 -136.86399841308594 -115.16562652587891
71.111526489257812 -136.40962219238281 -115.16569519042969
71.469009399414062 -134.43147277832031 -115.16509246826172
71.958763122558594 -132.46324157714844 -115.16471862792969
72.449226379394531 -130.49502563476562 -115.16447448730469
72.565948486328125 -128.51690673828125 -115.16410064697266
72.626396179199219 -128.39573669433594 -115.16412353515625
73.401939392089844 -126.54840850830078 -115.16439056396484
73.611137390136719 -124.58024597167969 -115.16435241699219
74.28668212890625 -122.61177825927734 -115.164794921875
74.406150817871094 -120.63350677490234 -115.16496276855469
74.53643798828125 -118.66526794433594 -115.16526031494141
74.597114562988281 -118.54412841796875 -115.16531372070312
75.376113891601562 -116.69657897949219 -115.16624450683594
75.345794677734375 -114.71827697753906 -115.16668701171875
75.579391479492188 -112.74984741210938 -115.16744995117188
76.168106079101562 -110.78116607666016 -115.16864776611328
76.392990112304688 -108.80255126953125 -115.16968536376953
76.26409912109375 -106.83422088623047 -115.17054748535156
75.538467407226562 -104.86618804931641 -115.17105102539062
74.610481262207031 -103.19100952148438 -115.17136383056641
74.418800354003906 -102.88826751708984 -115.17140197753906
73.573310852050781 -100.92020416259766 -115.172119140625
72.636672973632812 -99.244895935058594 -115.17269134521484
72.455375671386719 -98.952232360839844 -115.17279052734375
70.964004516601562 -96.974311828613281 -115.17340850830078
70.671623229980469 -96.671600341796875 -115.17347717285156
69.008430480957031 -95.006660461425781 -115.17392730712891
68.706100463867188 -94.714027404785156 -115.17401885986328
66.922767639160156 -93.038948059082031 -115.17463684082031
66.731399536132812 -92.857315063476562 -115.17472076416016
64.765068054199219 -91.707267761230469 -115.1749267578125
63.868400573730469 -91.07159423828125 -115.17520904541016
62.800708770751953 -90.3148193359375 -115.17558288574219
60.822757720947266 -89.901718139648438 -115.17533874511719
58.852645874023438 -90.144882202148438 -115.17451477050781
56.881053924560547 -90.882743835449219 -115.17328643798828
56.648105621337891 -91.074668884277344 -115.17304992675781
54.897472381591797 -92.266738891601562 -115.17154693603516
53.845195770263672 -93.044548034667969 -115.17066192626953
52.923789978027344 -93.963653564453125 -115.16969299316406
52.143375396728516 -95.013938903808594 -115.16868591308594
50.94793701171875 -96.639793395996094 -115.16722106933594
50.654430389404297 -96.983139038085938 -115.16691589355469
49.458797454833984 -98.962287902832031 -115.16532135009766
48.971870422363281 -100.07294464111328 -115.16449737548828
48.556377410888672 -100.93118286132812 -115.16389465332031
48.279514312744141 -102.89984130859375 -115.16254425048828
48.245170593261719 -104.87847137451172 -115.16130828857422
48.959136962890625 -105.72624969482422 -115.16074371337891
50.348255157470703 -106.84635162353516 -115.16004943847656
50.922271728515625 -107.24994659423828 -115.15982055664062
52.888160705566406 -107.52187347412109 -115.15973663330078
54.855003356933594 -107.60195159912109 -115.15986633300781
56.831985473632812 -108.13620758056641 -115.159912109375
57.50732421875 -108.81227111816406 -115.15972137451172
58.798042297363281 -110.03312683105469 -115.15948486328125
59.554546356201172 -110.78987121582031 -115.15937805175781
60.765312194824219 -112.08137512207031 -115.15925598144531
61.451686859130859 -112.75736236572266 -115.15924072265625
61.915584564208984 -114.72541046142578 -115.15882110595703
62.743839263916016 -116.20876312255859 -115.15876770019531
63.026771545410156 -116.70320129394531 -115.15878295898438
63.795291900634766 -118.6710205078125 -115.15876770019531
64.311958312988281 -120.638916015625 -115.15880584716797
64.717262268066406 -121.78929901123047 -115.15892028808594
65.011260986328125 -122.61675262451172 -115.15904998779297
64.781501770019531 -124.58493041992188 -115.15901947021484
64.721626281738281 -125.07949829101562 -115.15902709960938
64.552391052246094 -126.55307006835938 -115.15909576416016
64.425033569335938 -128.5211181640625 -115.15937805175781
64.298385620117188 -130.49923706054688 -115.15977478027344
64.1824951171875 -132.46722412109375 -115.16030883789062
64.067276000976562 -134.43521118164062 -115.16098785400391
63.952762603759766 -136.41323852539062 -115.16178131103516
64.384574890136719 -138.38088989257812 -115.16294860839844
68.697463989257812 -131.54667663574219 -112.64362335205078
70.671188354492188 -132.00985717773438 -112.64498138427734
71.861015319824219 -130.49539184570312 -112.64535522460938
72.636947631835938 -129.15269470214844 -112.64557647705078
73.050453186035156 -128.51664733886719 -112.64574432373047
73.5626220703125 -126.54833984375 -112.64580535888672
74.115997314453125 -124.57996368408203 -112.64603424072266
74.610443115234375 -123.46947479248047 -112.64636993408203
75.014328002929688 -122.61134338378906 -112.64668273925781
75.407180786132812 -120.63289642333984 -112.64706420898438
75.588127136230469 -118.66461944580078 -112.64741516113281
76.26593017578125 -116.69599914550781 -112.64829254150391
76.397621154785156 -114.71759033203125 -112.64887237548828
76.398345947265625 -112.74929809570312 -112.64944458007812
76.399749755859375 -110.78096008300781 -112.65016174316406
76.290443420410156 -108.80255889892578 -112.65091705322266
75.908409118652344 -106.83436584472656 -112.65157318115234
74.798088073730469 -104.86656951904297 -112.65177917480469
74.616233825683594 -104.67487335205078 -112.65174865722656
72.929588317871094 -102.88907623291016 -112.65160369873047
72.636802673339844 -102.58638763427734 -112.65160369873047
70.981430053710938 -100.92162322998047 -112.65162658691406
70.668594360351562 -100.61894226074219 -112.65164184570312
69.004257202148438 -98.954078674316406 -112.65187835693359
68.701728820800781 -98.661468505859375 -112.65193176269531
66.917282104492188 -96.976402282714844 -112.65232849121094
66.725791931152344 -96.794776916503906 -112.65239715576172
64.760299682617188 -95.190467834472656 -112.65286254882812
64.57904052734375 -95.008819580078125 -112.6529541015625
62.796894073486328 -93.333641052246094 -112.65380096435547
62.181812286376953 -93.041114807128906 -112.65384674072266
60.82080078125 -92.405624389648438 -112.65402221679688
58.852561950683594 -92.214614868164062 -112.65364837646484
57.375419616699219 -93.043128967285156 -112.65248107910156
56.879730224609375 -93.336128234863281 -112.65210723876953
55.188247680664062 -95.012771606445312 -112.65024566650391
54.894393920898438 -95.366249084472656 -112.64988708496094
53.759037017822266 -96.982032775878906 -112.64834594726562
52.917465209960938 -98.385650634765625 -112.64712524414062
52.512348175048828 -98.96124267578125 -112.64663696289062
52.194286346435547 -100.93000030517578 -112.64513397216797
52.7239990234375 -102.89841461181641 -112.643798828125
52.905105590820312 -103.09016418457031 -112.6436767578125
54.869640350341797 -104.24032592773438 -112.64311981201172
55.705810546875 -104.87599945068359 -112.64284515380859
56.844612121582031 -105.6932373046875 -112.64257049560547
58.316333770751953 -106.84345245361328 -112.64225769042969
58.810131072998047 -107.41864013671875 -112.64208221435547
59.646255493164062 -108.81131744384766 -112.64163208007812
60.775474548339844 -110.43599700927734 -112.64125823974609
61.068027496337891 -110.78916168212891 -112.64120483398438
61.824153900146484 -112.75713348388672 -112.64075469970703
61.924423217773438 -114.72536468505859 -112.64019012451172
62.752716064453125 -116.57209014892578 -112.64006805419922
62.813358306884766 -116.70326995849609 -112.64006042480469
63.430274963378906 -118.67116546630859 -112.63998413085938
63.967117309570312 -120.63906097412109 -112.64000701904297
64.322792053222656 -122.61708831787109 -112.64009857177734
64.728111267089844 -123.47476959228516 -112.64028930664062
65.224922180175781 -124.584716796875 -112.64055633544922
65.774070739746094 -126.552490234375 -112.64100646972656
66.707138061523438 -128.07597351074219 -112.64170837402344
67.001296997070312 -128.51988220214844 -112.64195251464844
67.82501220703125 -130.49751281738281 -112.64284515380859
68.701622009277344 -129.27587890625 -110.12453460693359
70.673957824707031 -129.23446655273438 -110.125732421875
71.532325744628906 -128.5174560546875 -110.12615203857422
72.642524719238281 -127.12407684326172 -110.12668609619141
73.056373596191406 -126.54856872558594 -110.12690734863281
73.569206237792969 -124.58020782470703 -110.12710571289062
74.123275756835938 -122.61179351806641 -110.12747955322266
74.61810302734375 -121.50128936767578 -110.12787628173828
75.02227783203125 -120.63304138183594 -110.12824249267578
75.415824890136719 -118.66462707519531 -110.12876129150391
75.597457885742188 -116.69631195068359 -110.12923431396484
76.27593994140625 -114.71754455566406 -110.13025665283203
76.408302307128906 -112.74916839599609 -110.13093566894531
76.409706115722656 -110.78081512451172 -110.13166046142578
76.300399780273438 -108.80240631103516 -110.13241577148438
75.918357849121094 -106.83420562744141 -110.133056640625
74.808036804199219 -104.86639404296875 -110.13327026367188
74.626182556152344 -104.67469787597656 -110.13325500488281
72.838333129882812 -102.88895416259766 -110.13303375244141
72.646453857421875 -102.70735168457031 -110.13301849365234
70.676116943359375 -101.55762481689453 -110.13246917724609
69.767311096191406 -100.922119140625 -110.13235473632812
68.70733642578125 -100.16553497314453 -110.13228607177734
66.726593017578125 -99.772850036621094 -110.13149261474609
65.25311279296875 -98.955841064453125 -110.13140106201172
64.758758544921875 -98.663299560546875 -110.13141632080078
62.789546966552734 -98.280601501464844 -110.13089752197266
60.810157775878906 -98.150238037109375 -110.13031005859375
58.840980529785156 -98.2015380859375 -110.12969970703125
56.870941162109375 -98.7677001953125 -110.12881469726562
56.688709259033203 -98.959571838378906 -110.12863159179688
56.683269500732422 -100.92823028564453 -110.12715148925781
56.864459991455078 -101.10988616943359 -110.12705230712891
58.646774291992188 -102.89604949951172 -110.126220703125
58.828037261962891 -103.09786987304688 -110.12613677978516
60.389408111572266 -104.87394714355469 -110.12545776367188
60.792201995849609 -105.49965667724609 -110.12522888183594
61.618129730224609 -106.84188842773438 -110.12476348876953
61.938594818115234 -108.81016540527344 -110.12390899658203
62.764984130859375 -110.65703582763672 -110.1234130859375
62.825481414794922 -110.78821563720703 -110.12339019775391
63.167583465576172 -112.75638580322266 -110.122802734375
