# XYZ point cloud file
-0.48467881169645249 -0.12749232721036449 0.79166499999999995
-0.73033210154324091 -0.46197830627144543 0.63217199999999996
-0.37897996772998271 -0.71941655915914338 -0.34319300000000003
0.26615841110194821 1.094991890890378 -0.41906700000000002
-0.90823941992799795 -0.15774282075217749 0.10730000000000001
0.66279790807423733 -0.61048434806505469 0.41668699999999997
-0.56275333489911128 -0.1232773681740844 0.70472699999999999
-0.22953187866417099 0.76042912419692099 0.302589
-0.80842804219071995 -0.62648044333776265 -0.383743
0.45896670438137588 1.156129650970988 -0.41801500000000003
-0.81645998081239546 -0.59310616911377934 -0.30615199999999998
-0.56612864236367799 -0.77568357219388029 -0.347603
0.36901349541009432 0.58424412272886783 0.073655999999999999
0.29298425888278767 0.73365962220290115 -0.269318
0.1033979808408748 0.0067665562164284914 0.75589300000000004
-0.06861420628213892 0.32536470859832373 0.80783099999999997
0.31143166032402719 0.72912545876674728 -0.295734
-0.73228163657639267 0.42278300000000008 0.25740099999999999
0.38508263335372073 -0.27314131391893798 0.26757799999999998
0.36134602604576399 0.92109767622436989 -0.35838700000000001
0.77414530459533237 -0.4469530000000001 0.681473
0.9451573589285418 -0.18447343318815199 0.52516200000000002
-0.28929722637623079 -0.17763149457238681 0.81319200000000003
0.9095806072661915 -0.33036017463560308 0.49444199999999999
0.1205244769133542 0.46266051756959159 0.70190399999999997
-0.39954377183138778 0.48573388734032957 -0.67437000000000002
0.29339564831439607 0.17513016960014399 0.46717999999999998
0.79081353531450527 -0.41310077752211222 0.68254099999999995
-0.31751041992799789 0.86542982075217767 0.10730000000000001
-0.27598842464033818 -0.22100597377796 0.77920500000000004
-0.4264365770374271 -0.72876581763458315 -0.308838
-0.34929868314234969 -0.32778906621945209 0.72696700000000003
-0.8712739959101875 -0.76668882823000273 -0.38236199999999998
-0.029332957326475399 0.34136582757429479 0.81990600000000002
0.58491353291078729 -0.18474604296390579 0.35600300000000001
-0.58295547812611437 -0.23627050666503721 0.66095000000000004
-0.77694857433760456 -0.2323104056209358 0.27478000000000002
0.25417112171444167 0.1099152966261861 0.62046800000000002
-0.47434456280009851 -0.1080888830638165 0.78851300000000002
-0.43719008344577481 -0.08808743709335902 0.80867500000000003
-0.35977327618214811 0.89081640644700955 -0.28473700000000002
0.40776903372929862 1.2986506841724119 -0.46718500000000002
0.6879404689904185 -0.37223415512583352 0.664825
0.12588982222856021 0.92422356825567986 -0.22819500000000001
-0.83053647392671059 -0.79721537038016665 -0.431946
-0.64243688693393564 -0.68374732882595857 -0.32925399999999999
0.068624740938586046 0.88009153796188277 0.59376499999999999
0.7806836242445967 -0.3348282981713484 0.70205700000000004
0.059441177282980442 0.63017713911583095 0.67916900000000002
-0.47713306146299611 0.56844929557520674 0.67659499999999995
-0.52114843813982459 0.0079284268566577002 0.76794399999999996
0.1827144721099207 -0.1348092510274907 0.819851
-0.67657913150679938 -0.29723543111060141 0.717804
0.89854785803603887 -0.36999945684939423 0.55342100000000005
-0.45041560036487049 -0.3833227043535945 0.68162500000000004
-0.78679592560804257 -0.95719251834131214 -0.469055
0.1565532645706503 0.84252420832713881 0.468472
0.88202229009870825 -0.40933458014078178 0.53333299999999995
-0.57844177236447436 -0.16907253895546029 0.73724000000000001
0.16202940501455571 -0.38500683819463388 0.52691699999999997
-0.11673968036497551 -0.4257590576514883 0.50050499999999998
-0.15035219561386839 0.77089435816724527 0.32525599999999999
0.18016061367765651 -0.21572266358751041 0.77478000000000002
0.088387570500478851 -0.1604442371355945 0.79857500000000003
0.35542672589914948 0.94203314762518364 -0.36426500000000001
-0.2902312258654578 -0.62347522914197129 -0.116512
0.20201123213834091 -0.18436828223680279 0.79938399999999998
-0.31385820673290432 -0.5355303604338465 0.54948399999999997
-0.40020286704008567 -0.7719756990481601 -0.206234
0.84951784412208475 -0.25338393204417159 0.658752
-0.53902085279042511 -0.58966350337212059 0.48971599999999998
-0.72931070827520494 -0.99251320123669839 -0.40951500000000002
0.85699181070548092 -0.17088864218765751 0.62748700000000002
-0.29596337020770608 0.85175640562093591 -0.40850799999999998
-0.44956757512407641 -0.72567988155043817 -0.31352200000000002
0.22461797500547129 1.286159745002712 -0.46676899999999999
0.51773699907189763 -0.018949212649232629 0.41107900000000003
-0.42274937732115841 -0.16275540038835229 0.81650800000000001
0.360280424380787 -0.20800800000000011 0.028258999999999999
0.9155896657501752 -0.18898618003569079 0.58763100000000001
-0.072684615479508344 0.089466553060884246 0.74574099999999999
-0.058763461176188657 0.24172469961424001 0.73630899999999999
0.086590672124644316 0.59588744358142198 0.67849000000000004
-0.12989128846105619 0.25057768892486548 0.77014199999999999
-0.23945910409596491 -0.17368133462913579 0.76229899999999995
-0.71531180724461751 -0.24625039340159269 0.72414400000000001
-0.7594886749169566 -0.75816097272933092 -0.46646100000000001
0.15741987044259351 0.045099213727481963 0.76651000000000002
-0.080523352690304098 0.51875346194460514 0.79004399999999997
-0.25645717879228758 0.32362513636598228 0.78215000000000001
-0.45013255895229309 -0.62275046224636421 -0.039468999999999997
-0.37260171417894561 -0.019145099945190671 0.76330600000000004
-0.49565868625968862 0.040907972185377721 0.63915999999999995
-0.36290752888575178 0.67885972152060781 0.67417899999999997
0.40458477419219963 1.0506153848696711 -0.41473399999999999
0.67505067871683067 -0.47468392677859478 0.383934
-0.74073470901539751 -1.0185401509444161 -0.41256700000000002
-0.043144494830984058 0.24985554288584269 0.76655600000000002
0.30592294377384571 0.70435408181733739 -0.069742999999999999
-0.65905671196262605 0.24913628981144451 -0.63375899999999996
-0.59627426911332304 -0.3022473293502731 -0.57734700000000005
0.51928081112732405 0.98782274826810301 -0.40317900000000001
0.28302161280130123 0.78726581301193976 -0.30593900000000002
0.03965287044259342 -0.15887921372748201 0.76651000000000002
0.039055636021759481 0.63071034591160458 0.67950100000000002
0.66679848242373119 -0.041619150032274517 0.47921799999999998
0.37095601909600018 -0.34214932755223693 0.31059999999999999
-0.40043784604732491 -0.68727669462741059 -0.24663499999999999
0.28517706928390318 -0.0027788268466898548 0.73033099999999995
0.017008108369871759 0.22971490783725529 0.712723
0.15570054160023161 -0.19021875118240719 0.81532300000000002
-0.27251749917913842 -0.032774154529877517 0.77128600000000003
0.31643107767940648 0.83545870363450592 -0.39629399999999998
-0.103219482914354 0.51646261126135096 0.78261400000000003
0.70266669875421905 -0.4740915769709978 0.66546899999999998
-0.41754389468033959 -0.61891723997653636 -0.193328
-0.63855329494199931 0.060665249819942681 0.80779999999999996
0.520427614160904 -0.41667693061146222 0.35508699999999999
0.8511211460138477 -0.13738693170776689 0.43292199999999997
0.0098475961427106368 0.91943053685159382 -0.223602
-0.45332655580552078 -0.29913062707536991 0.73513799999999996
0.32989818990420361 0.66462242623908652 -0.107198
0.28434854224742317 -0.11324987776931759 0.76231099999999996
0.1755679851420516 -0.2102513295514688 0.79162600000000005
0.181024359320509 1.240545387750726 -0.38754300000000003
-0.25854618481394892 -0.044189128200852378 0.76986699999999997
0.0041292009646282067 0.35033198586539838 0.81681300000000001
-0.42585449445637402 -0.026175621029998559 0.75903299999999996
-0.76639442499002886 -0.88962608272026467 -0.50677000000000005
0.67964539059478513 -0.41522765235983738 0.65484600000000004
-0.42135943883850752 -0.28446195631700583 0.773926
-0.15824310894446811 -0.36029710463947562 -0.55428100000000002
-0.39121198168379429 -0.6042490288060367 0.15931600000000001
0.79659175597916332 -0.20726860575358011 0.67613199999999996
-0.75509621712452213 -0.079613012662732838 0.63190199999999996
0.1123196846590324 -0.086096599480441252 0.75625600000000004
-0.38280295732647551 -0.27086217137707619 0.79045600000000005
-0.93471943197392682 -0.71045754700076191 -0.41922799999999999
-0.38655151028819268 -0.18343485556163319 0.82011400000000001
-0.27977933517646209 -0.61361402343347471 -0.067928000000000002
0.056995896755028468 0.90357978900265923 0.073255000000000001
0.42878475857295473 1.214844987359512 -0.41369600000000001
0.14308166891665491 -0.18714327980460521 0.81732899999999997
0.1610219043381865 -0.062809880554765621 0.81039799999999995
-0.04018463449153515 0.51507417137707623 0.79045600000000005
0.061895206936706013 0.80875964315936433 0.64446300000000001
0.071432008444132916 0.61101786791192714 0.67766999999999999
0.20781789370360759 -0.36322484938340338 0.31562400000000002
0.34881970555192809 1.223801452697155 -0.41564899999999999
0.07581078181356303 -0.076047874137390212 0.74971500000000002
0.1009644626795855 -0.19378442088006601 0.75491699999999995
0.35659156550322518 -0.040653290997888503 -0.27757599999999999
0.707773030176575 -0.45433715150719189 0.64624499999999996
0.42085976382308221 0.002458493803016425 0.15204699999999999
-0.69375226691410508 -0.93890417416131466 -0.50192800000000004
-0.21299050946923889 -0.048842383930701727 0.69622600000000001
0.1308521293272889 0.83054253627343766 0.30603000000000002
0.082207050449804558 -0.14563721188056061 0.78952
-0.56661371622064105 -0.23189174475956401 0.68505899999999997
-0.29161465728614783 -0.31793140265139358 0.72174499999999997
0.1441893853252057 -0.025280658704617411 0.77181999999999995
-0.018726771141732591 0.84311428092080443 0.29425000000000001
-0.47927424327466511 0.53433665988915369 -0.61168299999999998
0.94992150208911563 -0.20685969517950639 0.52652699999999997
0.33006028101475932 -0.41518082372197551 0.363983
-0.07504666805688949 0.50677535798671092 0.79651899999999998
-0.025917853257780409 0.88955696133440953 0.18434900000000001
-0.471550966627512 -0.20576823255706669 0.79372699999999996
0.095878811190193425 0.28201897235071838 0.73557300000000003
-0.69816845975155317 -0.71864724453179663 -0.35403400000000002
-0.94283595158902933 -0.88987577135474893 -0.40688299999999999
-0.066123776244319157 0.5450762599565232 0.75746199999999997
-0.58546246545270175 -0.89033273608861763 -0.409302
-0.91742184682451333 -0.74624725067372899 -0.35234100000000002
0.68377937912892051 -0.34260737418080778 0.69098199999999999
-0.22900805720193251 -0.53842759041638677 -0.31421700000000002
-0.15622282301356669 0.52433613323866191 0.74914599999999998
0.42427477178917983 0.84289746110854991 -0.33572400000000002
-0.58731515317948946 0.015120314638026631 0.77999099999999999
-0.67739415611203579 -0.64657909513628942 -0.27252199999999999
-0.26143629915233862 -0.52673495307462637 0.33041399999999999
0.23514304833386171 0.79853370676087254 0.018391999999999999
0.1867875140451607 0.86344146454570336 -0.21188399999999999
0.87750753664969994 -0.1868383624981112 0.62130700000000005
-0.50877033937039817 -0.1917620771735899 0.76132200000000005
-0.7880833183954371 -0.99589034805837739 -0.41307100000000002
0.1873041926355542 -0.0078636218845517993 0.808666
-0.48630746660901408 -0.65268324026691737 -0.313108
0.31316127879183142 0.88780924583069354 -0.33901999999999999
-0.081402380214545295 0.81478694161136789 -0.47632600000000003
0.41019921347339849 0.58629387896071816 -0.31182900000000002
-0.15859284338735979 0.7699871375362789 0.68091599999999997
-0.4731088448670468 -0.61405655681994686 -0.23531099999999999
0.093209624694919446 0.86679580572602688 0.15962999999999999
0.15392858913198529 0.46680813711399288 0.70190399999999997
0.49627563017090659 0.73564260601427212 -0.20094300000000001
-0.2240113093325922 -0.32617096923407779 0.65811900000000001
0.132372983017081 -0.37323326786496352 0.26307799999999998
-0.046670061627195981 -0.45986291793067402 0.056397000000000003
0.6606985747757822 -0.38145450000000009 0.71348599999999995
-0.97946430943315577 0.0073140518614100824 -0.186249
0.33808503134312462 1.038950451564808 -0.38742300000000002
-0.72649297998632167 -0.44112275267842849 0.42211900000000002
0.70987705511821608 -0.30527687340787762 0.71196000000000004
-0.61230724288085892 -0.55740325451206407 0.27322400000000002
-0.097707931047033791 0.2229148991241009 0.76309199999999999
-0.87523754360206973 -0.86757989421056492 -0.44699100000000003
-0.24339041833541569 -0.089776570632383562 0.76275999999999999
-0.75225193639207033 -0.46948857392313692 0.52848099999999998
0.7415231311241155 -0.44193226190547341 0.66061400000000003
0.49052058440400892 1.220700574346121 -0.43541000000000002
-0.26256145152546168 -0.51086177415113243 0.55795300000000003
0.14267174018485179 -0.14906129719557029 0.82105899999999998
0.31417954435033602 0.36685093351362108 0.421732
0.41847089370360763 0.001636849383403293 0.31562400000000002
0.29425466927276711 0.88289403754480889 -0.33312199999999997
-0.024845483327867832 0.50281636053752732 0.79379699999999997
-0.14678671105092689 -0.0069520414161373936 0.74821800000000005
-0.71957836643510209 -0.1852102906930119 0.53742999999999996
-0.22617191616537549 -0.34968725004363882 0.68908700000000001
-0.49978282280385478 -0.63097524184646958 -0.304701
0.1515442324873332 0.37423831026209098 0.71583600000000003
0.33797658356464932 0.9386026145025208 -0.35952800000000001
0.31980115850984348 0.71211585485843665 -0.25836199999999998
-0.33017079051343162 -0.21629458434444371 0.81273499999999999
-0.65119467202261572 -0.65427025756132151 -0.296761
-0.7581938906780602 0.067719659357276724 0.75373800000000002
-0.1020805408237415 0.27342531682917082 0.76482799999999995
-0.56488176349284358 -0.313975914638711 0.69052100000000005
-0.50974679166357806 -0.60187334215654442 -0.129658
-0.3247834577523212 -0.038859450284920237 0.75390599999999997
-0.74395272774581522 -0.42005192288520821 -0.41780400000000001
0.24990991222552289 1.097936665289684 -0.41345199999999999
0.43140386154083099 0.56349740677012838 -0.26597399999999999
-0.02179250615521814 0.20758427211490471 0.69425199999999998
-0.28373324815972162 -0.56779440160918615 -0.349991
-0.50091931345914509 0.42395829859624029 0.45336900000000002
-0.98523627161455596 -0.92678327989614118 -0.47126299999999999
-0.5897616769029026 -0.4755231887528476 0.62940200000000002
0.73576009770751161 -0.38236412858874852 0.38256800000000002
0.10364735934421899 0.24208449245453609 0.65673800000000004
0.76093160029462559 -0.39801580720501561 0.66163400000000006
0.096643084572211158 0.43722673267924561 0.748108
-0.68286377788152874 -1.017906757939236 -0.403839
0.71356387379170227 -0.51434511614710576 0.68856799999999996
0.088694997984876234 0.32037224288702482 -0.66075600000000001
0.21162316657841229 0.32256607657242192 0.68276999999999999
-0.12292195428859611 0.55613492980649248 0.73901399999999995
0.57343205223194893 0.0068854491542256488 0.56430100000000005
-0.58870797470224678 -0.066058123005264757 0.64135699999999995
-0.1287187145756136 0.3566966464700807 0.79172900000000002
0.16818803360330409 -0.3008537805739756 0.69201699999999999
-0.56321399638275493 0.80047074273115448 -0.094382999999999995
-0.1766467558031429 0.51516084395674411 0.756691
-0.28935973025251582 -0.26986175446178229 0.75775099999999995
0.46569775504184652 0.62214817270324307 -0.15759300000000001
0.71081119775733714 -0.13334089089540349 0.39068599999999998
0.37635358751874159 0.62229953519328041 -0.35141
0.42584901012450432 0.73648012188855438 -0.303263
0.74907027387829539 -0.44671222720325843 0.67941300000000004
0.30218903436581029 0.72665476101176074 -0.28378300000000001
-0.023286416771755442 0.51539274302509552 0.78798699999999999
0.36669807888409278 -0.56963229633485113 0.56047100000000005
-0.2473905844595026 0.4644809384019819 0.76277899999999998
0.36606108657404918 0.71539640062012233 -0.25759900000000002
-0.63525318632516403 -0.0068847943852026142 0.78537400000000002
-0.6219501197628855 -0.1144192072028658 0.75085400000000002
-0.68778877317465614 -0.5544371000139704 -0.35039100000000001
-0.41854524722093928 0.35767036654685658 0.74447600000000003
0.20255944761097119 -0.27454474518471161 0.72583799999999998
-0.072858196973982534 0.26138390109320109 0.76306200000000002
0.27717407737313349 1.094525584551294 -0.41758000000000001
-0.54823757153461261 -0.59612132851612565 -0.16430700000000001
-0.7752086198860183 -0.6565127161079326 -0.27601599999999998
-0.8404551901483055 -0.36751509082182671 -0.35952800000000001
0.41901445652245972 -0.0028396721972395859 0.24973300000000001
-0.25544276039209468 0.62640816057524895 0.77239999999999998
-0.7426707151741756 -0.8576534119751863 -0.40770499999999998
0.14463674064438919 -0.071531816562755396 0.76860700000000004
0.0073305077506621366 -0.40832318813057572 0.23958399999999999
-0.2860495360734514 0.57305567003927571 0.51401300000000005
-0.51602882271701966 -0.36656613911583091 0.67916900000000002
-0.15911331266511081 0.28232965830343559 0.77413900000000002
0.0044529415081983022 0.54137272093533173 0.75021400000000005
-0.41162956086182811 0.61131668669004824 -0.58396899999999996
0.5769467824268073 -0.68898485957338296 0.43548100000000001
-0.37346898906766451 0.89897073588341947 -0.218781
-0.44379428761883488 0.63266174573534217 0.69349700000000003
0.1450311730894869 -0.35934463952769258 0.33971400000000002
0.14008698549295179 0.97957577635295656 -0.236877
0.061033782636076762 -0.1865763874961999 0.757772
0.26205576071642322 0.59287189197695711 0.58868399999999999
-0.33744486117143291 0.42917035569805179 0.80366499999999996
0.1149608663601564 0.52077406141792648 0.69082600000000005
0.5605022557428796 -0.099395615296368034 0.37056
-0.1068567563352754 0.59372666889529524 0.7379
0.62281435747212233 -0.49026988917491898 0.71679499999999996
-0.7066725948141247 0.04643316146540151 0.60805900000000002
0.7921300541557238 -0.45733650000000009 0.66297099999999998
-0.93991201554118198 -0.85111936556179535 -0.40037499999999998
0.49842759332522318 1.0718279155335639 -0.45658900000000002
0.53961306495971473 0.81757124493819067 -0.26571699999999998
0.26986698514205171 -0.046920670448531272 0.79162600000000005
0.14788055078620921 -0.23440337258701591 0.74050899999999997
0.39868819098245301 0.063320203159332331 -0.15248100000000001
-0.39339849498590063 -0.23381618093671 0.80407700000000004
-0.01052976349284346 0.64618991463871112 0.69052100000000005
-0.41147314388487449 -0.88810839115870166 -0.35716999999999999
0.61964441045875918 -0.022050398459365361 0.48236099999999998
-0.80879994080925988 -0.33987459064033859 0.19705600000000001
-0.60171027766634888 -0.75123877235449277 -0.34817500000000001
-0.1529265509278398 0.37037744396671191 0.78012099999999995
0.141158311930386 0.36668536817408443 0.70472699999999999
-0.41603190299777992 -0.7458603935617214 -0.28104699999999999
-0.1551308282072465 0.76345152372480984 0.55506699999999998
0.44724158945510423 0.75059715619410128 -0.27868700000000002
0.78045236387621197 -0.13082085287916789 0.40837099999999998
-0.06555752642011832 0.33381903342181601 0.81756600000000001
0.71133661777147184 -0.42845083673560858 0.64446999999999999
-0.23019415740832661 -0.18555797623672921 0.75713299999999994
-0.36258921259939347 0.022321061501457219 0.77492499999999997
-0.15253232296658931 0.75809226682536224 0.70569599999999999
0.92406154983674726 -0.29225444636191361 0.48705300000000001
-0.089344834893899092 0.25360620656991412 0.77079799999999998
-0.84160788049259461 -0.65558360906352942 -0.40521200000000002
0.61233236032399962 -0.43574724080025973 0.72678900000000002
-0.2408440578021466 -0.18570814481437331 0.74755899999999997
0.92428829009254221 -0.19567572071875541 0.44659399999999999
0.12579683940339151 0.56087451727825655 0.68498199999999998
-0.2582355556823881 0.31541889723732203 0.648926
-0.45151159849945122 -0.87206702880768883 -0.26976
-0.23241670015775071 0.49858046679927431 0.75595100000000004
0.17518294142206151 -0.28226824483762708 0.71191400000000005
0.35744957044568337 0.74284681715559397 -0.28728599999999999
0.1699082020101399 0.014015638504238689 0.75836199999999998
0.065523570954804156 0.3171641539870651 0.74658199999999997
0.39543919283910028 -0.067159226698651361 0.72602
0.1115468350063519 -0.18177921434549579 0.81012399999999996
-0.27201024547057878 0.31280043466567542 0.79159500000000005
0.42003572949121931 1.132857224473049 -0.45489499999999999
-0.81028121481189741 -0.30701223247283771 -0.44018600000000002
0.29112475515004121 1.0988668672609201 -0.41775499999999999
0.29054828012251199 0.54102438322394519 -0.41883900000000002
-0.2576017752951128 0.48622463706892333 0.76073500000000005
-0.0092432290757976047 0.33331425761472061 0.81542999999999999
0.26869816312797312 0.19779087043807961 0.60319500000000004
0.1241411819354999 -0.30474116557606251 0.635185
-0.49873993332431488 -0.65841490428122751 -0.31799699999999997
-0.49193830012620893 -0.63696613000766067 -0.309118
0.71770294837035997 -0.6242120286805537 0.61029100000000003
-0.26345697779778338 -0.35021087115430649 0.69875299999999996
-0.31361612904021202 -0.2259990695707243 0.80813100000000004
-0.34683212509202987 0.60358513764351962 0.79464699999999999
-0.65377323958012412 -0.72569046758167477 -0.34890700000000002
0.22657999854097469 0.86650806945184999 -0.254639
-0.032034895802006393 0.62297993285574993 0.69366499999999998
0.9247270805246065 -0.15668771339654511 0.49312600000000001
0.13791172764143611 -0.1982018807654316 0.81263700000000005
-0.51784450462334175 -0.028036992427964289 0.76376299999999997
-0.38207181078996549 -0.65005378842806294 -0.204093
0.64059234278428412 -0.46981551535804161 0.66120500000000004
0.17933552389587371 -0.049949761010364233 0.81790499999999999
-0.68670324142965156 -0.49569490387839338 0.33932499999999999
0.1187111556819318 0.55613775306632462 0.68673700000000004
-0.28526226675467459 0.029357260498637319 0.76959599999999995
0.54185613978984981 0.81462036450916364 -0.39032
0.681280167953907 -0.67892013491477499 0.58342700000000003
0.32774374969681008 0.8245048263380117 -0.32784999999999997
-0.49728851066350099 0.064727033510558807 0.79155699999999996
0.083139474767023921 -0.1767982055889239 0.75683599999999995
0.30699958091275809 0.31138487204324949 0.47548400000000002
-0.44646628829806601 0.044079704801055629 0.66821299999999995
-0.48268590430354102 0.01393948964893801 0.68640900000000005
-0.01485320170030691 0.0085755000000000015 -0.73284899999999997
-0.67414860499628604 -0.36675563570524933 -0.50369299999999995
-0.31802961056457602 0.1004425561908107 0.79050699999999996
0.28339129615622471 0.85834012336537957 -0.32357000000000002
-0.37540220362764182 0.14601431004360699 0.80920300000000001
-0.74967199137959117 -0.44762197808078902 -0.378743
-0.90743288706228042 -0.97629186485078034 -0.42263800000000001
-0.1229495949382111 0.47819705479700497 0.80302200000000001
0.2173491818823565 -0.2302121739962297 0.74456599999999995
0.10343241916148931 -0.1564817948625398 -0.59735099999999997
-0.16235453023092791 -0.1199522951989444 0.66821299999999995
-0.91661537445955521 -1.0048403995627211 -0.48370000000000002
-0.054379196821672103 0.39194646823007578 0.82289599999999996
-0.47785529277717109 0.49235235424423851 0.68489500000000003
-0.68887306669678927 -0.75569315148462268 -0.36582900000000002
0.60567410395573085 -0.70091367911992031 0.44083699999999998
0.2608065097287901 0.70667412579497102 0.51831099999999997
0.29384759894996082 -0.094333028936544897 0.75423300000000004
-0.46060499943868971 -0.93356326124804456 -0.39225399999999999
-0.13789610208605321 0.27856694502125118 0.77384200000000003
-0.57537745902985848 -0.078370992569594899 0.75009199999999998
0.08023325683657824 0.1047340772976765 0.76473000000000002
0.081786125620858297 0.02800372492953724 0.75881299999999996
-0.65514880594406844 -0.57420901841320926 -0.001052
