# XYZ point cloud file
-0.47324638786869283 0.60803693431456707 0.53315941321517835
-0.86514117099390986 0.55463067481339789 0.29751771826360307
-0.8155687482948093 -0.15703935248292045 -0.29395451244919507
1.1269874933396296 0.18979040300563077 -0.36592638121150495
-0.59109363699313255 0.62263925178668578 -0.34664759668310235
-0.019980796225190667 -0.63423201878385871 0.76074828195610511
-0.5133966934448958 0.6323763559502189 0.40734166983949327
0.45307473762264239 0.7021002464431203 0.17281944867707844
-0.86800828866779289 0.1505208370030251 -0.64641509239516148
1.259514478102217 0.047720644997006456 -0.36045747712221665
-0.85088121893539415 0.19964087808740039 -0.59006872335487071
-0.9363638339458904 -0.055590331898025647 -0.40157398473472761
0.68821995380081424 -0.0016562649840908827 0.070961969130006797
0.79472081137324213 0.01468438364125968 -0.25434402103615944
0.087186212080793232 0.21104220745870014 0.72797547790966999
0.16701063440648917 0.52395737487612948 0.67830985502409358
0.79940489244850799 -0.014457821885029531 -0.27748908384471843
-0.091921238914382419 0.8731744020258223 -0.10510405838243542
0.011468570178201798 -0.33049300704936097 0.43216281699737291
1.0002072970829263 0.022949702727280696 -0.32581597922184091
0.26200970856453454 -0.58244899272611983 0.92490276515450631
0.49659660880302137 -0.6980552810940478 0.68275798634865492
-0.35593726144005511 0.45333511853655184 0.66515316207663633
0.3618398036233853 -0.72955727945143978 0.71748190218081054
0.41962410916613768 0.39771096970723929 0.62184024606972133
0.37302098755773316 0.31429353652887765 -0.77739859649070986
0.33118507867357111 0.016876451028648376 0.47337263206842378
0.29640256289053968 -0.58497119117449392 0.91206594529854523
0.53283201512490641 0.76321814137327648 -0.012997095526527891
-0.37307057569260343 0.41134762893651672 0.64948188308258048
-0.84263560899087653 -0.1153106410011232 -0.28910157881083115
-0.50245195191906933 0.39664028106510479 0.58821301128470604
-1.0236344900088232 0.1290871507623822 -0.65501934124570427
0.20857871648015952 0.50468326252865414 0.70047850265377809
0.22109562998782284 -0.4354202566925644 0.51427055051865334
-0.60125141236579127 0.57595558877536535 0.37321929535472387
-0.63447109505485022 0.56284733159223088 -0.103711069797358
0.26702153156283182 0.079727565493617203 0.61957599482162373
-0.45120330606748837 0.60902704451548639 0.53287455106866632
-0.41151093228887248 0.59982733179845449 0.56865368317059417
0.64919736389602867 0.66877021152634175 -0.36462663348062363
1.3725542058442111 0.16560782193725521 -0.38289186376948453
0.24496678891567192 -0.48408893620894339 0.87201669168976181
0.88906783201503758 0.28890108401454584 -0.21925599115754454
-1.033958548071169 0.072343865855056033 -0.6610850282933094
-0.87659134834353436 0.039076757498478054 -0.46623062365236728
0.68268212423485708 0.62835212896986059 0.51528967567768336
0.34785257690786642 -0.54031066281267792 0.89557919862805824
0.49089453674073052 0.52951934350562058 0.582591292792492
0.034985076606871501 0.92020447637341807 0.39711000248059858
-0.40301179241725515 0.69066656325254661 0.47234166580681869
0.056623012091265357 0.10638709306185118 0.84215363419983336
-0.72350547479100047 0.62887546969178287 0.3785783324594435
0.35020453908396565 -0.71279484645934899 0.78574333846148281
-0.61512767920505618 0.42546602257493693 0.50294535063541412
-1.1712520283454297 -0.035572593569388467 -0.61176658131904516
0.73934224019041739 0.48286776455259151 0.41286546450447914
0.30522176800952261 -0.71863793252999875 0.78576387831071248
-0.56398201081675303 0.63259128467975845 0.43521138722642461
-0.17298766206343069 -0.09145452005786181 0.64489202057961881
-0.40261660124437404 0.098968960625039626 0.52361045506841108
0.50651847023483676 0.65134284862622305 0.21631836840318419
-0.0055768471495767913 0.056971540014886302 0.82231880906001664
-0.038661495720222927 0.1646880401657527 0.80137387710750563
1.0176216018590518 0.038127187935823703 -0.32987524020237874
-0.68938664569003594 -0.094053775869193168 -0.066170562472275762
0.036143939948905163 0.061391641006814823 0.84199841036356171
-0.62321583963524407 0.21471150518797921 0.50190281677219983
-0.87285968931038527 -0.11082245042764205 -0.16242919908585993
0.43489918861162868 -0.58829259335720541 0.82705294895676107
-0.81594341432402329 0.32220104561151708 0.32638645148066064
-1.1921658589165722 -0.063052099103195092 -0.50124780764649901
0.4854058705141916 -0.57517829508666696 0.76772060784769469
0.67895484932846517 0.54604720992738964 -0.46455928079388642
-0.8483644165238724 -0.10024192675438859 -0.3093879735147877
1.2850134176634298 0.32867400583557216 -0.37959391600312897
0.31867035744593886 -0.28816670618712209 0.50163587984027203
-0.45273321292413066 0.55701385386047453 0.59639710639832333
0.0047864675568206616 -0.37470865906751294 0.18628461091907475
0.49725662181861097 -0.65024801142488731 0.73954880309810456
0.0067841250273780046 0.38831076612857651 0.64679045286197812
0.12446462817722684 0.44769714361823809 0.62320036432346593
0.48812883531125739 0.48776804834628351 0.58806971256806584
0.071017250675487753 0.52140506269568521 0.62905228711416161
-0.30993708888752203 0.39981734611227082 0.64112044531698886
-0.71629177976416691 0.68045571598033416 0.35054993067692453
-0.97067026362445252 0.031558073100718009 -0.65167216831588015
0.15669185088642876 0.18768532397057272 0.74476229615189715
0.28924759027332703 0.62708749031954236 0.6488785123015397
0.017723994909108365 0.66134431477130606 0.58641927953478434
-0.76303910308906508 0.046908285492700763 -0.092667409399139561
-0.30606863431939313 0.57042443776777108 0.54980834370943521
-0.33331910996500175 0.64250875576455158 0.36429772549778683
0.19661767948428838 0.89520759742858314 0.45001590891120846
1.1410884412606372 0.036855193264942354 -0.36717236587810992
0.071872365795415893 -0.61037329330726053 0.66990862973885656
-1.2200312258975383 -0.067909906120561692 -0.50332615285210591
0.1399247013294462 0.45038519826300716 0.65534531068271296
0.76383402289848479 0.063519937045351083 -0.069508011361480659
0.068075930012206465 0.39231192492537514 -0.85903206203292548
-0.46003366361897069 0.081919024987009537 -0.74873405141842708
1.1257386174957116 -0.10142484509966931 -0.36489175404863944
0.84214169333460753 0.039281365554756031 -0.28746178885599122
-0.078293650439077156 0.19266379158278527 0.75533752699704571
0.47552645187764758 0.54718920655730008 0.57834141390461402
0.41080331143298432 -0.40548976850757207 0.58388931666607258
-0.041780863329781814 -0.3289672986400296 0.49328836853099123
-0.79492245461735689 -0.092869292040268836 -0.22991073506676957
0.21939979132428589 0.044112723949033192 0.75161299511221358
0.17656810281175728 0.37131243819507026 0.62642713308925391
-0.0034470601469963613 0.10309101463364231 0.84521203736689743
-0.23808191011962326 0.4933448948551612 0.60756504947229095
0.90608048014932929 0.0018740505996618362 -0.36703655960786313
0.27047072099634795 0.64153966424306963 0.63516096295960567
0.18756314636524196 -0.5339259894138807 0.91722144999984689
-0.73985862346281173 -0.033222755193627274 -0.21444380427708937
-0.46679260908589237 0.81107864605892921 0.43745743897978662
0.0066000967122480381 -0.46675424096670676 0.59471254898295833
0.44058498233974053 -0.62773423850774068 0.58319958416654671
0.83100980338449015 0.39170985535762926 -0.22952719092872345
-0.56213294237109812 0.48541102881276893 0.53125673807376417
0.74135945185629348 0.0060586151824284507 -0.10190029842380453
0.145566505955047 0.0086825932998480099 0.80878516643713638
-0.0036109368307925271 0.069363254326212986 0.83484659975806796
1.2130866845242767 0.36925682501848578 -0.31598208811870215
-0.23486700727829474 0.47700478089260218 0.61458298096328867
0.24219649187070436 0.48072630676854544 0.70675936290438179
-0.35162011720206743 0.60373073743034422 0.51957421942155946
-1.0963445288818567 -0.034058064333347016 -0.65313256652731699
0.20686704847046433 -0.49604638235820542 0.88040349960800857
-0.53142091571764638 0.48407053965084584 0.5821553782978276
-0.39604244068530725 -0.25048392141578968 -0.48443945543927214
-0.7230013665071191 0.090899913955495348 0.12021087310784129
0.43600774747040894 -0.51611910392506133 0.82334181158719844
-0.60081454710486892 0.75544901902261774 0.21798350918280796
0.029379552375239357 0.16206804197241143 0.75150372817972766
-0.49332186886288354 0.46930218850922462 0.6157266443751459
-0.98160021708289469 0.17907985780324198 -0.74913026143384309
-0.43862731171013691 0.52308242407068484 0.62305269509401806
-0.67478952821010196 -0.078733943103061033 -0.019030729866013521
0.78681489693268902 0.45407472038144692 0.0443293089998366
1.300142731254337 0.11307305198369377 -0.34735490656887053
-0.011373812667884009 0.11551282025038512 0.84249733324475917
0.087612600154867243 0.15250267067000772 0.80973189638997023
0.31951336790778367 0.59240304171897507 0.66113350510644397
0.62014670209067835 0.61273246321602304 0.55582327297041711
0.48707116966072594 0.50846639780905045 0.58390761135679092
-0.15894632980708134 -0.20063192440158062 0.46043391682154
1.2754320476743803 0.19249764391396407 -0.34481314863869922
0.0074131464018917098 0.19391052747686133 0.7319510413810274
-0.054848672022022343 0.12370603772418795 0.77405643424902115
0.10471575827583218 -0.41798631104852269 -0.14800405066978212
0.19773029986724699 -0.53827236267148737 0.89241442613304267
0.23250004848475436 -0.29276156724335156 0.24554422401350168
-1.1230500253153726 -0.09749548433947286 -0.57819450227859959
-0.19627163232134145 0.41319782929730375 0.56779438586172781
0.73592724233753293 0.43642425787196049 0.26048099754078513
-0.033958039402355894 0.17280418792811175 0.7873176325326301
-0.59061201207934366 0.57581731604326059 0.40464511675224923
-0.45074713508189884 0.35786423644860371 0.61131268254671334
0.097686158583433269 0.16878421671708174 0.76101670667955368
0.65216472973076878 0.56969207701803681 0.22526882629419787
0.38035988639722346 0.42907829952554999 -0.74341055602893147
0.48447684824475279 -0.71024402355973815 0.69293032872558258
-0.11201455043775582 -0.30249098992403944 0.55908799237017681
0.28475520522912651 0.61867295444009307 0.65671138338905921
0.70564504085952362 0.561024471280131 0.12935810944600803
-0.51781986413750491 0.5625709401589114 0.55621197331327898
0.27326459831384381 0.34017994040041433 0.66301243409019417
-0.92620132209513795 0.051255772817074385 -0.5174498429371881
-1.1604180647439701 0.10937082630470885 -0.69633933468619558
0.32348863999246019 0.61745240159558723 0.62289571840046076
-1.0482102353491496 -0.11197524889215915 -0.43177391028504902
-1.0228570066889948 0.17743253937122705 -0.6676465174431816
0.27029128936005697 -0.45987694788622635 0.882591764973371
-0.58898364979183981 -0.18012175440021172 -0.24278877293195827
0.23888472640994299 0.67611945548313612 0.58744740875866952
0.95102552057912171 -0.070209131895359156 -0.30774539883098539
-0.45145014183032617 0.74396045805974553 0.44551197370439344
-0.859318422416945 0.099180796318334097 -0.44929609211334626
-0.5831037813138642 0.097779925297259096 0.32699853938818557
0.80369327291364545 0.21348333266118791 0.0077015028038429981
0.86103016302750057 0.2050551056888259 -0.20408592107237003
0.4858304270439705 -0.60234041458776488 0.7684133444638126
-0.53177053926267481 0.58313302833336733 0.50226644818081945
-1.2138642615083182 -0.030189553528647828 -0.54832071950299399
0.14620134356279102 0.15446296161665618 0.80246201432746378
-0.79314187875286235 -0.045965149796040494 -0.3568347915851578
0.94897647192068968 0.05557843095935866 -0.31141824266740847
0.74680694056191277 0.31524023115842337 -0.48586472093841349
0.70527426877948107 -0.1849574559229985 -0.28251928861120501
0.41514914301562622 0.787989014511293 0.53256402980124806
-0.75583727637663012 -0.0093193587055081517 -0.28923726020027968
0.76343604884434257 0.43399833017495759 0.12452789478171639
0.44808617297516018 0.37125968612129728 0.62850506116577132
0.87871469074583053 -0.14390369225133959 -0.18292785967123751
-0.40327284205070391 0.28123238706535986 0.58858377204232137
-0.2213056308039445 -0.16416653762652272 0.39110179124889283
-0.41739042378978874 -0.13982322868873276 0.16081932534614027
0.23466425792152468 -0.44556104631385379 0.91584966092659925
-0.38404203718431973 0.64718084188305514 -0.65119350481036997
1.1016170375822494 0.10165238378877284 -0.34270340345177258
-0.80757725261892144 0.48573537334869954 0.10077910724035555
0.32061817026428874 -0.46167344380424241 0.88831466470758225
-0.81347891278729989 0.30332401967665101 0.069111840309293737
0.078346578617293994 0.47952242526043387 0.63671112199178703
-1.1133366708337893 0.063941149899082617 -0.68752719118633976
-0.2541558104249651 0.44166492258988754 0.62302574681608058
-0.86593166557326873 0.52767152178458354 0.18777705716942106
0.2348432699182661 -0.55882863900344371 0.90235355200235046
1.3323562379683174 0.051309794473270331 -0.37017761869170313
-0.56814327064292103 0.19196136020770493 0.53009746536948799
0.014617378206081166 0.13372149045527035 0.83569746709879711
0.4887869363665488 0.07296093364291345 0.40552681221933762
0.25674080942932237 -0.22846377145135693 0.39489557762297423
0.93640583319986048 0.072316060842119168 -0.30708025961675484
0.32333963448284353 0.57458911907987908 0.66885475076955891
-0.11905360382291508 0.40163657334038827 0.63651943646078868
-0.62987940149502286 0.64589774285777468 0.166234594535981
-0.42243727506794482 0.284080392489866 0.62235971498186893
-0.77794309134271589 -0.024746006328563164 -0.36455328139480592
0.38113881178316855 0.33149330467420546 0.64813810044669584
1.0071756769023414 0.053998056156532304 -0.32607622271894415
0.78538478172751258 -0.017105690364037307 -0.24252163282246419
-0.41548860896857692 0.46497472726241651 0.65231687590219112
-0.85474377028801218 0.069559536866077298 -0.45115111177553174
-0.53625319202837185 0.87481428138198647 0.3160571751020671
0.1094139556119791 0.50880356376212343 0.63185586273899952
-0.64976390066702439 0.53800502530142114 0.42673725155427233
-0.76567460058575065 0.061295743666808788 -0.21972366158562856
-0.28129822328208731 0.52267615652738564 0.56766665956159224
-0.64162902681010736 0.18849538431302193 -0.67605611892837669
1.1222521902814675 0.20863867002006042 -0.36068336449862365
0.69291395507587683 -0.19855890847573732 -0.23731598997882758
0.13221378789248481 0.38519755917274578 0.60017060442432058
-0.63753851425747476 -0.16642847892965851 -0.29596352209100979
-0.012697857978169691 0.7786983886805483 0.1811313624387122
-1.19816537300154 0.094273736370542704 -0.77609596507372602
-0.77771892999500714 0.45772869759464319 0.39162255530229406
0.1758378343989413 -0.6319744911444003 0.63383675231637371
0.25299122482678327 0.28420877572723546 0.59695223233047456
0.27804581430663577 -0.56009501315757093 0.88568303318432862
0.38050315922621081 0.42229300905159195 0.66080243799998839
-1.2009221536273733 -0.09968329505631135 -0.45144459733285597
0.17700662069106654 -0.54971053160558814 0.95603922566178212
0.34818417313948646 -0.16965494827407523 -0.63014339313305257
0.39079438100525055 0.24160864589623837 0.63520373312817469
0.28861721410169128 0.66273548743913568 0.58886169030014412
0.40579672378924236 -0.26884524913090918 0.63929849331496025
-0.47752369351362978 0.6549860852723135 0.32613113598863364
0.14137372828557102 0.5820746177186884 0.64122813031282833
-0.084412148933354303 0.00016651727970729002 0.76892412500480634
0.41486807577196294 0.84542941061375376 -0.28060053803462048
0.21498683401236521 0.69019623408079389 0.58748616896211248
-0.41668160574480717 0.39106686173412109 0.6341160057099674
0.76321679732213854 -0.15885447365843997 -0.13922091282208507
0.34570982738392064 -0.51469522719976069 0.53851831827834828
0.72638865711323408 -0.15065630874148284 -0.32309760684753419
0.85160019993936587 -0.11731433606076336 -0.27889184307717868
0.2436328651460663 -0.56059805262310292 0.92127574657221944
0.79281808041864799 -0.0029244654708767692 -0.267123034532048
0.33376506160641561 0.57778925033740025 0.66358501667730807
-0.1527537645092456 -0.31712273037764793 0.8071040723893933
0.12325704562839032 0.72092037970458578 0.56787669807991559
0.80719679713653014 -0.05701366152717724 -0.23901262794203471
-0.50439059575224943 0.7671775517274122 0.42486234519004551
-0.56072820305808924 0.69305704565537285 0.41366694546748362
-0.76482894993058093 0.11625524296671286 -0.55058482936820174
-0.079522695946707744 0.78725622988663968 0.4805101059835909
-0.034947331724158787 -0.0044742689048928863 0.80164904101890944
0.12454992330075988 0.47875144190187258 0.6412390932129991
1.1308469920375857 0.17986838069215638 -0.3644517965483795
-0.77369233703699769 0.076354557173902715 -0.27804441126664647
-0.90243848216085365 0.15669584238915724 -0.51840337866215136
-0.63149502423299975 0.29921604001661734 -0.69504824249393637
0.24282804783426093 -0.25609511934926765 0.33599830555498311
0.22134326599176679 0.81778926832693877 0.57571229660581857
-1.0685001756659125 0.0013480231617531979 -0.555744790358498
0.065728841327431342 0.14655030022393681 0.76878923144575384
-0.32776488488718003 -0.089240074700311423 0.33389187730431913
0.22541028239845917 0.71956643432209821 0.3301583284305083
-0.6508548118860279 0.47678791087893402 0.45755056937707039
0.068903892712457837 0.56184742419925637 0.61937521857452416
0.37837252604004823 0.55465844766482431 0.63566299671747506
0.46625512950117187 0.43121109910219169 -0.68754176171378156
-0.12552072224725164 -0.58053803807961124 0.8004726688238033
0.62939633417576468 0.70930551406329301 -0.30902063842780303
0.097466334703477764 0.93702908815489139 0.43078185743268116
-0.19190371438088169 -0.13919477741393915 0.46037885271217699
0.94482822103807163 0.3051432022263959 -0.21974879624238253
-0.081150521388541924 0.16012678281323975 0.76164458877559216
0.6223370632370665 0.29934185106923117 0.53535031317223614
0.018268041751747788 0.78554248587357822 0.56926805015177295
0.45657544820112722 0.42847342188070903 0.60748440227006928
0.27478412666799179 -0.37457049343364052 0.49495571720065956
0.3268236676301654 0.66955381022807725 0.59293433542807139
0.13568179478225484 -0.45077400032136217 0.95981887824215939
-0.46995452329952181 0.77897264923405196 0.21569936998426276
0.26117393247441945 -0.6088438240496159 0.91468104857692345
-1.1231462096789959 0.12701796220582906 -0.69944152260468817
1.1995892025964454 -0.052785137822676909 -0.40695715569787516
0.97160560118468109 -0.16420152104414343 -0.24380705718880469
0.18344392438226348 0.060861445727527989 0.81532079518577005
-0.047699621263775804 0.062747907220558924 0.78686154009733944
0.23110094177221818 -0.36275365084312811 -0.053628426499430809
-0.47721193049174193 0.49873776286340787 0.61465541636329013
0.44612447002869943 0.60130941457059572 0.57672189306966726
-0.98446908008743406 -0.20504418972261973 -0.26442487259538439
0.39618516868106746 -0.35365566048511637 0.57730242578721391
-0.72123053309291185 0.50214822070901355 -0.17970486388113904
-0.92547702438214119 -0.022619669615137838 -0.43467581503329467
0.13275210407736526 0.6040530714387301 0.62133546522265937
0.36826102268289385 0.33235179790065356 0.63631733514964173
-0.8549520197324183 -0.11846454410544016 -0.25083590738827816
0.44335280004094241 0.73597274808017832 0.42022128629370425
0.87276688459341667 -0.12013687218059477 -0.25572544160157873
0.39492712568408206 -0.5700420035754008 0.55701780994628458
0.17414505308816602 0.52933936140029769 0.68761881251943824
0.21695875488161931 -0.53279603514635099 0.87998769569987878
-0.31070784168309218 0.38560791274069373 0.64324261482786127
-0.27119479107830058 0.58745981477616394 0.55982019570330477
0.40625870005633008 0.7852907860841345 0.55587848714859189
0.39444456354297275 -0.73174067132690412 0.69460088400544429
0.1053436274136751 0.49094422328931714 0.64358317130045017
-0.90301735559606611 0.15072358350801629 -0.6822826894359596
0.16709022314115773 -0.41796644601611843 0.94431188800005461
-0.31862957499452305 0.38990336695536115 0.62940520151892632
0.44753854931184023 -0.71120851663161644 0.6187468085764507
0.49319586126026893 0.43807782470001388 0.60286923576388118
0.034706565599860628 0.60982732419019214 0.46420287829624318
-0.98526016234142266 -0.13944941564022151 -0.21703638625606403
0.15941280408486272 0.72495357776701219 0.56704809237573128
-0.063372199802607193 0.0096125215365236438 0.78335657078273779
0.83003408844098547 -0.045596412377772788 -0.26685460671638156
0.14444331745646166 0.15999894417124749 0.74689824978306651
0.27347420445558207 0.38713064305972233 0.6616342334085118
0.25716522438664796 -0.081042973495975432 0.78471290860246412
-0.033828270882747841 0.14089956356408476 0.8248523894558647
-0.0037699085598549842 0.67107367953118113 0.58929980484588418
1.2263598080514839 0.056692344251602522 -0.39567351232528608
-0.54720921817232737 0.27799278983979558 -0.75483134334556001
1.1404253664432256 0.16949039636154217 -0.36389228714053246
0.61929619999803565 -0.14144043803330653 -0.38922452532677082
0.13001163806307753 0.73965272935845938 0.56199068096664961
0.21996192302707346 0.48259205500211527 0.70300727494877024
0.34025087533352727 0.10149283352693725 0.59035709477672571
-0.12743986467723806 0.012894591217092854 0.70435532472944351
-0.80282422882847781 -0.041757352072117504 -0.36753092507142104
-0.78051477154106008 -0.034210061388989632 -0.36171183449879396
0.079871712504296588 -0.61889599704338183 0.94035959535349967
-0.45147659383700539 0.31465092857213783 0.61276328160217908
-0.40857673164554736 0.44693611828185925 0.65858627610935694
0.12629849579726105 0.88322208116316425 0.55992357159304984
-0.91872021089484179 0.02153423902501761 -0.47951401358180851
0.88596005341525319 0.15440513683808088 -0.23991170429282732
0.41307852731177502 0.60778059474504986 0.5738632825758494
0.49205487467303721 -0.68043763186661865 0.64392602930593212
-0.023540476910479891 0.11324512465483111 0.83966429188202873
-0.42454459295007418 0.66918143591702928 0.47457257534384878
-0.75366755097471549 -0.074355859231632127 -0.19217966729832639
0.14431252373264569 -0.47895043065505533 0.90488844114385958
0.11166542937356094 0.14577162392362514 0.81850443976647813
-0.81381496704273959 0.40425460528866747 0.063995739953814357
0.48434658641505846 0.44231367484913287 0.60320995362901686
-0.20472197176117068 0.53194482257760567 0.5907005607537652
0.96990171820297699 -0.21346349532266973 -0.35907894187817213
0.0081007441595285501 -0.61492276585478634 0.93938593231098733
0.89570421223707553 0.010969913023329836 -0.30379602731740252
-0.35057978539038626 0.71059636997326781 0.50107703416054006
-0.056911781479261306 0.1462147269489571 0.76555443544158452
0.44412340152825841 0.073031470129105491 0.46133333208967575
-0.30111773833935873 0.6197262900000301 0.41652998343382008
-0.35291981028067415 0.6372572141894195 0.41749660282605405
0.011143261552893465 -0.26313598991021664 -0.68142589409149912
-0.55544510206568309 0.133505604947802 -0.71821082962912253
-0.18457493641293621 0.5985652845354632 0.58588356857518076
0.90876156678957576 0.071967330211321734 -0.30033037959762365
-0.20251336939650483 0.67014169898007803 0.5714556256021156
-0.67676955283408013 0.19439524854481022 -0.63982373121930358
-1.230669270049658 0.045288810778765898 -0.65633183792331806
0.22566249305268671 0.64460138965537972 0.64835101456733313
0.0099604863886646189 0.0087726060498316827 0.80932677437266343
-0.11863258805371042 -0.37983464066805961 -0.47860448068653505
-0.20736371899511827 0.33117934001139299 0.57760296558492974
-1.2526886848878687 0.015930514780842175 -0.70948834563709773
0.22162259457947645 0.55184710956895655 0.69204834897300394
-0.018596111107525681 0.88187880933397556 0.4006714772360227
-0.95751626681141544 0.025330746571506135 -0.51056336611759456
-0.11198625899439196 -0.60701439704721916 0.81634562958686208
0.70761336963313437 0.3342469350237981 0.46807281819965074
0.16499671675270788 0.0056838030639614762 0.79839598015201296
-1.0448147572072801 -0.20314897087416528 -0.31218450912742945
0.083330449073097251 0.54312971161606738 0.62712477553811119
-0.50043895574226871 0.67909889179094984 0.43566799270210232
0.13732223264600463 0.27884190296113875 0.71106375832880475
0.085096834370143259 0.23965136496586975 0.72008737951914892
-0.81627280353742204 0.21946447929902446 -0.20647204250048951
