# XYZ point cloud file
-0.32059094642709468 0.31345028819168863 0.61581748843288242
-0.5861652698437132 0.24777907215532458 0.45295868238488135
-0.53380701142130504 -0.021726673909110872 -0.3766898263633835
0.65379717906994228 0.35370169499439885 -0.21112458076114071
-0.77070306409740463 0.38754167367776604 0.034573786279818608
0.41972357844479469 -0.29691663295468629 0.28915680519210818
-0.38851637103129921 0.3384731170634166 0.54130022401078159
0.032436730379892281 0.46595141584345473 0.33446884251780579
-0.89399089295681766 0.11889380792617532 -0.42234712918740341
0.86217614335825421 0.34569218198894502 -0.22004928298409007
-0.87689578883584041 0.14790014291862552 -0.35274416885252113
-0.71350304130691378 0.0017021700610249102 -0.39334957050700387
0.55435180722328203 0.17712889786020086 0.11594614549201882
0.56879966107402602 0.20744319663662225 -0.13569315740947407
0.14056345962108668 0.1562338007126409 0.60926832610521175
0.067787160298548157 0.33081344217800701 0.67611307197887194
0.58835346607432004 0.19792703925922683 -0.15919791257377597
-0.48242037116038178 0.53034851790202597 0.23876128385278775
0.2913943558182514 -0.069314636119844314 0.18327080968864962
0.69913054871103109 0.25568551720501997 -0.18947160697645082
0.54394722075606161 -0.26119772078304576 0.52129713639346842
0.75794653163881676 -0.20883081289318448 0.38617422843286831
-0.18138066078986673 0.23039009538358068 0.63769871780671061
0.69142877551403426 -0.25999110295242717 0.35585806666383124
0.24564184389809118 0.30211305653227649 0.60569631969923643
-0.19746801603416983 0.30427448497960963 -0.49086576469323967
0.33684058132213252 0.12124271794384292 0.38651622272817077
0.56483934708893258 -0.25170596344936447 0.52228217651151643
-0.020892287947799459 0.50338057391514623 0.19869815399176161
-0.18189662931590558 0.20931927185106247 0.60748156709699908
-0.57273539256622419 -0.0074326340850008332 -0.34950966588698806
-0.26038975914571488 0.1924487338821293 0.55594813999777748
-0.98430771112742721 0.063099287466580112 -0.4389857308341204
0.10007227071234193 0.32399098982659452 0.68764506300100647
0.47712184334475438 -0.10486507557404295 0.25735528992339557
-0.42831282285970995 0.30173385787498097 0.49657277043381071
-0.6431035180576008 0.34314064899592051 0.17051816770940334
0.28114869005116699 0.12826781075151986 0.50566877350340178
-0.31003482544348504 0.31740664815909569 0.61487438137871819
-0.27713274171559882 0.31306678720643627 0.63422700889291772
-0.044388238308637362 0.47045779315737174 -0.10647950642640402
0.8463578053372145 0.43358555711970415 -0.24166838438239027
0.49492586026371377 -0.19903795992461895 0.50998025381540713
0.45121197835183485 0.33260300499477091 -0.066848184322046755
-0.96629667759018845 0.031970734099285747 -0.48264747742956066
-0.7522641615486152 0.065746826368584421 -0.37240137355819058
0.28459476835833003 0.46288819958081973 0.57126327411507805
0.5745943344636677 -0.21360158930027601 0.54099955414277678
0.22779113309148791 0.38011856038838632 0.60705779395626491
-0.22524028838400478 0.54216874478784083 0.59219530042022006
-0.33012921550916918 0.37409190584050683 0.6046578613077902
0.17011901259333981 0.078970570173399701 0.6547903515897866
-0.50292819604160277 0.30368469142480664 0.53595460006227769
0.66782849358586871 -0.27124844883509491 0.40665554367604595
-0.35135405814803 0.20278804105337689 0.51129173030699293
-0.97343433256526002 -0.070256178699754535 -0.52691464816123956
0.37213635505962528 0.39769224324225194 0.46761773926866634
0.64542398281544644 -0.28352625740563764 0.38877232134272743
-0.40433476073528762 0.32642893293838615 0.56427717859318927
0.090497066698934286 -0.013752938591024944 0.39657099459809497
-0.13155834703413766 0.073297281531399638 0.36832798172066999
0.10429663868208219 0.44571355672765461 0.35323804364349554
0.15100574973133241 0.04820523096654683 0.61318249735192465
0.096134270135326563 0.10293233738852972 0.63485613502008942
0.69954120571132061 0.26573310332860556 -0.19121869049037293
-0.39755378899115945 0.020117957081882354 -0.17024390688503208
0.17382239272922301 0.052698820670018104 0.63542519022959087
-0.29817922342011882 0.096499585700643542 0.39852026227463916
-0.54575586210418825 -0.02128991571950567 -0.26344397313186663
0.65109188556371755 -0.20226316174330974 0.50328488669536464
-0.48927985788212436 0.14143440227363757 0.33594444938670648
-0.91990816991526392 -0.090456891816171781 -0.47393313181915153
0.68047182081944479 -0.17165443980750805 0.4787382246690603
0.015416859292687379 0.41852366177100203 -0.21245751728425138
-0.59273551863358853 -0.00026899191135776324 -0.3541749354733702
0.65534915444710029 0.46262496598266223 -0.22698783284670632
0.46767892841345904 -0.02209604858313537 0.3174098198228964
-0.27734503392384213 0.28028460228055513 0.63664029635184238
0.29591178431944054 -0.058339371042949006 -0.010846055517273072
0.72652564717910051 -0.19865151207174755 0.44130197935233267
0.024759430153214648 0.24698829782145248 0.6053348530777114
0.063331700529007467 0.29224560908978403 0.61103998523224912
0.24424598344794668 0.35832623518103363 0.6022798280403372
0.0094086282862902992 0.32323768991075308 0.63813950294643096
-0.14773890696967765 0.21448790381973629 0.59712629984810173
-0.52404578753478648 0.33497109637983746 0.54238026095426117
-0.90064062055884797 0.032712940353953113 -0.50493838859691176
0.18849984217926993 0.15099937554708509 0.62080547709920697
0.088647226517716685 0.40157733305796001 0.68169998085396055
-0.077757638494703657 0.3933808132022481 0.65259206166998485
-0.52000072620590454 0.077420413217887174 -0.11029756113266953
-0.22060451685328011 0.31558873724644254 0.60406628444960664
-0.3150575127881402 0.37185411666764301 0.50410753791648333
-0.11638460857013666 0.54147930421918322 0.60697303242918144
0.78271092078061011 0.30158385768836948 -0.22426184259979665
0.46601629585808685 -0.24402733677165531 0.26392157914438968
-0.93619202039416483 -0.10467305696547435 -0.47917402749869553
0.076039271580771728 0.29214676043053456 0.63621120752993776
0.54890185678031256 0.21748583505269331 0.020922946592897895
-0.53597988472452351 0.3279663282006976 -0.50229780071267982
-0.63837104622235274 0.15816819255456016 -0.5367446058417108
0.87922271582635636 0.24948896452745684 -0.2330433136952795
0.57863349399376496 0.22606784509242328 -0.15780005234418318
0.060069806835654313 0.12049310709725772 0.60750455233782819
0.21117877240384028 0.38706591734377815 0.60755671548501178
0.57593408481021058 -0.073039123163722977 0.36688230524025367
0.25939221905213039 -0.085120265672120055 0.21520945226509267
-0.52893941472716388 0.011883899721818914 -0.29104426799380279
0.2747518486069116 0.0867924627675625 0.58743923549438382
0.12017950450238385 0.25937642779473458 0.59152452961795898
0.13931153750323619 0.067548499614600549 0.64826867061176685
-0.14681108509418872 0.27684862727928616 0.61265239271717431
0.63544166037219041 0.22728914993234939 -0.22844567325625267
0.070747702982848229 0.40755233900202831 0.67544194505276822
0.4823517058830612 -0.24857693106142767 0.50845122437045154
-0.51613517224107441 0.052465470413067039 -0.23965635376712072
-0.41163234007366212 0.43071025151755482 0.63677494481758579
0.35783167204968414 -0.16573351643999373 0.24573489643345484
0.70303665741122279 -0.16831939156645956 0.31372024416841482
0.33420259598708701 0.36597295169471422 -0.058677292721628638
-0.33152624417219856 0.23725013771240205 0.56017072290768266
0.56473181501465608 0.19197348449598262 -0.015940314917036721
0.24920198549340708 0.048645208237492174 0.60776651769803847
0.14914697184377396 0.052256957412823768 0.62759231504742552
0.59257218301554004 0.45285280188874144 -0.16223514166375338
-0.13837634126885123 0.26794649384255087 0.6110757346665987
0.1273895964478515 0.31531368194850679 0.68622040292965492
-0.26262846256081662 0.33077202274108619 0.59824156323965916
-0.94707353808972639 -0.042234848560042559 -0.55324697412156854
0.47849740807489316 -0.21471096467590942 0.50057414222352647
-0.30073525713146976 0.23249271066885308 0.5946699374511677
-0.24021411708793641 0.0098353549124034489 -0.51364063609248189
-0.4340228665633068 0.082779082260795778 0.061869711194046634
0.61952406990401443 -0.16568019912780535 0.5215014112600842
-0.54280420388125561 0.40905108982087091 0.47652271219941866
0.12809617695330028 0.12022819321500615 0.60377767799958404
-0.26814679849202733 0.22530119883577782 0.61066763006649138
-1.0344703504259383 0.095233287013972268 -0.46929111404339846
-0.25346407310978858 0.26055429513310074 0.63981608364337716
-0.37924753977717263 0.025673350008574958 -0.12770408806611758
0.34599950626065873 0.38675181055413965 0.17256497690964223
0.84371237249351516 0.38408006522140592 -0.207088865795128
0.13084564429416645 0.07333621806248608 0.64997356004921802
0.16877219460736512 0.11323930859314545 0.6504565442074135
0.12007727752009906 0.38657033907585125 0.68180951582089389
0.2616650331864645 0.44398157985690012 0.60161339498575261
0.23455387695644134 0.3687925599737395 0.60353804002555911
0.1232711049685927 -0.03092724038674205 0.22006749450611957
0.76485468016531843 0.40421099089104073 -0.20047063296649603
0.10315160837097158 0.13675905957791634 0.59865470889500461
0.097376257001278582 0.085011641349625217 0.59679220938904587
0.36294835402925035 -0.04055071323503117 -0.24867249370982925
0.49123737381496912 -0.24174673374660335 0.49178053936891708
0.41156582898426425 -0.0058795858894862951 0.10945706511297519
-0.8942049097826803 -0.082038239783690625 -0.54947948445731309
-0.10868774423997776 0.24776712647954768 0.55165735836437368
0.36982367615993461 0.37269711242786968 0.34118951751509596
0.094392444551217008 0.11048539980120792 0.62794466818957662
-0.4118691985412305 0.29865089964988911 0.5175404554588855
-0.21657471885244917 0.17721842870216153 0.55407712882708282
0.16417745712402326 0.13114248410726076 0.62053825033438759
0.23898694017216504 0.42308933269572663 0.33765023082695766
-0.26383545191784319 0.35330520928967135 -0.43150637001042325
0.75558032753202997 -0.21934333597229927 0.38624598816520544
0.20678542634041625 -0.093585934845230034 0.25681074261272957
0.090853682206104611 0.39617138178547201 0.68554157184919406
0.25294940772269731 0.42528414190575575 0.25931045012189319
-0.32289516417481334 0.2792975114057763 0.61335359289460678
0.19006212695299551 0.2516348496673268 0.61478473735811789
-0.81492310223181086 0.058348500451138818 -0.40008936153586638
-1.0806539506794017 0.0023095534925933192 -0.47562274406199478
0.10617991031912725 0.4019789877958847 0.65902241804998529
-0.77094808381940949 -0.061657670570313905 -0.45828312030688334
-1.0133309659117915 0.085903051127373398 -0.41379868841747025
0.49800456312836505 -0.18451789140306976 0.53347464985607385
-0.34327274255474233 0.0087741541676498169 -0.32942777332878553
0.031385315413012649 0.42433886279301419 0.64955563524452975
0.73655964862208445 0.2099984849190728 -0.18596526724076523
-0.37965426048150891 0.3978071960497328 0.61245820258957351
-0.76227572116075104 0.099043973700216781 -0.32176769835130703
-0.28652061590132544 0.080207276786983028 0.21575380638299924
0.49619150012103741 0.28433635403210822 0.10762955854200959
0.49439856769925022 0.29269000920368193 -0.065020708133831123
0.69332099892421006 -0.18470617479063572 0.47202379140340261
-0.35210433798026941 0.29649846116676237 0.5857141615275494
-0.97194893776619584 -0.083268149062495023 -0.48053068044435787
0.19913535763309465 0.12384422064980792 0.65229869406103325
-0.60423587530203304 0.041880135547603503 -0.34827081006912175
0.64005973098984514 0.2549499001099631 -0.17393981234427733
0.23138737121250533 0.32637020891238055 -0.2768351448399457
0.64101216849688969 0.1200664290970731 -0.1989285858730126
0.066588863654990005 0.50672058188619284 0.62611596305548955
-0.56934142240170926 0.065180860391585438 -0.27721541924745724
0.36181503730216091 0.37454615271340036 0.23369270362263464
0.27292931181641744 0.29253323776039658 0.60579212916008862
0.75541611585868695 0.16430601529880007 -0.095131693364455483
-0.1745850654855387 0.15103237051969404 0.50256239086555865
0.058284395960305713 -0.0088194885629454545 0.17560999560727703
-0.12621020852024925 0.013559786039965604 -0.0051013849536069023
0.47064797715892515 -0.19274719459770404 0.55268191276089584
-0.85257214891334043 0.42090496098823754 -0.18735002168035139
0.70957310079625979 0.31240988990716956 -0.1970900586179905
-0.6178525536516255 0.25621801193216831 0.27778321085344831
0.52623342319760424 -0.17711742779548792 0.55200809670674955
-0.57972341008476524 0.17235376339083019 0.15116819981096311
0.029580530423576806 0.30197945816761318 0.63038305231143332
-1.025335950757275 -0.0014524797449649851 -0.50486078522293809
-0.1354708157864114 0.246328758074048 0.60256533531842438
-0.6237374631284871 0.25114473534615156 0.36395419106591093
0.52015355654360418 -0.24791223594883766 0.50380329183554229
0.91021874722316398 0.3754587867197744 -0.2309181504645792
-0.25345802015149366 0.089980907290311052 0.40854798429574324
0.13822104182509209 0.088054263249733783 0.65482756244833329
0.40703944607610171 0.16980687235932138 0.36909756370467872
0.39925626446447815 0.0099772031082041059 0.24382254211055671
0.61930579757345938 0.25824716343369403 -0.16831736280371648
0.13014495095457185 0.37732022301850976 0.68317874607331319
-0.048878115164690428 0.24078240020578212 0.59871224021953118
-0.54448080314424452 0.35784383935689779 0.39229112452113668
-0.17789832382531257 0.14254781338417877 0.52732533019202121
-0.60854056634332343 0.055960866696558975 -0.3394242202803609
0.25228639462925273 0.26234349075960783 0.60748255000608498
0.68069562326042676 0.26874759275919913 -0.18631786068948608
0.58718006882268703 0.1935886531254819 -0.13146960848059186
-0.21801114702562502 0.22925722501838919 0.63392266535249864
-0.74603064287570708 0.08591953890677051 -0.34197086339715232
-0.51136443983143776 0.4669302417226493 0.58829230338547789
0.034756593473754219 0.32070137768897705 0.63639006107987173
-0.42398428619751377 0.26565213472825899 0.5173280186200343
-0.5799217231845023 0.093662543040341051 -0.18759259824576996
-0.18821954287405832 0.29215254880923558 0.5964410690148878
-0.78631101706850426 0.18349087775438178 -0.42364870776343377
0.63723703020765821 0.35946185486733107 -0.20487330241761714
0.64847073515871068 0.11162721296966382 -0.1657853705114182
0.0864690980771049 0.26415821373746717 0.57445179506094191
-0.4052149377192153 0.010449225887559144 -0.36447142585647224
-0.26642769748393696 0.47613449303855493 0.40010413280808566
-1.1398422014293643 -0.025884976468864007 -0.53785802517529779
-0.48130151909161806 0.20513633997289527 0.45688372541589328
0.54131939599853418 -0.22835674796945835 0.26406647807210171
0.191978496776117 0.22769279505137896 0.54775580756906428
0.54568756315898215 -0.23525872056816846 0.5049555946289529
0.2184368197320754 0.30691474439715377 0.63991505215470545
-0.88462893298487688 -0.1131172826388096 -0.46833993414171521
0.48139230454242521 -0.27068111678880935 0.52816466875198687
0.25191423665362311 0.09974546206338461 -0.51124571165486876
0.29141008202510521 0.22046435914002332 0.57536975665764833
0.06332952159679768 0.42292229598981901 0.64551282741121696
0.50772816341777671 -0.019320026565789992 0.44460735977766219
-0.40631899063094912 0.36537384408217366 0.49285482421193955
0.026702400957526518 0.3610320677159129 0.66563117708396735
0.12158847494734944 0.018798994356310661 0.53966382549137126
-0.26992280562482351 0.5378198326010275 0.027530923326127443
0.01328561113338067 0.42909705231834439 0.65422556181163005
-0.20244856850055559 0.19506727545073232 0.58663841008375117
0.68572717679710515 0.13475534499542369 -0.07197847045303768
0.59270919956319279 -0.12624997658794199 0.28469739408258221
0.62444050796779116 0.13721717648120713 -0.22425197210670297
0.70251086256491591 0.17058602808355505 -0.17312713877829927
0.52448174804340431 -0.25247347730701247 0.52005970179562966
0.57729686801316105 0.20081207108216792 -0.14909566159252838
0.13368236059063363 0.38064637299801823 0.67993885376096574
0.2018515677590117 -0.166174807509824 0.41925537549420044
-0.05062964252300356 0.43658530997445083 0.65234024348921882
0.63268498413590568 0.18257981935531087 -0.13371997592059709
-0.4197049128053123 0.40454751822176993 0.6131425719547352
-0.42804380605388231 0.36017852641296666 0.57736130980615141
-0.7610295396504243 0.128861132419402 -0.37922336494393305
-0.20193735205869273 0.4576037198923027 0.62232080761532083
0.15362591766165651 0.016673240368819009 0.56954467394838582
0.055289020579635376 0.30619330057358773 0.63417722977720437
0.66473059334967965 0.3510198141887525 -0.2107769540594473
-0.61725216545135686 0.10252509035774549 -0.21821295176730987
-0.85078239076190854 0.11556251538613105 -0.33105332536905091
-0.84957234293460093 0.23519145374907152 -0.37312638574555124
0.40232919613017359 0.0024217330553433429 0.18929291926361919
-0.037594478840427215 0.49877912016733744 0.67844435137697656
-0.8993290826949516 -0.011474797500160894 -0.46206361993135514
0.15499057035765265 0.11428552333342104 0.61509037320961379
-0.053014075481029675 0.024428359954892231 0.15297172608366388
-0.058440167112491281 0.4548585464182523 0.47119307854511816
-0.39787907572401382 0.22976247617605772 0.50723741668457301
-0.0080714756753812456 0.34458818271188091 0.64389888448191446
0.16263169861815779 0.37577207925778483 0.65298446835885315
-0.16965485876436978 0.35706375225305681 -0.39482286774034842
0.33174326206053351 -0.30029331368751822 0.30606888581970004
-0.058196719211274839 0.48714264820528513 -0.052546380778312862
-0.19059699919287421 0.55553198362427036 0.61424183417812528
0.075598730254068824 -0.0046875632960369784 0.24067621025171354
0.47923360124871367 0.35087532935006027 -0.067378669659545753
0.069785129267089185 0.10230641227782364 0.59906875267068682
0.39720172653841296 0.28786701081863691 0.52806792837256367
-0.12815714678080636 0.45991361737132741 0.67892149201281826
0.25277352552944254 0.32328648522373105 0.60324938748329138
0.48163214761105189 -0.066447638124047512 0.27623129424486603
0.081713906007515671 0.43094675422047146 0.64908085207159749
0.41719419626789139 -0.22730183267871934 0.55462199454927752
-0.48723635160830026 0.43843350739022557 0.47087332738537074
0.55614530350717839 -0.27220583943809362 0.50446632974637773
-1.0679462619759033 0.025012955237779355 -0.46644407186520775
0.88759522401172042 0.29141802767996994 -0.26607202997990326
0.83078753034582331 0.18102338450986688 -0.14175789744470713
0.2522516591425456 0.07953336327008953 0.63586379938991988
0.12269405099695199 0.052325363483183368 0.58324579780460939
0.4326510088580709 -0.012694303151479402 -0.13404447316591919
-0.26832513455313156 0.24325611316069692 0.62351255979822018
0.17192980611123809 0.41097796865304098 0.61829107296639374
-0.61058217027482586 -0.09539696562411959 -0.40482890700010543
0.54326466210608904 -0.050849092230445758 0.37267899782588076
-0.70710517472767243 0.30609095916190071 0.094722927273001911
-0.73811731133382219 0.021880606835239735 -0.39326317286367585
0.010253420832899179 0.37301758071249763 0.65745940234178724
0.24351389215977196 0.26191630121097587 0.59794634341707842
-0.56412540593577098 -0.014270987128691459 -0.32659316661233029
0.079828007117012822 0.48233445548527148 0.5284680101014585
0.72414988285101844 0.17333882856687366 -0.15280955287067638
0.64907912333552709 -0.14604510726656245 0.29661808037566151
0.071115731712110289 0.3336501083010121 0.6847454606249318
0.50018623332604029 -0.23168016897660848 0.49058564356619749
-0.14345091426039869 0.20682083959165504 0.59242898988334569
-0.20561708715582611 0.3270906153371641 0.6170309703165695
0.068017665420746054 0.50402597523539472 0.64377385890567096
0.71434876965124416 -0.24890438961047762 0.35006163294896026
0.041105353874544018 0.31004237277398089 0.63947881078830748
-0.93527812461060322 0.1083145254527017 -0.445877921575425
0.42137977222299289 -0.19922526153135764 0.56415997212618496
-0.15204297185536134 0.2103623307922412 0.58415922536440368
0.74541667029985259 -0.21183463400754021 0.31893180440117685
0.26922681226614542 0.33354527901952469 0.6029619824611715
-0.079660631545251104 0.37864160686086712 0.54613179743979212
-0.62648609118904974 -0.064326143840741423 -0.32857781878777281
-0.033804677554596346 0.44249659687786619 0.65103230410638246
0.13147992853079349 0.023608546423822596 0.55728926041618898
0.63615756127281431 0.19176477785342994 -0.15375761528018531
0.19154830326655845 0.13516076326707321 0.61201140625825257
0.17262626884643353 0.27529728527102787 0.62693225642803663
0.34310431436763933 0.024738577245723495 0.57902116646723623
0.10894597204815688 0.086701486102848807 0.64381407763739951
-0.091547171778184139 0.39594864128738894 0.65870856074969175
0.82301054684496888 0.33784817331855188 -0.25000330709659574
-0.81979820622044997 0.23615126262686337 -0.43155147958197182
0.67992025789356214 0.3499663859747576 -0.21149854290288952
0.52016582623617047 0.12745606777116641 -0.28539732283268177
-0.055896566603910569 0.44748739759918998 0.65299088906431502
0.1144021632502982 0.31376403619731635 0.68343197654372356
0.31401516885124409 0.15072127847718125 0.49894701303974925
0.086007348584980575 0.032774138813487452 0.49124990410970742
-0.61753226227383129 0.042112401361969365 -0.35356405769576915
-0.60407436310239404 0.050652719625704834 -0.34349666381598937
0.46011980576286604 -0.32317327054226136 0.45836823189967202
-0.20443988966223467 0.15505494301543721 0.53422466678072156
-0.2079248066063886 0.21998187916841833 0.63015113908590648
-0.11613568383978379 0.52473061352113048 0.69149821280858959
-0.77695649083237073 0.045963582137317216 -0.39403983298031159
0.53905270106290515 0.27782287436941111 -0.10164385098218529
0.1504989111134841 0.4099831790760915 0.61806420333527945
0.75211634463020638 -0.19358608738717292 0.36073089483089604
0.12478761174453532 0.070897912166470123 0.64548999631299475
-0.33323438226081042 0.36009396194092519 0.59856916705151608
-0.49612153536126308 0.02768275577538748 -0.25045544847979301
0.43549144928449357 -0.22456219649863104 0.50592530026910087
0.1847235316217013 0.11172192893786427 0.6575200226495026
-0.61304895759543032 0.22075066699356166 0.20697208685073798
0.26249618114829321 0.33436617213493475 0.60389999259520755
-0.14599788165345989 0.30281638068917727 0.61552443597866646
0.85070044884775498 0.16807196517644007 -0.2458975760623921
0.41909912269103583 -0.33582157734561685 0.43508996943096306
0.63565217940962504 0.22660609765933282 -0.17408277119023527
-0.30179554292711785 0.38724943425836739 0.62937425861289698
0.087923055035257491 0.097856628588127381 0.59904465006136032
0.38201504795491498 0.1608734904083052 0.40634893448193532
-0.27356847029935405 0.35807677736863153 0.529570341903432
-0.3055994350122041 0.36080603831830732 0.54035465952914041
0.028950426864595803 0.040985220791518714 -0.61722279413991887
-0.7206402200130605 0.17031585221879125 -0.48624414852454334
-0.15864874065936294 0.33953138960010204 0.63729384132992672
0.60079877702526729 0.25196163186403719 -0.16288392540663327
-0.19521272058206363 0.37579188223416177 0.65462077155516907
-0.79226996344794187 0.18107148187168337 -0.39418460010055439
-1.0724645148340333 -0.056063409637884254 -0.49430581059389461
0.04853534567244995 0.40304609479846354 0.68723236034344848
0.17450056889139864 0.028529147466179045 0.58728292345473099
0.084379782662625649 -0.024746048965424344 -0.52616478882482298
-0.08588197624584587 0.20439769189025886 0.52484226572786252
-1.0996393331045062 -0.083529319552617443 -0.55106478155033745
0.088517417083680994 0.35087171874304884 0.69473848589506138
-0.23442952101618095 0.51726932798660152 0.58928724662020693
-0.81865541638770911 0.036689528908180002 -0.41337837192131482
0.35182003902207354 -0.31684880542764426 0.31014325425704731
0.42857480377395507 0.32049947184947564 0.48624927651782851
0.26047154819548946 0.051902342727636067 0.60195643826140721
-0.67053104468383262 -0.11191112729193098 -0.44129031237477084
0.0077489484752147897 0.33583536733716762 0.64361892563297629
-0.38657693005881 0.35954122982134168 0.58129629068748223
0.14271713683067425 0.19895966278687685 0.62342723166275404
0.12873637145941547 0.17152357106390836 0.61299635638720984
-0.671923479281479 0.1575999524422993 -0.083227004627396378
