# XYZ point cloud file
-0.45578276340783885 0.59463703228044951 0.54080915473830815
-0.84775430959085918 0.52371968685705961 0.31661161028896428
-0.80261342874925368 -0.14390266533749607 -0.30284033156723239
1.1144953311157204 0.20896789356053103 -0.36806677353670758
-0.61904414469930158 0.63039303960068105 -0.3323977958734346
-0.0048872323313559063 -0.64559651090148251 0.74234900896061351
-0.498563987041443 0.62486718188619261 0.41717708442927448
0.4656675236340494 0.69511181574047098 0.16824418771618982
-0.89043557386873462 0.1549092724203055 -0.6280083114839905
1.2431569323617433 0.10153596858284808 -0.35857574798231795
-0.87449677812664428 0.20622132568946661 -0.57213234118618239
-0.92618927155454012 -0.049037331926982453 -0.40132704377360473
0.69624176173172003 -0.013572081630003119 0.077847256441976681
0.81116118437222118 0.0027823080272170175 -0.24964456561321693
0.075609733262470752 0.20899112163826603 0.72582625771810516
0.16529245563686124 0.52106604072687168 0.67622803966784362
0.8166012881026008 -0.024914087803565854 -0.27209848738954534
-0.092283704810844691 0.87630542566147684 -0.10136297358301005
0.00050920822291633527 -0.33559336505940812 0.43194911224281807
1.0079428518054825 0.031776703202184731 -0.32162364462102222
0.26565191486458739 -0.57640788704740875 0.9266318485668612
0.50622217051518281 -0.66282723023161216 0.69677427736552211
-0.34351946447562659 0.44276035194416163 0.66464004641786234
0.37778656560406421 -0.70629822851135282 0.72137389988286305
0.4082193701472171 0.39701522613526452 0.62029836525742232
0.35623001827114986 0.30681593492312437 -0.78230913017065795
0.31735392619931135 0.014560963152035533 0.47747171320740811
0.29871302491785856 -0.57546392783448574 0.9161337668553976
0.54232781957900522 0.75112162303512198 -0.020277642292967413
-0.3618414902903867 0.40296069655877226 0.64807014992673817
-0.83096204342479008 -0.10240458488614335 -0.29570306845381994
-0.48826368180200441 0.38746072687826466 0.58795780737236436
-1.0387364003280108 0.11426813122753654 -0.63092576616486251
0.20406988629952094 0.50159446715721534 0.69831962485195098
0.21116875762008758 -0.43669845941780944 0.52016597081689653
-0.58703875611116418 0.56824816076085571 0.38291902734450572
-0.64354765597513164 0.57440783907234239 -0.091914933479655514
0.24953055481010303 0.079570245494929137 0.62166682070281098
-0.43427632631181207 0.59711961234920496 0.53999329216220548
-0.3949188122737205 0.58786315798012778 0.57443852457504851
0.64404430542849034 0.64916788708659967 -0.37851717681557928
1.3307475786474576 0.23723278013665494 -0.38684800435584277
0.2375479792034999 -0.48114364718069563 0.87645380648244953
0.89460036041541668 0.27720292688285009 -0.2224039360950105
-1.0424277212838764 0.058301005964036201 -0.64025768820525852
-0.87991189799676761 0.050690489696135987 -0.45917017408637273
0.66889644047661201 0.63011667946358629 0.51577163959036831
0.34315168031883386 -0.52756594764211839 0.90430742906441541
0.48215377883159188 0.52859479723089975 0.58127945669190273
0.04668973514473379 0.9154988973777195 0.410216307132587
-0.38699813211779832 0.68138103734149846 0.48229197589434253
0.042459402431766824 0.099303882259727139 0.84042819031401161
-0.70580775827531861 0.60345127213259131 0.39607478659492873
0.3647135630892151 -0.69128559284520885 0.7892712271590665
-0.59849678679422769 0.41485733366056898 0.50584341410824574
-1.153973687049094 -0.065865898545388712 -0.59778787214188611
0.72958299818061756 0.48241749873353812 0.41224825981363056
0.32163416158879943 -0.70144957992033219 0.7857205082739217
-0.54726718465272639 0.61879588194239354 0.44679526512465301
-0.18355980149237072 -0.094510777635941956 0.64029201072397379
-0.4029009648092805 0.10326686884070918 0.51771111246642243
0.5170556273175636 0.64390110465932948 0.21184248636258216
-0.018484390784133969 0.049631759886786198 0.82005833493013935
-0.047564450244270418 0.15778742245057345 0.79810375869462113
1.0235180952749983 0.048518340601507615 -0.32621555264649627
-0.68418175683119919 -0.076485830211718397 -0.074382137538119897
0.021812963069559516 0.053939831118597681 0.84034268192869899
-0.61091328528562894 0.21091725456379429 0.4976692090033909
-0.85686936247150769 -0.10152379020473667 -0.17186349369859152
0.43192798695711021 -0.56491300576753001 0.84021030783106398
-0.79903386908750496 0.31280993967878035 0.33023816412362567
-1.1640185720293696 -0.09294400624444521 -0.49463295176692279
0.4797497759832835 -0.54812632487373214 0.78399945833338314
0.67248823492751963 0.52656763332009904 -0.47724593037186164
-0.83785478791184254 -0.087144296009371014 -0.31461078697482175
1.2413140570092844 0.36994201780888203 -0.38830411367549356
0.3029166019544956 -0.28875999978102057 0.51112644991903966
-0.43532912423472697 0.54231656715334009 0.60119164094688959
0.0021503814053014936 -0.38291940258187585 0.1854979226148169
0.50023303968152188 -0.61741071425555727 0.75504799603278161
0.0055733362866192404 0.38818123423605544 0.64345349094930948
0.12315275437565856 0.44746763539736245 0.62010379125729198
0.47837551843918313 0.48696059647291201 0.58663296733964987
0.073479513402608332 0.52008628989340289 0.62678216032652601
-0.30158168127924639 0.39510703321192353 0.63895821547419418
-0.70020344579433624 0.65317674116751034 0.37146589494381099
-0.97732754797820576 0.027835723995777939 -0.63626697946515376
0.14189668067904776 0.18559830117717493 0.74359233426474169
0.28670328249999488 0.62423916025809068 0.64866674823183135
0.026279513565395041 0.65848462888853154 0.58781108755651956
-0.76000035566610802 0.066099942334514994 -0.094938298966888074
-0.29314012595596262 0.56673096495991393 0.55214821469444031
-0.3210137431549307 0.6464691219244858 0.36922830250737404
0.20496097754152826 0.89115521837416334 0.45967857515261701
1.1369468745695199 0.067756155977944932 -0.36430426472752064
0.078415844130046541 -0.61495356056008332 0.6610571437462085
-1.1886034930571256 -0.10278940034480721 -0.49655673840587389
0.13736512242821719 0.44910921740752818 0.65241668781217166
0.7767260682347108 0.050029142894505108 -0.06501924768913947
0.030411812258673732 0.39504013772448976 -0.86214600076030579
-0.48482359941307707 0.10498864911884498 -0.74095352709693296
1.1316628675291915 -0.062086993454912642 -0.35767147966400542
0.85666487200071373 0.030207001920334764 -0.28357605546381626
-0.085034421244903319 0.18776929531909517 0.75173282282660248
0.46801361636740668 0.54604541540544493 0.57700557190632007
0.39610263213679259 -0.39717176701074491 0.59725173608402449
-0.052831042635790859 -0.334156283168068 0.4908765627191618
-0.7865350044274888 -0.076881078238716372 -0.23619130762529833
0.19870876629432366 0.042863009836351371 0.75371024217178917
0.17101593332486978 0.37129155744740577 0.62345286583295945
-0.01513705095236284 0.094492383475002079 0.84255348918186312
-0.22877700961557873 0.49053439920638442 0.6067583263773626
0.91879735174139099 0.0014026621177852805 -0.36257414878772154
0.2695253126343532 0.63866079895778538 0.63519786077259599
0.18833825813063343 -0.53521574844659825 0.91611552923264372
-0.73727121509176086 -0.012781026204672141 -0.21792711647541385
-0.45038705891641218 0.79047767892082343 0.45791723270841678
0.0012455615366464556 -0.47393703082309652 0.58971205392791348
0.44361060031156591 -0.60618633778400421 0.59559740884335577
0.83621018548138981 0.37578212797281774 -0.2358265422358152
-0.54499321043306659 0.47310667036631454 0.53541080835845389
0.75610943916788687 -0.0078239749901131139 -0.096118393760595874
0.12603915917481118 0.0049213973105420999 0.80996605182802695
-0.01619323387055438 0.061389525158502323 0.83246485730923347
1.1798182818677676 0.3944170394959392 -0.32412532763414331
-0.2261959849689277 0.474294118877086 0.61337343750100914
0.23550946257095262 0.47796430286644831 0.70450987790505804
-0.33728537899904887 0.59880965717889356 0.52402838182816391
-1.087358628102542 -0.053652129409887284 -0.63916990070274859
0.20201696692100085 -0.49575915173124718 0.88227583360905526
-0.51368120932676276 0.46922874892023686 0.58549389267634511
-0.3917028358565986 -0.23537469027614233 -0.48864782040076082
-0.71752648344219994 0.10621176709873037 0.11633305559425455
0.42551195384977536 -0.49637358737223525 0.83770587568897503
-0.593018362684955 0.74230723701328272 0.23874367003343289
0.017784659339321759 0.15875052393814415 0.74920501108414517
-0.47639165538241968 0.45466948850080907 0.6177168224487426
-1.0108253289655449 0.16209771595215106 -0.71952930251330316
-0.42193133330770488 0.50863066586238992 0.62613816628189878
-0.67033225936521612 -0.061229281736359442 -0.027104664395821057
0.79280232970366082 0.44162638972486207 0.039811159054855563
1.2743876967061925 0.17048093412635956 -0.34788093959372746
-0.022440543613047814 0.10686018195844071 0.8396540656503424
0.073430735444553419 0.14738438335861764 0.8080803212354073
0.31455563616230203 0.58991609726207983 0.66031121932711223
0.60735387499174531 0.61367255812371935 0.55607991779624355
0.47803358675077112 0.50755497890205992 0.58247776405717444
-0.1700457037549451 -0.20132165200027941 0.45644604701306435
1.2465730156309229 0.23874498992611937 -0.34791128255660275
-0.0022926889217414204 0.19123460567323314 0.72920645253271577
-0.064562633358535404 0.11818862398662786 0.77090677441595801
0.11811654654604783 -0.43107683281489373 -0.14707533898199274
0.19766150058585763 -0.5380800834848517 0.89216521312085673
0.227284943640298 -0.30135592212467688 0.25198055289821153
-1.1002971669505319 -0.11753027904221014 -0.57292574006320585
-0.19123987222191358 0.41600768436168967 0.56508520943308538
0.73583873467497884 0.42976625642854016 0.25853841163329194
-0.042880214145040729 0.16679160737659798 0.7841196169433382
-0.57538171309224906 0.56654017256997469 0.41397197508260908
-0.43927543005719372 0.35091721116578495 0.60936775512479135
0.083964942892046521 0.16571955082756781 0.75940807297533808
0.65749369660890999 0.56112251149219339 0.22123417540427412
0.35986415478101969 0.41899672011382139 -0.7522502112307663
0.49586071351137972 -0.67522726510923214 0.70581852838134562
-0.1224146549392216 -0.30822055797499781 0.55405850349990649
0.28187545789152108 0.61574854841005255 0.65635472245039106
0.71199846071355399 0.54999404498141513 0.12428189638458201
-0.49940261256249485 0.54662299859878638 0.56277326538620909
0.26266890821223476 0.33937154427773408 0.66093001659528394
-0.93043868625612536 0.056715940521023689 -0.50699586188377277
-1.1685201397955709 0.070179955688001616 -0.66508072603679147
0.32074858366619452 0.61522831957754232 0.62228681601188907
-1.0249297592720801 -0.11878142090333621 -0.43430119276097079
-1.0443065377304808 0.15930204342867038 -0.63980259322884692
0.26027562407179961 -0.45579548646053825 0.88879075974774113
-0.58513003497650229 -0.16197607291454463 -0.25063846249995098
0.24166811543283875 0.67359079955261381 0.58809182565822316
0.96551686061052355 -0.062494207383709033 -0.3006365672040609
-0.43497810028220851 0.72956219575518166 0.46030406965098997
-0.86719368943125374 0.11208235813814982 -0.44008719012274666
-0.57942882273550378 0.10913427641451612 0.32130519991811424
0.81212524625008187 0.20140537059495078 0.0086606194831012964
0.8705917390119321 0.19288851642573657 -0.20458726411873249
0.48316620430182511 -0.57352333179318737 0.78428420345034677
-0.51428266425292846 0.56977924494387477 0.51020894498723135
-1.1902306188802394 -0.066110804216379382 -0.53561174048599447
0.12994353035326361 0.15054984783815606 0.8015617462814969
-0.79055600015729577 -0.027888878809700035 -0.35793583357311232
0.95830439562420444 0.056260141651259921 -0.30807821215587677
0.74816204405263731 0.29864018864480923 -0.4919054516591187
0.72842209047178086 -0.19471830157758241 -0.2734963348315852
0.41391587028997534 0.78560492772427393 0.53646776442269983
-0.7554474097536521 0.0115044564951432 -0.29024272796357553
0.76839239548978577 0.42324838585186919 0.12122252510952439
0.43454552056587192 0.37093627422499248 0.62748389234203217
0.89669114603307687 -0.14090894977711288 -0.17276931034043344
-0.39690900057948031 0.28027465486989717 0.58492278408033949
-0.23078661277093981 -0.16153060589984497 0.38631734591416433
-0.42074250098465071 -0.12821330715399404 0.15335183728162041
0.22561054391999802 -0.44497538010109788 0.92007040776974514
-0.43646141096651137 0.64972312767726936 -0.64342538606534139
1.0976566780243795 0.1210932749160607 -0.34146148171877522
-0.80282928198113179 0.48117889752673537 0.11493152235385701
0.30928197813850622 -0.45382029911652361 0.89705811921178413
-0.80829417504942813 0.31067462056040851 0.07527382725115711
0.078995311738528112 0.47857269196467822 0.63391873891203909
-1.117768138808896 0.036339404653530805 -0.66286161346066708
-0.24620218806152411 0.43889612481816975 0.62125507767150623
-0.85496934262167135 0.50708055359547533 0.20610741596203708
0.23596430387417167 -0.55536940886246255 0.90354151651707171
1.3068179273782787 0.12227398072153495 -0.36921937883700151
-0.55832991616489458 0.18945111033282602 0.52495040300141538
0.0028639860491586622 0.12599369920681122 0.83314477961535793
0.47900646040200351 0.068593655112824892 0.41005988873929733
0.24425464785026879 -0.23304959600422098 0.40194578644481621
0.94576672100880144 0.070843135897530551 -0.30422476821359001
0.31749880910769213 0.57218474093158378 0.6677789785696675
-0.116383706547057 0.40127741017024998 0.6334134068927747
-0.62423946579578216 0.64306423725433826 0.18100547424180591
-0.41435818818572834 0.27939732642597509 0.6186107039693195
-0.77762513265053168 -0.0053786868549043909 -0.36452691015491401
0.36762472484034547 0.33101137379612222 0.64699768762711829
1.0130371267384379 0.062052268833505675 -0.32286054590831459
0.80270412056416951 -0.028622816943850382 -0.23686284386048198
-0.40069948091203039 0.45193381307580882 0.65290569828616818
-0.86070880586790555 0.083169140400606523 -0.44342292059421823
-0.52515939426381775 0.85010876048593309 0.34438569396760932
0.1103775332442508 0.5075760476366602 0.62934775550981681
-0.6327104963749246 0.52420155817349989 0.43593309607831116
-0.76650253807005286 0.082350480234165357 -0.21914475768171648
-0.27024100729855327 0.52051615387696126 0.56809525535477778
-0.67169668518448233 0.20763923267195961 -0.66364893242092227
1.1092424180360116 0.22605843790068758 -0.36336455656317002
0.7155319662387345 -0.20880481012372598 -0.22778728186670044
0.12900962957155521 0.38605085402750894 0.59690401438290697
-0.63299065026005275 -0.14742926644762089 -0.30312167831367626
0.00068521272252597409 0.78399740688421349 0.1828868901942684
-1.2076729228303111 0.043460427979529204 -0.73962677947591882
-0.75867471140132214 0.43896391543463742 0.40070328889272272
0.18195631828846892 -0.62979876211624353 0.63083574648122853
0.24347083583771201 0.28421495882342418 0.59512050008324102
0.27733048911252595 -0.55266813743365539 0.88975979505029046
0.36909193207256336 0.42136303173505429 0.65901801269969273
-1.1650548948397383 -0.12967202806493683 -0.45072837914955344
0.18154030875547156 -0.55272386702277454 0.95292594260722396
0.3636768035324327 -0.17713209620577897 -0.6243184527606408
0.37480479593120841 0.24150191474680754 0.63550348916272859
0.28948986082746009 0.6603993309356273 0.58905006965516316
0.38410395329254321 -0.26313518417493381 0.65144249149845768
-0.46543874191502277 0.65384718242506534 0.33574215192226986
0.14330894327984087 0.57940789293733552 0.63999899509642499
-0.095868643280532795 -0.0061624718578358051 0.76570421245695397
0.41121539332076773 0.83109274884926176 -0.29171483359397277
0.21870192834429428 0.68742856561743659 0.58867232526790869
-0.4048417082110165 0.38266417546417408 0.63263390389431839
0.78180826435202155 -0.16571712943301109 -0.12911967933052773
0.33977252444576034 -0.50758039566468061 0.54845957602629669
0.7488584902502855 -0.16007300127821167 -0.31492388737317029
0.87096431577218725 -0.1184857375756736 -0.27053761078810024
0.24531298377583477 -0.55674556376911788 0.92269057453397707
0.80980256887845803 -0.014315614878304905 -0.2620129585808687
0.32782319575687646 0.57550450490311755 0.6625602126455421
-0.15618811779694264 -0.33267515356781374 0.79656316731293819
0.1306526095235199 0.71784467180973088 0.57055174256430796
0.82510568166557552 -0.065420488030000223 -0.23211029793583776
-0.48793329796726459 0.74817720704789248 0.44324155928995412
-0.54425734697741801 0.67636468230748759 0.42888479238476968
-0.78144291633697427 0.13401333951325956 -0.54022480766584491
-0.066126003125065003 0.78364357530404838 0.4882224088506168
-0.048012815385129942 -0.011583152051607759 0.79925019274759568
0.12382238863184293 0.47760274812478221 0.6384408564923626
1.1186684080068794 0.20014151249278811 -0.36626036930192957
-0.77669896984298836 0.097316344343963967 -0.27563595314738748
-0.91673042744106137 0.16208985457716674 -0.50291435908416571
-0.67129720441803431 0.31370932719317507 -0.67999791651345554
0.23308144401796707 -0.26226311404986191 0.34279068594921625
0.22555112875700201 0.81318990444923034 0.58251518882594466
-1.0609995479572145 -0.011384896729955796 -0.54373681248127781
0.052332851037469555 0.14289378309585202 0.76703345683092417
-0.33447968693217456 -0.080882682882850887 0.32803627622473053
0.23797320173946712 0.71942987121819424 0.32905508276424961
-0.63354801850853626 0.46428489153068619 0.46366393939501099
0.072929661708407367 0.56016990271803235 0.61779877764978641
0.37164577767503915 0.55304939357120464 0.63428006373659596
0.45144320955862294 0.41790065742464666 -0.69709827813114555
-0.10983545698670816 -0.59954924706420143 0.77727024503651676
0.62637941020336441 0.69037409242683334 -0.32241382869482871
0.10735059221958887 0.93153171783459521 0.44461152534171167
-0.20257649771905187 -0.13747372993922957 0.45622680933998616
0.94617156163323246 0.29748358131049313 -0.22333429310761072
-0.08882894227787444 0.15489299406905596 0.75808318938997699
0.60662629073565011 0.30015961683708514 0.5368164594368865
0.028637717892405878 0.77957861998749767 0.57634456461688444
0.44549964727048869 0.42778391712990416 0.60601050064152095
0.26216493402935515 -0.37541278066070133 0.5033308179688275
0.32616193791004944 0.66720276325715577 0.59336764536778208
0.13268640586966374 -0.4585433070686934 0.95771011969441533
-0.46166719192630062 0.77439181960475545 0.23206409571616099
0.26763490274141555 -0.60180606483249632 0.91541048103442613
-1.1359887830315489 0.093417462295719012 -0.6684974318593413
1.1952204264321009 -0.0016582365897583884 -0.40213524440676207
0.98901317714811787 -0.14764772508002866 -0.23335553648778068
0.16345623919915114 0.057557279669963872 0.81638688713585017
-0.059170116862389294 0.056514402403704894 0.78404260272386117
0.24156532848573201 -0.3773561469133267 -0.048515848882538737
-0.46006508802791762 0.48381071713034107 0.61749447357379206
0.44075162649211069 0.5998354972828871 0.57584010503645267
-0.95326756312113226 -0.20721136618242331 -0.28010311909303426
0.37940023736954603 -0.34793898102675708 0.58989109549906649
-0.7345490743612566 0.51182401871226735 -0.16556841260145277
-0.91993973515999972 -0.015091080561693837 -0.43138070992066357
0.13613363410626678 0.60164161281872264 0.62050885587186411
0.35576733636795932 0.33178386987234137 0.63499795648541379
-0.84148168381483202 -0.10684314074486145 -0.25860511974073602
0.4473069473845333 0.73289999260101801 0.42048869544515544
0.89148926555288965 -0.11912975218951771 -0.246984294492476
0.39297260637283737 -0.55653410370564216 0.56829263234020955
0.17202469456201996 0.52610865103439797 0.68566729794515469
0.21524884863033267 -0.53098693910389549 0.8812959526832872
-0.30283188427590224 0.38109140653373408 0.64081345263446599
-0.25839842514330752 0.58347946539635143 0.56221407270449897
0.40416153256470716 0.78288014330356459 0.56002644883310504
0.41010652298382699 -0.7051777376270234 0.70070331345625603
0.10549368151508971 0.48956819525892276 0.64092190403923044
-0.92679925190344314 0.14949979551424353 -0.66102930855979669
0.15953359823117297 -0.4233226271312327 0.94510898374106289
-0.31054602407744863 0.38614353488157399 0.6271302729921584
0.46017045526620265 -0.68200041985691695 0.62909669225518361
0.48120896896912368 0.43765332100588916 0.60165953254169335
0.044245590697082227 0.61274626771241314 0.46279503709831904
-0.95893902369190021 -0.14018664453886287 -0.22835588282149233
0.16590068723194265 0.72194124485338196 0.569626891365836
-0.075320523135294165 0.0029870687143524477 0.78045251153590511
0.84740899507412515 -0.052484014017047054 -0.26039137328474726
0.12911368478709517 0.15783422490820076 0.7459731718285999
0.26454809063465584 0.38607794855551036 0.65923735170425313
0.23344027023859359 -0.081482273945204117 0.78981809689838867
-0.043433937133920297 0.13274366018944198 0.82164537644605229
0.0054179814263702331 0.6676022574834849 0.59130244616636429
1.2116113953305332 0.10356110159344145 -0.39442363878305753
-0.5887729392938309 0.29452138680706597 -0.74187846729347617
1.1279793776434828 0.19187180341438448 -0.3654011420687695
0.64148794446145996 -0.15551673822209611 -0.38217971862465705
0.13757846200785839 0.73636175696202733 0.56536937920948716
0.21429475695450179 0.47976410828781851 0.70068114683515814
0.32322979255778506 0.10117018090369587 0.59291158509660669
-0.13781089778635064 0.0094124250491831041 0.70073391242894678
-0.80033986292686499 -0.02419407047071731 -0.36813472575002548
-0.77939937884718891 -0.015168292182519694 -0.36218044172763397
0.096237202963555757 -0.6283868375134426 0.92677915843541214
-0.44137609969633973 0.30876856079489479 0.60979475267562089
-0.39449943141093163 0.43446451827034899 0.6585080745830254
0.13335007828157308 0.87631579758257949 0.5716544620342866
-0.91907086157304474 0.028960354069320848 -0.47222004213419733
0.89560524402601438 0.14510020910741706 -0.23909402173985744
0.40934098775344901 0.60610302259855697 0.57290275777332522
0.49985352406387651 -0.64809298423324935 0.65805082697210326
-0.03417142854985894 0.10448472715659757 0.83666574838224084
-0.4084849714359256 0.6598734113752438 0.48393881103367781
-0.74791698832794062 -0.056125150514732436 -0.19798839191877712
0.14110558063751288 -0.48392730334391482 0.90329740751089194
0.09634085778843858 0.14071083319960026 0.81722460475672087
-0.81005719674738674 0.40645460095871494 0.074741645976973914
0.47279349943897614 0.44178383147285682 0.60190368204823952
-0.19496775212523915 0.52983377343349491 0.59045969975517565
0.99076438879564199 -0.19100399312553562 -0.34893771064843521
0.027605866883421704 -0.63040329208583212 0.92044101463401495
0.90920835025408397 0.0079616464608693871 -0.2990832085606922
-0.33445801222472854 0.7007943091854989 0.51087164417048592
-0.065926984306111283 0.14114508829075023 0.76231151029158506
0.43148713456686433 0.07023047634593782 0.46554035697801488
-0.28862927407491845 0.62280757368784512 0.42004331311748977
-0.33959818139177084 0.63762340636275849 0.42299242603651438
0.021254382601808602 -0.25875980895351353 -0.67829118711416914
-0.58343877306505243 0.15549825678647872 -0.7083089199054603
-0.17318244129598628 0.59479189951196665 0.58743231174523758
0.91954597556522844 0.067640653317268651 -0.2974240141833101
-0.18898645774022049 0.66375932678052763 0.57615719576722035
-0.70502757359328427 0.21293977913353418 -0.62713980554951609
-1.2222492399253413 -0.0016608667051882797 -0.6297821808223838
0.22583793445179429 0.64113920485018694 0.64862139058323454
-0.0045967622484006376 0.002280851597784822 0.80775995452171112
-0.10400878459502229 -0.37930139012995878 -0.48166291723502985
-0.2053884874785652 0.33464900301502259 0.57413149384605355
-1.2416830668773073 -0.036885703708210982 -0.68199526858171078
0.2182243994920601 0.54848475382333883 0.69051508597207722
-0.0056934852632006261 0.87808065478710473 0.4121561049344552
-0.95743580061077949 0.02786307652183917 -0.5011981300697097
-0.093191243528670475 -0.62610600141064088 0.79167901427704646
0.69392756806552691 0.33509830755808245 0.46946720550517707
0.14480292669878203 0.002609443555843291 0.80004276182759992
-1.0087940210151296 -0.21128265337779417 -0.32715512957124765
0.086214121786446635 0.54151915564312181 0.62517722923261509
-0.48420739675741231 0.66685793331319232 0.44786642457230125
0.12699666001633442 0.27725913993650986 0.70866082838848032
0.074729038318166102 0.23777555152405833 0.71764530177843522
-0.82124662117056035 0.23564738932949025 -0.19909662543649109
