# XYZ point cloud file
-0.029989990487329476 -0.013879132595670234 0.65441893880746826
0.20820167459048469 0.48294882561058822 0.55764163479636841
0.16847239226489738 -0.16656088980561587 0.69914474903028734
0.25613840363982321 0.66953684603199271 -0.25382461695299297
0.29324522600498026 0.73673548585905468 -0.25218991386696465
-0.32629503904135437 0.0037641691063645503 0.15077745520787345
-0.38872545552456883 -0.34214014227765233 0.46424460157836223
-0.097416759668570913 -0.023142274881262307 0.61657053589706623
-0.1050981879227189 0.00907631459624152 0.61184465957562506
0.081864016446758475 0.31596348396289892 0.63275861476019635
0.23204314201495527 0.54496757495488368 0.23752206524775943
-0.17274350319990123 -0.097581674659369469 0.6388423821464756
0.073940573122971975 0.22915566398548484 0.61989114007885326
0.24113531857522588 0.75053516239730322 -0.18541294551647147
-0.15244584101614178 -0.28233446418056007 0.072939327444759117
0.18495762548091058 0.37870793816090359 0.57964538306444746
-0.21696227943784446 -0.068000328687113781 0.55190548110694171
0.14284540133067766 -0.15106164196636854 0.45261011929128891
-0.51211339350751262 -0.59915952610245604 -0.045742010613675693
0.090574005538332031 0.41985788717130773 0.58599788253663809
0.20939211313549919 0.496536748366804 0.55693663804694671
-0.17560610649758721 0.12043920563008699 0.49865163630334336
0.02818625116104817 0.22375161922231709 0.57795691348295031
-0.21094844171731744 -0.22219376424378892 0.59750443832362543
-0.017885119294173218 -0.1908907148492853 0.35498579974743943
-0.2748330191361088 -0.23121025928690223 0.53490687550522376
-0.2483490474606804 -0.18572876281797993 0.56181960647940599
-0.13219335208981148 0.016189506952427529 0.56600764488242539
0.025945472502059808 0.70104768081967928 -0.13945176155551631
0.18001397409976108 -0.15887341360264454 0.66849020282652971
0.16062860745609578 0.32958794485109094 0.63076344627165393
0.20584436829807587 0.53984111915247546 -0.17981998111762199
0.14344125116459075 -0.21643007348939572 0.76084798808352938
0.22358886881796139 0.76393206919962564 -0.1093025120602153
0.18827188909685941 0.60744550879755466 -0.100074439240768
-0.12377982803842966 -0.14238921053052198 0.64848539573507069
0.12599230917708029 0.075139250465725949 0.7133572672623395
0.23084521414053563 0.62793235136911163 -0.21513581759864936
0.13335641823042294 0.3738195120833489 -0.15690277993595736
0.12044945681357669 0.31329255388515242 -0.061825702151344364
-0.62914604651185935 -0.74430598319388608 -0.11939826431728462
0.19914812525750095 0.51317942988389009 0.55765969338749
0.044802783086614534 0.21404018925971044 0.62195110777646445
0.0055624965240907154 -0.1276438608936821 0.30203278324705168
0.24738945697058692 0.75051087403195682 -0.1943780005225284
-0.13826543955027568 0.0010338398930196148 0.58687677401480753
0.17036809572141856 0.38995829808226778 -0.086296499172180297
0.16577555332580743 0.5505401306106108 0.58027344672195991
0.12248591622273988 0.081407305211921396 0.70463088519909312
-0.30393824968606753 -0.23428749344153985 0.51410363111825552
-0.41636413557855556 0.0030937808190226422 -0.13158782474332831
0.067912874058655953 0.056516349090693668 0.26512978080947425
0.10436158052493585 0.46764579940975215 0.48294082389506082
0.035561070556422408 0.3194578276898648 0.59540841615201967
0.15266914419115288 0.45105122485160942 -0.073249098527513878
0.15212287281508016 -0.2379731629523337 0.73771421541595872
0.07308121013409577 0.18507306447942287 0.56810839685102366
-0.18461970526513063 -0.028891212215968794 0.56478008826097803
-0.55248560925090884 -0.44563731673734891 -0.15142201667002464
-0.6925911108806766 -0.62822991912338844 -0.30554562025765847
-0.13369637010818802 0.010446927592067289 0.59199308946156859
-0.50472832821267744 -0.38398006673049806 -0.034797491938936886
0.21572180179674219 -0.12628859569212372 0.50197543949058931
0.11295312483978762 -0.3505902311890044 0.74418329608726075
0.22473168967845905 0.55687825739040631 -0.26288037558019028
-0.23985088622053341 0.36660805291704734 -0.21552395792586176
-0.24948629629447669 -0.3809681504567638 0.1855888316074468
0.18831336206751118 -0.1494362242725904 0.67254541930439227
0.14626303209256455 -0.20319321850385955 0.74159940583925443
0.15081362822025865 -0.25898986056938389 0.75900072110381689
-0.60939978947793227 -0.46240068468208223 -0.24888363946967257
0.20223453275954731 -0.18160097904822217 0.69380436745687502
-0.69141024855699396 -0.60793398604852922 -0.30047300203151028
-0.0073696420519100692 0.24417511757768925 0.61919936912143536
-0.51332381251186066 -0.61216622173908708 -0.026873168439257911
-0.42449449752034518 -0.33606434035943117 0.26620552014110932
0.030586158562882493 0.27859782208307582 0.60464642955823855
-0.22566407972481156 0.23131711173115707 -0.51674666735834018
0.13717588616920093 -0.019263905697341984 0.69607239940128129
0.12354018962913574 -0.20639455442863033 0.76324146381783609
0.14724395988795677 0.45122597614461907 0.57068893382446295
0.0065518252539286531 0.24188795850136072 0.61248985497679764
0.070774457756060366 -0.16299965682019693 0.4422001545212022
-0.58147724399885004 -0.50946895829448469 -0.1864053819113759
0.11496780374432672 0.41530859369549961 0.59815274256645368
0.21941242441887412 0.51505610777044453 -0.12858605793960931
-0.60620754028978818 -0.52894436524691957 -0.22554905753501098
-0.07756234953503223 0.090783317517727002 0.61303464903845883
0.090159306245477328 0.28956405794739698 0.653385807004213
0.14722989013224316 0.29177071726062725 0.61507430816275876
0.078347124439896526 0.34817019129251969 -0.21000074098048616
0.11505308875796905 0.081235801165780594 0.48343133182946774
0.07533803763716479 0.32657467919938349 0.61321788464255778
-0.46909388385574724 -0.53644247376589593 -0.076287889946877463
-0.69598926575360487 -0.76905935527915592 -0.20793307875256639
0.016713955781462481 0.3751487131089199 -0.32359227340976027
0.021249019749413234 -0.45280092369507713 0.71014645418293187
0.024917399165459403 -0.3147376046322658 0.73319653944509755
0.10751058371348635 -0.0061211615633133508 0.71444846284231556
0.034154106824804187 0.33385841421886758 0.5937585838753251
0.039594064727691947 -0.077721038389046176 0.71926784413062861
-0.018367846611372696 -0.17038195549465388 0.64620487890840372
-0.62366236379507822 -0.51071382922305153 -0.2406723754156026
0.14792822037142764 -0.28139613046582046 0.74721982184623847
0.15604003164812155 0.47956524783318361 0.5749964460812258
-0.40996875084983075 -0.52227314722040452 0.043725500025854722
-0.019230697340526209 -0.33832165059375824 0.54402352307352331
-0.45377789787040945 -0.4118792807019484 0.16421707276552272
-0.70938409537747782 -0.74116979319662246 -0.2381173228898244
-0.074483623708448285 -0.011099337693557376 0.63426994933824032
-0.26524788127472509 -0.033299292165393256 0.35972891237372223
-0.066828904109901832 -0.17458170094248959 0.55431377932312875
0.18700210308316426 0.49271580696765677 -0.15469341057415276
0.20450831219363089 0.40653875297825731 0.57310171522378128
-0.5204267589449767 -0.42103422313009659 -0.22984301082463915
-0.38815613972340712 -0.3271348428497044 0.46483276069273027
0.072299759095685534 0.40207033484751464 0.52665236895415535
0.14480644792178707 -0.0051404947490868401 0.68856709974279895
-0.093233245398822731 0.028326501457985761 0.61223440101831317
0.10872860612556565 0.52207407559041008 0.38975311803928048
-0.21144753436681046 -0.22611142128835784 0.60135179452109522
0.22247237682535806 0.44617701780609875 0.54652284690562447
0.11325250084729985 -0.32719096492642347 0.76899577094458671
0.09098802016952165 -0.15493576035937895 0.44681740071771336
-0.37446426410561229 0.14316805827038001 -0.35571656353722186
0.21644535183224303 0.016452651812729212 0.58053532531961904
-0.036271490107029014 -0.2798149984007246 0.48788549488078958
-0.69171763787295759 -0.75979138506168054 -0.20877299644520164
0.19966949467548992 0.48680246947318034 -0.10898075251404032
0.13621912262670346 0.23630694368324109 0.61467522307251976
0.20493699960218828 -0.17037612737838373 0.6977881992956364
-0.26632927812109203 0.21776704741561839 -0.50556019467161084
-0.71789285088753074 -0.74543762791155033 -0.2280248667114374
0.063379474461564944 0.0077512441093160016 0.69162819675857989
-0.019657572346475055 -0.16114113901204505 0.64302182660769769
-0.26760356204792357 -0.25797309721830419 0.5603766769440347
-0.64851672441589081 -0.76207465249332595 -0.13492978821028179
-0.087263880607210798 -0.03833472015263463 0.6381936042380415
-0.34629388990462695 -0.33570287620191797 0.50249432646314496
-0.021881466555359302 0.28353234208288253 0.60149639263741461
0.13679888866551762 0.3225999993645956 0.66140125158562035
-0.01163719982849748 -0.0059812528271412542 0.66193526271680836
-0.16441376069636499 -0.034682233148461236 0.59014050887148706
-0.059212224556410079 -0.0059764147675741737 0.63389368309356509
-0.35981338770897142 -0.3056395774941576 0.48995496919207082
0.09883524710887337 0.074957603316410562 0.66791102670187574
-0.27698568381840982 -0.19306756966180502 -0.35664806002006383
0.095499482123162699 0.16269261516253805 0.21586120812181114
-0.0080945524402467744 -0.13118576770256055 0.25754978924795335
-0.10355167339882912 0.52152668212393949 -0.37249902925835859
-0.029848492991421713 -0.19632817294553975 0.32426404198233083
0.26177090008587989 0.66597514719828943 -0.26328196015051564
-0.52389448292897201 -0.57079507604719837 -0.08506782224159104
-0.19799630658146022 0.043178161318548389 0.55145093942699419
0.11204827287670588 -0.0009006529374761367 0.69564963352161535
-0.0029955126767355345 0.17398474085362184 0.6206603133527997
-0.26661679105291602 -0.23975563848670123 0.54678722005906988
0.095210584866353726 0.38300477942153538 0.59241475848336045
-0.046896032488360301 0.01761712259401205 0.62945175235427997
0.22527083507946041 0.57171706562799895 -0.2110622256098722
-0.38454066134248088 -0.41779617072554398 0.38191024866922102
-0.22208190395922228 -0.1410666538456081 0.5946194824433132
-0.51020573911203271 -0.37563538718076744 -0.07138957757788153
0.018711943098561667 -0.16356832960608056 0.69824861043546127
-0.19860428374202649 -0.014862603453385064 0.54488472258713094
-0.55190764999508368 -0.54649940674980957 -0.13775246598109292
-0.20789947082786719 -0.056792271928293184 0.55472479365214267
-0.65724290990177292 -0.64428242907239264 -0.22909192289680552
0.088809709647325735 -0.016838952632480374 0.73739202199371645
0.20209000575567052 0.020479613095030134 0.52705740216250929
0.17016724230865601 0.6659008655877473 0.21867904018064313
-0.0075911958744189212 -0.12224004462519851 0.66410567742195736
0.23026607726341289 -0.12553767604213889 0.61808500633368846
0.18718012614345506 0.51902711438791616 0.55907100536000787
0.056878301671639125 -0.13176106354951897 0.41595931099821304
0.085473183474153724 -0.065670528375956716 0.70962720675844326
-0.71508122198127078 -0.7060960534152726 -0.2849405356077811
0.22368426863562299 0.64126548683420936 0.37978743696472866
0.16506019506207228 0.51211701773141871 0.47841543464220926
-0.077993205983635822 -0.023260471523127723 0.63905513279911264
0.15477006121156969 0.48077669856427546 -0.12070922587954142
0.16217724303525297 0.24246233664879249 0.58591011029855378
0.031753481355599494 -0.060341452801859818 0.72184529348974313
0.09613574540084413 0.29681674150750265 0.65594542422072755
0.1595561923534983 -0.23898907223203483 0.5519248302244425
0.26335263740689807 0.6648217160836134 -0.25961947777104655
-0.26697643532822757 0.19619142887893024 0.081120003046588215
-0.27964541217209382 -0.21115371846933875 0.52685100978704669
0.23249265179513454 -0.10146276932762473 0.63452804267768492
0.050479350052741928 0.50920166434439174 0.30543746863332211
-0.36190544934872049 -0.41589620659001941 0.40100487085143166
-0.086610801266622017 -0.22016154821956671 0.50970177947595685
0.20834922289154875 0.64265338946026618 -0.17261599089969276
0.03250334256860532 0.35012822862129911 0.59613063760649632
0.19001159347063953 0.60634785207009756 -0.15737948065485863
-0.439020338554308 -0.23367510728776217 0.086352370441742043
-0.27072054290885694 -0.31497540770190874 0.5647678858638463
-0.49545170783408454 -0.53263965628074172 -0.058388114646628214
0.28789133439530257 0.79946873428837628 -0.22929516649041037
-0.24540572333975788 -0.32191742508001003 0.57988920430673518
0.18636765444575096 -0.22496915651296848 0.68264583737510298
0.16387212589337327 -0.16762958962955943 0.7464443687140222
0.18355391813528035 0.4384435411605711 0.58474823543480592
0.21263838131492011 0.64324787552605944 -0.17886618463674819
-0.59440702983946103 -0.44152830127198039 -0.26013064645930178
0.017318182186665837 -0.06012367914958501 0.69690028938119841
0.19278588165696323 -0.17018883268288956 0.69383417939556102
0.13793258708023012 0.35812566570878801 -0.12714882725995014
0.32799233758631663 0.88993834212065515 -0.21809133167827766
-0.11718834672921563 -0.13940367347333574 0.62363456453875765
-0.26132572507746998 0.0068674916572979035 0.37754136997408766
0.2073516775204409 -0.13194924652339926 0.6996178735424331
0.15164399569566953 0.35742136262646246 0.65262219306272307
-0.084948150462194214 -0.037816213512316552 0.62114933329068955
0.23192604215906401 -0.01934889176498043 0.59934858498457921
-0.59196915130976757 -0.47577056374472304 -0.20072561589539567
-0.13612612609721403 -0.17363855497851072 0.64072956140902193
0.19605136535053466 0.62594437611252907 -0.13067145016814777
-0.76333300270391813 -0.7409570250409393 -0.3399800480902363
0.058751950246415052 0.59981414299022562 0.20848890606941475
0.19105391570693611 -0.14695862822003739 0.6763343344650713
0.096481001272434669 0.07157673091250287 0.68004509022341719
-0.23958147149026005 0.080524933803488283 0.4353773757315933
-0.37339399155229536 -0.31463768141498155 -0.30419853156060644
0.0096649571822114144 -0.45494112637185136 0.68496893530179581
-0.55085507740915962 -0.72788035327102352 0.020991605116867346
0.07889417912825572 0.2290536106963805 0.62176062613129213
0.13179879858012514 0.15447765525926557 0.54917897137380556
-0.29666274408920879 -0.39120963900693367 0.49499920432307437
0.24202479016222803 0.64525219119309929 -0.23410583917076205
0.31906369811559876 0.85389378439470376 -0.2522712895903832
-0.51917907238281791 -0.51685522413516072 -0.11535261615036713
0.057819125271276334 0.41344096686263354 -0.27920959545949475
0.22937593326259911 0.45795913784023135 0.5382362935209839
0.079720838189259208 -0.021132922097841979 0.38637757204893319
-0.35384198124355726 -0.17547836998394234 0.3119854037820145
0.060367066589110785 0.20618228469885949 0.62640594268330818
-0.14397826850204762 -0.049815780716908259 0.6404961676912555
0.10819261061066549 0.35687471941657917 0.64314259608571944
0.22015474807149274 0.6980260050170235 -0.13656324416141719
-0.6938887205815758 -0.63637793341146787 -0.30987194243415728
-0.73062906636181801 -0.79452048738621461 -0.20807066786251799
0.010564006132883497 0.045299744996268473 0.020613110957906966
-0.051424659179336779 0.21560772933146868 -0.34604918631867793
0.085682541436917725 0.058615488325525281 0.67560817743270074
-0.21667287957690745 -0.041537896365783283 0.53729386060912498
0.064690702728261024 -0.28187529609883238 0.50390328216548053
-0.68503297416911768 -0.79700454584065139 -0.13482425700627249
-0.10830483904629681 0.0050221130098863469 0.60856320577104728
0.10363217285412477 0.099893831790698343 0.48156733357034581
0.16958265587283841 0.49337075478411668 -0.14456034762382136
0.21806083680029778 0.54067454708632956 -0.17076099688940427
-0.36246528632588926 -0.42283609947466594 0.34330383572363454
0.19692045289723112 -0.19700498811713549 0.69140229179234514
0.17385180863864982 -0.17546105198162967 0.48230440050007234
0.15153080983841802 0.43392694109381114 -0.069223616965720935
0.21683815762093908 -0.046235368914360114 0.66478653299644663
-0.55398857863170226 -0.70597822621871709 0.016513021846173578
0.077091050378589293 -0.38004042190624127 0.76902381368745854
0.10835755375800402 0.238367909860529 0.63262796663542786
0.18562906822745864 -0.20110634038945585 0.71688859702307051
0.17996875608421373 0.48418384366215333 0.55987530758657833
-0.088583506900850151 -0.0085875056239900112 0.62772092490933751
-0.0076809153960187143 0.039215618014283318 0.63693298405434595
0.052133346418134385 -0.074396572619946463 0.7188981453510922
0.1260584309811181 0.40083793912698928 0.61759796022609093
-0.017651231350973018 -0.30580271872811787 0.51673348928542606
-0.023380580338525886 -0.23223263942821457 0.65260442071300717
0.11223566509915991 0.092293660029629757 0.51089332267236409
0.19429308100286161 0.62702480464725874 -0.099133705018884855
-0.22126623254855909 -0.012451878436103667 0.43992800194930004
0.23359720406396958 0.54262203716202229 -0.22300108443334071
-0.039754943484755445 0.10374656642113698 0.6221110091173595
0.035673714095100423 0.18778761887916262 0.62027076758884869
0.082796183063642254 0.052347379604400154 0.68336418468107951
-0.26043440033992554 -0.26333915533899943 0.57026789030751956
0.07016693175077976 -0.30558773640357279 0.76869008839654107
-0.33093437230054623 -0.14660432690190334 0.44859378886363926
-0.51425799905913572 -0.29312521948618842 -0.16569394319319314
0.12001778354197498 0.23794283820266379 0.59192484650100119
-0.43638086085819949 -0.47268171421208421 0.15182726800114438
-0.21601723878359635 -0.22519298796245729 -0.2231998368492526
0.16694666805624039 -0.056764487884047837 0.70466007434597344
0.30802722061831467 0.8017321791933798 -0.27086827893694088
0.20849484904059143 0.51775909425949218 -0.1487253828494034
-0.095285912194294151 -0.006907845556811839 0.62036327109711054
-0.10962474726073856 0.067749141545958291 0.59763029158105163
-0.55636508963804987 -0.73372878427786048 0.0027866403757924318
-0.68540908343423967 -0.53500284393366648 -0.37124956753310517
0.23538168705540044 0.42969474665883889 0.51706122665197707
0.14680495743567148 -0.20300646517159823 0.71941043278399042
0.057197223881933157 0.34275301894447052 0.56915535622418112
-0.047596915311889226 -0.24746397710586335 0.59989859663142586
-0.59241023383872671 -0.62898863658471693 -0.14026972685706468
-0.18890203738820266 -0.0034084912881875602 0.55008034872908751
0.21747246720335392 0.51202101784967946 0.54958494940851688
0.15206732177265461 -0.19838446585796229 0.70558962338027942
0.088725150765075145 -0.043142813293668134 0.7074262969847579
0.3482334812799448 0.89023596621820655 -0.22341970508028014
-0.08329262775118336 -0.18712179656800035 0.54195439755584629
0.16355335295837789 -0.23135993648702588 0.7348618174281295
-0.17346544814422671 0.10881411830341882 0.44730311338602058
0.030698387789974746 0.69332389007820372 -0.03676049927250441
0.075044532368523098 0.21317600532543826 0.63032959010182155
0.16696832086613936 0.0092674042149438786 0.47597817817301291
-0.22946581397280588 -0.051305617668654227 0.53114237689574162
-0.1836079809811596 -0.10882463377683542 0.63200134922090612
-0.032842873273739595 0.16975498044045462 -0.2747429052361855
0.073550789478791206 0.22562761599259371 0.62445020570375753
-0.15232176001549749 -0.19151764752406786 0.6169405938231034
-0.44535498351678904 -0.31024472710492706 0.14806165775855124
0.17885020328860204 0.51197771005384762 -0.1714048143672332
-0.66768765611799041 -0.80510281012270191 -0.10062966567772341
0.029579264018546797 0.25354692434929677 0.60987451630259493
-0.49908763832174663 -0.31083038378774042 -0.041590813352333694
0.03857905100007214 -0.054152532731547451 0.73322523348946833
0.12542040514058717 0.028178770494686225 0.67946560255403821
-0.1504324829216995 -0.13952226433758175 0.66892929219313346
0.065495115982917296 -0.34238344995068143 0.56625339393919272
0.17849595775958385 0.31701076127317074 0.58291131684521136
0.12719922754250851 0.048449854244746127 0.69535404876805929
0.0064228450111880886 0.12272689516673309 0.6226227583048527
0.048379889629359712 0.36381655845293986 0.58987529408683703
0.170386084669329 0.49637082209866584 -0.15267841013909589
0.13919326726270417 0.51264710017460668 0.59225376065207502
0.12013690287123391 0.076409880657614684 0.66941082099622506
0.20388690797001988 -0.12606537828713932 0.69664113423372998
0.0010588342805628592 0.42642832364864636 0.4766763805232162
-0.29861708718718094 -0.28683393132858997 0.53675832172461158
-0.050342255831139868 0.11936141312813235 -0.26833730204491252
0.24169810721953408 0.71532837999738319 -0.19415298847664891
-0.1337274693150787 -0.16021937793489674 0.63247954999295275
-0.22267826923495276 -0.24064347942388753 0.5889991171277611
-0.033308659446173769 -0.1556737138819935 0.6176223423875038
0.19275100878891308 0.36214678896396763 0.58111824500593801
0.21871136838370089 0.51123158253582335 0.18388279190903994
0.1506050676386074 0.39767750494601067 -0.036963554150057087
-0.39035832973141948 -0.070325174566150769 -0.46367096881760061
0.11418041222102909 -0.34233779459867403 0.75635749555002607
0.090803156443587968 0.22680220082731864 0.63275159980514306
-0.70250536526129614 -0.78990425441344814 -0.16767763991495338
-0.11405510821929601 -0.077880107570364968 0.66927670402396588
0.17497931234087119 -0.16097168464256181 0.67721547026649198
0.13727879221632203 0.40736794388703212 0.62593718985276658
-0.21333713043903224 -0.20304878123428946 0.61182058042310927
0.11146481589145668 0.12566899694004272 0.44195238327742081
-0.29313770792815408 -0.38891988729601956 0.51318909456125028
0.055356243840481906 0.23594624875458717 0.60950689761916688
-0.069159122092505243 0.47886673646039341 0.16199867731083051
-0.49050388183105198 -0.49248629077830602 -0.067256429463647821
0.082024399746579296 0.27017967501211704 0.63722638667809928
0.051092291230301179 0.29866405216542513 0.59228426639385345
0.043964599173763247 -0.0083074303382082611 0.68804804595988889
0.23460609089034354 0.74503835884792213 -0.11330210263219215
-0.38823353462581212 -0.25030370950172115 0.32414253961843087
0.12293511064986765 0.44751927251769408 0.58253747875224926
0.27354450922865359 0.73604619232024215 -0.30134862766692705
-0.63915239503465548 -0.49950363585188223 -0.33196687307138117
-0.19662295770249416 -0.21577994711585852 0.61211601205171606
0.33227199393118179 0.81187046291687082 -0.24717502141481762
-0.29359270903148316 -0.19772232535026418 0.47280256027132173
0.22450024021061479 -0.12064549724720973 0.5229940219130641
0.15919992063835145 0.42825616816661999 -0.019173380822269104
0.082683560886642832 0.078355520571911863 0.311197364107067
0.30463989361466559 0.82521738489417196 -0.25450186261236502
-0.11452121497498452 -0.067778706223969282 0.66775342002066662
-0.16162399364870711 -0.16261664483438709 0.65437784261801868
-0.5712984577139576 -0.46700360810933955 -0.25159604582420408
0.20672847128950181 0.5320020389153749 0.55106366180052768
-0.30891978385949193 -0.31226021595124054 0.53241158556690871
0.056169519154406544 0.19921608393653206 0.5931991047944325
-0.27356273930452757 -0.29274401234251313 0.50845357602706187
0.14602410161486226 0.29360473315418434 0.61207094130078099
-0.38091108340620483 -0.092523620560543543 0.10167643353741015
0.20208125915692168 0.70333510998717208 0.072066003807372103
-0.075477717204152889 -0.26751630474946897 0.43094076653793134
0.27875052352656093 0.61459407631650209 0.43218809747001558
0.069006929054546001 0.62316405006847309 -0.28212053200139059
0.22689120656169312 0.69658536978929075 -0.18021097704715816
0.0097598209321207302 -0.32928127621864717 0.5339334335981043
-0.12277797133434862 -0.10523474574343482 0.66919800776327354
-0.63667787670842946 -0.7675679224478047 -0.084633812139402242
0.062398386372651327 -0.055161117036611168 0.74126652590013753
0.17482423669241956 0.41773488741233467 0.61538214359152177
0.15552650148651134 0.50632784496363681 -0.15640812316174352
0.10154962493092914 0.075225765395612945 0.69254375337168772
0.15659344193230409 0.48648076811546898 0.57157363812626194
-0.099947104823307625 0.19471018260555847 0.42185626950894267
-0.70806983906257803 -0.56671037772273136 -0.38537155591146655
0.25306684193824591 0.6273666680000054 -0.22907302133168173
-0.087459251266270854 -0.1932354306743366 0.56617197139230879
0.045431119994810559 0.13540107027323758 0.62929837222745477
-0.75177326176018422 -0.7459746144145053 -0.28326556577910156
-0.2020719847120912 -0.1857310715355765 0.63133754543837162
0.18384181103104355 0.68405579028581354 -0.051496217312188231
0.14745921251297181 0.48427277895651072 0.5183835934833837
0.31800102375850592 0.86738618957898861 -0.25313349737645224
0.23400481611436716 0.75456522956257321 -0.094497765247880838
0.252927970341422 0.6254934478704145 0.36132224115050299
-0.50962928158455378 -0.21944449078217176 -0.30193909080983744
-0.6910928563355927 -0.62203186759586515 -0.30176906036721629
0.15195419037269145 -0.2050045595050585 0.70014805759631193
-0.22437980837377855 0.012797481747629676 0.53658194049717811
0.12132996286215295 0.25540982968693293 0.62841905392439279
0.11447166483728907 0.70794236871524652 0.090343706414149044
0.13935560514124531 0.082054175080905636 0.60498679198736882
0.051663208086732554 0.2956370019063479 0.60247459234716938
0.26585223429291449 0.57556024108236448 0.38277978099422821
-0.53074099030994648 -0.52719842430407016 -0.16181704952251608
-0.020458911697720877 -0.13938187180877115 0.64189782568981502
0.12682095923331158 0.077071604057230444 0.65689692239435726
0.16576426695808047 0.072793294280306217 0.58305933611920535
0.17575805103748329 -0.21085164125885178 0.71137495767720449
-0.50332161405250819 -0.45089328522438338 -0.064347007334058404
0.11210335557141879 0.28083360963591308 0.66090574973404326
0.015154789284685027 0.1886972554941487 0.55311101136643193
0.18056797797670263 -0.14681612668082239 0.7261453195176728
0.036194589998770621 -0.039244655937477502 0.72256847154526715
0.036250996556360576 0.46451511745717849 0.53531834471620388
-0.5398371034287972 -0.485727858603408 -0.1248579695960092
0.20746305784143507 0.66086561033045821 -0.14097229474813466
0.042038138671677355 0.23301354987643993 0.61891001565392556
-0.17191445835115951 -0.17097738690562883 0.6529412497344711
-0.29845830039179266 -0.14443302174358288 0.41525368648673777
-0.27815646650382408 -0.35503881692040695 0.5535680585398266
0.23385092481868661 0.73174430222451547 -0.17729839218494642
0.052303629629854714 0.71970235239703628 -0.13617130641133612
0.015036306052899517 0.40182232018314801 0.59064853723764266
-0.19262561559641117 -0.16980929812623083 0.64232366156067433
0.20815803589692841 0.67374735299523014 0.19153691391468045
-0.11107428708427344 -0.075429416930693979 0.65624122809979168
-0.040016612683950931 0.60285564375872913 0.0029721003155515485
0.050531590434729851 -0.18611678552572247 0.73123433152199768
-0.12176113644902958 -0.26799931031019353 0.15281445076577921
-0.19208871571911884 -0.037680808922894563 0.56098016454329858
0.2224231124849764 0.5644038446272428 0.14710839121298491
0.11096559512390139 0.29937194068768985 0.66123585132189711
0.23709787361569531 0.57976126285261631 0.24819520389892846
0.043780801684516146 -0.12567689190576445 0.71147471238919802
-0.53180133484118997 -0.55347097849070181 -0.10879298731823506
0.17091840155582796 -0.24610883529835073 0.60458232471612516
-0.061641086839842207 0.3027757353584673 0.3723171172358708
0.14348944660186533 0.083019989540321817 0.5797869945714218
-0.3316195724672848 -0.43191665339553897 0.060453564393377922
0.23136746110993375 -0.015015964668104908 0.5737175964825828
0.030529081699942479 0.30381564873985673 0.5981986454656103
0.1034996532700605 0.40792784385744224 0.5758608561535874
0.20784322093231802 0.56457032013253294 -0.18587928877622667
0.24429689961263176 0.58055159115357391 -0.18315064661130515
-0.50703600850216535 -0.60078765792562927 -0.032814966922593058
-0.31142165142571498 -0.4282002368038445 0.22373021000799825
0.071373481029803093 -0.055280630722594287 0.72636148119164157
-0.13552262746997262 0.11789299527922535 0.4689771467289735
0.20943797573416903 0.50920769449189973 0.55483110317294193
-0.46065833716676496 -0.14641322075422233 -0.090949608029978091
0.22184929783104892 0.58564272328592137 0.56606550253382459
-0.1196450259785232 -0.11708699499241655 0.64323501919427084
0.037313903352965722 0.6525166315264822 -0.27255293576900469
-0.542662369441411 -0.5197855017187154 -0.13896182607834567
0.079515672044660091 0.18882614899491665 0.62961304444119692
0.20383761377986395 0.43953795860978551 0.56516549156266849
0.12212290812821627 -0.33186390879366917 0.74959959218314276
-0.6864776161618511 -0.69647528196247144 -0.24287058961137697
0.16869305678381927 0.54336018360937899 -0.12552241285835103
0.21650719476466659 -0.082605503712766815 0.48715604038505234
-0.58407793647199902 -0.55251261198985513 -0.17951569928704825
0.13409363639396846 0.71554044908250114 -0.17274654850609805
0.23561870236804963 0.79355437830516617 -0.11791487873758638
0.27055686222004593 0.54468795702731521 0.44040539364083936
-0.2301991981705365 0.024468048707929856 0.52945841930914483
0.082401665226564169 -0.38132181545595584 0.76603273072328126
-0.37896539007629482 0.010368127309477216 0.0027957963773245498
-0.36484279842517187 -0.22760383297969836 0.44077648739129949
-0.33667451351707806 -0.41403874450175365 0.36526963378883409
0.078982570498409926 -0.051239519834570341 0.71394018172380147
0.19613164752091769 0.46992756064494762 0.53524555063976031
0.19686592140194101 0.38964679355546677 0.55019582900208519
-0.61782435158261917 -0.74569783529643818 -0.079272075229157302
0.17820023275224264 0.29199355282054434 0.41578775419764824
0.026391287987953038 -0.054854001946956846 0.7032892140619218
0.17863919420104077 0.37751286682353591 0.61824123738499626
0.059125353737915082 0.31809324989517201 0.59918232344807865
-0.11498124016170785 0.017927690879784356 0.60355423183586077
0.11585157644894986 0.10668034883967094 0.65324821940520517
-0.30669967088151961 0.19164183922159431 -0.47623576674575097
-0.098300660586103469 -0.051276498727032424 0.63933563350035438
-0.24009066016190853 -0.11176270835107011 0.52965426978982133
-0.065854096037796711 0.18213374948169803 0.51361295666750728
0.1979199980934562 0.49832813259212555 0.55931648850876226
0.12257437408392219 -0.046048546973661134 0.70699777776696915
-0.075770478731081559 0.46859335216611664 -0.41982490935447359
0.19507798254399503 -0.14332303282205652 0.68261562391374675
0.19004502799065806 -0.1122456686580381 0.45681132868940877
-0.30413392120029359 -0.20357201003941902 0.45005911418733546
0.21038091868951223 0.62422614303700108 0.52022525663975938
0.12344318545560864 -0.070576059366017241 0.71638282233261308
0.13008289922770475 0.085643159571182223 0.63123930739393386
0.19663398062980583 0.4677664635871252 0.55322926994826516
0.04358990631565951 -0.034979843901991131 0.73038516779262708
0.026629969841625883 0.56121155112029952 0.21885631691869681
0.16906947435419631 0.47286363675540449 0.56131405613630392
-0.21847883682844149 -0.25761560389926519 0.57393222244841402
0.19279286931358122 -0.12212698791463775 0.6975652818109872
-0.22703540031223146 0.065672405160750291 0.50383311641242234
-0.69067430662244544 -0.61507416598751874 -0.29996544959311594
0.18806515875385574 0.69088311413012871 -0.14403794567880868
-0.40497198379511579 -0.29064027419408739 0.36725772667167056
0.16651603731778611 0.46021560156288527 -0.151483312479328
0.086823867731535276 0.28589876861984276 0.65020688858167708
-0.25586638786926874 -0.26904334226705506 0.54344426550170455
0.21789141363037759 -0.096737650496891661 0.48902412972913339
-0.25948080080122138 0.27195491572115688 -0.47982567605239546
-0.13488761071258856 -0.3040949427666409 0.24884090699971373
-0.23138848974115594 -0.10157791599993148 0.55474640192436175
0.1959068863895618 0.38367707871984885 0.58377837993508064
-0.027387470670601849 -0.26927187384448886 0.47500322392555872
0.12542652049792982 0.043875017987704851 0.6824286890979725
0.17909305786335647 0.5685600802331694 -0.16356667838627392
-0.28251067429931953 -0.33248410504590015 0.55601709232170593
-0.0041045938718902164 0.19450493549786529 -0.22765482640055551
0.09754909818328858 -0.026543542987202681 0.70813639678376006
-0.18051955577143264 -0.13371734529667509 0.64495180701650923
-0.018548824220810944 0.18459139497766455 0.62276090455766775
-0.24435346377394837 -0.042403908625584949 0.42897169930573847
0.19989187136246425 0.49392675916620582 -0.12159574365329964
0.14614949302308491 -0.030927058584452004 0.69991014774814531
-0.37254245921618123 -0.21367875357179031 -0.39285669332119466
-0.41227371931026346 0.020328542523367441 -0.42050758738452743
0.10629473131288686 0.10325246974640952 0.45789288037110359
-0.557946758675677 -0.5070967915114214 -0.15581986833626893
0.094917507386729466 0.42199585209821444 0.54248812063467011
0.05390551390802395 0.29786670351037453 0.59942215342311633
-0.10273510934868202 -0.21021932816881347 0.58147211230328355
-0.68894335242062688 -0.63367137650562688 -0.33191739969030343
0.19672906038999086 -0.11079698744900127 0.71377183937213962
-0.29102821751524144 -0.26481289568955829 0.53969913302601302
-0.40694203569360587 -0.23754930886212938 0.18512462776710775
-0.13930429184129664 -0.16371891349058129 0.64617363401799766
0.025992211199526383 0.26332887625573137 0.56652291150157397
0.14358574379339759 -0.24257078699563664 0.72242525754240572
0.021359780205608719 -0.069953336874140321 0.69876018471003032
-0.20780094669095994 -0.027479698132864137 0.54058841349510511
-0.27263565615745633 0.15632531165749255 -0.51709863011636381
0.1432910093422162 0.35748539680650793 -0.043675590253178131
0.091120191264798561 0.066564811263076548 0.67008875379167776
0.090916432067158492 -0.38372261127423751 0.68798344008657675
0.15337576502039571 0.49028570970331425 -0.1391482236239957
0.16397708054635421 -0.13679341124191252 0.73514579035924998
0.19089317619046345 0.36260448760500641 0.58674832934059373
0.31277542925828739 0.9443261517364121 -0.23487355860748721
-0.76422024955806422 -0.76228728719433503 -0.3134101731496744
0.083950379596886088 0.22341874791117014 0.63125221115918217
-0.31514237871363804 -0.025853729821559937 0.20653136748886403
-0.12848695257930373 0.024019805788945973 0.59195594003281582
0.18490831399138705 0.46823582286003435 0.55227667813459624
0.22092908000469999 0.37782403332789072 0.43695141679470734
0.14896337722129796 -0.17568792374553752 0.75258181002367075
0.011914790113228657 -0.19658397485266868 0.4216205169135594
-0.067786208951514826 0.11052940586135422 0.61750439453765793
-0.71034914498553903 -0.73934137058658322 -0.22989848779007416
-0.080389321242352985 0.15513512858162049 0.53235312420963798
-0.44328772488558776 -0.26332709601019699 -0.37064508221263481
0.18176783169776786 -0.14353849888199302 0.72900913737337558
0.1024354124700704 0.022127914954374748 0.73255235138641317
0.13935161479562533 -0.048264030959506252 0.44007700202189942
-0.27492585603808906 0.22347564682179369 0.017604078514695379
-0.28336205831874528 0.00035577733089667621 0.43453469510238013
0.25152612329530211 0.76932400443221749 -0.19834143194198489
0.03253485917712548 -0.13734793823332364 0.3888454663268095
0.011965025823137673 -0.29650081959706037 0.50722761865290034
-0.10733830795290158 0.033735102171519482 0.60207056941507175
-0.4884203079973487 -0.39969072376997933 0.041987550563641382
-0.068835827593137888 -0.26825629307552928 0.46558172157475147
0.16281624334274195 -0.2730137968320881 0.66727765826141217
0.20663920293123086 0.33857003962211696 0.44587455280256511
0.28164224298150808 0.87928858092573958 -0.13314168821882738
-0.26902895947163774 -0.14494636849470482 0.5228313909047434
-0.044680666110569811 -0.168767288650567 0.59384598937583477
-0.26374834604789599 -0.1446888254209644 0.53032896615258907
0.11242773858334998 0.12334514137435794 0.49194570827644413
0.013594053280675145 -0.10588450746918816 0.69058700645545634
-0.41144144541303129 -0.49403426943470413 -0.020839918744521596
-0.068692612797053687 -0.023933388117207657 0.63881019222233615
-0.58280534906109771 -0.62579780605904078 -0.12753828631285224
0.3169508282560386 0.80217156188792027 -0.30865202121309865
0.089103106073345484 0.062541433485703415 0.68111305592093097
0.33312554687724727 0.90186376925331357 -0.21032655382327381
-0.52810565849111624 -0.63888878324140863 -0.017117101096133958
0.20799881914495363 0.57506347317596307 -0.186514046232857
0.095788651508236761 0.27564487339272314 0.65493149210941992
0.15541399590163865 0.42705159603298487 0.60711011285528005
0.2202890969663415 0.50078839163629219 -0.17274203224597295
0.17309278910624579 0.43089347408539758 -0.073039430806831979
0.0071437414185375053 -0.38157465551150299 0.71001991208591497
0.21262749585034027 -0.16691804991554515 0.65903998995858193
0.16090375945153815 0.52566268806354732 -0.14530241635530805
0.0030013976368187534 -0.27940557864312304 0.493057499904
0.068025231697533578 0.37371570606918564 0.58925614295364037
0.18244229789337105 0.56865744024546772 -0.16782657256679928
0.2438054676494171 0.75048836605661229 -0.19060116952770861
0.17980636323440449 0.50338391142571426 0.49692194307379489
-0.16164296704686684 -0.10721707369285678 0.65452497881246496
-0.20180316436528684 -0.042258397306488102 0.55387553144275747
-0.37849383296376626 -0.42231070297702628 0.42676700338878948
0.046365724418577725 -0.053790249417792993 0.74163561418083157
0.29531312965205114 0.74934880708134721 -0.30904807328485917
0.069959407929237272 -0.023264069704519812 0.74293137984961
-0.088453496912499943 -0.047788258449385695 0.64211258498537072
-0.71308932610491738 -0.66105779952179722 -0.34699239423157852
0.16855369873659085 -0.21660713997404749 0.53281293166349719
0.17133592631657182 0.49040554897478467 -0.15344244733048029
0.17303353283344838 -0.15290989209919928 0.73873829978248984
-0.20731832036514691 -0.13310635567351264 0.6143931940960734
0.23011605403868249 0.55737573105760618 0.54251629775228261
-0.53914223388924221 -0.51184917985981848 -0.13516383502950013
0.17968497816019904 0.38988038598296154 0.62188222095506251
0.16440897057723838 -0.19159905978781891 0.68586756475726929
0.11399852138246774 0.41132000634289445 0.5928464082571745
0.0060216759429828626 0.25083968796731398 0.5318478032016678
0.18515591336852408 -0.079970742016734347 0.70724961804126774
-0.53980657029637891 -0.43226053699618588 -0.14214351016504156
0.21005888752756699 -0.11903777695098308 0.69988066297924378
0.26918011336003489 0.76378175988501296 -0.20980261537434219
-0.11199228439437833 -0.096771498841336595 0.63908876864123065
0.16112520725230092 0.33328069671058053 0.64644685249643774
0.071740385408197632 0.027568192102939589 0.68519462282769594
0.091347703493318166 -0.024071440781367037 0.73233775807398371
0.29485449392378771 0.82585026381948512 -0.23575556290339728
0.21152243661547213 -0.14323680211579246 0.51429630646600744
-0.033272970502550375 -0.16647092203223171 0.61841668490501733
-0.0066449174921286436 0.40287801507100607 0.46442584178578389
0.21526762122569346 0.54628826207074499 -0.18798410023861001
0.24440723655577887 0.62310523808774998 0.32917315775024925
0.06328625599983384 0.46817194379730609 0.57630960675954301
0.15534606908920681 -0.26404036210551529 0.74776447915169264
0.16938245109351971 -0.18127206965157752 0.68068315506726618
-0.23424091005005554 -0.043688160120485431 0.53025169376793491
0.23755878196742439 0.71511326837463562 -0.18949016025536269
-0.36654331150501651 -0.45027669532824294 0.0056730256997667428
-0.49665680349793351 -0.30058727802962237 -0.32971434219492712
-0.17683447774056027 -0.024111850467969636 0.56899647259916486
0.096476973353876255 0.059920910455153201 0.41222540570069488
0.087411972868501775 0.49449965507783905 0.44931368560509355
-0.33717021643108214 -0.41961470217024605 -0.010527600936351411
-0.27953385667404296 -0.26232735207243918 0.55095488781457269
-0.39501577568724522 -0.41834419734443828 -0.13684466258904854
0.13385158727660565 -0.22877658717208724 0.73143265445805628
-0.10581109893560273 -0.17016448712773277 0.64870521957214422
0.27788458014043915 0.63580265064237917 0.46847575695954347
-0.69657107942987662 -0.7252941618040416 -0.24030939381062499
0.28779430552320595 0.75820297379521784 -0.26392626555411891
0.020357264210003223 0.20454431250627653 0.61578990392794686
0.24023537463324426 0.73244560278568727 -0.18881612174370255
-0.58317660029428775 -0.70183422224030667 -0.10663502372378525
-0.29994224098929895 0.096911182229558759 0.11790955805898948
-0.48449494660547343 -0.4702375784903991 -0.040433700528246297
0.15465057144012292 0.72811556152894563 0.1009279419283028
-0.18458340170292983 -0.24226757147049044 0.56710154113650058
-0.2484541486325858 -0.16998450242025315 0.55514103191736019
-0.22036920824658129 -0.08602749517826716 0.55502694023870958
0.19869046321312137 -0.1237059138097983 0.69161099367551293
-0.1385045452981209 -0.11266128478684018 0.67139688966714317
-0.092533378855464921 -0.25178874737904006 0.2268202901890462
0.11820449134930069 0.75009156720056391 -0.081161445382278069
-0.39055566487963433 -0.25947414170418059 0.37040122790885954
0.17166034982650971 -0.21270384497724329 0.70456047883172201
0.27356780536036474 0.8369026647688953 -0.15572174536990596
0.16386252935608572 0.38646802418891923 0.051940086795193449
-0.20426051952256183 -0.18863058394438059 0.62655141381726764
0.18135905403184013 0.66093949972163757 -0.18840353198190418
0.13689669455205142 0.0057448404018726647 0.68485711066460941
-0.50882433583679965 -0.50099035233723666 -0.097736486156961955
0.028512210945647321 -0.043549136926323895 0.70394576525858354
0.13943490370746472 0.20247194489254547 0.43867887315150889
-0.19647155537921349 -0.12702626547702439 0.62500180498115532
-0.48453022593844242 -0.44475943323542905 -0.20452130328493878
0.037088472383609045 0.30696591782174959 0.59928421592379866
-0.50481171103550848 -0.41230837324851466 -0.036736795636156783
0.10316993632865493 0.12496440576679159 0.35351170609267879
-0.58718973006248565 -0.65748769006060781 -0.11246418966552302
0.12961596677262735 -0.008531177962453184 0.69204982233367474
-0.016091903792890896 0.23832443079132212 0.61776700090170433
-0.52096066885580805 -0.50604804030870121 -0.11381621294226818
0.34154122454683233 0.87750774804531118 -0.22217802491621086
0.082788432263162764 0.40160975373386248 0.58667945101474195
-0.015172532628247512 0.33427222744976243 0.593984949318481
-0.55506863120358252 -0.45671249278262477 -0.14927701593595327
-0.11367270285743719 -0.043771246905750877 0.64725160379733671
-0.60620341463702898 -0.54952935874916997 -0.21794895011884097
-0.023443757558798767 -0.38168292797068221 0.61565991136871046
0.23954059971282635 0.75169221351740112 -0.16931134048629337
-0.13666550343610365 -0.14752487850063975 0.64739524908623458
0.11083359071026339 0.076828081049951563 0.70475173431919358
0.051469391333661657 0.43372744267692959 0.43119119184413718
-0.069979524539355673 -0.19434760465326048 0.53890289841484762
0.029423053647006953 0.26554371306283225 0.60728446931078262
0.23876503388283757 0.75109241198940013 -0.253128587528615
0.16564488255182377 -0.1966192044287001 0.49825129286287817
-0.06610615615412295 0.031714813209076154 0.62136565445068226
-0.080932099771971355 -0.034008702787087522 0.64317673628374505
0.21824567203871739 0.55948436144891012 0.55218061673478847
0.35244433836133882 0.94632323199195256 -0.20158830137967759
-0.37761027034384842 0.12197286561171784 -0.39566128816108204
0.11162907168634298 0.13000212590001095 0.47298317713665433
0.20210958110247515 0.64191446714645195 -0.15788510564695935
-0.12453644951166792 -0.093994102772716678 0.67311939139628019
0.15099683841292919 -0.22387231170429983 0.70049308960526846
-0.098376503981835894 -0.15027912436010843 -0.036262743337365844
-0.31334309006005256 -0.14497261913361076 0.49160325503473401
0.067786069594948289 0.039677439052468413 0.66875742432180485
-0.0070191875847944452 -0.33990047246245259 0.68886582755083792
0.20134912983996253 0.467438845328012 0.13117291821410912
0.070632037899678007 0.26952638038369864 0.62627841530970929
0.20064205195800913 0.55578975893924143 -0.18082363331943874
0.15599786723106149 -0.18375822836608846 0.7529052275383602
-0.73196955494138694 -0.76038397180297035 -0.23511501607648388
0.068828879792819292 -0.40621075213087715 0.75858080579965492
-0.2108802627515671 -0.019647849156567965 0.5380357352452696
-0.49784509895485785 -0.50497484642068624 -0.090981908983649079
-0.41386128546515066 -0.40639334828490337 0.39918784110101757
-0.0081069979800053871 -0.21614132078521225 0.67455738392227371
0.22014436311683175 -0.15278893944977384 0.6330059691521196
0.17726626285627942 0.40191707876366145 -0.073075241914176692
0.124571137318959 0.040473474213998259 0.71271028870913478
0.15964218042361336 0.38775368623891565 0.64185327163667127
-0.51082033535016336 -0.26138408559783072 -0.32120584420934706
0.060983348915673113 0.25878785987347941 0.61651753275896104
-0.2991665587542281 -0.032656301866630363 0.39130138719572705
-0.079509852816693039 -0.18756317088072125 0.53159845199439526
-0.077603099203478493 -0.16014351807775501 0.64522356309859086
-0.24003069306345298 0.089322612690772504 -0.50030130119935656
0.033753772995165493 -0.27222538983761757 0.73566598099573144
0.077621208168564576 -0.026905423136126896 0.74207654650428245
-0.20291037388886618 -0.14680028069136114 0.625200466047379
-0.562192710593867 -0.53359188595148432 -0.15818904593947691
-0.27423873347904204 -0.39738983889055807 0.12083843101147745
0.17138569358842679 0.38063094991916507 0.63983273797111306
-0.24104636714787089 -0.12065021824533118 0.55246112044956497
0.11525560717181813 0.078900773857188231 0.67290603485808453
0.18920411686573371 0.36340545021674342 0.59038414324911337
-0.4701744702490368 -0.515618266699295 -0.016044753958492003
0.15838334021393138 -0.19445587571228171 0.6940332235766391
-0.33050054588096456 -0.12784396547358617 0.29963263401800666
0.21442688365756549 0.45064367154533486 0.56082746911071446
0.33075384875529046 0.9687754038188584 -0.24077773477176079
-0.46944016820905732 -0.47383692215472401 -0.0044312140191403449
-0.42632932398712198 -0.51375950949714955 0.076663427968346881
-0.049091038096341633 -0.17986132087643136 0.2050191987368461
-0.27127132254690167 -0.26442311483308301 0.55988932014819648
-0.51239986019168471 -0.50503448499434533 -0.10586451369647107
0.21808841699648543 0.38887743016753129 0.53865204714625836
0.27974581693985712 0.65361048498535457 -0.23333770280008481
0.19007387547733925 -0.18647036407379972 0.70557321880619284
0.10859028263822115 0.074260705518724837 0.45495727582903095
-0.62448289639567434 -0.52061525694245825 -0.24113255948221968
0.076347695494104806 0.65368026505191645 0.15121022206145085
-0.31436747878015714 -0.15687558789655151 -0.41228849573564075
-0.56178113007213137 -0.43198053327667613 -0.18392040500423701
-0.2564612971913065 -0.050044858681976834 0.52350968130337272
0.11458471818187785 0.41326614997696043 0.59584946030178243
0.12476398718541529 0.44259779004474681 0.58665003644024039
-0.60404627903945396 -0.68633585255298135 -0.12114764055892749
-0.087013787030784356 0.073012356711376306 0.60754136724456975
0.072367590009940058 -0.37558148250779622 0.77081212302543534
0.30172692361525422 0.77118808112359039 -0.25998298843594547
0.18521159382626176 -0.18230331003453945 0.68948383461382423
0.16834038251075709 0.54050434322537122 -0.11428265185101727
0.19673169088244405 0.6388246538299267 0.28774633683452866
-0.28278051107599328 -0.19152234319719688 0.49500194968509514
-0.64728040194227887 -0.50495358426201964 -0.28463389048859022
0.32788754292610167 0.95520001929509746 -0.17073261358900416
0.31522849280054444 0.87614197469292376 -0.24664983828070552
0.0017307198505495114 -0.45105049343189696 0.65981644528861716
0.10059747409020064 -0.2012137707326522 0.75781619881195583
-0.10758137144226017 0.14853417871544278 0.45201866073438984
0.10375350490105945 0.71098839914940093 -0.20357296442625311
-0.55384975778335033 -0.45291125677597666 -0.23490811609580786
-0.08621033074287493 -0.27048841129936219 0.35194673567730705
0.12558347563374334 -0.32336463784332653 0.63664962393843383
-0.22415348485044556 -0.35958886824660308 0.24849359438139565
