# XYZ point cloud file
0.22766007121255427 -0.39789014132828271 0.18533170695526735
0.72902155094899967 -0.41329010847880454 0.71113937373512925
-0.19751604128578037 0.61465367900228074 0.78066190385442269
0.28409536474583774 -0.093534519230786373 0.78511937916834285
0.35790507289434004 0.70890788739550459 -0.33995406278803131
0.11378516572756325 -0.083031845557563599 0.79321354916667275
0.2390388929584617 1.0874590666258612 -0.29174065971388075
0.24363999110319412 0.12030374532768207 -0.46365537872257789
-0.17280218392505731 0.50664772740577035 0.77242546813652524
-0.11957297126093636 0.53793182194594635 0.75441088755111707
-0.33214427959293857 -0.3928558069777992 0.63037658037460176
-0.41318145288985875 -0.68196420839564809 -0.13350404362296331
0.89993225739104332 -0.30631756877697569 0.54758406843976104
-0.071682032520115513 0.31374480785259351 0.81174063268392871
-0.043335797622631844 0.60578685176800207 0.71599711872421778
-0.031186124450414354 0.31349952484504229 0.80780839876489807
0.38833236452114761 -0.38338591916851783 0.36819535801448922
0.28390110808668112 0.15531321590262337 0.47582179303382333
0.025475860857042676 0.26890271463381055 0.74878356414040326
-0.13738077099480961 0.38861215250346959 0.81943748601541699
-0.74669809112513974 -0.97286212030996921 -0.40290434030403333
0.77970922370835183 -0.38615990253585863 0.65426149023924296
-0.28310010977821776 -0.38769528522404073 0.6179055280076966
-0.52473627482679319 -0.48121634971923299 0.61151596292284438
-0.37992447502065829 0.0045489996471417271 0.75988422199649364
0.53039212865604668 -0.42503430308349976 0.38211870407299386
-0.25271879067587122 -0.37316447595897273 0.69780875048854796
-0.01800289904772967 -0.41898353530628896 -0.42401466550643363
-0.45318997336701727 -0.0085650142085427206 0.75213577571789614
0.73748892036351776 -0.62438398804169282 0.59132703686167787
0.30242896622725368 -0.0194156156080183 0.76757661650508879
-0.36855963704589101 -0.54504517443992029 0.45750048040327584
0.22752565460754681 0.66154123180612601 0.5541552530890641
0.66208846312522951 -0.59777086676632507 0.70426602967448559
0.3456509732248918 0.56715810547472501 -0.1120133636557199
0.14096492044572528 -0.1615319089271452 0.78400471527243099
-0.021304053117688682 0.60635888611675881 0.70589526445260731
0.25200639343633213 -0.02505797302417534 0.80397501681655115
0.19292879237744387 -0.39721335963065485 0.31062490773216922
0.76233241579915045 -0.25491469046796311 0.62861922126624137
0.21802366837482623 -0.37049724022624275 0.65558178738846351
0.27155561004150286 0.68145548293907154 0.46361436462642303
-0.13773548636561372 -0.17424234422572482 0.75742708730267339
0.60807293938033524 -0.45130390136559129 0.74468746436806299
0.25704941274373994 1.3273657456436752 -0.32144861022700155
-0.049259872274660665 0.33232241370601656 0.81509224992160512
-0.085036600523054062 0.18973285335689383 0.75135521871302302
0.68906814141705297 -0.40303379417728991 0.69208968268328874
-0.4356576050034846 -0.74346305201256513 -0.18352023553863006
0.55168993492267759 -0.57909313565882314 0.70763497262101538
0.54743211241601841 -0.61659710738621953 0.49626882122129246
0.74492471190053777 -0.41281994748689499 0.70257442279429938
-0.4458222037402777 -0.044190484769607963 0.73693235901858856
-0.44201530359664787 -0.071977308219175029 0.75649299016860283
-0.72953212153160507 -0.53371296738623641 -0.26510244037573472
-0.70748052361530256 -0.86631123244998065 -0.38936520632678651
-0.45112592755320691 -0.33523094131390252 0.68990196797346215
-0.39184756397715148 0.92159934803919441 0.12319220973594724
0.23052561548618655 1.0025121506322492 -0.27095133555904027
-0.57946649167308806 -0.85837843316513585 -0.3032633301490435
-0.49475400998464636 -0.62572998140016978 -0.19533954655882013
-0.51504079362302946 -0.9665628184280024 -0.19916769128110445
0.059874147066338423 0.43525809996862819 0.77362871277486533
0.38472374923192376 -0.23827409754578355 0.22877173263078987
-0.37800875993828242 0.97415610944752729 -0.074351061061648238
-0.29313582431323937 0.37827950198777671 0.77987438280127463
0.39308266888053822 -0.013568404920029309 0.6902792666541373
-0.77661586378555114 -0.23812763662141379 0.172191411584663
-0.35934649787303385 -0.010498321215386852 0.76197015304402527
0.084545142318134481 -0.33372484875242492 0.49167975874762959
0.64594152026602103 -0.51256219735626019 0.73088520131503287
0.58224636149959963 -0.048277615542424712 0.37420006150298235
0.66888252524894654 -0.092810115569903928 0.35446594496391981
0.28646254866868048 -0.17354847368018511 -0.26012829548965044
0.33395083215118859 0.74584510496084278 -0.3383389519937694
0.76261623159905412 -0.15365167977878258 0.6153248273679921
-0.72485380043160319 -0.83304350579265929 -0.39150617407366184
-0.43295764190625619 -0.28016873991894187 0.76413712225193819
0.23063098006122118 1.0578407742627718 -0.27740749760759797
-0.035387227683870037 0.76449205188634295 0.71918620988951432
0.3562141513926349 0.69992629011920826 -0.33227095597618472
-0.013527289046152191 0.82818589633328799 0.65135459058496536
-0.27002252236667346 -0.5958381769719594 0.17002741754995299
-0.22909189289593712 -0.27227310951546713 0.74354875095403372
-0.58735752246442985 -0.72713393031085616 -0.30039349506871105
-0.37561967154805131 -0.54989049674450996 0.41006534571094022
-0.13573100547137074 0.92817791891054924 -0.34901145558679048
0.63216297718480519 -0.18367658387402486 0.32398285331420595
0.29606296395604659 0.01814411483048417 0.72363694715216553
0.33282257428176365 -0.0020942697537620347 0.70899515425846715
-0.62041888435906856 -0.6404063910476907 -0.29809998219523237
0.13756038624812561 -0.081197037057251009 0.8104443973007136
-0.77076371753105377 -0.64530365311572524 -0.38153853519184366
0.78872446135241603 -0.27060203226194091 0.63070810048114367
0.027915242769793736 0.95060181253841591 -0.032976537711519427
-0.40051948666921078 0.69325043669438458 -0.54502391444476217
-0.17109525024397954 0.40554197996996066 0.79057242085850987
0.21726790327197421 -0.10914428933863007 0.81605789028672859
0.34548317118138527 0.66242750912465453 -0.28504916061167052
-0.018893568301194819 0.63573566908593904 0.69955466739973815
0.41873860847101696 1.1993429936905216 -0.48601292328112322
-0.072897958576575661 0.60747334538744013 0.72209029026213045
0.56866873806220042 -0.37835804154261865 0.35493434360663656
-0.8114754237941213 -0.36368042591492866 0.043890399369907129
-0.70252120590750167 0.68467307112683073 -0.049636296620462872
0.33520752848562552 0.05281552316797189 0.63331649951856406
0.59894961596373264 -0.0031259930277727221 0.55292565826781725
0.29992909321757111 0.67845622150769458 -0.28479384547495101
0.48274197198308855 0.83650438930362725 -0.43025639912382019
-0.45833025992905618 -0.58757582736996028 0.2625364795457088
-0.039579412296959049 -0.099416648140035591 0.77303973431709494
0.24633267992932417 1.0543670559153568 -0.31000884141931806
-0.75500555020254012 0.081656867508023367 0.57969564171979471
-0.80646241339006508 -0.85296820418015784 -0.46143319256082549
-0.78330230578175986 -0.25969305364885997 0.56393709318561491
-0.53565352957515699 -0.77031091307699029 -0.27103671883727998
-0.46396701617243252 0.14981032693746954 0.72084951929541319
-0.88578300081964301 0.2273100503242631 0.069864704715826065
0.0016198848299637802 0.85288007846691727 0.29278346448941761
0.055922365604473612 0.81145730195480326 0.649442970731819
0.16634072388829679 -0.017511900094767441 0.77684691248541782
-0.74747671328789522 -0.65341262438408876 -0.38153881218904928
-0.63490974643997333 -0.039315876971535602 0.72286742596567422
0.82151427203966421 -0.33356535921218722 0.64394782203931555
-0.029705632701549689 0.30525207249736042 0.79771855470119135
0.72681633751199115 -0.34235389786519477 0.63423761334630058
0.23982275594715929 0.032267539262790024 0.78840778944248058
-0.55915142162686493 -1.0094378667106412 -0.24574237516220165
-0.58960262091173377 -0.15993621063700658 0.70543150191331705
-0.54887427516209186 -0.61067481649605782 -0.21412793789126994
-0.43421299025607141 -0.63582031356517632 -0.053814598207630127
0.23489269225424891 -0.28544307054672657 0.72761520528991497
0.34592308442147157 1.2062726305086358 -0.44935552358321473
0.36299174137475632 0.76472617235680218 -0.35020986100896323
0.30599219864964766 0.24912194482121919 0.48850944005135943
-0.8372972845064055 -0.26522247028241708 0.039884193092333931
0.31455000379433784 0.51890718777693223 0.27731042657676142
0.13733839621673383 0.15946557213744228 -0.59817903156772445
-0.023112748733481681 0.46346949784629743 0.79486222434596243
-0.04097434705181513 0.78286928661102451 0.70694388068219638
0.19536418799535227 -0.3496128550503883 0.65002456402559261
-0.45704040828439929 -0.63462045264033407 0.038284804927897653
-0.25841086196719232 -0.25940953296332481 0.74987547020117518
0.5422796255092095 1.0564081669489411 -0.46573917649039487
0.32512116180697603 0.032306775586164349 -0.24855895403452877
-0.30941457205858569 -0.72111012105399652 -0.061674646549036538
-0.64279222703392236 -0.96665672746607356 -0.36480079890925765
-0.46211310245837467 -0.36714119410124368 0.64347183534561481
-0.25574724985121122 0.41215728402433882 0.71697889433590944
0.22325685100699388 0.95476181191784804 -0.24078972537164134
0.31701250389141933 0.69567148227134368 -0.31236092830146589
0.16503271380231865 0.2430220456695551 -0.56969659491241487
-0.64681636105846962 -0.82235525778886398 -0.34430167236614295
-0.14817244842126343 0.64687837844657281 0.76667405130602617
-0.5943722112525478 -0.68482719072552101 -0.30299503206564538
0.085619061341546399 -0.41120136741353264 0.30736470341149413
-0.24804701843692101 -0.20259867803242315 0.75165173740482061
0.71562763485168546 -0.21924466708594537 0.67658778911949469
-0.40518874280114403 0.0064354185211996651 0.75802523657352339
-0.40441312515922334 0.25083765569654304 0.70533427006792238
-0.33647960276270794 -0.13839950706049109 0.81471803530035913
-0.12819622324431634 0.90287268619955086 0.23465993894652115
0.39077078457243886 0.02551181744171771 0.6511470688589398
0.92733582917691137 -0.23531387546180582 0.34004558547904651
-0.4965559248945226 -0.68992638659470629 -0.23538483381165776
0.69500324618968534 -0.17778318501393642 0.31848791261311504
-0.22126537663565671 0.26737649094513216 0.69808005035611131
0.43832395490561282 1.1965075043722848 -0.38823284565302885
-0.72426350783840121 0.45840483099338769 0.24778875169319292
-0.70160421984313359 -0.61791457554819118 -0.30038005405366164
0.36677960528430731 0.49675184986319465 -0.16086455253716991
-0.052126867960922141 -0.30295129279990363 -0.56720459581846683
0.026391009382948027 0.7384453861859015 0.69041891698926605
0.94872184381688385 -0.22604725933722847 0.3907894487853838
0.1042321420458876 -0.12268796249367142 0.76885359337965298
-0.29765086780307115 -0.076103405301324756 0.76353815597295949
-0.19416042833984193 0.44885595855736682 -0.69484195640066559
-0.36625517100554816 -0.13141861120786302 0.81179797933571507
-0.18501567151986364 -0.1403678823957506 0.75995692845052076
-0.619076988541579 0.052947892513138584 0.46869045713704338
-0.65675294476473312 -0.62340848508380731 -0.40354392570682762
-0.28986573147507499 -0.38018042989619971 0.6955739287435776
0.73761210448056147 -0.38281747718244219 0.63522643964550696
0.31402514480906518 1.2275830457862256 -0.3378208055906029
0.79519945567884065 -0.10275389015354364 0.38742138371289769
0.59770343560664685 -0.52916204798316357 0.73332573944401247
-0.35869995793291309 -0.06937119168448902 0.76939003929016536
-0.77680153586339884 -0.31357583778162024 0.58029838651863486
-0.70227657932827015 -0.43375731240388404 -0.39002339146639287
0.72180120727328756 -0.40749061577980683 0.6899420377080574
-0.17503909838815446 0.47982108696665904 0.76458540867272973
0.30390728507921949 1.1672869397642316 -0.37752777393200887
-0.24147289917557657 -0.19085181547634988 0.76694842192662094
0.069076006781202182 0.21422899993883959 0.64775381034638713
0.79550295092441559 -0.35096207141026525 0.62674906656318541
-0.25986864471221338 0.36399421674769883 0.77935846517746654
-0.75716220446938109 -0.99147673440634776 -0.38271183733891689
0.14961423183511613 -0.11442878733298301 0.82365936932801986
0.93489730187141618 -0.18465661263071098 0.41549022673092395
0.38948320543801174 0.88184253555286318 -0.38363686611511127
0.18211240367321579 0.90801381346766163 -0.176681271632674
0.91879294905928077 -0.31490818633945139 0.50342551180366968
0.19037660709346937 1.1211116313834921 -0.22107480072573082
0.4035188885615355 -0.4400831502121676 0.7252500619079143
-0.49502480558012962 0.50471519619193828 0.67471679201945278
0.35974057467501552 -0.51093756498434573 0.52867493506994379
-0.15050749975112865 -0.26519112715714499 0.73614734692370831
-0.58520893546727848 -0.59062213817377085 0.020630067191795831
-0.53486301024975091 -0.71258370953019323 -0.27705244408801377
-0.22565654592490603 0.38635690464101202 0.7737181717786612
0.03805009107382773 0.3232546577284694 0.76900866453667049
-0.4418320032114309 -0.19826723783916123 0.79166648052711963
0.21172235414418594 0.065315249125852404 0.73596555486480497
0.78914640680289949 -0.47347626212923899 0.66230064755657736
0.34928550540547576 -0.1094738995338318 0.73510667172739375
-0.52510792016751395 0.48128733462277751 0.78655316477084369
0.017977360398376163 0.82419048989608967 0.50713028800109328
-0.47520559846824995 -0.013990974385336585 0.74801752019149603
0.77501401530210501 -0.29479236208798199 0.59923692347840074
0.35055451038218166 0.62451324730433555 -0.26225803854494245
0.012900570192698524 0.59318901573311678 0.68745737388496053
0.24599050655194787 0.80614652652887742 -0.24030001383014366
-0.35931515664610458 0.19814923374411819 -0.73785728863908417
0.080783885943858991 0.72647961974793418 0.65525690544814807
-0.31464219884718148 0.37599586903709081 0.7855704901729581
-0.50948713246971522 -0.26721906400909035 0.71353489818850591
-0.0033715795252931002 0.38581168991940729 0.80772438484670062
-0.79265584538909195 -0.10446607884102832 0.6340154082476559
0.61256328261232795 -0.25082784724359186 0.33067076719061106
-0.60557221751469115 0.14008140714805961 0.70674689165198856
0.25311029978762178 -0.00020906832477862736 0.80107454048903293
-0.21718763202146363 0.41271578944797938 0.77086611126163262
0.15656071143362738 0.24081191080738051 0.70367143032564883
0.36185916175372768 0.5265296630673646 -0.17018288781773094
-0.094476761255165798 0.76548102639132054 0.41331950149453434
0.40871729474217489 -0.54886016013941941 0.6143712615055037
0.44537211408632515 0.62304587525294153 -0.23947463525109924
-0.77883915777077561 -0.46644840150225519 0.48004578820095389
-0.063697730152739496 0.21458007929065559 0.71034676065600166
-0.58998119580986952 -0.064096914845968911 0.7123790237071006
-0.64507041516623076 -0.60809047353753698 -0.26038436107799612
0.28717324955627532 0.17042438275213101 0.44903420424162022
-0.52758618487450804 0.030215000814287407 0.75814056913355898
-0.61277969023224443 -1.0452059948943599 -0.29826010123738911
0.041949091803559213 0.91450647081018843 -0.29917211764598761
0.26156237306324215 -0.37584687785746951 0.69097422718175494
0.3270390799603291 0.40724217153823616 0.46109876017796125
-0.71589683421981931 -0.17252688798061655 0.39568440373982128
0.14399218873808195 -0.1545533909241712 0.81076434922576368
-0.62934273479253022 0.093738729932923093 0.7663563559406299
0.28544455833210236 0.71383563246264004 -0.30929687076626777
-0.26020823558610573 0.23448048322927662 0.78324141151202298
-0.45544631041819628 -0.7684740754351651 -0.22432603334581103
-0.26160850518165546 0.29683906810531369 0.77885577076986579
-0.59133329299754678 -0.34412331659763851 0.64473894719266411
-0.71515880605831228 -0.57780123614480061 -0.26951479928389688
-0.48335805420013855 -0.77132937543052549 -0.24284782169788599
-0.49994288139905052 -0.26001721661948807 0.72891478366687323
-0.72417107007260029 -0.38984772337001772 0.61914624898410153
0.29090635731726877 0.2505738925429597 0.54890134861562245
-0.52513809704880998 0.66979695242758197 -0.50492412624684135
0.70629982742228492 -0.41125795742411242 0.66364074167988463
-0.3128631241837212 -0.046291887513334018 0.75840860588272108
0.17288068336631568 0.49279646696014368 0.65277531712208514
0.28946182839899848 -0.24928014803409582 -0.15571510347601958
0.55438099740227642 0.83626634005812406 -0.46646575164259474
0.45255011298867487 1.0961047600883944 -0.46383079330922072
0.29840394456098807 -0.078088510344450413 0.77466092669114772
0.28907440501350834 0.66542855174215987 -0.11367837578109885
-0.21916890827897362 0.40005250813268844 0.77141196544498314
0.89455861825028649 -0.38013763385378496 0.43679010635285209
-0.14958512136777813 0.34846976684639941 0.80123330480812882
-0.012344346264569594 0.017027970725045805 -0.6853780426321805
-0.2952277692628229 0.65398590464319284 0.72895407240752519
-0.66976227436164493 -0.9819123152091791 -0.34981029138594977
0.71022365424835243 -0.3243574365077464 0.65535913414721847
0.13985380838273898 -0.061499272914844028 0.77460643536022644
-0.86192062294594507 -0.69809563255724072 -0.45539824436875875
0.28945542421236325 0.69401888926826416 -0.30340847733210552
0.31093880740421298 1.1474883441632144 -0.38129655029185727
0.17280266294305591 0.01777968463253643 0.75908892446059184
0.45782145475106972 1.2619977731656036 -0.46526235393306337
0.50624563635371089 1.0286741492428106 -0.43240507399990236
0.15115985265754261 1.111375247733136 -0.2030354944626751
0.296869841721076 0.66136662959124237 -0.25202173116419146
0.26042675527777703 1.2702503390319535 -0.28538940234393095
-0.37436290252186666 0.56236184408835754 0.81141485408762293
0.47048900490128176 -0.157882563640797 0.29960854285000238
0.26859185867321855 0.62563034629465619 0.5217727269758754
0.15964958106727067 0.64057565516187509 0.62181771044457435
0.78025915401114787 -0.28964335187804124 0.60377586058967125
0.16501127815172367 0.85607704201660084 -0.013834550243494448
-0.61133092591933291 -0.20622204086149054 0.62134921111078967
-0.21564271016535486 0.47553288730497911 0.72985971677873351
-0.20904352700846118 -0.22717630299661096 0.73454638126928273
0.23904555133087513 1.0553422214234871 -0.29482260174565056
-0.69878858542713829 -0.5613396243885731 -0.25170851289082208
0.39857162459300355 0.055010942960805664 0.48283731629074111
0.10333125417064082 -0.10657030420895808 0.77151071354359146
-0.86044760712317725 -0.55551481037628747 -0.40858188367812431
0.069358257993727079 0.35740714366711046 0.75810816751019416
0.30379692979745698 0.22010579239592687 0.40326013590576792
-0.4179777872620889 -0.24811857745516619 0.78583676454066875
0.7161686861993104 -0.28749712247274317 0.68112021582038551
-0.4316262042256227 0.36845180417392243 0.82493749643656145
0.80334146042351051 -0.43421880443944616 0.65830843155069374
0.36056828398744756 1.027441333629568 -0.37469201963949672
0.21206860481230194 1.0073681800052583 -0.23485966397262104
0.22049638364660495 1.1965462693642124 -0.25520540827366744
-0.53286967115290906 -0.94734001947775681 -0.2090354814082076
0.92655836051392271 -0.28756599892428625 0.36984060613304592
-0.79111123267838934 -0.40819123518579659 -0.1922710518872961
0.6559831417660007 -0.63113189789086022 0.68905827328831748
-0.34546274361447615 -0.68026905444211394 -0.064905335999135616
-0.39078365114735902 0.26824700501995125 0.64631923217606868
0.25925461829744734 0.20091280143791579 0.60715275815244496
0.84767149940432773 -0.18130382743674289 0.56303414670020402
-0.49577639003265972 -0.23039115890638584 -0.61410602050184337
0.4256092155498834 -0.026147211680722648 0.68681045889914571
-0.37609537950224592 -0.7921457569847874 -0.20329159781118733
-0.12190113435738681 0.31471576106947197 0.79011241263707177
0.38935171172298055 0.77538183754496259 -0.35852376671832786
-0.81391777173283231 -0.012043827159487819 0.62628854907383413
0.22198512385884328 0.41011227953878659 0.63285298280776203
-0.50731655536296216 -0.71835350705461565 -0.25889714083913873
0.71172124559582528 -0.42087499436971143 0.72090905418578188
0.052640739147676641 0.68687575363928488 0.67082080192648164
-0.21777701610510292 -0.028603208803168911 0.75515664475753397
-0.7556617398030312 0.044021884165111658 0.55165230419238043
-0.81487187003742179 -0.15697775934380331 0.12699508732313802
0.67740091450838236 -0.39251286492479665 0.70815201107838988
0.43520316395350278 1.127944661094844 -0.45318354316719933
-0.35215494042564899 -0.73071546126974596 -0.063059319960629523
-0.45984001532963248 0.36924486833849812 0.8175383569254322
0.69342145875761219 -0.32489411613055807 0.69816962689543516
-0.40247886241986919 0.098157818468934011 -0.72258482169945637
-0.7089093635622703 -0.43606871029663097 0.59764094921866473
0.1656023006153049 -0.054015156473084858 0.77602760287049222
0.40340669924550809 0.53467602017820326 -0.35239173825515024
-0.21294738835463534 0.3441683780297069 0.76875139621053279
-0.05682903317141097 0.55576043994198443 0.7157951305426451
-0.18495534138192227 0.71648345968861804 0.70347167628022333
-0.60422527369756551 -0.10246455660458764 0.70248835395454279
0.04056229591381566 0.44480309635694937 0.78022024994570671
-0.46175507708102259 0.6182351172779974 -0.58326059339136549
0.22023427051007616 0.9065209398530385 -0.22245638102387488
-0.38971547591988553 0.24277006517862532 0.619716301450147
-0.21234284409288762 -0.086513708553269453 0.76426444392996729
0.46910599578299639 -0.11737686196183716 0.71463014679119397
0.16843884930565878 -0.033400018773306783 0.77161654338365793
0.0087433192762489398 0.32624525159520346 0.80120555426933748
0.17574209670279117 -0.04799130681357866 0.79400461385441901
0.29092420578236045 0.68566001077579841 0.079375135097123461
0.20754837828665984 -0.16264373393023135 0.79444698502570787
0.52103625299167788 0.71110486200191758 -0.35557695183323546
0.28351378546585693 1.0292220675431096 -0.33812678449955769
0.6787158916776832 -0.54526703448623692 0.45135659838518194
0.23237283826283317 1.2403154684070472 -0.35920687923766081
0.60296401715385173 -0.49033761812943766 0.74091673649140688
0.33849627294924289 0.13855208582665313 -0.15460685657278361
0.28775339665584454 0.079833514080455359 0.58592944473893027
-0.5566902396925002 -0.33683944468353388 0.6529022865896934
-0.77853796197831571 -0.96056576652803471 -0.45099866822248913
0.76972076545575874 -0.3240762092150149 0.60787541147437452
-0.71882645217151264 -0.33643818083814381 -0.47031478368808877
0.38727336437695214 1.3248810008491105 -0.39435441324613407
0.27930622366804414 -0.025943542298861644 0.79172080053186988
0.3752434985269133 1.0710359916365633 -0.39105521691921297
0.28272246552721469 0.63692276553327076 0.27421058211822924
0.64923972536003305 -0.15474798842181059 0.32480926205831651
0.3684311532236535 0.91251229738477235 -0.37328652869852874
0.86026443488886173 -0.44789818906059509 0.56339775012176574
-0.14716799445074003 0.25760777777496457 0.77112622823798915
-0.72523160639883599 -0.18164521571319625 0.43024808502698164
-0.76309468539260195 -0.43150249248281369 0.5696219828899487
-0.10539214073362757 0.3534045236646719 0.81986299387294537
-0.083068089529064082 0.77567729840893662 0.58027524271410869
0.33575441824585539 1.0764719101963465 -0.36774450931241631
0.13837289436943934 0.88312463383296347 -0.037793458201036856
-0.27549465128839756 -0.57418611429205413 0.2443636193884231
-0.099377892185287919 0.57689893514940138 0.73988641837163271
0.2827262656326468 0.15256691759424967 0.466310845000109
0.46670537048372296 0.035645992770390933 0.57790584602717132
-0.77479143327816757 -0.7164823923058421 -0.42542850077462901
0.15486974909057949 -0.10037790129489821 0.82214762239013339
-0.14605506322244821 0.038682755975841587 0.74776336771138574
0.12521885781086439 -0.11538190504769119 0.8161480591171042
0.095017778387827434 0.32137669303312322 -0.60846685417449464
-0.15387448082807964 -0.061202546556664572 -0.70490880999694383
-0.57882239911069178 -0.62432169975642893 -0.25238084738551692
-0.056366937428052211 0.99842698167206123 -0.15079936284280393
0.3468644784624928 1.1618245983208553 -0.40049656001173872
0.76453398182412968 -0.24932557957018986 0.63949422398739841
-0.081435901176803327 0.20779719353723891 0.75518209948984349
0.32064180761302907 0.39979241556002165 0.30044499846138706
-0.80843449320315131 -0.055503852840978141 0.61484820968905041
0.35211150708650507 0.062907422888955011 0.46575822246060739
-0.57728379786182416 -0.13922284643723515 0.71445503571019486
0.13042590280569755 0.42465444190731461 0.69123797489073979
0.69922507658621669 -0.65814118222557028 0.63085974780129561
-0.13950570187111566 0.27445817198660194 0.75869593126217438
-0.098423929421073808 -0.53606271180795773 -0.036035401982559279
-0.39934015049981042 -0.18542664746527038 0.80788836689780652
-0.74909490289732616 -0.2095891543472348 0.65981081142595599
0.33827176440458118 -0.18807774955475765 -0.058428579127074443
0.27243039890045395 0.75794697968505176 -0.29228806330431212
0.11595978516217542 0.42343670988266524 0.71210553021855105
0.32957696108248058 0.60758491008268578 -0.083540706062208869
-0.85404964466312094 -0.29295069652861372 -0.019348879774291561
0.74102408175789947 -0.20012607406831506 0.3129272568264625
-0.23288500150911773 -0.1113693893130403 0.76702689591677853
0.82903680454025164 -0.28623735480417878 0.63369085034521788
0.77699189030177251 -0.28115466342288897 0.60730821234061949
-0.7112598177802596 -0.7788658390123615 -0.37732051068681471
-0.41628665878280913 0.44495188050535006 0.63046699717972388
-0.057986309254701496 0.57366446823287021 0.69563002100733939
-0.14718809811319034 -0.0041007128884658073 0.747531756693121
0.27748422307699627 0.73115034554877667 -0.2965220408806104
0.38213212541880637 0.66516823044420192 -0.33191758609661548
-0.5108424460394474 -0.70123247960628987 -0.26282825241825947
-0.20668781099998057 -0.20564678989536134 0.75610003942315274
0.19052830754772287 0.1599218975146357 0.70945062781237311
0.1141882019186653 -0.078845327690792999 0.7752530543490721
0.11536004869304861 0.5005507168950416 0.67660318151326493
-0.80439828075763842 -0.6804413038696282 -0.43731550395204266
0.8897830619482221 -0.33119072657056137 0.5615860645889299
-0.79526443638467015 0.014968664226685746 0.23758995554739926
-0.40081509354322975 0.47286436884211724 0.82292907215829558
0.40681044132240629 0.61846876106474014 -0.25028007093825266
0.31383431113825111 0.61879924312170687 -0.13154060859574912
0.50381626065690455 -0.60879491014154041 0.51137957333873629
0.15190834098186201 0.88668509858638345 -0.2967431649019332
0.36005353265814222 -0.058610241903267024 -0.064620703253204681
-0.53274415435322453 -0.041426629835704887 0.66843465018777692
0.19110459421366954 0.84556949002703163 -0.15619199362664915
-0.37491636082165769 0.21330128465120879 0.7789349775516925
-0.62341258141046296 -0.9840551891411593 -0.29403413494978992
0.18253233761492993 -0.37879698116097416 0.41964462374204459
-0.17956105088688901 0.30755883881766977 0.75852003254716038
0.14075666767692496 -0.163668081274146 0.77557044782316353
-0.61003774687745249 -0.7078533892283545 -0.31150578126567297
-0.70713204095254412 -0.83066064720325983 -0.38147150752619297
0.14181481394470552 0.55030163588320136 0.65831563982587227
0.15603195245483903 -0.055341870075018562 0.76639965063046844
0.11058598177439194 -0.24284571198717941 0.68018501879935656
0.10971062499325512 -0.31019157308615775 0.55310265954694415
-0.18641128650419603 -0.11563446957867995 0.76116818115450258
-0.51671733508335649 -0.07722740705176534 0.72800219659782783
0.83053161334898107 -0.22876610053015156 0.60856293558367724
-0.19228502878831932 0.46709878263557414 0.7691904872904658
-0.88932117295838964 -0.57683320377442016 -0.44039589162414217
0.23732211231290989 -0.13675912019807868 0.79758018075806802
-0.67810493428690677 -0.5622700175410742 -0.24030341032317182
-0.47676141873847655 -0.61950696309450848 -0.11997535776750823
0.052654053535590606 0.45125003461798485 0.77229578678815614
-0.41711495198778437 -0.33998620091980314 0.69880084124462627
-0.59852674076864787 -0.95449551355375206 -0.30250097341895099
-0.034919562730266307 -0.51535986845297543 -0.1379202933554069
0.20932007736560365 0.64713745781737941 0.5804090629197276
0.48215537189369684 -0.41183781095919869 0.74821344261946621
-0.95497999046195048 -0.88804758563960462 -0.53260258321456178
-0.05637401236801054 0.26677369181556543 0.76100982069689138
0.31488353148212411 0.45762585907259279 0.34753556422420218
-0.4356199214160057 -0.61102672954459081 -0.34323131154047815
-0.58042312214297453 -0.64135197796458954 -0.28567068242425364
-0.59972544225180968 -0.57725745426185426 -0.16887935933070253
0.32829881331792876 -0.37003327956381327 0.33681951729501236
-0.67839428758901477 -0.37082206407522023 0.62822494630547965
-0.34938036138630935 0.24304861215374274 0.80810842471912991
0.33730117354721756 1.2023097524869044 -0.38450366225998778
0.077526235216609507 0.56220101417122947 0.672920071318444
-0.38866087109080638 -0.29497374620084571 0.7535379368154338
-0.2841644994209247 -0.0084621926040853168 0.76135385468590755
-0.33748642669448259 0.21514469566277938 0.80325535553759408
-0.64297991766628115 -0.50528666302865588 0.56307906906413052
-0.37710280357417503 -0.012925180432510786 0.72162912360596465
-0.59772427564308828 -0.036113923095292932 0.72124662983209475
-0.56602917050072676 -0.057987120774797063 0.71890132804156792
-0.39076156345311119 -0.27599342571729579 0.78012971851480728
-0.50746121587111759 0.86246045824440642 -0.2500313112385939
0.050713423571679073 0.1035846757609562 0.74898460530344124
0.18846587020547645 -0.3140929303919151 0.67619066794181748
-0.71800316333633418 -0.73832422387819463 -0.37981185824501296
-0.11886582206599883 0.39308456268461356 0.82040887613684532
-0.39713294924372633 0.28016568388199659 0.60151590418667666
0.23289537353761602 1.2461929742052931 -0.26586232608285343
0.77330551501502498 -0.38741046583411531 0.64559392575245766
0.57198945885269836 -0.052961671433074287 0.64342632287235091
-0.10697361392509208 0.29327897610792775 0.77777563208022116
-0.109984713999566 0.016275680996251651 -0.71678408173195862
0.65239836028761999 -0.57008867794174733 0.46525016928958962
0.50390987255360642 -0.14525876831498863 0.31745061023938348
-0.18493858703716626 -0.28107814817666821 0.66779605990883795
0.45274820117289494 0.85430180366325459 -0.42892759329286179
0.86484562316843494 -0.19800422715518806 0.55650367891968955
-0.45550208591447472 0.0030624370868537198 0.75210002337235693
0.23123527235198083 0.54947577852283302 -0.44510974832608952
0.39268073885931187 0.47988124904008345 -0.31523995832664298
-0.098136906820940339 0.22307802351000561 0.7617312671399219
0.78604037453531816 -0.22119041254469352 0.3092292127301377
-0.7434548772411631 -0.38675857036482597 -0.39126084462439792
0.26836361442137502 0.39576081395808416 -0.40979012173130513
0.92024838534642583 -0.28557140309850837 0.510932888267142
-0.24366816897331489 0.34971463543718784 0.77958593582403779
-0.49516166238321091 -0.66130841884056224 -0.23779588518001304
-0.45452069707454257 -0.021667176623594742 0.70899034191975119
0.14635562013603476 0.31981851692394514 0.66497050608092678
0.43352745351181454 1.28713064484905 -0.4458560779459475
-0.75147837936320627 -0.59040692747866785 -0.44973522504071894
-0.24051495815004387 -0.36075256455482929 0.62852785564090397
0.36061141250023354 -0.069586530012117009 0.72425923603438491
0.17032194155135016 -0.014791634578443791 0.78481514975072031
-0.57700642866500118 -0.9280641874662976 -0.30827319749818827
0.32959424491309619 1.0272178839980128 -0.35683638021108521
0.80629499732171439 -0.45204564094340327 0.64991344306787369
0.16432891531572125 0.46423980412526333 0.63755466409415362
0.86565178731081005 -0.44500529187077831 0.4803234290022047
-0.13092705521378889 0.74020162950584734 0.71551771116848073
0.37877385453816714 -0.4333278053452716 0.4148845595548778
0.086185192520403575 -0.30296689527460074 0.53579199109183406
0.20952575325794953 -0.16564211311681021 0.78600101103811681
0.21438598553962152 -0.39139730422148489 0.33277974190426107
0.049619310912518699 0.59003087776314089 0.681503785341107
0.039414552837570227 0.93396128254981647 0.057506681738843213
0.31052485201435331 0.57334013735793832 0.46721819381190244
-0.3500320563707362 -0.10455643621678945 0.80749570786485947
-0.15395646405475816 -0.15429410511595165 0.67830184571089092
-0.2156755545700122 -0.48210312673851519 0.46204964042303232
-0.45850563443057979 -0.80122316659358006 -0.18053340374452631
-0.22425650250099238 0.64511182490679886 0.77975895656184946
-0.23270259369780888 0.40000300682136469 0.77650074943095149
-0.77368603093648858 -0.25420107899312683 0.50421180695288115
0.5318511802261412 0.86108175376938334 -0.50954803653402081
0.24990726821279452 0.01932495569026571 0.79566986839711262
0.29342744197818149 -0.32558241847842595 0.73370475344229646
0.12020103616022482 -0.13110652045342874 0.8112110767772549
0.24424049350072607 0.88495462820289816 -0.36270004822450375
-0.066718131598392461 0.12841855171468097 0.74362369713037424
0.54983455552392968 -0.27748632189805278 0.73659193166790971
0.2813523999052876 0.95767261403417336 -0.3243312771191853
0.47738021800584818 -0.52799418235687057 0.70948251519168082
0.0054922460037687415 0.65383225868469452 0.68832276901112266
0.26695267314400439 0.72346620053026811 -0.03315586782698432
0.20969486931804227 1.2560292048421928 -0.32151506014186992
0.16207362103538969 -0.37340749951133034 0.41193421515800566
0.10396734570262822 -0.10797359844579546 0.79719666300069036
0.33857460134541384 0.59446063492994483 -0.055980694068566095
-0.21275074615365952 -0.31790678156063024 0.66079707966985524
-0.014975143045106165 0.32985973127682655 0.80923969517490235
-0.55737668720715305 -0.17694998554451757 0.69961323081290061
0.46942461818474612 -0.28102436086663118 0.32223363017267559
0.53517428534622979 -0.64654426622200845 0.58021961516217857
-0.48347698715076604 -0.22780862351765307 0.76750368269560454
-0.5207332295285596 0.5300690124603662 -0.61123477528786907
-0.94189264151198415 -0.87343928481254096 -0.50087214485535725
-0.58497603232660822 -0.04616604686903969 0.60669012345716311
0.051918143641003667 -0.28384839697524455 0.54981398902512524
0.49288358031935786 -0.067438307403278941 0.33693262182455186
-0.66479596200706226 -0.023855062987095721 0.73237847216840635
0.36545341608614024 0.93754666195094671 -0.37437543356576697
-0.93958054169344507 -0.63880895971029616 -0.48327912094799785
0.71282659484023725 -0.41092295854271299 0.66984333402362495
0.37867189838884485 0.65959239874958797 -0.31903901788741251
-0.20363613480027709 -0.32702150753186743 0.63755365710515832
-0.45785994363025395 0.18029640229478616 0.58197751212717463
0.28300165254296417 0.70890561232528171 -0.30016648799772838
0.34047712846701472 -0.12732181267727327 0.73942168175037892
0.39056907676234687 0.85456980429923135 -0.37765544551500341
0.37838067081042936 0.60257190890416723 -0.25719208534727755
0.41058509775470498 0.65904008829812 -0.31546682941452531
0.79821006860672128 -0.34008145550538416 0.62297757272207832
0.16565589638123868 1.0424841112243683 -0.30383768732024663
0.065468081752896978 0.89684107496194088 0.1325955172974318
0.48119935332563557 -0.53466965340300021 0.45709439625903059
-0.10238887036607025 1.0119637270988164 -0.1471121323199327
0.78953978277088765 -0.24525717706985972 0.64774783019070981
-0.77671406024995804 -0.35011827063994616 0.47817971448817786
-0.64149625254934506 -0.20602238077588453 0.56438536069163803
-0.68304224115702539 -0.30276834439866462 0.65039916228003847
0.21547468497283262 0.043904855720448666 0.73703575863564197
-0.49295987302063793 -0.54609861670666504 0.55872172427054068
0.31140081288450006 0.074788500522537049 0.51145758711047051
-0.37794262775264542 0.17093687560450377 0.77254231960124287
-0.43389433504661667 0.15808672095260334 0.72263110233221539
0.81561995558685396 -0.33484543485381835 0.64329668741644497
0.13709572043249807 -0.31458644377961775 0.60849517569534584
0.87454210850521008 -0.43621014297306715 0.5031481421310815
0.47985632000859368 0.77968025673393271 -0.36382734603397182
-0.38695327404965951 -0.50414897028831263 0.6166933685372129
0.37923721174480818 0.012215343367110165 0.67460807328889416
-0.77697018183383193 -0.95806817481182094 -0.45471114404445245
0.63084179073675273 -0.10863099886656613 0.33937263635438342
0.35114128485446372 0.57175527961911854 -0.21230079135128932
-0.73507827649966373 -0.25351313928237573 0.30140023071814426
-0.13346539350887099 -0.31401190772341181 -0.58070998410099861
-0.70950076104679738 -0.50181188046619241 -0.3542804307805838
-0.22854261948002375 0.75045131401475373 0.37030914985078311
0.27287566082269166 1.1132670578334114 -0.34981332279412669
-0.66473848005337288 -0.054361544848362087 0.48376608504293017
-0.61632124188535897 -1.0060329114404354 -0.2794507912138755
0.34260614434889192 1.1989180664169297 -0.39642216970049304
-0.70380639826375102 -0.12100500623886745 0.45620878399299158
0.4438031497495416 1.2129837909646142 -0.38964467280645465
-0.12513847240383313 -0.023146148890184293 0.74872739201985894
-0.6139405830950011 -0.25028297375337871 0.66731233912069854
-0.19971267915050817 0.31266871166521071 0.77070287068403331
0.021705004403344219 0.84089453193588781 0.633651212829065
0.40603350078480105 -0.14773991415731302 0.21493781558060476
0.58839367100009099 -0.4401172357341423 0.74735917547305775
-0.5000611598368323 0.53372436933977241 0.70125032721684732
0.66835053261685573 -0.33438644254782446 0.72350408210373729
0.12825085309519579 -0.097484940783729712 0.81437889554247533
0.26180014163647058 0.034882790087692683 0.72950262344998862
-0.45743837830302425 -0.10363315130478412 0.78462888109683604
-0.48854709683853059 -0.54473211980790381 -0.40372442386424012
-0.6188714924126657 -0.65054054950924467 -0.30546371010607487
-0.26550229825403449 0.43294425851654239 0.7735068148673534
0.15225583212834692 -0.14247001938604598 0.82251455899498183
-0.19805278759085354 -0.37622280550558429 0.68727488672762149
-0.34504519960715641 0.92769104018596238 -0.29058829996433388
0.44842421438877977 0.77211419250522795 -0.38514226577154886
-0.62419720070080587 -0.87107501892342043 -0.4109613421482976
0.3230486971333022 0.20680707941031784 -0.232871886023851
0.77403953140290582 -0.44454256144599213 0.68434138560137825
0.16193943738667826 1.1537870026493025 -0.21716370342649327
0.13376481576638355 0.68247661137952065 -0.46118575150546803
0.21283964976157677 0.052374109615556108 0.73806064050517506
-0.20440434765552595 0.56155185696110976 0.76791435018410681
0.22127803283490266 1.2916159986311797 -0.28245642739281607
0.51479179091246863 -0.6296496027104439 0.54386018215980414
0.22715004511745462 0.26509646492185368 0.65175902842165101
-0.55306817245532613 0.063882545699428306 0.77883050782828178
-0.51076902789559142 -0.33725925917337207 -0.55415244174817957
0.391640459044865 0.60704793224019227 -0.25294114050443284
-0.28418338202607174 -0.16909698840016318 0.80469732732106536
0.27408804343022553 0.72291379659061761 -0.27076327198477657
0.19525849761915026 -0.019025787399890248 0.80470952323379663
0.033381860771356742 0.40968717758490669 0.79180772818536127
0.69292878067778929 -0.39853331247137902 0.71392242094401581
-0.4306125461334176 0.0060319900299106166 0.75549518847149955
-0.0001766011676522794 0.96190078382085886 -0.22204555064184461
0.33069606218266756 -0.39155784627035217 0.37031167088586159
0.2487953127512128 0.90627808934639376 -0.28297445072625749
-0.43921504911838838 0.32318547558304545 0.6837578433935434
0.063464623865499448 0.3603099791694504 0.76811290157328216
0.14803243527056509 0.45949860465294989 0.66332372790392924
-0.66635475122255627 -0.99383046515594486 -0.32743597830942406
-0.46699177037092454 0.23551530228321127 0.56373381892854013
-0.78154082844928041 -0.25747973805427904 0.53407665607444699
0.31617861527844582 0.41358355441125383 0.51427938571757892
0.30398907392533658 0.24825420948178589 0.46747738743795964
-0.73374258643576695 -0.46884244478749082 0.3829049099838997
0.18817716600372592 -0.050524995419465313 0.80875798206643168
0.22972341575419364 0.97785459098812311 -0.26251254795383261
0.2839958812707124 0.10224956652747608 0.48133821329786741
0.12147541070773116 0.81345212797869948 0.28357022964158318
-0.24060649130206002 0.39989293945772886 0.77810265457726757
0.39609628271752229 0.62388316617306572 -0.27338320919239578
0.16519805487283179 -0.051318404619863145 0.76264389234700758
0.88909564850291645 -0.26447442847899083 0.32338816488543642
-0.88710058353379395 -0.75905947703368781 -0.48801224485544026
-0.55603093870865905 -0.26238651538487545 0.669636294511605
0.23086818937929365 1.1002043826363916 -0.37541493166983742
-0.26518071833898205 -0.63870403246968976 -0.14389102798287468
-0.91873583682284732 -0.60305487016095327 -0.50001175616675653
-0.0029182288264024692 0.60160080124387605 0.69634218580505802
-0.061189383537495701 0.87703128798865038 0.27211628248557673
-0.63083588753161735 -0.58363363380173894 -0.22919488357426587
0.54398848231929264 -0.095215967810489133 0.68269989979241785
-0.25168923717485825 -0.39433949676674018 -0.53148171402443012
-0.30647433510888789 -0.22198852922164747 0.80638632926041964
0.39676462870495754 0.73617006430063725 -0.35389832008318933
-0.32446007078378614 0.50536133049856602 0.80313493096750932
-0.64227569371286108 -0.75369727676046949 -0.33292984296753048
0.28488888278324964 -0.070863243993883884 0.7874519381543621
-0.42290816112658547 0.58129240792409576 0.67047383659947712
0.48675352934132832 0.82919529753154819 -0.40724186356904113
-0.7399581607507173 -0.3799823288333215 0.3205977432132201
-0.1347862021593329 0.41810251626358053 0.81645294161973681
0.70146658710200427 -0.65795541768414267 0.57554344927287104
-0.50443446323885155 0.14100024719900972 0.65599361537842782
0.61525141697057961 -0.3125578941424223 0.73152917280970087
0.68285222173714999 -0.20189271771565842 0.68083761973756651
-0.26370728068846461 -0.25739913594115649 0.74579396445760437
-0.78683884098687429 -0.43340755411922771 0.48829371591248361
0.13002020647194001 0.47717093495628404 0.68235275003443974
-0.0084324103727624333 0.49630131489712426 0.77405515024182137
0.14043262748648999 0.40030608858983641 0.69922734778975837
-0.24662060388938301 0.2995346049593266 0.69853489099978106
-0.17164815893202956 0.70906625928084566 0.45097018619760121
0.12672519415986017 0.58826573366236801 0.56161794496202333
-0.51509655330455928 0.43184557730511131 0.69741216133656536
-0.37990750071286072 -0.64392262261243616 0.080405072042999848
0.16179405786435552 -0.0741552254180462 0.81442570588050955
-0.9290135341450565 -0.73190583907866369 -0.48698177018042799
0.69664365029471753 -0.40961764638984022 0.66239219389358084
0.47676625563080677 0.59012129446708173 -0.35875959260724244
0.29303330859140431 1.2805517516428395 -0.30486578106729922
0.37624427863255505 -0.28078009524421788 0.26766022188474636
0.37827687055987269 1.0337625215407868 -0.38907486675359593
-0.62828307197808897 0.36356795571703771 0.38725025409470248
0.58724339417166505 -0.21488464187195433 0.71215783508499442
-0.48809773142657775 -0.57327207191541873 0.50671468078996895
0.38850173871252025 -0.17000954939115331 0.74137125734880271
-0.28002466503862422 0.80066148679073024 -0.46809954141683363
-0.27873383946653973 -0.27950181821439202 0.73961589479041123
-0.64633508694203101 -0.95330765068187162 -0.3690425223588818
0.91744016106406434 -0.18799456229704958 0.35443847359243819
0.32853232072618255 1.31584063257732 -0.32712048385875647
0.51436012840876799 1.0434880991680302 -0.52763338928605208
0.6859874611152037 -0.65872290061025041 0.5510837128052728
-0.19477672154498293 0.31654258249822931 0.76569207445766096
-0.65224580268021271 -0.57976612122189408 -0.23865322121520194
-0.91579312864331541 -0.65305397341350613 -0.45499414527532878
0.40748789406734431 1.2873975886326434 -0.45751531368527054
0.46504375074995608 -0.419396144666635 0.39010735365295801
-0.71031764538001596 0.031561283314800903 0.74843818739149981
-0.21752280785834444 0.47714360980879889 0.77162912069553613
-0.091621077080887403 0.26220190445428671 0.7462519162517367
0.41106878308070804 0.90450398869464976 -0.40659533213994337
0.26745296788932649 0.7859905180031177 -0.28761828291465008
-0.57982529511544101 -0.63011943658010949 -0.26509425187553859
0.31413189964828803 -0.011292202786322036 0.73173692760093445
-0.51133694969310284 -0.66889315850512077 -0.26788720319137838
0.66972013825372301 -0.3586809870045542 0.70431827730256202
-0.4941178676135678 -0.1262469497644787 0.76710550904168429
-0.41903504905134525 -0.35742352180169235 0.67752529741535739
-0.67738078827660786 -0.97682551829618092 -0.38966364574858403
-0.3983876773673245 0.24129118677382877 0.76111600390219536
0.64941483698106595 -0.37172521700137651 0.73615955074575368
0.79195246297528854 -0.55452654261313938 0.5914126799676751
0.2903758518962718 0.4291652854214405 -0.39158156678473688
-0.32949845988983384 0.1861896303369619 0.79919047858373915
-0.63062166860832747 0.044263703312395819 0.76435758156614497
-0.30250715834988284 -0.2491013673267517 0.77721503403839876
0.80704478354867604 -0.19777849725627306 0.30918601000457357
-0.6006715042317694 -0.32731158654662096 0.64664523737069146
0.26975902864313639 1.0819613029139532 -0.34488470435771745
0.67633317346835042 -0.63179454094252918 0.68236715123240543
0.27636922026590582 0.75994371793807147 -0.3031448770495615
0.20586878850480161 -0.15840828792826045 0.80169593048103138
0.7290493858095175 -0.46450986433301722 0.71094200666625795
0.046670082179218753 0.31408647145106272 0.75684056159144575
0.14755794595433258 -0.14969479657766271 0.81753448095019365
0.86740938573490212 -0.17296599725801087 0.33442958320251392
0.043935610582906293 -0.270005782587738 0.61668888058369475
0.72020184202452242 -0.41993407357063006 0.37531681460580302
-0.44672072778851657 0.40006534593291576 0.82752614187203477
0.13740085781844869 0.77963008101940545 0.58738171074487866
0.34318207815088897 0.86537530426339515 -0.35063109253407987
-0.30151586397661845 -0.05713943058864146 0.75259360615007154
0.33742074645427067 0.42351588298249254 -0.32932067210173699
-0.38035003905511644 -0.52278388294147504 0.596553307725884
-0.40379583554256726 -0.80248634358068216 -0.079791006505985251
-0.40478055820906889 0.19814002477024673 0.614336917645673
0.46408712984226952 0.74882248350484559 -0.34475691070683467
-0.29052872634318305 0.65982755605165266 0.69925288765310256
0.12503724479645939 -0.14973024825264503 0.7906326234274843
-0.36299194907492449 0.10370076772967707 0.79072634092572969
-0.37973547567180788 -0.24208450010792149 0.79713267937250265
-0.18734231747852448 -0.17207116374984111 0.75648650533597817
-0.023854886900608108 -0.47143281888516242 -0.32974158954822741
-0.077072401167242788 1.000204382891674 -0.033735430597253924
-0.74452993482753982 -0.6122111135571231 -0.31788926215003244
0.81245085702609288 -0.21403218198678786 0.6150323613748867
0.89968918789286079 -0.33614995474378162 0.54179796087515797
-0.64191990412675182 -0.52805071678849202 -0.39373773515777089
-0.73416604124393814 -0.82707317515177436 -0.48585956988203094
-0.56710712252449014 0.79691253728208267 -0.2872933746834363
0.15432155632865374 0.80786196344795513 0.51154266623786526
-0.40715337962703302 0.37106872407699143 0.63322927511663352
0.49388721248398326 0.87498674677676291 -0.430790895771473
-0.48756192169035728 -0.56757123089474959 0.41918227934747421
-0.10477125446688262 0.46062304470839877 0.80642215018026775
-0.77601144350767015 -1.0318185321613527 -0.39235378199537507
-0.44428207448018497 -0.42205061273123334 0.65862892586430632
-0.36582924296422448 0.2717357339475015 0.81311756422819315
-0.20765536672831786 -0.12681804736844526 0.73948271613112837
0.21892076424472862 0.75001823215316676 0.24744283616982443
0.8258745803513392 -0.25035759149213987 0.62438038687132291
0.19223332030138351 1.1733013622105375 -0.2289016481376791
-0.13665688094866368 0.63198553370182253 0.75615800069482475
0.88619244390145013 -0.36505030608245903 0.5595403242772079
