# XYZ point cloud file
-0.11206104344731616 -0.24137036732056982 0.51697938632183749
0.1217589642566983 0.29984497934305021 0.52735674874032812
-0.47504033327828621 -0.3567519409053459 -0.074655342421261262
-0.27190296135484582 0.13924714011142253 0.31929306546234826
-0.51484665137565733 -0.28061231082179983 -0.14543313353823661
0.059890247519583273 -0.19814875925434355 0.70258522803670009
-0.2996209328219579 0.10290824642310292 0.28384926007569433
0.06184056260409454 -0.12748525730355065 0.40467439778998715
0.010089768599073512 0.49943410467567501 0.41942077107238473
0.31034604789820053 0.37908997716177373 0.017968288290267198
-0.39954283095093057 0.0020208391179618035 -0.26372289674563998
-0.53095500101576576 -0.28075473102412862 -0.17142201273668545
-0.19081971164437661 0.075015593171155026 0.50615008048489574
0.30404953648287636 0.41203694249193978 -0.019408888797563861
0.27992619536974361 0.2934583542207122 0.041474283412144208
-0.28654354513006686 0.02709189756357433 0.4140400230914878
-0.3550338143243752 0.058816523347247185 -0.31283202825818135
0.023716089091679216 0.5533399291943526 0.37457849711446345
-0.17216092482022205 0.16884706823103679 0.48701355348192021
0.52230241295835445 0.46429269842732712 -0.1030145474404276
0.1030998240584573 0.43892620180649589 0.47047976396449176
-0.43350223062690851 -0.31962558329530633 0.071815945657224489
0.059501910235198352 0.37920799713505948 0.45760258777971807
-0.49622638648708195 -0.42706080024754967 -0.0097747181568021979
0.11849191035064299 0.1513843862083768 0.54210196503886698
-0.3076355203738137 0.18231386393901294 -0.2527091084250972
0.28342521667002485 0.20081085156481521 -0.035194727701039596
-0.01468009623188804 -0.44266816487861416 0.71334194278004104
0.47538410859841829 0.42444048400463652 -0.07818239003623173
-0.13728483281615889 -0.29928365258355277 0.32258024110859829
0.056751468400441318 -0.3099470368181011 0.73326410267203213
0.18621976766080106 0.56769524231571555 0.46282631192035106
0.052527285993130057 0.016412842239452607 0.64151091227034462
0.27938122761110762 0.18676570723963737 -0.031063581040594368
0.0071583633706180372 0.069615052239467679 0.60429854292642826
0.40397072390824862 0.46625270865513241 -0.054496018070392616
0.0046401473053583331 -0.16725193588676923 -0.082914864967184698
0.15032387790842527 0.49325196334941884 0.47239830632787583
0.17641636295707697 0.49377384695191895 0.47344961257845242
-0.25581272896540153 -0.03746914550495567 0.43433058044914774
-0.45483624079075158 -0.3746516940288761 0.020047680031202608
0.13137741587839491 -0.33691746156784441 0.66776878367458159
0.10772250892201995 0.35975441756190496 0.53455881863195209
0.22172466406817204 0.50532973776787216 0.46624971128965553
0.11906497763270663 0.34799676314570038 0.54243187077558486
-0.067857636993735593 -0.28744579393708003 0.46057225261389712
0.11854269075330137 0.085564682469634668 0.44678478387296305
0.11304636465258922 0.29148177389751856 0.52716141350094636
0.11841822804409707 0.42408352040881875 0.51646532589320748
-0.68398208017495588 -0.52303893748844577 -0.18088791242528091
0.076298210366452679 -0.32261635579642434 0.70962763709492926
-0.24061765976624017 -0.050134858579117036 0.43911096847040909
-0.34750361548513586 -0.044650765048864338 0.38459039989476418
-0.1058193332249675 0.24177993249139185 0.45495730899582587
-0.040891307090931583 -0.34676969790143564 0.50495415863746995
-0.21953635239156855 -0.029784412930580095 0.48977442157027973
-0.27108135913810338 -0.40154456431418595 -0.073172569120383057
-0.13276436663311708 0.25093421400382721 0.43314262715591623
-0.032605369139294904 -0.4657109753033784 0.68974620277859966
0.084634640317623688 0.050972366471487063 0.62922099225295947
-0.33920977571786448 -0.15973605430770688 0.34521168468159513
0.30716557720388726 0.42576872564091267 0.43865737331632326
-0.033552297370491146 -0.4008159439543354 0.73393162608790996
0.24080123054772606 0.16374085544943945 0.10277804175921568
-0.015748550724186128 0.013780379304508039 0.61315011843929801
0.2274227565258764 0.49728732831157818 0.46606921593721373
0.071047153992794598 0.070187059467868296 0.63813911431829939
-0.13492402879389154 -0.25759875916070807 0.38429894168164402
0.11789035080900501 -0.24765003501091548 0.67844323850643862
-0.08474356863339283 -0.1614997982832812 0.58037803819089917
0.31925240326406534 0.40275414824164663 0.39752628548132507
-0.10455843240456142 0.072415680786683478 0.53146822124607684
0.0093661260718489459 -0.29061688524989315 0.72903510710911923
0.50512660572407553 0.60416382378167455 -0.079441009800984563
0.12174942023039437 0.3659041870049613 0.54049367373811297
0.050564188582800096 0.27369454542924665 0.5079258717482642
0.046529369127692011 -0.2978844376477604 0.7125843531296584
-0.48918708554893575 -0.41697402819177426 -0.0065517371520844581
-0.059482036858349741 -0.35916057450822514 0.70898048907321465
-0.096409545827095933 -0.43347522135490946 0.59303079540272807
0.060845288683281762 -0.31622528411421158 0.73190777621296332
-0.14561975519336334 0.22408256871046467 0.42992772015102743
-0.15375692660981111 0.21134138464199659 0.44442670983677202
-0.49601812335437678 -0.23767259765553811 -0.14956346970529455
-0.63016719075527261 -0.4681830287121922 -0.17596184053665231
-0.26344813834145464 0.041513939211155537 0.43139355919605848
0.20000302678735205 0.64399674517207084 0.030325503677532728
0.36887717045643287 0.42122606932667783 -0.04008990020154668
-0.5841033066634651 -0.47573961491413486 -0.096273647500981996
-0.46106601150891802 -0.33591985084140641 -0.041001228047801597
-0.59913538785457998 -0.52922845347533276 -0.0090521949522641698
0.18991805905544101 0.38889388775193001 0.53628608065442873
-0.027513632238364227 -0.23745784999794484 0.36762613253007403
0.20906330275127427 0.62318917310864985 -0.078113133496202414
0.066074726798857952 0.44871846488241846 0.45598240299180026
0.10612399572627407 0.010630714755091364 0.60673632891556339
-0.35899973005385721 0.056329745097808082 0.05013070949106857
-0.10550800913136582 0.22801255487388578 0.46275195692568083
-0.12484689276246241 -0.14586086626333095 0.45317956812321136
-0.0036790952064187366 -0.34010442716638101 0.73620075930789663
0.11665699454927303 -0.14235786262909494 0.4763936012329435
0.122964254268906 -0.19760660154460841 0.48870634403418123
-0.078002410504038 -0.2992998472839678 0.066118500488038912
0.28771791677303149 0.21649015225585322 -0.038039989207043101
0.1549848612212128 -0.19172046132487891 0.66147329538867294
-0.62217596669930586 -0.44483777627869414 -0.18548126820799138
-0.23104780443561479 0.087448496423363609 0.47170403683666717
0.39084071510029883 0.45390144676737182 -0.046817379538658166
0.28682511067544336 0.60127828438279241 0.45913175530996009
0.27602951337326154 0.18378281069494545 -0.026569693656014914
0.31248910909410421 0.61754121136750428 0.42283723881747859
-0.3551034218106528 -0.2862269271044271 0.21512447989807715
-0.17005998174277526 0.034751532475458036 0.51078203900670371
-0.53502216575991746 -0.39676860227421185 -0.11168882229509647
-0.34705202972699967 -0.17242561354302566 0.31753106382763963
0.23293639866301374 0.45767519401338835 -0.16667291591142619
0.074417846327083037 -0.24873216367585904 0.47175754729041675
0.092969315892827531 0.063826563007365833 0.59975921804717669
0.094604807808194913 0.038312808270858811 0.60205288150116631
-0.51022921571912461 -0.3369857344947893 -0.12841743803366223
0.016419651191208473 0.068760406494657311 0.61950689083024457
-0.56058468418834817 -0.3209283945213191 -0.21292092475609814
0.12014364250613863 -0.26359097481997729 0.68694817193269242
0.31324933937237942 0.50714794079765202 0.04688233061208269
0.052392900844348667 0.33684952829611625 -0.32609183960572463
0.11283466903033856 0.43597071714747215 0.490636795141983
0.029734395135394109 0.032642987774946952 0.64440683828239242
0.26245230453921575 0.1763485523612992 -0.00018284130010592925
0.23911183584135998 0.51298531698828753 0.46108222617621908
0.48251470465174995 0.43428323033621852 -0.12793585741942803
0.21439471161625923 0.51572729750730584 0.46215502460322289
-0.014825330948414539 -0.33705259949830885 0.4936327494952395
-0.42777120075047348 -0.040190867899819627 -0.017304506628470939
0.0078304621732758761 0.53869942741062249 -0.12981982209635667
0.10907682712956657 0.051014004528361134 0.55545596379958617
0.15709885365418597 -0.074121088047117867 0.57623792648068628
0.25631472582112558 0.19897107030832228 -0.011574910478180822
0.35694213541622721 0.20561053243206268 -0.061543416908979909
-0.39752012049842156 -0.20942607555712844 0.21872545248535502
-0.045823095438133787 0.095025871325243427 0.55719553191637061
0.39086187915137449 0.43881970376336921 -0.06112421625726161
-0.19753825470728925 0.34067094499748962 0.25072248878075687
-0.65850044933202501 -0.45233127530021511 -0.2432145055511663
-0.34021012013198693 0.14045804656027183 0.26760427571377265
-0.53494348249157619 -0.42813337359653825 -0.077382705823398901
-0.076794746317564222 0.34083241536241099 0.39864560465608667
-0.21428885472817871 0.33834135105842067 -0.077741719134339915
0.29532564825570384 0.53745258486058534 0.22662269910757527
0.32565525012790442 0.5881471758334631 0.43999344753394887
0.046208643043148534 0.09049397147588023 0.60176976924065761
-0.55732777384401277 -0.33180780065050025 -0.20601727818961169
-0.19967029093304811 0.27210085815555229 0.37280643901825172
0.10770443915522154 -0.3060999515147852 0.70774669404889889
0.1154168413606107 0.34011917359737653 0.53784884463986948
0.07472103657444773 -0.28759775991353959 0.68228251474387558
0.087983993526458804 0.10350534210624635 0.62135921783649817
-0.63220941341903414 -0.55409063045857876 -0.040943229363285205
-0.23469206494425165 0.18443264303848261 0.38662079503632274
-0.47181452256703249 -0.3175716439634948 -0.066755385203211004
-0.43602069953101941 -0.3223543400541839 0.054064286375653303
-0.040632233340769819 -0.098029421362760605 0.61614222515708361
0.46841639099871379 0.46908695206136336 -0.12427183312254253
0.30220690179938758 0.21671768201785621 -0.039246778766667045
0.16239956212070616 0.13880619504454456 0.45136775692378039
-0.39673652185346064 0.023751666423828754 -0.036273934644383443
0.24990101757507954 0.24428019070887774 0.31543217215394326
-0.021132805183414316 -0.14933838774500663 -0.18594662515392812
0.17867663099544862 0.43323982298003777 0.52549776411957105
0.29143219599336323 0.61098872944488436 0.44974840629330948
-0.08396473014214223 -0.14467493564007849 0.56975877461869229
-0.43411598118271799 -0.29273105822719014 0.099458257401603856
-0.17315047414069884 0.051448390002860611 0.50568095940728197
0.45988656765478009 0.31494588338915669 -0.081213732107119574
0.013107845983603816 -0.18585329641396026 0.063287123892444175
-0.43465760865206793 -0.40668919260944725 0.090182899171888042
-0.64920258585513579 -0.53717181100502798 -0.13384418319985047
-0.28263409172799747 0.014203557355579766 0.40606723454863447
0.084948758912327893 0.44384849538881133 0.42793102148926865
0.35020631740687813 0.40153328683085626 -0.022209431002943258
0.26535960520563151 0.19744886181970811 -0.024155306297094725
0.021610363154243029 -0.099897401411337516 -0.17024194484083566
-0.5923239208131319 -0.44738957249769024 -0.1404382961379298
0.21195686497085386 0.57091481702399272 0.4652400618814132
-0.52072865272922497 -0.3709563861537517 -0.11963225127763932
-0.171199189100391 -0.23794513997535949 0.35846969296623232
-0.1481172903630954 0.082762623840203942 0.5035646093963162
0.12239217868524843 -0.20155152865725934 0.69167559690357971
-0.11256413410267552 0.24896352056222371 0.44730464800142866
-0.021553459669141795 0.38232603939495069 0.39666269352373806
-0.14406993868053775 0.1590080576525541 0.51015533023433024
0.27413479140824348 0.58883985907197833 0.1593832635318031
0.11659881255542448 0.024440373401986237 0.58083185125380377
0.14394958026601001 -0.35725151264514032 0.54994192625878235
-0.48986525732047737 -0.38282103917902199 -0.056696587906892137
0.094505977190851631 -0.26411097563055397 0.48207119633170725
0.036884688975176161 0.3427083994903628 0.43778728878757334
0.4954340384297522 0.45260613263814958 -0.068561315741084483
-0.065375991266258815 0.47933961927621671 0.044395349125670114
-0.5240918791722553 -0.30302507397358452 -0.1529160601154913
0.21426776660092628 0.10255245990325285 0.085388042359219041
-0.24875177810498794 -0.36139712644036992 -0.17258203483434675
0.29184839434071019 0.56152905018968347 0.4602087365465275
0.15942720531195187 -0.34456745855094573 0.58220813871949728
-0.013052460339845862 0.042583630210934809 0.59210425998965266
-0.11281925394713355 0.1734416882651415 0.48542435669260131
-0.0034282177736324471 0.092098231650666107 -0.34120891937497322
-0.15031681829020993 0.17007904647336264 0.50029528635490061
-0.10510303141086252 0.10533023587547785 0.51783714523359903
-0.17823701426411009 0.26118123502782425 0.22754305807870234
-0.52243829038042167 -0.34376824591519994 -0.19825066197754193
-0.23326137191675578 -0.024899171902302453 0.47998442930638885
0.062812020221366893 -0.31395021815203406 0.68927129796001441
0.4781493771873917 0.5207438603030804 -0.07033558482892599
0.15994243930958252 -0.22998817664310459 0.5359096281038831
-0.024233057231990429 -0.33605721158962043 0.7284967356354618
-0.12750253962211344 0.19461882505846689 0.47259145082348253
-0.35817860573460747 0.11082159052969798 0.28400388899150908
-0.45966989088843313 -0.21729589679746447 -0.22236158716103516
0.054514165766353706 -0.30999834328656301 0.71911154795754273
0.13853350022940747 0.47557537755688672 0.46950502035485808
0.44701813361310183 0.47539634613388859 -0.091670912753474054
-0.14041204545046027 0.091773515222663193 0.51258150966097094
0.095441077765978655 0.2217744118150482 0.48609946052341702
0.091413145306340038 -0.31349432722127119 0.69406753703829516
0.070063679380944599 0.43126248168149461 0.46528456775364813
-0.6925467508187948 -0.52607285783190272 -0.17001525648550464
0.0084532520908147113 0.049237133299837366 0.6329373439926087
0.173649205871238 -0.30994062544447765 0.58932977734129666
0.3536611648416117 0.27227993151728114 -0.059213241079482337
0.32574111527644423 0.40082414982731801 0.006568113406978604
0.12904610194537636 -0.35870048379289543 0.64775497210444466
0.41054310830406893 0.51934899346590069 -0.028417491211593759
-0.049617747414073321 -0.23395289860341073 0.67013750478097156
0.049406355035162886 0.55232472205077665 0.33604473887674446
-0.10865233688225251 -0.31319583330265144 0.55704556732964772
-0.14502136549265776 0.016797718650659044 0.52546064425080052
-0.45458641657307375 -0.238020948646678 0.052358112605553453
-0.51283401340009949 -0.39631593056901099 -0.087037024230455229
0.088195493151619786 0.43444973733205006 0.46903618955827153
0.13958163042930005 0.3259172140191553 0.53710924554194683
-0.19984726305002676 0.14487832945092505 0.47645677248888529
0.087528236825137995 0.11737863859079112 0.5824073985381335
0.047170911206711352 -0.37407568496095944 0.72515162938382149
0.060891113102216732 -0.022964465867971073 0.630349385541769
0.040019012898322437 0.57339082451086998 0.39183459051360736
0.30732774608139612 0.56999579054488825 0.3510099908458908
-0.14157510332989842 0.25235379223771015 0.42570987851966802
0.10350355648734011 -0.28207181730245157 0.66854623847912875
0.2508700375760764 0.15785561704403339 0.016244567009983335
0.23049539927428153 0.4755135956164388 0.46522559690094023
0.29661442865384346 0.30373567889203784 -0.007557874107612772
-0.14954472075822567 -0.023704713695033686 -0.38652531485938701
0.29969805351501266 0.53072932251746918 0.45486806858015205
0.05943481852188981 0.45435505764009387 0.45384600075118842
-0.25233506756753998 0.10234029686849822 0.42260538413834103
0.15526381330254901 0.38427045039985264 0.54351255509913843
-0.27728809001195209 0.25209139551556381 0.28844219976878982
0.043847896224272986 -0.28091916484129609 0.47744342522210426
-0.12247293011973603 0.36811854526288523 0.35499530957883674
0.080626248903537867 0.083897265934564869 0.63452664049244634
0.10068636810066067 0.44748485979884728 0.46752234306523954
0.1361573956659301 0.22858379292096531 0.53623870332823609
0.22377608554989781 0.11945956000049079 0.076950742686987317
0.24410042086686534 0.54030637248103841 0.275126566397212
-0.10009579987753581 -0.32670052635859104 0.62053014019050501
0.27873826073621411 0.13626546683208973 0.050623694815683074
-0.42573428849749195 -0.003097848818188309 0.24414617402995686
0.062810580003745287 0.27274130751127623 0.48830677462932837
-0.1970408524490157 0.24325452681481441 0.38102946422967277
-0.50131043041692624 -0.30224190724117866 -0.11724281188583552
0.12275827707332843 0.08683016665665455 0.4313816695759074
-0.13883785164837859 0.29469583197627314 0.41371815783434451
-0.66574068128321562 -0.57383494201885632 -0.079434431701645769
0.2793976621821157 0.41233304456104469 -0.095170375510371219
-0.070622263864036583 -0.16727143101537334 0.61105528500191952
0.22730564430820133 0.22089958908953339 0.42875256932781891
-0.2992219002785359 0.13405244092831525 0.18319531468729022
-0.0097355620489185668 0.023788877619803639 0.62819093249100799
-0.14304319554671929 0.36089697032479889 0.38600803564774755
0.26422241036025707 0.21820327484088764 -0.030910890900829102
0.019890954545974004 0.35420795604795263 0.47798942341861905
-0.5079004790145909 -0.43649793972030793 -0.031416566966854464
0.043369080438671048 0.39103727488321893 0.47000822359851391
-0.31126284475077748 0.061090477215663408 0.37126098119288353
-0.50963668580035648 -0.26835450668509175 -0.14358595914404226
-0.51837344022814857 -0.43544157758254931 -0.048406803226225481
-0.245578023291388 0.10790131191097008 0.43288242807679667
-0.36974249932572523 0.061718216394130498 0.32748472402992168
0.16437879135585565 0.15918494493709978 0.48132494140233861
0.013561074473983581 0.36725054399833179 -0.3338738976695883
0.045644968427754673 -0.31467172660930554 0.70122031379226846
-0.10614078640255364 0.19382951238462953 0.47590438091922027
0.23423209460777894 0.36306467813445981 0.4922564310312243
-0.096150054358943748 -0.31730422426349958 0.13213633696789251
0.37350236474985055 0.17540360124285981 -0.065962132224047787
0.45129084824553756 0.36588079442660659 -0.10232519894054026
0.061663525942547981 0.019108489471254597 0.63760484923009997
0.26389801704616245 0.23870815128807682 0.082058130607811863
0.095219180278319993 0.44046934561036966 0.46831651733585944
0.089861112520178477 -0.40730871077412201 0.61137459680910688
0.097721280605770122 0.3984858855394105 0.50647604651067679
-0.12459246280180425 -0.21467504173332824 -0.25806057705267516
0.16940325696304681 0.60462437315712347 0.40656329215901055
-0.66146432370242225 -0.53520239014134641 -0.13046402935380796
0.078745412545657256 -0.2671007038422698 0.68871329137302462
0.021362198834846691 0.070849977766104522 0.59818004748392894
-0.61252803661288358 -0.34600523992803456 -0.27189257991483506
0.25794407267316721 0.2065308047834174 -0.025398783314568796
0.4404851184340246 0.46001729811891368 -0.091094294222646033
0.060012489249283707 0.1052672002197198 0.59020950737611755
0.52122016939164384 0.46791292336154433 -0.11075255301650588
0.44143814326346442 0.31686852606558991 -0.068924896340300412
0.39736872940259582 0.52895668290677422 -0.027119228077868485
0.25166959683167178 0.19798719698098788 0.0071232996939800675
0.48552551117254827 0.57650404799870869 -0.055684308965507023
0.11715564250028399 0.58973244247759959 0.43852913091192347
0.034820771425196906 -0.19546797125976845 0.41929198292813652
0.30182779439640806 0.38447903604509731 0.432927790116584
0.285553576241381 0.44854114926928074 0.46132648066316495
0.10751502026633997 -0.27933888653576228 0.67175672414046161
0.31475719788504541 0.41575694153813447 0.096095704696206097
-0.26529728388309959 0.14209683266580264 0.33887792581858212
0.1222900667200868 0.47497851350418041 0.44033626967328976
-0.14762784190715594 0.053963331221536293 0.50621013894999933
0.39059761926021386 0.44543921443764811 -0.05441406707869767
-0.49721920782382645 -0.2586206995355208 -0.13124344920132636
0.1137122523066072 -0.0031955611633771031 0.48604561716377437
-0.0069011386471302671 0.05301202903615132 0.591847052106375
-0.55226954989276056 -0.25138948637432168 -0.26100531148872319
0.16098117484169983 0.33547255073543258 0.536001326842793
0.14235909783774714 0.1002226933096424 0.40573630865683574
-0.21258118765587719 0.1078493304064605 0.48433458845654553
0.097180864965142888 -0.24055488314730777 0.70092842800749067
0.025762343512130137 0.48991016987740821 0.4462722458704953
0.065810720087760899 -0.35614377357356031 0.7219716098061616
0.40561751692901682 0.37282802372180451 -0.069370997017607738
0.36897778909739865 0.43881830373080033 -0.024600073057812422
0.44675642974336416 0.54926080544739497 -0.044383784621626399
-0.59755213723058853 -0.51592158668383159 -0.021360342386844033
0.12716882407698948 -0.37977654507409553 0.57149755145694026
-0.45804720357467277 -0.1297613109565518 -0.13825077716686374
-0.049487313281066925 -0.42238402759008242 0.72762669284891268
-0.42931303748254201 -0.37430413990070333 0.074909663288351025
-0.015540629884752466 0.37470033489038956 0.36600894967280295
0.14153279891551396 0.1528602241505741 0.51033085656874566
0.16455137952656651 -0.24507833106091578 0.65327970718656525
-0.34331218743266945 -0.20942828142200409 -0.31431878706643057
0.11055675130898734 -0.0064330031111448638 0.61350114007809209
-0.49310216837310117 -0.46586211014575818 0.0027541308894942773
0.091679345537286405 0.36810613132622066 0.50993954483486692
0.31300226462050906 0.21359512319336713 -0.038576220037631392
-0.24785373934524912 0.31092064011186582 0.26963725712374176
0.21433039228292117 0.29488901570204568 0.49916773051861485
-0.50588224457076514 -0.40239107748609471 -0.069338307746468653
0.049681133925407295 -0.30714118279510194 0.73570804346007646
0.277337831831312 0.51793841935541962 0.45926428243920703
-0.071966975291816393 0.17894438058680517 0.49636783514542726
-0.21447055821992267 0.31145182967659579 0.23847907037124583
-0.34140735302005609 0.10340262621008478 0.0071622449992989612
0.048653607429523849 -0.28445438949945429 0.71796519101271872
0.46051019771888724 0.39351052192735558 -0.10199584493764746
-0.45045440380344415 -0.40135990473429956 0.079926798773816365
0.01734251914109386 0.49589082663985595 0.43481409026707407
0.077968592597303932 -0.25185276056569972 0.7091382571998579
-0.1989881410737242 -0.067642026146226608 -0.38053505274935895
-0.38485260405141286 0.025397691444704773 0.32449278655636959
0.031916584240741841 0.068851761182717297 0.60447965303857765
0.22142411990590949 0.064947191566531337 -0.015845341320027018
0.075015399725484766 0.40438627774448077 0.47284882572637299
0.19819159020667731 0.4783594032254741 0.46637599703900934
0.22355256287770153 0.60750805201706692 0.41614776593947789
-0.21683025952944712 0.22164114459657924 0.37554623006775367
0.18860997201377394 0.40143814203536932 0.53448513599495695
0.003261654167776129 0.29828739276295824 -0.35763745340220066
0.33152317163667844 0.37734415716064057 -0.009835883776616372
-0.027283327402560342 0.35250340682952697 0.35367940687718735
-0.091960389237976781 0.14538723720358065 0.50824974278443813
0.091328030593878395 -0.06493308287024413 0.64750942173371429
0.040246430367094188 0.07920926499708314 0.60080012713852593
0.13505903212738479 0.34351994549789622 0.54758880435522772
0.03886412130054584 0.07425288338053071 0.6164158627848404
0.29041279155412303 0.30070833260587193 0.18844186430454113
0.004402707526741878 -0.0017949281172944254 0.63506495163557131
0.32409202718964369 0.13776754320244877 -0.0031976881482500552
0.3883482391439852 0.40534323526482885 -0.066752344248673268
-0.035303244307917758 -0.43954304852893278 0.58941978433305331
0.45902047505740562 0.54636089878612304 -0.10185823128599947
-0.0072610181506185256 -0.31294679778506984 0.7298452526660838
0.066947695753752257 -0.10214581671140821 0.10988679962800774
0.10109156102834538 0.067724057095142898 0.51547543851882738
-0.29771839456304328 0.058532463100980703 0.38395193329818422
-0.69208528416734438 -0.51952007310528703 -0.21744244385469136
0.091760411340379822 -0.29551225418666771 0.67510872552994039
-0.43263593971118564 -0.17562829668231766 -0.28101671745807844
0.53391288309666218 0.54643942082785957 -0.090093037770762718
0.077607667182842732 0.05933878622455302 0.63785071530574244
0.42603409301301243 0.3914640109582046 -0.077636501955167692
0.28706267554175291 0.3237510226211201 0.29799165650457038
0.090514849038810574 -0.2362694150920911 0.47335094988892368
0.36119474122185746 0.29986152084097095 -0.06006648469623932
0.067725105729228741 -0.40435541286207899 0.68219262868737773
0.060574541743898536 0.3356169264133394 0.49775258317068194
-0.30284467473287213 0.13946654269059694 0.20079652709386764
-0.40096969853580688 0.035093433914208938 0.29428337295043439
0.1140361772633689 0.39453382705026607 0.52749398101021061
0.26567903122637926 0.58578666891903353 0.36959638138144668
0.41941087432061464 0.41218241733191852 -0.073928019928051203
0.31609358003620036 0.43360802650639613 0.074807327852978167
-0.34187140031186525 -0.25364667947734021 0.25281161021281506
0.19628251013431353 0.50854636069976544 0.46760572344130624
0.11623523543727954 0.081815539565319284 0.44144029353214598
0.13554347023290703 -0.0087605841441066312 0.55660709635302452
-0.59319189619501733 -0.37229012844836806 -0.23052973074065375
0.015242411116199506 0.055786689437356873 0.63202868964465186
-0.025812452411289932 0.19851722812010991 0.50399369918931791
0.00021505646143227253 0.053204620893845034 0.62294097608921595
0.030154259013301044 -0.043470084631980654 -0.21432729032348163
-0.19441249085212498 -0.22663459854387025 -0.29605505876298754
-0.4886307657246709 -0.32717803715751226 -0.094148517307749646
0.29939434774234641 0.52994644835916183 -0.041640539675551036
0.45461764866032484 0.45374414735160939 -0.094358896694912708
0.12182493009398776 -0.24218225699248869 0.68451739304124182
0.058932576328218911 0.2845304608270427 0.50942017898179537
0.20718789962118711 0.17678795062199504 0.3384561726075872
-0.2640732624860731 0.28074794487558441 0.26889759022188509
0.10163044277717059 0.0096812740743893455 0.46502088577064571
-0.22238663470925113 0.19578251840253025 0.39277669066313403
0.19885011699718547 0.34294861350046268 0.50846867505672311
-0.052620684017147035 -0.4646732277627329 0.70732906078104363
0.06828284258111772 0.34065016643677626 0.49136624863642564
-0.30243245685736975 -0.34868719772584422 0.13586846921885676
-0.18117428107443345 0.1455710509800463 0.49504656844733885
-0.30381994017670522 0.18460498122412294 0.3247107379678329
-0.049658222701852495 -0.26963137262809672 0.19195040111888151
0.27984555162067926 0.25324460049892816 -0.027302820114708748
0.19607578520447255 0.35134307869116299 0.51665528552769513
0.25500302827173194 0.20013996470634077 0.11212642058821043
-0.41682446596242251 -0.0027693632826259473 -0.070673272866365711
0.098968864548501845 -0.29145671466048562 0.49114699436840059
-0.10728954579473671 0.13663980422080518 0.50702377604006621
0.12675978064182258 -0.28313994663275749 0.69898332670447294
0.11011613497336592 -0.27255649994698677 0.67220454215927394
-0.59602674587661797 -0.41339651851565823 -0.18031066068892243
0.044969161649823342 0.48437281695338186 0.33652736836890096
0.20314158918289626 0.48449846368794758 0.45360858328986087
-0.042666434674628384 0.1732899597114429 0.50747778074607286
0.27012261102654156 0.23434364503541655 -0.026759585935268282
0.26933471892245286 0.15540435923476908 -0.018166357717227521
-0.50055821750924467 -0.39249535414657694 -0.074324223004959666
-0.13685671638582031 0.071378728635263122 0.51668369642159817
0.11531475592988327 0.17266243910134105 0.5543739143113231
0.0072465825445462428 0.067496475092040931 0.59396130161193206
0.22279746638639786 0.38917574847961167 0.4909923808762362
-0.58821282384731566 -0.34639967332925381 -0.24882561985007068
0.12042945395550708 -0.34498569791959788 0.67589806620493598
-0.26019881969472891 0.22783629083093854 0.057249934394465907
0.075336905985461833 0.54485746299237159 0.44485972691683884
0.26517047670408633 0.1415111091500918 0.036166473196915128
0.25058916250580365 0.19881525712683384 0.081008228169308083
-0.10484888172304885 -0.41325907123164862 0.59083061396282921
0.29822860756630032 0.36497519756573804 -0.066008684766118764
0.0055087789102037377 -0.20119293149278805 0.18179526002125002
-0.17498763016767738 0.23135896870489614 0.3692712765457038
0.30493025474609814 0.36515706633559158 0.023894027065400225
-0.021861456301931703 0.37019729926717382 0.44822106482058865
-0.64455622951595881 -0.53467275909498468 -0.087256724544308994
-0.12053721972473985 -0.21641186925081218 0.44085242801466928
0.069558189165738415 0.37102219565052441 0.47852756124675055
-0.017400520916907247 0.010466460434718439 0.60858436528381943
-0.53474383749380827 -0.38235054166288457 -0.12579393203340183
-0.61547316336454116 -0.44561502313372869 -0.1756162665506491
0.24826611154343192 0.40765806725751419 0.4836360383352194
0.02771289363238072 0.068175801277479797 0.59691730180215852
-0.065247341419610638 -0.052096532461333944 0.55567880196464992
-0.10292041943965247 -0.12328004175369611 0.49114326042724743
-0.095887884663175438 0.12064001918053541 0.51578050983692214
-0.17969312113740576 0.22044354466647709 0.40990697674716614
0.14626152438100304 -0.25637059181985683 0.67963932422984918
0.12896888043195975 0.47352520346066029 0.46868136366656055
-0.5711606474374209 -0.26410809658463635 -0.28397398157112863
0.0233714433333998 0.0064025007684844759 0.64144910328836835
-0.49092367797665037 -0.26178086052481686 -0.119487634189261
-0.44723208780898238 -0.31819770575705231 0.0047839453924174435
0.19393791737773025 0.40014697191654064 0.53255797747726685
-0.25465729907462276 0.032179770438781397 0.44549557272035067
-0.62676340682676956 -0.52619596401307767 -0.089272635850360826
-0.28621802803484808 -0.37960279787174045 0.092194821562774143
0.29866816879730518 0.42861298547948246 0.44985536215495836
-0.013200432922005678 -0.23271953856958411 0.69826100920671064
-0.7195920574385557 -0.45131541637028216 -0.3175021378357068
0.089558625929852198 0.31480588272171423 0.51396362301937404
0.23265439988166126 0.22531985941394339 0.35898654153465803
-0.45180194418366693 -0.38016367325498845 -0.11011848095758148
-0.49850044552413708 -0.34499160412412661 -0.11122639519617361
-0.46913247121957591 -0.27341406208433666 -0.058125043767539131
-0.083213741356733539 -0.27145279752442641 0.42782104809833266
-0.34828194455184747 0.063505333638308459 0.34239381219342002
-0.00059826876930824113 0.38866469038811541 0.46841579055056703
0.47006573503138505 0.48603552157824603 -0.089752647867518354
0.2356811150419893 0.43576124515428449 0.47523717772771312
-0.22462895880357214 0.06479678315555415 0.47856622454935471
-0.082949630113724471 0.20965192354078194 0.48125869598345683
-0.0083844608913046237 0.36759155783425157 0.47112638035525634
-0.39507737528234532 -0.040429088371218502 0.32991628194836942
-0.11480901201744409 0.22124446788075813 0.43602630068072501
-0.18774583721098015 0.26408884592445026 0.38127416764868016
-0.18722611202710082 0.24234143472160796 0.39027320332417625
-0.21581522554114718 0.083025676246476721 0.4909202564501105
0.11560976039594273 0.54523515584285875 -0.20116008029708077
0.056475423503473898 0.18597708558576742 0.54741390905180176
-0.070011757085018278 -0.11546999703330901 0.57917525758361754
-0.58225297745306293 -0.38865080147463771 -0.18802519470998291
0.12561666138123417 0.42218005953441462 0.52128955626527373
-0.016275329717542419 0.37246415157655399 0.33860030918926198
0.46968461351961865 0.57421341531865 -0.04999909734131891
0.072964363103015906 -0.32380478293841558 0.70345536672454911
0.13928663731983537 -0.072947137251647032 0.6252811970980019
0.086627442394355381 0.34820812074715501 0.50854739498017598
-0.15357744324502676 -0.19602849118239563 -0.29884414147339955
-0.050998116924902526 -0.44313544480886824 0.594039100407735
0.051086729307657563 -0.19259515173632197 0.43570303360001006
-0.16696564184461282 -0.00052221043815048329 0.48037626613958029
0.3559255195392983 0.22543952416022592 -0.068606722432827283
0.16270386990554098 -0.26136109442939875 0.65489474791643409
-0.12892823293790467 0.25845914581319596 0.43144503379543298
0.17164777262025366 0.09813858280604959 -0.10806258550082504
0.20025974134619462 0.044680518305688532 0.0063774030269345694
0.060578689906395589 0.29970444219665804 0.50763216443775683
0.10387346115054941 -0.31732558570220321 0.50086573161985659
-0.45259036797891694 -0.17901366131039081 -0.23845643719741494
0.12419109240768789 0.0042747605752198048 -0.06867869177011876
0.1413888369249281 -0.34000499839161091 0.64947085010680372
0.069195659101433993 0.41845544903807219 0.47065813838749437
-0.47859503771084499 -0.36714864533504843 -0.060847906666511076
-0.14158546541398831 0.23290689330082226 0.41004821503548339
0.16027453637894906 0.26890474661836783 0.50585284967314847
0.52659250946835101 0.49582871383927246 -0.10659853238447248
-0.53935922221733934 -0.31088073284422429 -0.25186502875740091
-0.21701813492780397 -0.04268953204361936 0.45283704076043474
0.078424680679053616 -0.0051795891726182375 0.62324119811380174
0.049155931266579245 0.093055963398326225 0.60693467162361392
-0.61093650431833124 -0.51798548774042408 -0.090232269561137723
0.39856439188063097 0.3861565706291773 -0.066469066753845896
0.059106235784907479 -0.3695064169736707 0.71970492703420419
0.2192004091834181 0.34420400032836901 0.48384231810543454
0.061447834471797247 -0.42567737383113868 0.63619629351676432
0.24941952232441356 0.61079479430276451 0.43482698785022644
-0.084940313048524452 -0.30205115213330391 0.4895757315261835
-0.10856581438634949 -0.11717869863531627 0.47511171112598705
0.0030527405243603312 -0.0062011333924638645 0.63109309786974688
-0.12445145213658471 -0.25431898483528742 0.40112754036285159
0.23931427583316411 0.46231048608650271 0.47117909976633743
0.31763573006925538 0.51692623361906498 0.10074469499407801
0.28818128909574003 0.32731195992426165 0.41618079931553775
-0.13553870317190864 0.18081164382103321 0.49939990468117879
-0.10836779477828484 0.06883476422872159 0.4813738801941545
-0.27060894230878452 -0.16139477540147157 0.37895857925503562
-0.51763782427915173 -0.44371044789890812 -0.0040134249663663635
0.19040874738220115 0.59315969794507672 0.45338617071031928
0.091712554986496997 0.44524588968426415 0.4677234558827521
-0.33961060455656744 0.1268208696335773 0.23641109781831937
0.37331709772330246 0.18569025101972592 -0.096658532625221172
0.086667723681814746 0.094976412322755166 0.62898351882604331
-0.038048484235137181 -0.13554868769663814 0.63741553721898514
-0.0077311893586200497 0.043994577276786517 0.6204614871018943
0.3168788292168454 0.32077930479513206 -0.081043330024566984
0.031486326869463621 0.23028958261954613 0.51342352387002443
0.056724317400999258 -0.1752569337633052 0.69367918684875018
0.35989964591592338 0.36520409744833637 -0.055407677615021411
-0.062336891779235071 -0.30895849684300253 0.68758048946351169
0.25227625160984513 0.51472383657740062 0.45962520879833724
0.28829650518994487 0.3011826242193425 0.11782861999190053
0.46252862955383645 0.5724989447247435 -0.086947064829580922
-0.12510139400998943 -0.20976366573616845 0.43115619100667413
-0.0049198034960848958 0.058431282871303891 0.60649911124924216
0.25490092546184684 0.19686318123015201 0.13044239083275944
-0.18977925766039538 -0.016723721597530328 0.47331949239367233
0.13026154576246984 0.35394937436749385 0.54592041042721218
-0.23235980369756826 0.1646735393712383 0.39340209387163072
-0.010109359126363682 -0.26149825927953629 0.44333406159767952
-0.1027341572255871 -0.42614005935900356 0.64080647633939725
-0.22533139633843646 0.13214030800713539 0.45532205385319391
-0.04960707871476977 0.25379969596944318 -0.38190959429769555
-0.70760023287692686 -0.43842404872576679 -0.29806210007083433
-0.19658452472124699 0.22691347746179047 0.32196089945486972
-0.10987635297227927 -0.093402314271772702 0.47278456241891531
0.079590732384672513 -0.13876783989464198 0.4370231976168315
-0.20164263073793443 0.29129664827959345 0.36881708088799181
0.37042269796030602 0.31586728909244954 -0.062848378524754223
-0.61288647234940141 -0.29771184419815944 -0.31431036461000517
0.048392735920213426 -0.314679359601999 0.70613346776655184
0.26734567473325388 0.15636954274804263 -0.011388466650320117
-0.1926030853473657 -0.030180215579916403 0.46355030077250237
-0.074025068444899311 0.32340275977697081 0.32063335040018459
0.26241312295579799 0.21826644200079859 -0.026061884665948609
0.05189291378480787 -0.03005444941884805 0.6323685873847027
0.34348335230649329 0.25677239355257364 -0.053953298881026512
0.2503216760594098 0.13805620837606736 0.026923791942123909
0.27628724813208949 0.14796437909382026 -0.0021117276072797342
0.095934301202911687 -0.30885593912433879 0.69145836148134454
0.36446496763317748 0.45577714270754632 -0.075901578832172634
0.31657584797425198 0.50610008362653836 0.1508517113802077
-0.089091371805817055 -0.37794037094582988 0.54724421642110843
0.29270434393741152 0.55209661419719935 -0.051646752125282358
0.13180087989236089 -0.24457544007104173 0.69429259796565745
-0.37983789669981549 0.06452592763823628 0.23113348464959182
-0.2782301458083527 0.13609906230999375 0.29940255953715877
-0.32152884530147308 0.11026410377611895 0.3463318754098843
0.080495882413915698 0.10392984510706088 0.5857903056962952
-0.36747054769393417 -0.10364992444938281 0.37041148868411056
0.098856440438381377 0.039396757725192244 0.47994713372034159
-0.039706536356378219 0.34394699725979366 0.44755229861270296
-0.064771184388142444 0.33845370603347807 0.40663940807991006
0.10536239664115676 -0.30538330588955337 0.7062152917122535
-0.091512466716670016 -0.11917934900416027 0.52909296107932957
0.069914080320647276 -0.4171260736105239 0.65009564694195454
0.33935459267539114 0.18915126679209932 -0.021416203610954199
-0.31574147168544231 -0.092040165770708504 0.4249256782005657
0.11040149707240232 0.025630733027654062 0.59243395268902144
-0.6909734151432696 -0.51940542086723429 -0.21941664275567474
0.10422062507242424 -0.20031122923725286 0.47320546063059554
0.23474544331214808 0.13878658697498303 0.047853680775475027
-0.34341815312589707 0.068003415564912351 0.13403289587753697
-0.27611054200053786 -0.34899981835972582 -0.19854934427865945
-0.48532616643886417 -0.24640869554436495 -0.19732047409228826
0.19698812449836645 0.55624444800598372 0.21883871935343113
0.41872395749159441 0.45765125606253843 -0.080437863448203473
-0.23191891649507346 0.21261664682334558 0.23391447728765447
-0.64988647831244206 -0.54559849401091798 -0.074626129081904136
0.46908874030909242 0.47927593422508274 -0.095023894900121864
-0.27112586796573801 0.17630080763328737 0.21483860887206663
0.50365320994399143 0.46100701309741415 -0.068978133067238989
-0.043503423355946591 0.1565245459286676 0.51537534364922122
-0.27972151618439334 0.1278118677724206 0.36823147311350213
0.066739820396541472 0.38240248151507383 0.47981275498886555
0.32611143997827385 0.61146187541042885 0.42093712500676306
0.011766197405441936 -0.1937510151839954 0.35633210929744008
0.0079258145017742088 -0.27808213451048824 0.72493072307416884
0.061375771134458912 0.5778979442089518 0.34720184698314127
0.069463227012917184 -0.24408921189450183 0.7187467794414808
0.0077998953984041997 0.062551439978618117 0.62099129748749138
0.089896470026256114 0.084364687625982482 0.59342509500421881
-0.16832982844918654 0.20333412646108312 0.45919309543352327
-0.44580270505862263 -0.34265124340027087 -0.16410683589237252
-0.51436538774031026 -0.34513762460808406 -0.13101332577836056
0.094866921141694149 0.47305162954446417 0.45517628147179123
-0.0016010416438958508 0.031687445672242021 0.63560185406455139
-0.20564435072544152 -0.048268248468682717 0.49780539544022284
0.18178112801720969 0.53054163488347217 -0.18628302368756144
0.3256033129654976 0.18784193495944218 -0.039914372113382335
-0.61065659126374028 -0.49824042190093909 -0.16626293480008325
0.081738600936161809 -0.077719955428151466 0.057173198588694518
0.055808732306098729 -0.3474030995703471 0.73129036193793018
0.41642603565156344 0.54880814718007553 -0.034728329406466196
0.1968389730816078 0.20217601297946286 -0.14882895807100582
0.083075270993090644 0.10991885522581718 0.58498412119399656
0.16234528488752087 0.53388331143165824 0.45785920584235584
0.48379976409070391 0.60184044277454818 -0.064272724262275815
-0.10614465767931947 -0.42006287511703322 0.61386612257268047
0.16125180030954223 0.21117131681386858 0.52229506332139741
-0.1315933915269718 0.32643703184053274 0.4155130477113238
-0.38395331508912234 -0.25312611399319551 -0.27446948826152129
0.25617217276373294 0.13815572376528196 0.032010347373549797
-0.14141699522821405 0.12491854352983545 0.52077988841945677
0.26824090097721287 0.2369892517411516 -0.01265550594598519
0.056702990448631141 0.088954897404084132 0.62443579954789241
0.17385750637200292 0.38500908036816939 0.54185754415972931
0.051677804184549814 -0.29074062232669784 0.72529912394118878
-0.12029327548494351 0.25465372732877811 0.43943497698687262
0.29377764142092033 0.47332032134580027 -0.065332299061741539
-0.087417067310303409 -0.27610603902884567 0.44926766529760997
0.33385332900083808 0.3534207458924622 -0.036843935163065833
-0.0050106650357890636 0.42973019855215377 0.36977815600077601
0.16128973486582421 0.34129870148307839 0.53989996316422117
0.21499732892568346 0.35223566120637551 0.49458432045607847
-0.66327876332780233 -0.53742066811042877 -0.11563558585021227
-0.056535797085500938 0.35448832993034018 0.30349699461561164
-0.34099116668302543 0.13410883621137437 0.25126054583100488
0.23173398900757647 0.24131366688352124 0.45531250251461008
0.15947212791665955 0.13344245630353424 0.43925530155876991
-0.42083817268114965 -0.039538114813484793 0.20213120328581691
0.042916941298170919 0.073171126032216649 0.62789003839044777
0.35940220142646684 0.40836092684124903 -0.034145740609551112
0.098630582931083399 0.055391087092168168 0.45435663301640772
0.31241228300974422 0.47816911679783192 0.2531398372315683
0.089519716112020919 0.4476445685815188 0.46662087354600201
0.26218979723690072 0.14174988921254075 0.020468917203052328
0.031596698237187582 0.067198291079820893 0.59665004913632935
0.1196339294622768 -0.36787860372948389 0.53514361012164402
-0.6461494626457589 -0.38301071840252343 -0.28978939055283237
-0.26738554627202049 0.10641953709121371 0.38570706182963455
0.39960567522953427 0.45472343900353046 -0.1037551020475489
-0.39791588477637019 -0.39126766554740211 0.046136176825271491
-0.59436172161376266 -0.28640581497989603 -0.32204922697736182
0.23001915394223094 0.48709106463102281 0.46565433174967108
0.28563170756733625 0.56416707423097034 0.19825478438763611
-0.48525217418117306 -0.28395259436341491 -0.098906548821632301
0.11882062042626851 -0.080227905073735284 0.64476282119487016
-0.33456103054246755 -0.35106479183965544 -0.19192292289342583
-0.16818965213342407 0.099760758278964468 0.52138429979736278
0.29974281090629695 0.18875238981369202 -0.031791657157300257
0.10856009048104642 0.53984761802224479 0.45102026166746678
-0.56334071954778064 -0.4058650265402805 -0.14078750284095132
0.061653733556206625 0.030192415180379462 0.6409016661713548
0.099716409077230672 0.57915239613790814 0.34666793969234355
0.35721924339945987 0.20605626338401778 -0.047297253456584754
-0.39269079698140574 -0.00076969404251991946 0.1564076650483881
0.13041435965885162 0.44051011066349233 0.51314924261947237
-0.057696535751037725 -0.47929981931781546 0.67656847439674095
-0.096865115763808074 0.33011381892469582 0.35303793694171226
0.062553257738928725 -0.21481559136769141 0.70914483530820815
0.11955538137116939 -0.18129277426166301 0.68509525667153826
-0.17426016285161028 0.052996246607218134 0.50187231499232876
-0.41455625635820947 0.02039615487899854 0.24303273640345946
0.21842097506595071 0.37256066777720243 0.49948090896775144
0.19395246164002433 0.44405667157812279 0.51509959855931986
0.1929915439421257 0.32761041140272062 0.51720112042868549
0.0421495966572345 0.3688208639517051 0.42900694770946934
0.20328899617115637 0.53590339214349914 0.28042244624955792
0.25002728888380865 0.41018159516156483 0.42357312144090065
0.016821788359403289 0.51876597284178205 0.34899662129149633
-0.41239255664268937 -0.30781585416597351 0.14324356684846218
0.026615616837228018 0.067549961030388572 0.62691483229527445
-0.64699736312304479 -0.35586217400661474 -0.30324737834922777
0.043220897487425525 -0.31138785593579943 0.69820156201845784
0.26316638143993032 0.07604005865859037 -0.0067548397854051423
0.49711820519046057 0.56868067869117223 -0.059496889016872112
-0.042295411879052836 -0.25001865619127012 0.39146980794776165
0.41181099974710733 0.36794737957675616 -0.073738105239243623
-0.06551058104671581 0.4306324795554069 0.1537758840915604
0.089181163201848435 -0.15486527946602041 0.68238254669653597
-0.38069150081233261 -0.1334802891260346 0.3456680954852418
0.050005435274545373 -0.067540645383377396 0.64874110580123856
0.13342346238682579 0.38879212775907057 -0.26035371536205321
-0.18766075756446021 0.042309919999379497 0.4969073712581531
-0.64534668385650207 -0.52957704317580623 -0.13871962328023701
0.16049369276696002 -0.32296894304938456 0.5515354373491077
0.51966703925636493 0.5750757830886023 -0.06548923414299912
0.44121008410704965 0.2985819410801403 -0.12144092416417274
-0.065209508920923032 -0.48174699972421725 0.65943015078414979
0.06925635303354083 0.38220240014388307 0.47795704552137974
-0.4904551350740407 -0.27840703170680137 -0.11005800399821042
-0.6096706065524744 -0.30536105349899811 -0.29074245356528405
0.51842458380684775 0.50039779640075954 -0.11902889288286356
-0.057028891062702591 -0.32363014234134313 0.49404314922166614
-0.19212447313908321 0.34001107492971028 0.36057900320707392
0.12581894900360346 0.48685650405213637 0.46289725480177957
0.076309320042178719 0.31762549913062144 0.49738991326227122
0.36672709461639963 0.27406768658901232 -0.068540304152328257
0.29014326111947275 0.27302600210473549 -0.027646966703098963
-0.49223285747578993 -0.33346589933298465 -0.10084679179013922
0.087767472744948893 0.043611035077283367 0.61119531548867778
-0.48858683384981338 -0.37482536682714029 -0.080843364072926249
0.058702275058434505 -0.2635666497022392 0.71067093359802991
-0.18913765030251195 0.19501563276032641 0.44223330905941505
-0.26363694869148713 0.017207436819692667 0.43497208395985387
-0.6649697670813528 -0.54018806683484544 -0.15530768832092545
-0.019152924588103026 0.38874759588569774 0.42994098057888763
0.050964309126702467 -0.25754264959662376 0.72537534598906528
0.010030767048723188 -0.4401813978196133 0.69423361454399779
0.1450376621075673 0.022925090378257407 -0.055919105753272191
-0.017640687998776272 0.34711660973630165 0.47338980321593094
-0.16284073423696332 0.33106397142206523 0.38910603058552051
-0.17983481949688107 0.07557893370841251 0.50883412195213062
0.11898300868948031 -0.30950731161071288 0.50322501251484297
-0.30731714710188651 0.073859352869482975 0.36814529182639433
0.40549000418779846 0.44028884676203928 -0.076678943699107993
-0.044277983747680327 -0.43001959481919949 0.72845136968957602
0.28074212122818487 0.25052577191798958 -0.03257047186361306
0.0062005667248485885 0.002962155970571867 0.63831896368381791
0.037465464282440131 -0.33987999877822073 0.73843047256194494
0.13744537898837716 0.31506760318397542 0.53318365725588568
-0.006206123466029112 0.027411397770582213 0.6323743417804033
0.1490667532577441 -0.30530506899388155 0.52816753137190231
-0.10081224415901113 -0.066424258340497311 0.50681253700268791
0.016182747598962433 -0.39779670415500723 0.54288764467227413
0.033941042797537957 0.51364595037251193 0.44126839270529317
0.33094598049033408 0.53086856784405656 0.42753192920929428
0.33721543281453492 0.28392678607742228 -0.050312917923339917
-0.10750827418693953 0.18301835491755525 0.47655618527429233
