# XYZ point cloud file
0.25092022632039113 -0.39626585198684672 0.62299952279758308
0.17585474587442329 0.70150832858913414 0.52465409755275072
0.020463118744340925 -0.33546194105725891 0.50999515152542996
-0.058959732114222341 -0.18114420398279907 0.54557081305250898
0.069716921623685479 -0.055072671605321366 0.74286575226277041
-0.053033196191183407 -0.2934032742102417 0.41581564656667958
0.2076376241584037 0.5532468194282365 0.54194326084005695
0.23289453784179903 0.75342790094784173 0.010148276844866189
0.29344725891326418 0.4789809334352233 0.41182256802995365
-0.16615935267770432 0.06176898432869371 0.66412105740733463
-0.10676491950325406 -0.016746237954397669 0.60052570912993852
-0.25721000696183172 -0.29499591441266482 0.46746443155010509
-0.53719721963035116 -0.59767728190011471 -0.031423360680978174
0.112224768872911 0.64383842768023669 0.57032078764555028
0.03396614218682803 0.44673878438399917 0.59388043172200078
-0.43600702571314365 -0.042435613719933207 0.37012799428889798
0.35461881463333889 0.54633454448974206 -0.36583491207322671
0.14356838110892545 0.087505916555887131 0.73108468981198493
0.055213417622396399 -0.19765642074736756 0.73605295548164884
0.041874680012089271 -0.01402022649203305 0.74510153711716054
0.25538040116753002 0.62823730953360579 -0.28934413695281336
0.024291561001563267 0.20536088685974274 0.62801563486591894
0.18833293726078759 -0.1901950817578093 0.76536130497422317
0.29917118203833715 0.68765925873492151 -0.26048681088157233
0.079148964954404377 -0.38109062361806667 0.77185895461366627
0.20786502141726881 0.61113632587728661 0.53371147072864211
0.2559127155011609 0.53865839364759061 -0.0078630756281685699
0.36399300856900751 0.94410479909422884 -0.29431692623108718
-0.061067590281252748 -0.26216160859552828 0.46859213064204219
0.039386286868512421 0.0043599224673238623 0.72832641680159727
0.24477997692012154 0.4212947580369899 -0.0024870896417641397
-0.18370168705127465 -0.14111093636047056 0.60095337554623951
0.11573154954246423 0.36820292091006079 0.66318909432318707
-0.29409286853494088 0.01590709438365201 0.5529826670654896
0.093051447546539379 -0.24023721795109165 0.42582518587934315
0.054304616618374268 -0.49810839602388746 0.69480951391777923
-0.2680793910070518 -0.025025623718269774 0.62726984371158379
-0.20963610844617886 0.41683988489084967 -0.57023210910574296
-0.80747758062998809 -0.63200954610111681 -0.35972247183141848
-0.27768650911086823 0.11213259352882043 0.45577292475049491
-0.067158748256761491 -0.16011945133417171 0.54882353346724067
0.1678770248966317 -0.072978719548125182 0.4108097343135646
-0.29344964655007111 0.1543298084348026 0.53817383302264288
0.32318013407984836 0.65214078542086207 -0.28696911401739467
-0.73283825094804556 -0.44507739697484516 -0.38463488515465061
0.21676741833893454 -0.32363621727426595 0.75155806057951402
0.24879156793540025 0.43174897058433914 -0.21337128798031246
-0.18502440255091024 -0.15228454202700448 0.5852943935654551
-0.15548489016452205 0.27445567552195227 0.42832141523395029
0.22480580594971977 0.48794635315099866 -0.21654564676928345
0.13511873548367737 -0.046599757000040265 0.71882491101803137
0.30750185399893981 0.58028287919028521 -0.27827034563311237
0.23892545613989391 0.39433220386820622 -0.15807841744499429
0.26302064743395936 0.42726836315122818 -0.20621235225098067
0.27015683891219266 -0.28540570802657239 0.71371482093389416
0.27846703066560785 0.77665709239562997 -0.26834299990329669
0.24179230093991588 0.72936562314600395 0.0772435638784148
0.044072052911648285 -0.42146647673368043 0.57243345215006691
0.17171201684366455 0.81046019262222035 -0.18151189806221613
0.29683931290172261 -0.20657276705901806 0.71891185100603527
-0.46898217944948328 -0.12118397146228665 0.36333890288040616
-0.3556076663041754 -0.013140795742370259 0.43482586392302869
-0.39400710315832743 -0.074684622628104602 0.51004928768417601
0.12735516628520527 0.10345091326344957 0.67625571390307249
-0.39023546888082894 -0.30012717610894013 0.50843096213428884
0.15071640931172103 0.086329860841141248 0.50641440157699957
-0.10087280202903237 0.28019795857595242 0.59454212552783936
-0.13562451155936728 0.27067091091131368 0.54695640872359164
0.28276398299435801 -0.28058693098091769 0.73111293425110491
-0.029794953075570341 -0.18688186182181232 0.61257092802859292
0.26093344394360596 -0.38722908906378972 0.64084157850521661
0.32475180628165523 0.50840073350759862 -0.24811056172346424
-0.32295748515058698 -0.27256296823684478 0.5658389277915048
0.1850113036319172 0.050265435267448755 0.65368699907753092
-0.75600638249027607 -0.71446904886179385 -0.27799977174918977
0.21902297827504302 -0.12279098781316833 0.43569821055218938
0.22325938996652805 0.37953599029161889 -0.12268240659320462
-0.44038978153825159 -0.070691824693773331 0.21614708806123284
-0.30020147749520909 -0.31136918656729917 -0.37341742486529617
-0.5773048500595408 -0.35150128959201032 -0.26173833444582995
0.095341722422857433 0.67949662096609775 0.23379486924918869
0.34197252352779328 0.81317048609613196 -0.29597854229611942
-0.32929745619290784 0.10076581721215916 0.34506853133704452
-0.67948199636772522 -0.75035688805339673 -0.10163160754876399
0.3941968897520165 0.86726629858836257 -0.33081952853652075
-0.36977796432950338 0.049226048849116077 0.32548037643646532
0.44373202205687834 0.86501849146600485 -0.31304665233518403
-0.046500455271412555 0.092524277629962071 0.642912593812071
-0.34515347022497966 -0.039335967815341877 0.52802836969511446
0.02203475529644372 0.3719402106152343 0.60514638000385368
0.26573746091367045 0.75395214232416585 0.47377800877079546
0.088538139151822293 -0.1421865623799361 0.31338240232889447
0.16126629345005306 -0.32060884001244072 0.80265402530027208
-0.054397994336303768 0.5783630449391276 0.47299660994597348
0.22547971456602856 -0.25090009636999722 0.77778289371032105
0.055800956681672176 0.011987693775353248 0.74414353968725155
0.14497754689686149 0.089732585755286864 0.67806609529943795
-0.21743006328600689 0.072389787375837455 0.6275133757965552
-0.50047001204864561 -0.42134998916676436 -0.25562791036932753
-0.57718590569604977 -0.47467601529627423 -0.18320802001284742
0.028698175592935193 0.47685551451632757 0.58219760344579008
0.054768735216627285 -0.025305153637689259 0.7603957389255882
-0.19091790665399877 -0.18544304348515439 0.63314432045592373
0.024982309065044728 0.75731552423815407 -0.32698345308523669
0.3059152783339365 0.50375332143850371 -0.26842970732469595
-0.65800972128706015 -0.66078525591049919 -0.23120854041175765
0.097334473844505887 0.087567169856848981 -0.10037180809417601
0.23798334867754134 -0.35533195530558381 0.77520455165312319
0.32282213511375035 0.88049769410427214 -0.20962487306084743
0.13224275542049257 0.4656500976016098 -0.36316117228412947
0.12876743870708829 0.11061620049509102 0.67557996244058494
0.094488827024731492 0.572382808511261 0.57328740265992195
0.38521353430690075 0.97718384641188338 -0.26439428131526066
0.044566177392629136 -0.48753493395883352 0.66061797757599638
0.18701786729377989 0.26677354961420918 0.58211301178941577
-0.21154566419072296 0.21639850435060737 0.58314075645824115
-0.46529560558700922 -0.27390218398888133 -0.41058445921238995
0.24665751216631548 0.39667965494357627 -0.15339801652062457
-0.15547820518629951 0.0025870873924994653 0.68202572604530687
0.22896750499038765 0.50464516172394802 -0.19582441177498389
0.10834739242482261 0.064835647487407222 0.73554981739863523
0.15950223591189516 0.42413121714254354 0.64737832524868244
0.21729975407308366 -0.30537194001113355 0.78248915670698782
-0.17587159371906314 0.15290250097775004 0.59378212774310191
0.19111029187441719 0.74509133243419257 -0.22056379142359761
0.0046015370012018053 -0.30289407500822918 0.46180993170101337
0.27387851455477019 0.65594628785390685 -0.22726024281461221
-0.092760416845915294 0.39900395984848724 0.49446837890660511
0.15552613559556727 0.37790421459417378 0.63893727913304099
0.21060799333245717 0.43364483976332835 0.55684330877420907
-0.70350725793803015 -0.74056342842506817 -0.15072415707002085
-0.14499520077776662 0.31763543800575222 0.40526781583398064
-0.4373584970870521 -0.040585383786334028 0.3928838861634949
0.25394917931247774 0.3562023718408216 0.46787716235986654
0.19292485007702664 0.21933042705686534 0.44858667626308968
-0.4955953194176681 -0.23160780592155938 0.31390629807554449
0.096393670342009408 0.041286416894152467 0.74199991629873052
0.29072180759824384 0.72004144495456379 -0.22038143495169837
0.14242219207093898 0.10751129638806134 0.47510037273359318
0.25911610126601037 0.67366831445458053 0.21364433920106851
0.03054153189440445 0.44780559120509111 0.59385764461382129
0.25118495503780292 0.40679189635193014 -0.17088593542603192
0.079674084460364725 0.037412355896287219 0.70206759511616523
0.29040669130861696 -0.28095343900276948 0.47441216798935626
-0.74734449677809156 -0.54766915145354467 -0.35876938632571465
-0.3222347803772756 -0.05552421776397698 0.54190429499040205
0.31649015115322898 0.80501267912835361 -0.32114102511300135
-0.3996399000966715 -0.49043465946816378 0.002799380388077477
-0.71475307397225318 -0.4216985099691366 -0.39980134151037205
0.1891879063807691 0.57098550861918396 0.54435785531707737
0.19669413894515397 0.74822554644762085 0.17033273107712832
-0.5534665807472221 -0.41066696399796587 -0.13550098773577979
0.23079629036008509 -0.053570223518089599 0.69623811202720232
-0.36886891849392978 -0.35180855171147873 -0.34104277236519076
-0.18107203481942591 -0.03642464046609184 0.68732429675550444
0.27608337291914564 0.48637537261204411 -0.24668217131656167
0.027264757397025718 0.54597064337989565 0.58747645897827638
-0.62155222552608969 -0.55624457382924453 -0.19217651702947558
0.13226262997958971 0.010939160125886693 0.74159636397063089
-0.0087545037517555713 0.60361314454083215 0.45680615141366232
0.3377884026162592 0.5415283061420646 -0.28677712873182459
-0.47850991501946716 -0.16805402926709401 0.2494996886265084
0.088470747373694536 0.45431985699253741 0.63949076745542
0.12783581504259001 -0.52790647709617289 0.71298338279400975
-0.17993093422379758 0.25759922987730111 0.48399498941182451
0.20805313293325245 -0.22626942032297626 0.77454823761734071
0.26421770000881351 -0.15474352443665174 0.72666202713676942
-0.1790388824515956 -0.076827860201533982 0.65133572314143562
-0.49748617622906455 -0.18466770816614986 0.38239468375595465
0.21013222102168116 0.4525222220684354 0.56728285650673849
0.16430917545371093 0.4965677572171513 0.61687154002480504
0.19392343644313881 0.39172930501150083 0.59106084011258186
-0.011523975701488887 0.35824852950026587 0.54171378333318998
0.11716746737728734 0.64853544918443684 0.31133875733852134
0.22708555091210059 0.52679035422959086 0.45856345991144432
-0.092476350187216561 0.49745787628837257 0.47901251689231961
-0.42453353770765734 -0.45063555164381119 0.16308969183014765
0.078065328087006058 0.02646500621867931 0.74589476162442025
-0.75712164302796303 -0.5205000843446046 -0.37028299649163943
0.20850547197521951 -0.32168127149816761 0.74352010408456337
0.26510485149783403 0.35596914566604432 -0.22469939396384886
0.4101489720149063 0.95457474180048241 -0.27127227669917486
0.043468831725483881 -0.23580781397553152 0.37010804200276803
0.35754500838754799 0.72707873707964987 -0.30582422112905316
-0.19712276851679533 0.41987353307464681 0.2210760728057406
0.22035706848576631 -0.14894132991188247 0.74170654246931855
-0.40201923555383168 -0.32841406385754146 0.47226273652375772
0.14516673225135523 -0.085724084386637367 0.73284822502244573
-0.0075583867769264401 0.62098944898160613 -0.44470464942431143
-0.19313000235605493 -0.093269470596233583 0.64721468971626051
-0.68743252062245741 -0.71684165092273777 -0.18746876585006378
0.33013377899990504 -0.22010286237819576 0.49152532739448418
0.43441666547630442 0.97563329735650028 -0.28690047545756414
0.40284059530159233 0.6955974186248437 -0.39955900101818997
0.1168734108409204 -0.53006038584497261 0.69181220474306215
0.024843978066113159 0.37383184756711607 0.60150230128156634
-0.56272827304496875 -0.40601198073102829 -0.14741295451845637
-0.72377997001146355 -0.45603006446846295 -0.35538973354751269
0.44379891928098392 0.92248578701373818 -0.3780741994858654
0.060461345130499389 -0.33870760804561639 0.49953651798408982
-0.29571864057640429 0.20587707609179384 0.53503406243490259
0.063491374149038826 0.50636411892450983 0.58356655378987066
0.053070040814931829 0.31544019105377685 0.6093066523088071
0.32857451151473827 0.61401650007677522 -0.30343925920295245
0.24364989567240292 0.55454167926523468 -0.21657509402720221
-0.5493428278078003 -0.45855445678343254 -0.14761848034190717
0.15579288079742204 0.047166042854511536 0.69331020466804461
-0.53139107273347186 -0.49838339830618228 -0.13173755524942798
0.21644555342471961 -0.27273753145493784 0.76620573573752626
-0.24280028716461111 0.056676176865816275 0.61043212218864085
-0.28726652459531454 -0.14585140514471817 0.58608694638997916
-0.71051815765923099 -0.73385301289917315 -0.20519346256286886
-0.090345233651412116 0.33758935969789716 0.57304000429305901
0.20774455400628433 -0.27605961625717079 0.79103698279558676
0.20168378102397178 -0.45640314950524563 0.71985848092594962
0.13017676980632764 0.24808305009395304 -0.25774265720396405
-0.071331368735879863 0.28979591588222109 0.62197413097913978
-0.2541293150126096 0.20831379133400718 0.56043072675458916
-0.19063930138684881 -0.061871266768306343 0.6687333131735187
0.26968606096461523 -0.22001044460124208 0.44467318592355243
-0.36435794951508438 -0.10432996593997301 0.52548757946332492
0.33119077195677837 0.78852565801079422 -0.28974760291485824
0.13882292692999165 -0.48949997706629866 0.79100650674620621
0.23745441915797594 0.52994299436753289 -0.22506661329260602
0.072170045193090893 -0.04689352853956863 0.75381991319770547
0.21503619796236428 -0.36167392196761816 0.7941998039583722
0.13268913589792541 0.34151557317498082 0.63293373244043671
0.049860279945977304 -0.03109412601832795 0.75675616307204363
0.30837425770954274 -0.20470107203342525 0.46807717057803044
-0.058262219136886451 -0.13956816822812246 0.59878557490658357
0.17532303079500622 -0.37335189266522106 0.51924490105396526
-0.057098544543891627 0.47884992521896219 0.59803340840302166
0.29342636338437478 0.68358999839905277 0.46071079408811944
0.29364490701386137 0.59969244005895961 -0.26416187692974136
-0.13634641091532806 0.086984480269828413 0.62196451761142857
0.15684451004872324 0.24563704310479895 -0.20108771675559023
-0.3277840828576668 -0.2904605434326919 0.5538707116518089
-0.50128912513065327 -0.59253417161801825 0.058035776781287574
-0.12270648051626232 0.28611975743204621 0.46087558523858752
0.31062948530442869 0.48829752432737994 -0.2318286448446254
0.077695923128965561 0.65420431026295423 0.49377023736996417
0.036046112625023774 -0.031938090126272245 0.73204071392351944
-0.11210576718304033 0.22690908878434091 0.62026840668181205
-0.22158150722226999 -0.044886883958181634 0.6706547397976883
-0.11780668831050622 -0.017079425668785175 0.65988005656145887
-0.26806149138043533 -0.41597518092729946 -0.13350342806292659
0.19216844561889301 0.81192454166308226 -0.086445850284425862
-0.62173029982091865 -0.42946202517041365 -0.22164324679983993
0.31178281996102175 -0.1895721276303024 0.69108555225119606
0.30690441226363063 -0.30667484429783043 0.65973027960697861
-0.56054772007774201 -0.38631996484529385 -0.27693002694649405
-0.70135590707480233 -0.62135917867339296 -0.31773552238417579
-0.10998374107963205 0.68216518133574633 -0.34980097127164456
0.30030183419064027 0.69454940597691772 0.40017082390486003
-0.069584189673062014 0.42748691000201045 0.45414819879909052
0.35236476201536249 0.57447091802297545 -0.30911899838409118
-0.41016866255133788 -0.33477487367065262 0.40182970180963773
0.11369248489641004 0.48362556864962347 0.63142547358790013
-0.77069830252965055 -0.76436213469247982 -0.2150967950617364
-0.3200178703471499 -0.19611142281076421 0.57667911874770761
-0.060641871949283832 0.36429790399505624 0.61611520661233277
-0.11576799540736715 0.019009314034140745 0.63666270715558992
0.27831054251484799 0.60445746368926745 0.20559455573343266
0.30899137051621617 -0.21840416972861143 0.70514236184260604
0.34082671635955641 0.89069162271888858 -0.21623411647844337
0.14507838950632745 0.61953488120693012 0.56734638595650999
0.29495226518399864 -0.32500144300760847 0.6765813998220076
0.27114089709427791 -0.22766634865632662 0.68787702861735855
0.25381474095855872 0.68210812435571033 0.17567933603771024
-0.21087330343922606 -0.40533487008892799 0.094828371457453819
-0.45009785249316803 -0.56909563938888408 0.066639822947525129
-0.028825736191105733 0.37610345702246994 0.60725741868659888
0.042668672908073191 0.48511179526922121 0.58356403311914562
0.13036259669696593 0.83649880372270091 -0.11050502905421888
-0.40021445304912362 -0.17233903093184433 0.51292243392873704
-0.4054211795960283 -0.076347175243066445 0.50787880949929098
0.18527446747922438 0.46961917158020539 0.60422298726899104
-0.6883042981861891 -0.51685222445212264 -0.31745544882288135
-0.26877216108135116 -0.065655405395690924 0.63303571653864221
0.0019674189574221401 0.39287610888716729 0.55315701838856635
-0.73421851707817964 -0.75525822552739408 -0.17314735395056546
0.12917392192052857 0.45755272334772212 0.64502693528966404
0.29054546151273897 -0.15926592452759758 0.46760392469560585
-0.32787387694141046 -0.1576295410064148 0.56985856033726723
0.27863723092048431 -0.027028238034876084 0.55774667830336577
-0.45744513748354354 -0.11746226729113296 0.2832667640158415
0.12137640393195959 0.040584874529461024 0.74811095033508046
0.16250726219899914 0.39788502849232121 0.64766759791970596
-0.30299253683582794 -0.42828415554783628 0.029279522051085305
-0.4385909247378672 -0.46897659618413878 0.095116931424226614
-0.17650970261582799 0.12200071812826963 0.59894035328376827
-0.45458708853280694 -0.11814830077488236 0.45950186465367215
0.23798050949555449 -0.38278581280165946 0.56459276988263873
0.12377167050871218 0.17456165795451217 -0.16182356936104769
-0.62441354368618374 -0.50224291843292213 -0.22709261798124114
0.0031016303118542865 0.45459967360909592 0.50090431983150863
-0.3599210115975584 -0.040047487955373384 0.51515081747626468
0.24564037028300278 0.018147652434713835 0.55766891915518579
0.28455968040066537 0.59894789348577093 0.47919835747423933
0.36082456665207063 0.8169645966408714 -0.31267462179120109
0.18570189776471135 0.031632685608998012 0.47109237899746415
0.21066809299574096 -0.28556662536912303 0.79136754869918624
0.21601270250126969 -0.11407896939967666 0.73015484206936287
-0.56144627242825607 -0.32516300222115291 -0.14501478816623115
-0.5712279144425505 -0.45885144404666378 -0.17282324741487232
-0.19646257228694974 -0.26791182525699098 0.45833551469523393
-0.48839301232792742 0.050905723040915341 -0.082566756930953833
-0.26999720061921906 0.10234482703319581 0.54611470462337941
0.20769759725264558 0.50794563753473321 0.543883263882039
0.10970915684297644 -0.50052127842320937 0.6387561791843468
0.17727757638771724 0.74713965861352527 0.16932714036762375
-0.71696906702123719 -0.47594249251854059 -0.3399431257159975
0.17598684120883457 0.38255100227262195 -0.28750357513606239
0.14827633826408304 0.12445441391014467 0.45029610352430494
-0.32727499031492879 -0.10824851448259443 0.54210503402755128
-0.30542341295846853 -0.17475670371890661 0.58843929711969167
0.2476105485834923 0.42248062376941542 -0.21228215011350393
0.15255440699003486 -0.040954668507729775 0.39651364835419622
0.35575382403126188 0.83334916615974897 -0.30768993169130532
0.026329189964902966 -0.024793296252304753 0.71111244882296898
0.12920932562094034 -0.036803354249198561 0.71738475123980505
0.2904247137944358 -0.25978234747589024 0.72415411758442039
-0.044613009563000183 0.073204592803317481 0.65326253473302742
-0.035129118953699745 0.4859387740640202 0.37023777384686962
-0.76845191875715813 -0.63926336066447242 -0.3312916825457628
-0.25534973440190445 -0.22787237244825453 0.60811963748345921
-0.66534576250840605 -0.64023647165429276 -0.20054136252452093
0.20342278444090667 0.60064206399699027 0.53736151218810946
0.0073177118405407526 -0.19940278001665224 0.68272928039585556
-0.15197718679556438 0.00042129235760257622 0.67170779677943093
0.17098449325716736 -0.47495677707059447 0.77442392228016743
-0.55438373829829857 -0.25456592578791293 -0.34802904414890756
-0.076783410257846185 0.31326307778461238 0.61053052849297051
-0.54019225079573907 -0.60778295838754648 -0.0069070029923721243
0.075842636468702374 -0.13805713305245781 0.73780034770187441
-0.70363855311800005 -0.53763790295372571 -0.32677976566454792
-0.070424891067623285 -0.05974981080056152 -0.38458301503130388
0.14797685883006473 -0.44070627973573129 0.58140741530642126
0.20926471126918011 0.54064453335328899 0.49848858415120612
0.20952263662565063 -0.29044279798236727 0.77420465344282308
0.01391498365825683 0.36648986973136466 0.60907264637817882
-0.27788143757398842 -0.059158739682689032 0.62040841005906255
0.1642628530787813 0.39546590658193181 0.64408517667721732
-0.26818657688909475 -0.14824041853042658 0.60080855473814809
-0.49867619764571725 -0.20899431197859941 0.33663462481668693
0.27373411414955839 0.6411524601814107 0.22647380330542388
-0.32745573916937154 -0.39970810387900668 -0.24594393180330654
0.046499422957741565 0.51168184829760599 0.51171758652100241
0.034496991037845426 -0.23808244506828369 0.34734101767257819
-0.56000808740005947 -0.25428268453205649 -0.077387076639404473
-0.13656852044454304 0.15104420356007875 0.61082282043247504
0.034389426374413112 -0.43367782906525087 0.59070123965943555
0.21142389533635653 0.73965468539445256 -0.14904084772890425
0.085384987485386254 0.18976039052065419 -0.28559680292860845
0.37517636571484569 0.81558042750558712 -0.3205339954975881
0.26804202913909236 -0.22480734236271116 0.68997541224870895
0.19207796733501947 -0.43231506054268909 0.7868310825394933
0.20385692555203372 0.29544165830115476 -0.064197231668215338
0.080275557079426463 -0.048527998541734951 0.74646289591795867
0.15859785622593181 0.13783752603273636 0.28878547227973828
0.027226894046133765 0.7065014254665154 -0.37651390598882806
0.15311192421500852 0.40921584163545532 0.65263219979463472
-0.17326839900471036 0.64248840710922017 -0.24575175539919503
0.21530720602375464 0.53023930241516215 0.54382258189275179
-0.33892327833230063 -0.087385906602269081 0.53058280398937185
-0.27991823443418973 0.42095288616701532 0.05960934218952918
0.2077057691187667 0.58791318978805363 0.53969870264417086
0.14409173163714417 0.099262381462511318 0.45670795137761777
0.13743563848558971 0.096222060489915329 0.68172837181690893
0.40902062244513981 0.84686813876020528 -0.34464903575244543
-0.66117348665106235 -0.44954490325201069 -0.27835825036809902
0.085088654602614611 -0.18186988783575231 0.36381196434683893
0.33666712050557512 -0.16153755617654708 0.62511678622679945
0.14204002689860662 -0.23387660513547714 0.44134873513587536
-0.36872035141845316 -0.16688638009664525 0.53547497660882382
-0.74203612820437748 -0.52179328443736117 -0.4301722106391046
0.1805537521937004 -0.30312125407917589 0.80002549506605769
-0.36634065933693805 -0.14845028231362156 0.53407199237964909
-0.53282659535489607 -0.40638134113862889 -0.26715632861794925
0.2261910184044722 -0.32388095108999659 0.75477270714717504
-0.40173268796542683 -0.12577211265212529 0.50550585022443473
-0.77000740176396754 -0.64973663862311226 -0.34012801247074043
0.22720733569979235 -0.2532731088232737 0.77569376156596004
-0.44898844048513809 -0.47638485541123976 0.048864139674457796
0.14243626733183579 0.66627573764447101 0.29753535664392805
-0.12293171615141141 0.45337054748130701 0.29473456740978499
0.36965258811011203 0.85456814988148322 -0.31185298633759917
0.21692229926291517 0.046277284988789358 0.55553441286333349
-0.15941896422373603 0.070609053129473187 0.64391405136067004
0.20593253802443945 0.45849551823903356 0.56792530560077603
0.094910949756251028 0.44765658558037957 0.6446311356159713
0.32553019641173142 0.71964564267480413 -0.27935926744937012
0.068810575534003604 0.50014679695237696 0.58851724520513127
-0.43308331821024471 -0.48956170523443965 0.069949228402709451
0.072630804135046745 -0.39937246403222404 0.54542744047586966
-0.12545095111537563 -0.10999511710198395 0.66345115737644544
0.25233286605088656 -0.24285973086797796 0.70550962474314094
-0.090524016160490106 -0.1866168466553868 0.52477447075534656
-0.28194667891804936 -0.1786396382302704 0.56943609034335507
-0.65230566810284962 -0.7169236643966479 -0.099131136275901977
-0.055068870863367536 -0.20736992880767491 -0.1540880891356351
-0.69491098558362197 -0.54341050483838149 -0.3037276251096257
0.26191161388447171 -0.28066618149517542 0.700010964907404
0.047523118535643505 0.40896517354869233 0.61230463739338603
-0.074928330791591335 0.16013336646215459 -0.5138634486088387
0.18841304584806284 0.36679134486688425 0.59445508705450134
0.014662418803625066 -0.097790725386661004 0.69555337614104129
-0.50920630818334445 -0.64429777110701303 0.029929564973138589
0.051627384450472213 -0.0060268127635776381 0.75207507942879825
-0.27421483040424555 0.056531865103204404 0.55821865594338194
-0.38173969204068747 -0.13083730959838658 0.51532432532794781
0.24576095002513254 0.4285087554420357 -0.20056664372904764
-0.11813862584805612 -0.19150644995125421 0.55567468841443457
-0.56171945810926882 -0.29177305360865602 -0.11402654249223465
-0.57316164039975614 -0.35106068708740901 -0.18292648510675669
-0.18842113463998711 0.11803562919305177 0.59072230867966802
0.057776207226662102 0.30718788139852848 0.61705857862665603
0.25572996738631826 0.54759853412871107 -0.24236333226354612
0.26498428953234665 0.74729221416055824 0.49249030335873512
-0.33121397835194077 -0.20961685924279805 0.56932397303152049
-0.68242700404544987 -0.76127939786340204 -0.098632107409046821
-0.30634110858230823 0.10279574157353544 0.53054983424020241
0.16203372005302574 0.49254103606496458 0.62181377338844968
0.039114794022999888 -0.43050474573507413 0.70206496421186637
0.15234090151880464 0.084507705038852965 0.69352373908764031
-0.3327305055401828 -0.055064804991643124 0.53748608449197599
0.13441510414560875 0.51243401011947931 0.59895290488349051
-0.54437097038148163 -0.61691926885856718 -0.098373366226740089
0.16620133969539008 0.50035649113791425 0.60622925455778942
-0.17221625322275536 -0.083732129101593888 0.66045205867697865
0.18552230368615108 0.39435103826803153 0.58415287689429896
-0.33020552477193466 -0.035855381029553435 0.54509607135018401
-0.49888914367952886 -0.42336625328191746 -0.016357901569506339
0.17498630398561943 0.28990457957102866 0.59712738369096341
0.19626446944734832 0.56731166920972087 0.54289525886883894
-0.61327025066784024 -0.37787283217134116 -0.21654757391275137
0.20740837274426749 0.49016016641749249 0.54914616396476879
0.1952005316552845 0.30459950718884188 -0.2245464111631108
0.1400902033943332 0.68191984049085574 0.46062841318559666
0.005019694873977798 -0.34467547182118241 0.66320161782607734
-0.51346256619308317 0.011786384246265436 -0.43135587397930442
-0.81596161557917046 -0.72811632808825544 -0.36096076698520507
0.38396229805977988 0.88839023516932958 -0.29089208047435733
0.15433485968371308 0.078166807876270505 0.72922081851005416
-0.28899309593624078 -0.19302073162682754 0.55207501160796157
0.098603019388506574 0.011708824186421607 0.75700226236993862
-0.71332007029366462 -0.76873452321499014 -0.13531055268971537
0.23427933486904085 -0.355663386364927 0.52674720371633788
-0.3036486548977404 -0.13728352353936102 0.57313102764361412
0.20995509381917943 -0.079201295838654762 0.71853094915341176
-0.3058458656379841 -0.14249237370086254 0.57651065392047096
-0.19176576855287397 0.085637180296127546 0.6217729120531903
-0.31103201107886491 -0.15376570470907291 0.58105744402858672
0.16962973643924562 0.17728006050956635 0.42454388219472294
0.073502533312348461 0.63564812249225733 0.44722556615809061
0.2928494639981496 0.72710513047978254 0.44084599020908133
0.2934901944082462 0.64406210290095389 0.33745993208445801
-0.10030900675806453 0.31791501992344717 0.50481645283093446
-0.23349449034508307 -0.27111585085034118 0.57052829600107824
-0.15736720706997431 -0.14165855067881217 0.65105897249629674
-0.34653262743263724 -0.14423416551531232 0.55157511842992335
0.22457303721232247 0.53899796173135694 0.54274198105965965
-0.76587292235670024 -0.61831549459285895 -0.3516739870191059
0.13436025039652444 0.36006369472587063 0.65172713319664055
0.11434626376466461 -0.3357148278470059 0.79131922130028531
0.22834306878929178 0.46886227343512576 -0.21876636934661775
-0.22369063121409294 0.14057598942819394 0.50395373325986847
0.3692996532734254 0.86666784493275673 -0.29116503890270184
0.4014976805701882 0.69508731756006314 -0.32577398925739498
-0.0098544362491370663 -0.13315815390260344 0.65529975646366712
0.0064797915339491752 0.45303918123494702 0.58575901928414797
-0.3163557374668029 0.081300286040205449 0.52787139652324111
-0.3244354743047726 0.016924863382178801 0.53042040847353933
-0.55243806461752687 -0.46389334622012002 -0.15591361875858079
0.33321920312289022 0.47703356422100351 -0.32215865507948704
-0.34592460293384431 -0.26416675445556614 -0.42632057429426062
-0.48260215604185763 -0.29296236696801192 0.37774340339009926
-0.65988426071737827 -0.42433794596969254 -0.27331563796031189
-0.71772791654846468 -0.53691192551768419 -0.35317858998327711
-0.11194351118713008 0.28714237561232669 0.55190968464514389
0.11896356905529659 0.33369627787325395 0.63570141435271843
-0.34567580577701573 -0.35789478661245422 -0.33159658905698963
0.23382852666031662 0.44302560175200578 -0.27386836648986002
0.34107546827829083 -0.21152461808496725 0.6235949801886167
0.07719920783270684 0.64802557936421623 0.5397400620094186
-0.37381267359515125 -0.37391525553697158 -0.30612334839951583
0.29899437157925179 -0.21977122399302851 0.71887491337682619
-0.038897134534445321 0.56780421583426111 0.44483197702158694
0.051655837613233224 0.4719279785580317 0.5721797243510367
-0.10412676896858652 0.13610699910878343 0.6236805114623083
0.15063838747475877 0.10775136715388101 0.59429091784780352
-0.33804600688090147 -0.01085184046498644 0.52576874220403669
0.26416393869479338 -0.21422423075958252 0.71365734480979492
0.15632632091915299 0.059914371998935456 0.71927005072489036
-0.3152681402413311 0.19104594734864477 -0.59165724797330288
-0.1716444686501557 0.072320917743837421 0.65401867110284595
-0.55259127332286173 -0.37099021289442469 -0.11645282722014016
-0.57551205453919074 -0.44400265278172624 -0.25696339449618932
-0.49522363505643252 -0.57223325558577121 0.044828531236575486
0.37433602946780065 0.77938468121168847 -0.31656698348513101
0.22440140081954274 0.48607585562607203 -0.20706530461103645
-0.11096694409092223 -0.013608183657059625 0.61589449090119697
0.00028970381072301876 0.49455608078489055 0.58638682452752899
-0.49772515339736323 -0.25119558284489696 0.20835048455012517
0.13850092491409072 0.5478379541351539 0.56723937114289447
0.15729238899714426 -0.15970482768203964 0.4204285968321777
-0.40640825368696465 -0.10675677173811227 0.50648999144264506
0.020432294409086005 -0.41863779748466312 0.60075007387825519
0.29199903018735807 0.81875592824985799 -0.18434889433280999
0.2281612095618093 0.48037061461108066 -0.23006578219310114
-0.4297220107381996 -0.5399104234288139 0.060497774637202628
0.37264126918486751 0.65235193033747807 -0.35553988224222932
0.22342190677285689 0.42818230846244187 0.55655996262798668
0.26878741592089961 0.69892970641586372 -0.16298419464810543
-0.24893463184365494 0.27584934494213209 0.4665407473686578
-0.5284523115233295 -0.48892876179829736 -0.13452311134102146
-0.41181207469376613 -0.036135795965275497 0.488606091923939
0.069416277313899322 0.2935769577166607 0.62948506807519333
0.14974251491702262 0.09684212364923539 0.70531900671238557
0.23522863786550374 0.51902785431546761 -0.28115025632922652
-0.2287000909881014 0.57467838154141071 -0.2727772724082187
-0.0046795213594315044 -0.15828886622414629 0.66097596365637479
0.29409521921237092 0.75811597403777875 -0.19061319484407857
0.11566185065659074 -0.50826213389798314 0.78158408132742085
-0.071157110968234072 -0.13554583912515983 0.62099981787652014
-0.45421162130382431 -0.47427161568766807 0.035639763302684813
0.34109738414787971 -0.19516479076620219 0.62271957678935275
-0.13160005672114661 0.11830240966588346 0.62410851174586224
-0.42708810458158819 -0.46770832437460919 0.12032544969085324
-0.40642873936466106 -0.3340300296353006 0.43022744277028213
0.27777757980099516 -0.23648535803719506 0.69436971144337445
0.30006595889783849 0.55925057960072433 -0.27008347177148773
0.040697310153798405 0.51711914171906037 0.49069004900858415
-0.20475830473786072 -0.04329470221630638 0.67988403676347531
0.17179933562194227 0.35696279891093918 0.60583380176117085
-0.14390931325748202 0.2480038095891548 0.6002159733649548
-0.64411694017046184 -0.37206830069701335 -0.28065696182064492
-0.35319828613430726 -0.41226542221578122 -0.19424632705269307
-0.23177387133566274 -0.049279474551176206 0.66437538742327273
-0.21624384565386467 0.06051071891525861 0.63937880272734171
-0.090764841237064964 0.34808015732543784 0.45903989699849435
-0.75426875211069966 -0.70947937184869159 -0.26280978711277347
-0.09286572507336821 0.27232891974705664 0.6115502503320136
-0.34955183651490707 -0.13000894344376956 0.49989627996524888
0.058903567415155678 -0.48211046684927616 0.7211295101793227
-0.61847915929094199 -0.58825020199234124 -0.168226149870359
-0.12477669164556637 -0.30933387838298088 -0.13803656315428592
0.23535617820410737 0.67858982191239337 -0.24758079340197892
0.264462626038096 0.65665312402507681 0.14174268420149261
0.27597290283354647 0.72138935325619324 -0.16622752578625422
0.15243552354551682 0.036393653546718419 0.70364186678210494
0.14612362258810352 0.10624150743750627 0.5070945214554845
-0.35391353950644433 -0.0050332035322990798 0.51829434556852361
0.25384598423106963 -0.27517010747471971 0.46223727514356705
0.19977595391861325 0.28340499578670375 -0.089823169075024634
0.22458239723077034 0.42862288301930251 0.49775878634020732
0.20937756646425187 -0.2091353429948386 0.43965479016483222
0.23227990383725672 0.70154566460129963 0.26836352654159823
-0.51649347620127628 -0.42322166548751294 -0.076763111851627652
-0.29286184309965257 0.02879855725842928 0.55817348835855807
-0.30946042612231928 0.23624217334243913 0.49809973282965192
0.26736683742453193 -0.36319139587399119 0.71055349683336777
-0.16254671946544352 0.066539529836127653 0.65633917603252412
-0.23653395099973817 0.11217076524141112 0.57084254922435118
-0.75872586821105603 -0.69069555390506232 -0.29890557590462175
-0.1916386382450348 -0.048503181136419604 0.68426744511495441
0.28356505474715243 0.47653234870716665 -0.23964902071740379
-0.70742735637444643 -0.72307702101664484 -0.20980765487347552
0.05889009523072275 0.28617328239361961 0.62957069649370334
0.088144991529363281 0.3954169187943366 0.65677137717266287
0.14517540508323767 0.26625102391562439 0.53097333349508347
-0.76015815945746379 -0.62524377975980783 -0.35061042838063905
0.3432159198137219 0.80936957698318168 -0.30100905928964394
0.1771837510986467 -0.092934741653566855 0.41789788349322521
0.22725658934216808 -0.32949104490344006 0.78983426636510279
0.037059991610725262 0.40515880980904484 0.60039093592719528
-0.53041502496417436 -0.41272713122890337 -0.096381749619431911
0.22180394357001587 0.34550914034345848 -0.047248454965813202
0.022554302130045834 -0.2442839313479408 0.31428047056450881
-0.13111646985950465 0.27161246658217819 0.47985787782145461
-0.30966077111262358 0.19922063316881577 0.37364220080797494
0.098851111207711284 0.38156222160803199 0.66117167428897439
0.031315094574691393 -0.25928901386952519 0.39637025016397631
0.073655059152968327 0.043609183052797262 0.69085127116037093
0.24384951773464314 -0.34008626529540997 0.77415205319697789
0.18435449692434291 -0.46275235452471375 0.76610762552500811
-0.59121388971952449 -0.60269606513123342 -0.1783546456535694
0.23704338311483975 -0.088790943507933262 0.71044183521496773
-0.61128990408914685 -0.55629544131018793 -0.17943247217646974
0.27372547617947074 0.43728939400960276 -0.19448263369215413
0.026410546465490903 0.28323855187300317 0.62189096578853142
0.24227570644551655 0.58786331719624729 -0.15702602731292847
0.02069597603566109 -0.0058770031732330308 0.70774608155624552
0.10605894130303639 0.82212222700736781 -0.21462123132782773
0.31014436931301193 0.6103583935002721 -0.27883227935859445
0.10754905182250329 -0.25703929330327502 0.77555062231102845
0.21579885892545425 0.32180673807499627 -0.031871454647446118
-0.25865836775544171 0.081668933165170099 0.54601703951853953
0.28213055792324759 0.52792120528737074 -0.25610893859153228
0.015310869125142013 0.046043960507997195 0.68414617445675807
-0.0019803734514471927 0.18933605825199318 0.62734041620683634
0.21952480775345506 -0.30799794053366036 0.72943998004196864
0.025852610226915651 0.43553012623933052 0.59603284343639462
-0.12322011347382489 -0.14559624167639129 0.64647538293550832
-0.18022110561955795 -0.34193562615524409 -0.19384531576030195
0.052169633336571763 0.31211418018230286 0.61529686631163827
0.10989567790476995 0.66972910743728153 0.49024326836701526
0.40868908700370321 0.76795902506015978 -0.34538732148560181
-0.017228001389815617 -0.27015651857812972 0.19815208339804258
-0.24921512777390031 0.065600222596130076 0.58137554836334981
0.074076359328476116 0.01785512124551869 0.75083684195304068
-0.72291338249953796 -0.62910317464567012 -0.28078980233713091
-0.48318652399803774 -0.55231645526112194 0.038750321966212642
0.23819834936894502 0.34404938324666579 -0.23150972266668735
-0.31198069308778731 -0.31543474803016092 0.470366133044271
-0.21574559563909546 -0.26503750711763996 0.51457313084834233
0.081223191842102693 0.27667180732486085 0.63095064617230712
-0.29644949363887552 -0.36504939923611701 0.32025446923902079
-0.53166983903849996 -0.31842547605167004 0.053702287743165655
-0.32049987879041364 -0.031887670807126511 0.54133605705690879
-0.25986720391472051 0.080539973814279353 0.56151750736306427
-0.092784360574119873 -0.1369355056341528 0.63866120908116519
0.13053417434210068 0.82204543947216013 -0.20517785060109572
-0.34683520873979834 -0.18241533696582746 0.55668405966022805
-0.37728979277568531 0.093307073618994929 0.47336546884549069
0.11187643074262699 0.096128171537228302 0.71069246264722263
-0.51762784951575913 -0.56448733996839606 -0.051399190444139098
-0.76271654095433394 -0.75312576296684064 -0.21070641117834565
0.25724552108208476 -0.22479471002445028 0.72018834486377781
0.11891546893453286 0.46016073256365275 0.64377055555307239
-0.20476482011275987 -0.14807075655906665 0.63932220773531956
0.037438374717730483 0.4884857693558522 0.58048082619286712
-0.5930283561862737 -0.34886719350074946 -0.25380782957130865
0.16110452653331198 -0.0083031230287577973 0.41775375707445317
-0.44070436409671299 -0.39298675769904112 0.22987149466022272
-0.11372199564580576 0.009037496773537379 0.65956871432633735
0.15246589548513079 0.0070745418898245926 0.70015732721588098
0.28339885839982948 0.45872242386930395 -0.22240414680652965
-0.73983637619388887 -0.49100249715044852 -0.36225281689654354
0.028565673640324363 0.35112509346283427 0.60605773938175478
-0.53634129610508907 -0.58286749397646465 -0.071090120239697185
0.27846283171153852 -0.28894601214400661 0.73538171674983976
-0.71204643411711821 -0.41878919708092066 -0.37877001473689287
-0.033246085302904405 0.44418724370792384 0.601131285481046
0.20271290006932619 0.58749271581644291 -0.28336165949247061
-0.54697714754863203 -0.50245037398898329 -0.14639140254292249
-0.37351704770476424 0.0032610829807653285 0.51532711859577951
0.11899281040977616 0.58874360587220687 0.56772204122884506
-0.52728932017116481 -0.070708178130241883 -0.43627838323842605
0.27534776692293272 -0.34046747897629182 0.54235581857355042
-0.10324578188021594 0.10320395040297514 0.63288228120369272
-0.060442978098807387 0.33649280766150924 -0.5428977896171463
0.10117202582495466 -0.10481193268134259 0.73654978127804327
-0.098068721299329198 -0.17706540808733084 0.53850303480712647
0.10488141587107025 0.83472724941881671 -0.11764347048027224
-0.50705628057203622 -0.57841268619436692 0.028134923575524606
-0.097369671778100297 -0.27021464452291299 0.42847154698974066
0.0092659721530488071 0.27915169516974658 0.61911414957594824
-0.046807866920684837 -0.19827284685322055 0.56443173067296826
0.26266381477492207 0.43015856473180891 -0.21557203372662581
-0.25342001002955339 -0.08026948889947183 0.64499676673484485
0.13474429099976692 0.044617683202918146 0.7436683497609633
0.010784249485542574 0.34904326556877607 0.61152304552877412
0.041479395548345011 0.32484878734931177 0.61184183637858602
0.3240834445730072 0.57663896115386004 -0.30374182349021162
0.23743542387276051 0.60175811824913639 0.52269698445146995
0.12373245867171434 0.30888803211422711 0.62785419755834448
0.18456783638303786 0.72318394761267646 0.20948763859411823
0.33902615901451272 0.53808470433768663 -0.27596520057975171
-0.51046215688696606 0.022900945534486405 -0.14949531715788478
0.064372145585795515 0.65643031808254304 0.25159826086653059
-0.33797896171924968 -0.10923917222480595 0.53636655922404186
0.42308497084360752 0.8633813906285821 -0.30843063401612314
0.10124400896081465 -0.33990290695426262 0.48989398298660136
0.18836540402331581 0.39387565351457421 0.58736741299133843
0.080075996812897898 0.45969833230507307 0.62995757151562515
0.11277020761825618 -0.16109914738785802 0.75546153921385439
0.07690236459773736 -0.52050282076981125 0.73515144202850147
-0.55200465997147496 -0.68413571556037156 -0.024280465433462961
0.21614155325329909 0.26237830768454828 0.45123381172954335
-0.019254830477556162 0.51225962475960563 0.4330988615406044
-0.027976764251885555 0.28243718796407147 -0.50427620161768827
-0.61154766071127042 -0.6783769063250098 -0.081671280393670553
-0.15190317193330483 -0.034742138745568751 0.65576929607413037
-0.53774084110474618 -0.37519935221301037 -0.051862173642068132
-0.33620555521065221 0.21234709748761671 0.37779443429666104
-0.34527583424624098 0.18347225896019048 0.36709749410707015
0.26173652871641151 0.73464197997964809 0.50797032426239586
-0.15100415807699008 0.032128227123074282 0.67471407576159281
0.047038534734586079 0.22745283593514209 0.62867638779297108
-0.28450939164201827 0.069210735522492794 0.54933264200501952
0.29724360100005009 0.47054733300288576 -0.21896526615077638
-0.086319998871170256 -0.17354256727615547 -0.28725782385946896
0.040832410824698684 -0.0044803862316364906 0.73925996827059848
0.29909389700771305 0.83747530394263037 -0.25614300097929643
0.143066273918802 0.055829016449551849 0.73917936218962632
-0.70204206069074448 -0.52048257039854762 -0.33879402042281059
0.13807286206720892 0.38999435988175457 0.65975209739336327
-0.18473156404998292 -0.11293912632899894 0.65294316084321835
0.0058218115952657357 -0.12836475614387788 0.67878727790272153
0.14472498346539409 0.3751557487079884 0.6560263821430361
0.06578860649822893 0.42487235423612235 -0.43498617561083153
0.26225038211626117 0.67668324141206559 -0.1611164168337198
-0.29150969176996089 -0.26131922089952164 0.58460864272042246
0.15587314702265909 0.089987227926159319 0.71544894703225204
0.36293977195622595 0.61383076812118209 -0.34741044129365095
-0.0097544253213275312 0.38486240550558271 0.59995831524092491
0.17808300028155699 0.18496276365267761 0.47996078289426913
0.22733596223346719 0.72139317510416767 0.38159642828947504
0.27816820332716707 -0.18783693256529599 0.45078787519810071
-0.099640674504128057 -0.22480409470047791 0.48887062713508245
-0.0117981495861601 0.61603190474330138 0.49504097601201114
-0.45239473575800826 -0.5657881828925122 0.078823221793275611
0.092603636713271875 0.049841356939766213 0.72533407439743014
-0.75256615971616458 -0.52869950937269905 -0.36330419625501342
-0.358794834188779 -0.14135053046357648 0.54003404044641545
-0.76484095828096876 -0.55975418244790887 -0.36011076239191908
0.2769467581326488 -0.26658375670938139 0.70634609465235121
0.11455462686786166 0.078934072753019779 0.73032905234823087
0.21206978405779209 0.5964994617382019 0.53523963813209985
-0.70588280907108292 -0.5907016492426308 -0.27977560961746617
-0.36982255077433734 -0.1854413632450822 0.53787800216454196
-0.21873456024287918 0.55413757385399065 -0.41191816113981439
0.17930681905833934 -0.40485323977499199 0.80354585958343261
0.045491615148036679 0.13587230886517532 0.65308534764918402
-0.44231375847927978 -0.47849180911326872 0.065729599284563456
0.063306784917321224 -0.17829177430723708 0.2882790854719075
0.034544706890211607 -0.15518267101294225 0.082483047176750812
-0.19955188633674581 0.16156274544427296 0.57888254797114591
-0.5393852283006364 -0.57402864271142229 -0.086011217423627162
0.11780678612106854 0.090567812833425521 0.7232279584818504
0.36390835008156186 0.54601082993838457 -0.28331699112506614
-0.27499795823094875 0.013878982676101881 0.59463276120691333
0.14149329111005038 -0.49388234678900766 0.651170791304168
-0.53033560712399819 -0.040732307559618319 -0.4155014329807929
0.2607732208510094 0.41454044195814177 -0.16674199509918486
0.03648423826409708 0.0026252520270726443 0.71420438666788444
-0.14467577861418501 0.23539725608992867 0.60943652929125136
-0.72503491152435995 -0.72364928158681574 -0.23214885312186961
-0.038346189324348856 -0.0057622352858192061 0.69300198542507907
0.38891008985953501 0.68816618573227228 -0.36392490241958964
0.16117697374285189 -0.26536450298138281 0.79032772625188397
0.079842454036570309 0.29733140145889669 0.61870319190039869
-0.53308787277860947 -0.0099205445034720174 -0.34471390262729606
-0.28251164843255339 0.043412773862356757 0.55738239731891914
-0.55554061093788043 -0.132132984478886 -0.37000211629646396
0.1016186846990772 -0.378013013563686 0.51906785579365788
0.15534993124331553 0.38254365593252593 0.64877106443721999
-0.17345081548240415 0.16151287557847538 0.51092582649322438
-0.012613784368602055 0.58771156236629729 0.4449620415404727
-0.26369328299270123 -0.27780644794588505 0.5760058842550384
-0.24073002316282199 0.14258512467815065 0.55701448265690257
-0.76188870593981051 -0.80009154926432791 -0.1965489062212713
-0.015407007568863484 0.76897011955721961 -0.28932491080487077
0.1835349387056362 0.39392425649938323 0.60150649831383918
0.085732178623611155 0.29350261275670275 0.6329604462655225
0.060878774250351597 -0.30747673018871624 0.47120759160381898
-0.23683151071816511 0.029049195054613453 0.638085724527369
-0.51516003752656747 -0.48077800659829473 -0.10957005607649828
-0.16456618029394221 0.2463225074548705 0.59287408434231814
0.062677634331553378 -0.52056584673690232 0.66097034055202553
0.031366567924661304 0.32885160037526062 -0.45339516750372599
0.27927709221247277 0.50748830288765157 0.2948252410825134
0.02137606923053248 0.38448456445978108 0.60271695505199974
-0.12797951025433374 0.0080333694633343278 0.65919190912592729
0.078748158869930585 0.031696361968526654 0.74008553921570686
-0.79114667007188721 -0.58086366392603472 -0.44987372654034408
-0.67729871055727209 -0.46227922183984826 -0.29904710152852809
0.00052712357802686682 -0.098653000360762855 0.6787447306857235
0.02678847943472018 0.56548188216753625 -0.45479002067812457
0.24039851791240485 -0.36507858415182493 0.76615325205842799
0.27510724356856331 -0.28982271052434361 0.73152524718982681
-0.33179793399750768 0.17858343093960083 0.36467982126828247
-0.35137020792250606 -0.12044301326886275 0.53967326529705728
0.27453331283922555 -0.36695415668208353 0.62068379636431503
0.16914522211310157 -0.28387552334311028 0.46510644215428654
-0.7442814671261031 -0.72732579710208289 -0.25380624482954417
-0.40422493400765891 -0.15931737630746723 0.50820227606157919
-0.42470802608882519 -0.091788788355325446 -0.52143458110904106
0.3386989167614729 -0.15345167819677075 0.54365715115569868
0.097931974514067655 -0.012199440684171892 0.75782509912532348
