# XYZ point cloud file
0.43811296962473989 1.2268193928815165 -0.38961798201589204
-0.12688854343021205 -0.02724126005255556 0.74861737181335997
-0.61571080806874079 -0.25893977161236137 0.66819376361602423
-0.20523439404553301 0.30722141638189271 0.77289059894712153
0.012667035512706093 0.8382950847784727 0.63741229061407267
0.41044651037093161 -0.14138060835598765 0.21283676256991413
0.59380639160478665 -0.43751793878792711 0.74323215325932779
-0.50942577602864958 0.5245670690177775 0.70624313883364209
0.67340361775471536 -0.33053826146117871 0.72014507347763868
0.12822478287456818 -0.099433169605937621 0.81295503583046269
0.26160055172863395 0.035079774898029825 0.72873401185673004
-0.46018146632236778 -0.11141045790159865 0.78531994643918779
-0.48482668736180301 -0.54622114429479041 -0.40259661436079597
-0.61513738830441866 -0.65444033419812797 -0.30416688164529404
-0.27262423906707056 0.42647829617018118 0.77663431423198404
0.15272287209864999 -0.14426001082309625 0.8207285541615974
-0.19660651312764799 -0.38057617962066814 0.68507372221120377
-0.35529473705013004 0.92678631906632347 -0.28529928073915301
0.44705460641989703 0.78619492165937288 -0.38544616266001697
-0.61824402069980522 -0.87470992988495055 -0.41081933340961641
0.32537828145594005 0.21685017928605532 -0.23354461459936715
0.7806832406441373 -0.43958691330755073 0.68031953517172639
0.15369030763791613 1.1607705371896913 -0.2149942303643968
0.13070039081098628 0.69185371271585439 -0.46006814773726035
0.21218473515448011 0.051976081180889366 0.73748619910903557
-0.21246884940404698 0.55558898851921867 0.77142513172367444
0.21235409750003953 1.300065243107241 -0.28077611072295383
0.52239327598934437 -0.62631357721899406 0.53847221271549728
0.2249616381633075 0.26562211662831459 0.65236323957874021
-0.55799000581784242 0.054808430709577749 0.78121705828649368
-0.50906957645169371 -0.33809425272027482 -0.55142316215750498
0.39088419302444777 0.61871523034648135 -0.25287340715553341
-0.28549189420364485 -0.17512209326713446 0.80406159998497984
0.27129280098279196 0.73282528861176388 -0.26993129165114738
0.19488621369067971 -0.020193118383986075 0.80367849899246835
0.02813697188827291 0.40664947968462428 0.79365813555507003
0.698665781762287 -0.39451887424065291 0.71014643203509564
-0.43424906707726052 -0.0014534143513458275 0.75689701801979936
-0.007880683944165412 0.96642530822724382 -0.21910487066050166
0.33613929215700011 -0.38796672394378362 0.36693426953247155
0.24402402112377786 0.91578750952238153 -0.28175272223950998
-0.44596155755063194 0.31543236440973033 0.68731963798545337
0.058962472367554142 0.35787113079290123 0.76962690478340789
0.14347653511492808 0.45886774523215479 0.66509629216577082
-0.65956366887908757 -0.99851134987038392 -0.32816091623184107
-0.47270137638003007 0.22831982773712411 0.56720130539132896
-0.78386985739484771 -0.26742188460438143 0.53653106875149348
0.31371497292276729 0.41644509025845622 0.51530943045825239
0.30318348303960363 0.25139507474891332 0.46775256213550165
-0.73341052493459813 -0.47732956950454764 0.38401502585405467
0.18804001893020938 -0.051807970077433652 0.80753359425779792
0.22400608393901678 0.98675491120023651 -0.26103792834884132
0.28435111565670468 0.10495401384780223 0.48093866322418677
0.11468168883959606 0.81547979602090237 0.28645870759256553
-0.24726308896501337 0.39375877524396685 0.78093572965291003
0.39529005782976867 0.63584362572274244 -0.2733549107325004
0.16514466572671438 -0.052455039201092291 0.76150470571512585
0.89687946045641809 -0.25378313372591066 0.32018316265680369
-0.88401090862427623 -0.76598487564228179 -0.48436079804854515
-0.55739338362518254 -0.27041474455581493 0.67007524615512892
0.22428169400342313 1.1101349243659229 -0.37419649290976054
-0.25949269268929243 -0.63878225965668634 -0.14557332015342084
-0.91747031188214123 -0.61041589629068227 -0.49497046909404219
-0.00992237310977373 0.59862496713261493 0.69925958821050216
-0.069962276074392094 0.87630272445206003 0.27605846159126202
-0.62792525766508334 -0.58804182542832706 -0.22757783432528811
0.54663639014411558 -0.09172123738331095 0.68083859575630612
-0.24747367149305433 -0.39138854537334566 -0.53120585976009949
-0.30737963847015237 -0.2282096532600093 0.80544694040679587
0.39517665365342225 0.74902045211482715 -0.35390176257126171
-0.33275696842021318 0.4978188045212022 0.80687906528288522
-0.63765877506922664 -0.75784422392906947 -0.33205328162791048
0.2855091006773165 -0.070991040455780308 0.7859583565889281
-0.4322256407594125 0.57318620128717157 0.67528827744871478
0.48525912746525535 0.84419615375754375 -0.40773599973316266
-0.74047786272714688 -0.38837771940239207 0.32266459599635411
-0.14115345886773412 0.41290312389877926 0.81890420184252122
0.71000807509042829 -0.6532574629940413 0.5699488491102187
-0.50960252097824821 0.13299735062371099 0.65892683759501125
0.61983024974662726 -0.30924939751301395 0.72829281794834344
0.68712023821049684 -0.19715048989015571 0.67831948695454258
-0.26388541161988144 -0.26280200682435151 0.74458673743122361
-0.78730621910366949 -0.44295879365211732 0.48962798452149059
0.12510860052252326 0.47613536962794001 0.68426388697726281
-0.014705081697570677 0.49279399075886943 0.77648418501348004
0.13625938928066716 0.39931997770759864 0.70074064364441568
-0.25205080723080187 0.29405852495381168 0.70095585718199516
-0.1800341217696797 0.70561212481749891 0.45506468658891208
0.12117770156839924 0.58813239496301861 0.56398432308207447
-0.52346194840110627 0.42280540824073398 0.70197905539848193
-0.37532990467909144 -0.64675761500793527 0.078841866223847035
0.16171856363455106 -0.075759671563744746 0.8130901567619091
-0.92649720382813427 -0.73944183781498651 -0.48272249728380956
0.70275994067428371 -0.40507024502420563 0.65853439071780429
0.47725818874718584 0.60430642066767604 -0.35940867976100321
0.28496274911455544 1.2905758686154698 -0.30367995891402444
0.38141270234859803 -0.27552626307291206 0.2648961037243609
0.37375616161061487 1.0465767260862577 -0.38877462368817817
-0.6359907195506338 0.35497649325868963 0.3928059480468562
0.59097571685911987 -0.21145195714809972 0.70955243390191214
-0.48568945723599199 -0.57955904963769456 0.50492132397177159
0.39072153707340362 -0.16877398289774703 0.73914279794903592
-0.28801719994790176 0.80259283880312182 -0.46378463822124161
-0.27875287852342012 -0.28500958498012352 0.7383231164004691
-0.63977040459812429 -0.95750835282278501 -0.36946692234454304
0.92462300806262476 -0.17707937907993454 0.35169949432349767
0.32050562037818509 1.3266927112879898 -0.32621341741952392
0.51148065765966066 1.0603270254505333 -0.52858641829030972
0.69458871652531684 -0.65392739758247131 0.54547950785015331
-0.20029351037510423 0.31118187220393878 0.76788762829701085
-0.64950676926221718 -0.58442152439976525 -0.23680130961788493
-0.91399963606150436 -0.66052817221451221 -0.45045658053917137
0.40093684433196586 1.3012247594864519 -0.45758759696895623
0.47137179857118383 -0.41457751552607647 0.38629439459160153
-0.71566135838124012 0.020931442085277752 0.7516660376512867
-0.22481277921428955 0.47117622751958521 0.77477379254544587
-0.095956667368810145 0.25825161132915753 0.7477615033390137
0.40816900762564501 0.91816104086112205 -0.40663313625658759
0.26404181208023658 0.79594069141769808 -0.28668623795455517
-0.57607443011741566 -0.6336729085837618 -0.26410519521595432
0.31461453930664618 -0.010582942433600806 0.73060252756037158
-0.50674995702172509 -0.67153037239489777 -0.26770141153381033
0.67507735831125615 -0.3546851780468927 0.70079458975155262
-0.4967709584814628 -0.13428809729318658 0.76787879442531093
-0.4188006274177809 -0.36396652872004864 0.67647344642106333
-0.6707699527426314 -0.9813676368583657 -0.38992547060890104
-0.40426044120167148 0.23372608904876557 0.76383199013768177
0.6546138389816889 -0.36827779788009707 0.73253951783148352
0.80003973621585089 -0.54878080513699246 0.5866242633147607
0.2908961282707736 0.44046552727741783 -0.39173609626293882
-0.33454337787890154 0.17927761935285957 0.80115627661603384
-0.63571278458390168 0.034432978163643213 0.7671149180981196
-0.3030443386104622 -0.25509095101352841 0.77614115488235313
0.81388852269904532 -0.18767235713679042 0.30632178503478258
-0.60155291168655367 -0.33562988288024087 0.64693489901701895
0.26361963101324193 1.0923010977459882 -0.34380050339091639
0.68400054810659583 -0.62830515829814004 0.67692091997218995
0.2733385791278522 0.77021198542023939 -0.30234457503625833
0.20682482832634719 -0.15950684929820369 0.79973231649734799
0.73549450992071286 -0.46031327774569064 0.70674363709664334
0.042564331157421975 0.31159059169007008 0.75816436845490642
0.148088681548046 -0.1514940894811474 0.81571449882953573
0.87428342662124692 -0.16235872580714528 0.33172544018245276
0.045830575620556147 -0.27135430165169794 0.61459077244042959
0.72799160574146526 -0.4122059811288139 0.3712770530867715
-0.45468306711316586 0.39117109157213292 0.83127853334627133
0.12992742064240304 0.77912426626584619 0.59046388860984678
0.33986695213624785 0.87725177293798851 -0.35017223919286522
-0.30385070175734086 -0.063124176985766667 0.75295731198066562
0.33818876146534649 0.43496386694030065 -0.32959951419539379
-0.37812257514185887 -0.52843711798067261 0.5942775348361522
-0.39755822944566432 -0.80487675769011702 -0.081896058952491302
-0.40986209663719819 0.19147591300716016 0.61713181803476402
0.46293415724649378 0.76272723523435815 -0.34503674465664602
-0.29992561327490819 0.65302968331315014 0.70368200129701819
0.1255694298993717 -0.15153797873718844 0.78889385829831582
-0.36735713413787607 0.096603014132369935 0.79234816195744173
-0.38076249272674545 -0.248971631601826 0.79638789328749127
-0.18800188188288303 -0.17679844157974856 0.75557206559079759
-0.017669528081299291 -0.46673210191080727 -0.33161206238819574
-0.086352122440118251 1.0016328374556238 -0.029865718301657296
-0.74202120636898883 -0.61779014479111538 -0.31519312007158007
0.81784041846317734 -0.20728352347827439 0.61246025123702452
0.9069041428601281 -0.32804758254049204 0.53849254833036042
-0.6394698946599533 -0.53179720996146074 -0.39121639789032869
-0.72933034959112319 -0.83185535877203165 -0.48416931110779871
-0.57792984096015232 0.79235372468023968 -0.28031605233877599
0.14697463165722979 0.808240856688343 0.51458215381668282
-0.41407739322828263 0.36392102435653584 0.63695866202034068
0.49210343166402026 0.89038046481149991 -0.43135780626036535
-0.48501554642562894 -0.57341565757171509 0.41775514424339377
-0.11136037514515351 0.45577636521250042 0.80899295119917269
-0.76949211994661937 -1.0376910003313782 -0.39216082081398795
-0.44349005734649438 -0.42871462553741679 0.65726225852622022
-0.37197957470412746 0.26416514993317008 0.81574545057867454
-0.20879640118062071 -0.1316674779502307 0.73900403493085776
0.21361310312411774 0.7539135182733645 0.24968136019980847
0.83157271638330599 -0.24367303665696483 0.62161181576089319
0.18409348479252685 1.1809063448115396 -0.22692930307486137
-0.1449973752359881 0.62679337349370456 0.75971831916037047
0.89346205639115794 -0.35738197309837716 0.55606426644490625
0.76717580207058234 -0.26338264556108015 0.60556954925984741
0.10388101142127937 0.83138584902003743 0.24263920564163755
0.048658335164915911 -0.49044715661345606 -0.06196867351336266
-0.31140147121995199 -0.76021224892426886 -0.079950184905772659
-0.31421677609012022 0.29118848333266101 0.79630229412893527
-0.25064750436690986 0.44043869653793877 0.77572707022193299
-0.23431638436485969 1.0042364205260981 -0.028986414822853135
-0.61752305838668065 -0.41993230504259316 0.61815849579583215
-0.70641786608038615 -0.3177948738126517 0.65263488168773875
0.05277333160853459 0.47547358430297493 0.74468503870694747
-0.79207390687622592 -0.71665668659588988 -0.44422510211492749
-0.4543454663816533 -0.28094506143849429 0.75923502931863496
-0.25439098532436333 0.33352648099357651 0.72201624276372911
-0.70769031382023684 -1.0220893658274548 -0.35050716726854603
-0.06088146064054456 0.430941875604681 0.81211660152906262
0.80258145522903135 -0.12026073239365331 0.34875119961009915
-0.49002755824238875 -0.38869183496525039 0.66695619455239807
0.65312821343246696 -0.00729059999397208 0.5042173504836569
-0.74428530653364078 -0.33344807116007757 0.3767356177757506
0.23828374537174568 -0.044630065188158596 0.80726242047791175
0.055467342605879821 0.37978786770080575 0.78461710719155064
-0.113006358053795 -0.537583825870108 -0.12189002688210593
-0.37690674123381029 -0.65565178495682375 -0.0080454896751120941
-0.41125669251894692 -0.035943883090148177 0.75220735274275796
-0.76578869482177936 -0.37143828014449554 0.59546282131156403
0.85102372708608698 -0.41069649990889445 0.41092047824648859
0.32047405212185254 0.33581129376565855 -0.29171916020446531
-0.68415783647942874 -0.69399415942925202 -0.35154154380291658
-0.29307539822391959 0.41130334381510636 0.67645289521897212
-0.64352545173574072 -0.26266484807069901 0.65775372750900019
0.55012384649795365 0.028434791873692689 0.52655427808414146
0.17702780111005723 0.68220492599888161 0.5921209883748304
0.30575292595922576 1.14045190149956 -0.37505499722828972
0.43566042854330078 0.042167928729625714 0.43890934500687706
0.66785096907902641 -0.37769264428549576 0.72915169876713293
0.55722490997210627 -0.17206573996305252 0.70752283152449991
-0.71646052422211426 -0.49957385716000857 -0.20090530079668056
-0.61786624395354295 -0.63765010445867887 -0.2870084629345051
-0.10723432113393017 -0.4296626055959365 0.43781152875587992
-0.8928865324555062 -0.088753881978000493 -0.0016927594653992628
-0.57952715933423349 -0.081792525513705527 0.71551526886636196
0.07969401631527262 0.53956509326658875 0.67267590546818212
0.66904364383381676 -0.60963870428209077 0.49160775077722718
-0.10970738750843623 0.86704201654612945 0.2818239951520809
-0.8847444801706672 -0.68174086351707786 -0.44268198372537171
0.27987002885924994 0.60764463730528462 -0.40366718601237039
0.28784163161924425 0.13181154469175027 0.45349028656913504
-0.52457041265266469 -0.32907133265221233 0.65159204935122261
-0.43296257335890687 -0.40270058919606555 0.6748754528164298
0.38262811190949719 0.66141036159176281 -0.31987531969264182
0.44233391382960008 -0.029113375936901775 0.33173580579301643
0.28033874805888104 1.1533088049196394 -0.36282785601446221
0.10417820561450242 -0.14233625750262746 0.76831632198503286
0.32254450239977928 -0.11776131426171332 0.74069935019210931
0.82247189031680534 -0.30115245867386164 0.6362854038782757
-0.10929819503240878 -0.049749770712452346 0.75407819844983948
-0.37551136504873739 0.4585611247406689 0.53694378475737636
-0.85376513059797787 -0.87771466460344527 -0.48155832531949727
-0.28996507353889456 -0.44538205483370064 0.66031404781953995
-0.65672556778480384 -0.86374784166530816 -0.36110621271881627
-0.0032919306848384622 0.63723844395293128 0.69443563357697258
0.2115261748315902 -0.33195397878990462 0.67754935151704387
-0.27467375106709824 -0.17375175198348813 0.78908492561470567
0.74064780113447171 -0.59579335784484044 0.65434543078397667
-0.72795021298284723 -0.37490722228573503 -0.4289960774312398
-0.36288787497021247 0.20475327738906657 0.79713376613088371
-0.45459954088843801 -0.82180318528088492 -0.15461479929654587
0.29054273117490936 -0.25317663191346895 0.74735943095697621
-0.80512421799238609 -0.74313943856405018 -0.45841983385374263
0.1497954678217468 0.063231867239991857 -0.58417559114960227
0.71195034660628664 -0.51359596562406296 0.43222255650573516
0.065166809087131128 0.58574443926165287 0.62482350282050447
0.67328525542910711 -0.37882372666941677 0.7065441990918373
-0.21831536238916271 0.29732501652356547 0.77903412105392533
-0.47622688241980882 -0.27461284556321885 0.74946878061956212
0.061732293790313975 0.37875732943685847 0.77873265475444953
-0.38012596352474759 -0.36254198224082756 0.68679927357219483
-0.7623086491145159 -0.45944632603313096 0.42297924810590004
0.16962758653788512 0.78478653828070577 0.28824851648383998
-0.13594396321623492 -0.44700217505618411 -0.44546569342156062
-0.25144371132995502 0.4865191810183731 0.69226498069897957
0.36962495554450925 -0.27553501223882648 0.23826843526953212
-0.78532681175568086 -0.44028572505220609 -0.087663219060409858
-0.35448341217424684 0.0080346977237866213 0.76244325091749943
0.47431025610772792 -0.55258464277294905 0.47332009019913812
0.026958261410698015 0.95244652092889481 -0.13740887872961594
0.25072128595520837 0.36712875181716953 -0.4303690085098637
0.33836685070269823 1.1476880264613953 -0.38998449879369446
0.75824283104142864 -0.26202510936046508 0.6097666479147037
0.74655842737217881 -0.54445196046657429 0.67934554172497741
0.3682616305252111 0.47101287383262047 -0.157170916480176
0.22616784124471678 -0.15638387555455324 0.78753460127643393
0.3319944259227583 0.19242086636917577 0.25190011008080404
-0.29836360514831028 0.88867260122917457 -0.36484433640428904
0.026025629433576114 0.38701322591371934 0.79773021446970205
-0.69719443862254593 0.69869628036493481 -0.13282871847903976
0.077293776553574389 0.5661746193604742 0.67681945765928475
-0.56381163417590585 -0.30863000407941144 0.64997586964625143
-0.78601047127828849 0.35582160055262335 0.22524200524617299
0.015477749922411022 0.62498342070663426 0.69195716465875989
0.29834084076310319 0.10156607617378199 0.45470199027185743
0.24021348863495007 0.038255285370212277 0.73775927908211969
0.38679808725669318 1.200908610496775 -0.42322621485266154
-0.79906400397042887 -0.64323692259789311 -0.37807779309355993
0.42475725485127214 -0.19890389688827526 0.26358613992651669
0.86082638453363813 -0.148872072267487 0.53373798546567031
0.56662422705512938 -0.25285429001622362 0.32796050463217341
-0.56080763242792386 -0.40680662975077553 0.6361349846344666
-0.88366420869914464 -0.71988877018194586 -0.56420040021192008
0.61933770175396319 -0.41047007096300092 0.74118973541059319
-0.57081384055256024 -0.38572922201819893 0.64083173625132517
-0.56471773607015052 -0.54247842857902384 -0.39828599044389179
0.73729008182459665 -0.40390966944303131 0.66778634814277638
-0.65777048537586325 -0.36886112026044771 0.628298360063134
-0.84653569069276102 -0.88730047571848303 -0.49649333944130447
0.67920074194398694 -0.33192408342685553 0.71638089408236283
-0.38402536018207911 -0.65662080281968827 -0.064803493465955597
-0.13921929951069956 0.73795302671135943 0.43335586122080372
-0.51988071614735532 0.40491502671029167 0.46629476154930671
0.29220249199629222 1.182084862682494 -0.36716681599109791
0.46952702984357586 0.047958008338959246 0.54047260859887558
-0.34203193361740603 -0.094651549759163345 0.78305360777898159
0.11148151854197863 0.48064714375367146 0.68834460775995865
-0.12342579735847892 0.40713890795403529 0.8208380581892385
0.30821141711457756 1.0174914947104128 -0.3471436645386774
-0.20963939426667366 0.46556429375382891 0.77695968151353156
-0.34330942087295568 -0.6690276813779974 -0.049694689683946081
0.5346692872027603 -0.48807813418432033 0.4193950767991339
-0.12901378022652921 -0.28099500111955678 0.7284955947156817
0.73738581273414638 -0.29195662527242661 0.62687188850001263
0.032396397573208446 -0.31641549944988867 0.51566638272855414
-0.37805722405573761 -0.39347437808567065 0.6409360725650437
-0.58107346513058644 -0.96365539431428715 -0.2735094902374442
0.26163888176361638 -0.14584407628427698 -0.35051147461571475
-0.78541319973236057 -0.75066700086365756 -0.43581780433220629
0.78747567187593859 -0.32807247472750589 0.60592653115300266
-0.18392298376869576 0.35495521508166661 0.78482033429684606
-0.023724560345144141 0.32105557026542897 -0.67247266959605412
0.1444270904647027 0.36977131159441967 0.69901393163995351
0.14218780839208023 -0.22203986840588641 0.72706044150134375
-0.36525117486974068 -0.85649730642769839 -0.13538924721525802
0.13254972221298544 -0.12248319216310932 0.81797628359444019
-0.5527446026246281 -0.1351178842120575 0.71486819965321402
-0.61395580358400537 -0.36864722856215337 0.63055085703653191
0.37145377630088205 0.66363844387057469 -0.30286763063213584
-0.026785572562133098 -0.34021393521722132 0.56148504721335257
-0.7508311859519381 -0.47191412082738537 -0.14826382683555295
-0.71273174610564638 -0.52302911978016198 -0.25415094217319023
-0.43121360512164131 -0.042986717690723708 0.74504600778557872
-0.081011189358790148 0.24945702251604729 0.75307217015748051
0.30013010784333005 0.8011176219106062 -0.32505538485500551
0.013015561649581286 0.82657006785012754 0.6594552685013042
-0.45420762678546112 -0.44594889934107584 0.64694423024178249
-0.60651204625779087 -1.0238938445660466 -0.28082195340322968
-0.65251346150571976 -0.092190161510778523 0.71097343512765221
-0.017077553270112844 0.48645471254590689 0.78225744207934866
0.45687476886105571 -0.57701883132091325 0.61119190346109775
0.27761023643797955 0.028368523296755654 0.74413924842249912
-0.57870680572921174 -0.2730402935171341 0.66887863295066197
-0.085872952801608449 0.50207141709688585 0.76967685689703558
-0.43907187277274318 -0.81075887160698556 -0.27040794198035201
-0.011840316069381629 0.50008632002030851 0.76357474419781113
-0.24590945880430581 -0.26976941685315836 0.75092657146898745
0.1182130138058568 0.40049046504545771 0.6956706800539294
-0.59051022668420217 -0.25311778608691782 0.68492596207720524
-0.52244029565143535 -0.60605859999326128 -0.10565494933837272
0.17846864806763563 0.28183977609891997 0.68244195285615206
0.0079791027226150391 0.59792693435588262 0.69374376056629927
-0.76929440119859294 -0.5611912260194174 -0.29069261190721818
0.092519046167836905 0.51935734593246963 0.67393570354596477
0.37389963300816476 0.51958009374926917 -0.35328040739961608
-0.18683591515659259 0.7150011192367316 0.64599765849450108
0.32755055591458415 -0.4860034396078774 0.60246702856510836
-0.85712989016107599 -0.061827664419709549 -0.44522134839284178
-0.87227526892374385 -0.98520525520370938 -0.53829569755264117
0.2897770583679744 1.2172454346038961 -0.33667050515410324
0.27930448682829478 0.013277861561235227 0.78612718264477621
-0.37772225440977536 -0.40772670751663043 0.616275280647681
0.21314342721561275 -0.086743857833099014 0.81560734411853275
-0.65865702067529242 -1.0363334572525957 -0.31771638021590576
0.83102188800769738 -0.37190193252813231 0.37343512378242849
-0.45732949298414383 -0.35812568742701956 0.6698386472224378
0.51991644713774576 -0.13337315164172736 0.70586549935880782
-0.45817662276947146 -0.36535416641734031 0.67284325944527268
-0.41707388448706695 -0.085991627036037244 0.77319189855173676
-0.4604168528970547 -0.3805412257876668 0.67604534125053917
0.29431946106306839 0.20341566720446735 0.43146296531741513
-0.28523335476769773 0.64248809687249064 0.6403966103949017
0.097016174245865727 0.82922190735378365 0.57813312695490282
0.18656912160506067 0.76831482128774553 0.42291452702508536
-0.39700356900705458 0.22422851122330911 0.6748950247651706
-0.20265530423820621 -0.47488013312309363 0.58908070302193494
-0.16657412146540196 -0.32454680346642562 0.71226305703893189
-0.53636554859212993 -0.37739227982766721 0.65663768064551675
0.089511001098074416 0.57938452004714946 0.67492881625722134
-0.86315365587063297 -0.84984273155571799 -0.49870762700341942
0.027342206150635207 0.32751236126077998 0.78725192947820943
0.51393968235707632 -0.46852079742330233 0.73561504697279645
0.30444613675170729 0.70192536920959014 -0.30886030333380177
-0.50785927818459697 -0.013376089917116474 0.65846332385819295
0.27754180216078339 1.1887830929841883 -0.33775877126524989
0.49592498235398352 1.0396146710037613 -0.43552241529636859
0.12867780943706464 -0.25974161380877803 0.67202070663547886
-0.29990314869274926 0.39164965433962351 0.78174133533384804
-0.65516540000349721 -0.11850361449060642 0.70342792561446643
-0.61947999407951215 -0.19107630360796435 0.68490290126035802
-0.57661608386618468 -0.63866108718494274 -0.27543448091989831
0.5363913335088597 0.78584927917412983 -0.46801613418728039
-0.25783084681202695 -0.26761342637615826 -0.61304651732963578
-0.66578119548222503 -0.55193834214777127 0.43295545093249999
-0.8189204089909623 -0.61750312972328913 -0.3616351209399582
-0.83134613600661567 -0.74256973498891909 -0.48511298164876848
-0.40420164150299343 0.1762876971663232 0.7278790954042762
0.020089736876826692 0.29721975267536749 0.76382492743403674
-0.19437002585279117 -0.38938754341629789 -0.53005117589972883
0.34812599554398105 0.69256948569105248 -0.38727194742723725
0.90910657796149508 -0.20106030382147821 0.51585054666220742
-0.30397772422598734 0.63595431092575438 0.76012039877787885
-0.2455984541177969 -0.42573227135493852 -0.4942916921694902
0.80951836838033842 -0.25275970549879645 0.64037859779802631
-0.46370786629084648 0.52601675433299278 0.66055918025917748
-0.21924114251071103 0.43265486617963944 0.75355466823746298
-0.27761808704016744 0.0017028270555243807 0.76094982471895634
0.27615459507693174 0.077911912843759978 0.62795312285012983
-0.6240464097592735 -0.22513702793906276 0.67371009178156172
0.73673468618392235 -0.25846396272127237 0.64338082911862671
0.300041980218964 -0.003187459437249629 0.76709274626151824
-0.55724533306890578 0.2544871726466269 -0.66637059616998329
-0.37038830337716888 -0.099802283092436994 0.80093999037677222
-0.66329814054616065 -0.55047093631991828 -0.18776355573281123
-0.62514727457245556 -0.60372053299021644 -0.38402952741101615
-0.39955717165784677 -0.77740654768860651 -0.092101856913966884
0.36655303078991608 1.1098462999758567 -0.3940368424699372
0.27944686925435747 0.7146796844929213 -0.28794021231487221
-0.16849192728345486 -0.16005411891566723 0.69941210893959749
-0.34662294254709991 0.43302832596402396 0.79895670844494049
-0.70416301931741998 -0.47545344348529994 0.24504573946769881
-0.10026297411256735 0.54857862667353885 0.73937896266551206
0.54277029509060526 -0.16109549270229451 0.32206858757677992
-0.68321937293214319 -0.35049417728158261 0.63906536023587179
0.4316810215126452 -0.54428550387515884 0.49466516514541325
0.13657391185373058 1.0780918981538861 -0.18884265812943113
0.29650669147402198 0.71659914167293692 -0.31975103404590755
-0.29201685226925633 -0.71886548321800348 -0.082972494614118375
0.47727498394108636 0.99105696780650732 -0.47539298106661931
0.1743593859582262 0.45823026241535558 0.65879484374744379
0.18512840344550341 0.94066029710878496 -0.18683374885788595
-0.66523398936867295 0.1284780647457211 0.67222567763325358
-0.50810077632878858 -0.65957818579317973 -0.26840583045681399
-0.74964856293495075 -0.27309039647366262 0.64733814766004372
-0.048330194052709885 0.23652232588067079 0.76003656358851401
0.25996401459454432 0.037714672958969686 0.76373537713547535
0.28832531739153922 0.77274447669710611 -0.3753958831247175
-0.75415585029148247 0.61012342597193481 -0.16523814337656262
0.15838782921458971 -0.28642022716816484 0.66860737732132236
0.19346008644087931 1.019272521136493 -0.21409365840675321
0.65454325825233184 -0.65500261038215513 0.66403511521222924
0.011604018497450852 -0.27748538848111082 0.64796273645818303
-0.39438883710911909 -0.65336814783810837 -0.078485481965444137
0.89656103972539825 -0.18302044780096338 0.51969177584228277
-0.31992702277909757 -0.028158551669612564 0.76530145175741637
-0.35845221914595982 -0.65560215996339366 0.01964329023221012
-0.48284713388260059 -0.57768524268819732 0.45199507060953081
0.78588044424930104 -0.27226501232841116 0.60938735362363872
0.38849430281427999 0.84058086367014795 -0.37065911152004105
-0.26417943869809335 0.49474579119512185 0.6697184898913946
-0.34912378512656517 -0.24294143604877405 0.80226825217561526
0.11592030763044647 0.3499729046421507 0.71576448642336743
-0.44679476598948042 0.1112141942853313 0.78717731074500108
-0.82930553178434252 -0.55410404622484322 -0.35536247881143979
-0.18991159301232585 -0.48530826390165771 -0.37685937265237612
-0.39703545079125035 -0.25617964522589176 0.79068251825735913
-0.45009100884686859 -0.12635816861895677 0.79523219937551204
-0.39386235703018713 0.27039236000998557 0.62400188514379806
-0.77431912795339031 -0.96125101818189052 -0.43336603214558167
-0.36301888630067936 0.15458312112851047 0.79018069301127269
-0.54557360794034082 -0.35172257227737447 0.59897529996452903
0.53357030482212053 -0.63119039277566458 0.61170681853329967
-0.60783815220797521 -0.79598143664613019 -0.31704667636791584
0.19667910112589482 -0.28880837966105588 -0.34433866890419296
0.14730077700984623 0.9262997483473896 -0.28808563186273517
0.15383732727440247 0.81815928760693879 0.18857199701993466
0.18188633667308807 0.96757291637302245 -0.18714813758798243
0.31421661240989351 -0.026141605751341501 0.74097645962484648
0.28631940150546598 0.09683549086511789 0.51952474111205049
-0.66038814089995412 -0.2234932385393904 0.67306892860152345
0.82164042442865082 -0.25858383179276956 0.31453857169529442
0.3748382701049735 0.46356471536147836 -0.19169510347350638
0.18821275018065364 0.47378094741664256 0.58440050023187951
0.6843175869985032 -0.19867519031893011 0.31724848586689802
0.025069106821476339 0.81949336699798181 0.3735541132123501
-0.5491001165653131 -0.5990372404970401 -0.17408000087466746
-0.56855184414150983 -0.17209884169299983 0.71157430317301618
-0.76323262175698403 0.055595003638458707 0.72270385797686032
0.86037781640848721 -0.4191816037052547 0.59167835063063734
-0.34736555425483573 -0.10305253755792876 0.79827472624558382
-0.52248813361968871 -0.063622284894805148 0.73683164871861351
-0.79397788229661614 -0.93491934282857869 -0.46801168646316427
-0.31873199651350603 -0.2445805880913241 0.80094414582791273
0.41776418033495588 0.74048124934495974 -0.35004386468048665
-0.67273667477680021 -0.96751395100555015 -0.3921229876470278
-0.064055545704491124 0.22448185141196575 0.76138111021773369
-0.097360714912184676 0.34604982918315841 0.82145825774207282
0.14960437891929246 0.26128251105738798 0.60139135411192512
-0.84520831218782178 -0.85474594450774077 -0.50278397281396181
0.27319508273315307 1.1217110157319468 -0.35651549583391073
0.53024780751218259 -0.080617607838561867 0.33511439149993549
0.73574174318373764 -0.41925198761115468 0.70914884935633182
-0.20028404846461001 0.34955223926080947 0.77244020466589092
-0.58409649986651857 -0.58938062715309769 -0.18877858882400389
0.36074143668335523 0.52640528931698327 -0.12659090738979017
0.35705502774077047 -0.27823299413547176 0.19832656585121811
-0.41878403651440976 0.16840099226500627 0.63920423483673972
-0.71365882363431865 0.042904998632280922 0.55225796448226561
-0.064933529255128519 0.33440267435886284 0.81860353048352863
0.36979417808292681 -0.3127611970708486 0.29301751867826198
0.15012637329911627 -0.045282541844940738 0.75147256560121889
0.78072400755637261 -0.42038209662594284 0.68268130555805584
0.75970666811174681 -0.57509036740788844 0.64529218807345501
-0.53596130228143579 -0.7966606482152585 -0.34620844522426353
0.58402358103246854 -0.13134961319158833 0.68571562646140904
-0.61808264746318287 -0.75640879054033405 -0.3202581549508281
0.42145758418436685 0.68369675420186837 -0.30120957614118993
-0.12725110570143272 0.21047412841333113 0.76233446594470422
0.22188763001761913 0.81389409744905095 -0.20162192453625494
0.07809749679481115 -0.12318014516548459 0.77250309986334287
-0.25597524760456736 1.0033162366098693 -0.15596848219779957
0.36816381367073348 0.89950745379105257 -0.37093565746377521
0.44144749077322842 -0.3807663366321421 0.74472867245611951
0.36485477524338705 0.49505216959527587 -0.1123783393919382
-0.53912527318404102 -0.099429610402559376 0.70298001412145084
0.3746882384226069 0.79673357842846571 -0.35613059475613795
0.02989157218432581 -0.063379260848044794 0.76281310644279188
-0.11067593614691873 0.097652297902484975 0.74719017874819826
0.71731565644414275 -0.38209602744434079 0.64304403035508528
-0.2473783155901117 0.37838860414784392 0.78135795612161019
-0.092298367686353799 -0.31462091051449192 0.69339291178453522
0.11793973763730037 -0.33307634023912414 -0.40810310839425057
-0.096250620467543513 0.25293432119263315 0.75450957233474014
-0.24500999969839654 0.68314437535257611 0.69145170789641242
0.4529723549105853 1.1216290157085425 -0.44392118761317789
0.32032670830247412 -0.29128642357122203 0.056120005883272484
-0.51239671148535137 -0.12076907522632752 0.73741867184714138
0.15947312482283849 -0.087814999661048887 0.81757889543320772
-0.77451004357823194 -0.85851286982263986 -0.43299488874276904
-0.38997159594090647 -0.74955541088341704 -0.095837152292098438
0.43231653647622181 0.58166155912656592 -0.36347857935639638
-0.30981837425984793 -0.52966583372133869 0.47472987286448642
-0.16037088564154089 -0.44792350598964248 0.51558653589867731
-0.010577374361005809 0.22271350904394183 0.75212798248158208
-0.20835958953134082 -0.5405467121650247 0.26279963950359431
-0.69279582249104976 -0.52571691355944239 0.037967878665995158
-0.57310500284631871 -0.24424612153597991 0.67792748358473176
-0.54329066429079376 -0.1045335110098975 0.72245108362675126
-0.035229095068871175 -0.29165237162457913 0.67662714447320127
-0.2052338053227345 1.0123352132413146 -0.15381332695762495
-0.50652698808244168 -0.41978902876429203 0.64793396849692897
-0.78244406972834213 -0.11805703765447362 0.66522901974692417
0.18207847145605172 0.021128883218175076 0.78193507331288004
-0.4357626852378047 -0.75512540114220883 -0.20021733648535545
-0.76312801123368956 -1.0233667425235353 -0.38487148480792754
0.7296808529115566 -0.27440426698292697 0.64971475931970701
-0.083896223759538202 0.43000518318617509 0.81507446502882885
-0.25665134870548911 -0.34688554295976815 0.71185781255488578
-0.26367542970321267 0.4426432333156356 0.77496711661341067
-0.74496023239223064 -0.51299518682359491 -0.33358103904975422
0.42890223110926229 0.0036438021410205579 0.36637207981721076
-0.46965881945445176 -0.60794973095003257 0.19142084564430206
-0.20073174697354546 -0.14698228468103736 0.76328776831812206
0.33846962024398408 -0.056959925946550527 0.72696689502055989
0.42907029494905657 0.71754876058150074 -0.33324007708249326
-0.91668153567968602 -0.70268629267720684 -0.46726336509682653
-0.17497929513615418 0.28742101261417474 0.76458742409906222
-0.4560611642434651 -0.77791047850887907 -0.22535030491973274
0.81879177345898313 -0.34066370668223556 0.64358275062385673
-0.91759887116688788 -0.61101658269338799 -0.46865558065314872
-0.3776557695151439 0.36313878325903204 0.81370119301201527
0.16207783581839408 0.82795618430279916 -0.34797383721814157
-0.5337109276828329 -0.67914736175612944 -0.2816369193595456
-0.70719787381860044 -0.22165460156628569 0.68064587807041832
-0.17402065155452817 0.58387284565769448 0.76029754500763147
-0.81449209683626123 -0.1518134712037309 -0.47778798601972383
0.89776206023630323 -0.34371787529876485 0.38907183938291467
-0.25071618271998375 -0.035391769936218509 0.760291247560545
-0.13937889023955563 0.51461629164282385 -0.65731853921252537
0.31577150204076077 -0.20712457310514765 0.74983222600778277
0.0062828830833439042 -0.31249804423038086 0.53873361899260885
-0.28589321497501885 0.99249786610963042 -0.028263262876286888
-0.4161559943431854 -0.78494001257897139 -0.11106795399143365
0.10602344071551784 -0.38493795265587494 0.36739384328689084
-0.15882310040872483 0.20005740165253627 0.76366931532240301
0.12400224687442574 -0.32176391031170226 0.54703607292343293
0.40834096492947936 0.67700701917667772 -0.32640244916319006
-0.41293442498752597 -0.2935285038336275 0.76271495202885831
0.26321262055819261 -0.034089015205523765 0.79900833153007511
-0.21105928467724766 0.27695611835719802 0.77737219808292224
-0.12801933725344838 0.26313976137386419 0.75829251622415228
0.43031815498234494 0.87820436935330548 -0.41563165462804363
0.068918798267119996 0.65556098278037211 0.66415883663048447
0.051515596628689764 0.27448618525460944 0.74423252257273731
-0.08181083256356203 0.83583777044322716 0.32289536502057103
0.48870652907331191 0.83835019209293904 -0.39542574635036942
-0.90533893059780723 -0.1128342789317287 -0.087227851952096813
-0.28672778700652657 0.70545460766331303 0.40249780907639376
-0.54488557251715974 -0.33302750789412983 0.64820213713925057
0.39574390605856991 1.2145550427946432 -0.37777833906806535
0.55767449267318625 -0.3970777301449715 0.36348276978975491
0.12381449378361253 0.40031848376909807 0.69861803215943752
-0.16107992731663501 0.41754409544405036 0.81175272036644941
0.38015653960590612 -0.26886417381523842 0.75101141779859404
0.59697620620494263 -0.67035734184408113 0.61133198357164531
-0.41147592626495566 -0.90383643740774033 -0.20385484698593714
0.3155106673319068 0.30587333702185759 0.47734422656132125
-0.37501204486137851 0.47840079658567447 0.61896943330820875
-0.029672094806187488 0.46573470195742317 -0.63784045490025676
-0.5313175254524225 -0.9093248271887262 -0.250637552005891
-0.24306557301568432 -0.20798368404958723 0.75608709192930945
-0.63935098115022981 -0.56363932661646032 -0.11485108630685659
-0.78051379123036213 0.045060374158261141 0.57387627110847461
-0.77386435102553719 0.01313708724459417 0.55325450690156686
0.01369424940192232 0.80834020817395924 0.67652609426727395
-0.29894366517692106 -0.13987458162065991 0.8042346556711415
-0.040730832179050935 0.15726598268862091 0.74465166796675675
-0.58292778843625115 -0.12361834504128666 0.71272023441856192
0.44742332472192459 0.73502694567618221 -0.32977068255711828
0.1935170606386265 -0.088574246821053748 -0.49561449358697018
0.11184682553016501 -0.12174050180647811 0.80591852355787097
0.14850219016753385 1.1182825475739406 -0.27723093372516416
0.27213426073987534 -0.017670237156274027 0.79460845005559833
-0.81460649936212803 -0.72166107775372978 -0.46665681454367203
0.0092428124004442225 0.35896953149330812 0.80574380424110359
-0.24652954786368753 -0.30438886700387968 0.73502839214337712
0.1521306325327032 -0.2543971367964275 0.69814200693559769
0.035631092663066966 0.34661665011719833 0.7939666321386909
0.036747148421042652 0.6374964272419561 -0.53972314653181286
0.18979959633281851 0.91458535516233752 -0.18846039420267147
-0.33279591520090435 -0.49002757224658922 0.63092656685299175
0.2758536114426704 0.030105584954036146 0.77230900219532828
0.48804178670778242 0.94542300321562323 -0.47228992635962186
-0.28057625168008826 0.30965473163967516 0.78277233753992448
0.29396763410402116 0.20072104462562379 0.50089829904531769
-0.02300204761448299 0.81066080896768966 0.52489499243451831
0.8040960191838451 -0.15128521063972755 0.32189785163691909
0.051933294918654838 -0.35222532615328106 0.45993250295339294
-0.45521116841696596 0.57649890003860804 0.72910686072464159
-0.32129204665908162 -0.76069583530616569 -0.062656463923623562
0.17684956358833404 -0.039858085629937534 0.79076144861353725
-0.91082674531544683 -0.74752714042858059 -0.4795427830310075
-0.56207946818319954 -0.3764807449740033 0.64815528870591166
-0.91042382025443658 -0.78624343974014721 -0.48394821486639117
0.80502557623380255 -0.30874365978360174 0.61496704134948743
0.19732727259055594 -0.0012955388408855129 0.7999357652790593
0.018364382269453472 0.63684308865320105 0.68738959169428426
-0.7717942426808122 -0.81082298003433806 -0.42195987348128128
-0.5482373062493906 -0.42775083180446671 0.63212289816631539
-0.69266623506153735 0.62566406112514983 -0.35370179204251428
0.69577748518638316 -0.52357213904502231 0.71194735569454082
0.025464359803194725 0.052540192996836765 0.74473983799146737
-0.37129670699260942 -0.66015125664517171 -0.047111885720909186
0.39308003351213472 -0.18368892775326628 0.17662972173415881
0.35781966552957556 -0.11556379486568602 -0.064347937139238809
-0.48773167723322786 0.0018754689909172839 0.75071402603587956
-0.46732491149477084 -0.76620390801494409 -0.23908198560577176
0.19609526696561375 0.014275945086119179 0.79391741049452946
0.53516819349667344 0.85973005914144096 -0.40974433210247696
-0.52556219739975063 -0.18920228738816292 0.74436258755503815
0.72485668200653208 -0.59362872475661987 0.50214731807649571
-0.85045798322015287 -0.12731179562853612 -0.43845101893942129
0.40806235257814194 0.64703408571973853 -0.26883923744303928
0.10228304222493989 -0.10954860475874284 0.77845400204787296
-0.43968710197522398 0.095407847901327614 0.79449352175815946
-0.70557650818604145 -0.97052798296045495 -0.41317757676580058
-0.040147466115868724 -0.14200931380592863 0.77359554972655076
0.48245290971216548 1.0369629053464138 -0.48156821585149601
0.55288583675077518 -0.37373552599732562 0.74647728979661565
-0.027795913710164655 0.24718356875110459 0.74406443897984076
-0.89444114722654433 -0.11316544293364927 -0.33591944714537902
-0.5590080467418943 -0.15222626788873583 0.71209172651702346
-0.83279566432506158 -0.24371462762643148 -0.40664337226967717
0.58241282457498755 -0.44626824334800119 0.38678949944668517
0.052927064218678765 0.36037711860632982 0.78355588370815354
-0.42190228022589338 0.027355872340365295 0.65510031266714464
-0.42520623838903759 0.55759139238186606 0.65657050420831098
-0.26044405752394084 -0.49511974667296954 0.60385261964255577
-0.55372584178867612 -0.029706258919375728 0.73262918504262586
-0.72330993645347519 -1.076005416624966 -0.38860647411722482
-0.45853952600018033 0.91051568668573424 -0.21665465914074389
0.11102117709177151 0.39500476057188649 0.71806956046997783
-0.015303774249900925 0.24198103169580065 0.75867540438104442
0.45329429048631198 -0.37295764269946829 0.36163252044966043
-0.46664503007164626 -0.16781339816632368 0.78964312907245215
-0.49134507930125437 -0.65120633511348558 -0.23907062177176641
-0.48689209309401349 0.10296909200720705 0.78554816321651089
0.58509321648398327 -0.65567498510553435 0.52300112280595101
0.048649159551331422 0.5282930888570192 -0.58026888009365507
0.2778150851785739 0.63051229093229466 0.3340344359151004
-0.21634979392223386 0.32086645095958488 0.77430963059442348
-0.22919408535560137 -0.15345220170183893 0.76755820538784292
0.160099967672096 -0.068401814273300943 0.80739532445209505
-0.93354205866221207 -0.79936143844083318 -0.59365206967195405
-0.81892363852672645 -0.65899289139328232 -0.4025574782955843
0.11736134718292135 -0.22420099279771932 0.71020432611818762
-0.16434520709428568 0.76583955395786063 -0.50731388845589009
0.7951950096978635 -0.44687903928264205 0.66545602572706031
0.81368328025608605 -0.34181819603949748 0.63924242199728809
-0.74133458580764966 0.013989562160368507 0.54255456871770846
-0.56387378413432998 -0.35102418371899091 0.65312212682742654
0.89860418827356625 -0.39519308019144717 0.47789354191948519
0.65656020565256767 -0.30256519478520261 0.33457208443528685
-0.73934956810329311 -0.97774686528458687 -0.43404786137047324
-0.63573830430394196 -0.40645764967175779 0.61912151921672631
-0.56022991239647979 -0.10392856395493055 -0.63660046362803513
0.87733689914121271 -0.1164014113574936 0.43455464783664155
0.2307257207266673 -0.1131337343265244 0.80874527331360468
0.0664438479594196 0.39799336148389131 0.77445141326435873
-0.33873298984964606 0.58917306223870014 0.63117243607339901
0.95566392597072536 -0.21353602720481035 0.41820818263273907
0.38302054732412216 0.73985539950427182 -0.35308807903882666
0.69132132272902425 -0.39496656674961628 0.65899155708857649
0.28521615999693495 0.15640824541008413 0.49027577174232562
0.3280803541140358 -0.3189602179935207 0.20837880204412329
-0.29381009533494762 -0.15794017925571779 0.80984401053008526
-0.74250507608731198 0.30946306049811056 0.29700866983477781
-0.50945549484647756 0.13736663590299969 0.69075745456756366
-0.27460906921638184 -0.6811035036508315 -0.086974360043662102
-0.39626344250882539 -0.39284125734851472 0.68636233160728466
-0.27667491188793747 -0.12887839397628653 0.77942747173769789
0.83026060115882672 -0.42261077665233415 0.63280993609600245
0.76995666089203496 -0.42774192245590825 0.38820943902965865
-0.4386325701090783 -0.38046328630835546 -0.5316383475955746
0.17200750158094991 0.7507618166136254 0.56066453897939539
-0.85916001641702167 -0.29803639829242456 -0.2453314504037003
0.17153554550384342 0.85053227833648037 -0.33398291582762596
0.20191158608605519 1.2205381181889763 -0.24501528711120102
0.74625013551664665 -0.25582996691058923 0.62571910182164459
-0.25172309670294624 0.47919442387129862 0.77303981086986084
0.74499518247721142 -0.24168633665481565 0.64855216402894911
0.94887638283029219 -0.21907447794722401 0.35987870654180654
0.39629411085991251 -0.52222038430434736 0.64581614137745902
0.33280720636187766 0.6994199501046694 -0.29962643006073364
-0.071903031315670773 0.18294546546911761 0.66947821944496155
-0.3995112554894007 0.55270173508784382 -0.64398549376735303
0.041262712719912997 0.81882922195319452 0.45204370781559078
0.31019564324945748 -0.11147671569240458 0.74636627985452719
-0.28677217920952103 -0.37999692379045769 0.6402169424153783
0.034139198801781845 -0.19652799875622406 0.73535646421400003
-0.7308836479740819 -0.12954600787436732 0.48875471479103894
-0.37730363849587434 0.18324870243856139 0.7774665076754701
0.45562418118068138 -0.1000932911489727 0.29218165217899639
-0.17065916308131079 -0.26051715257211328 0.73687892861210713
0.14946575342796109 0.88150271111931033 -0.099644427744422615
-0.73007821189894173 -0.52656062663730552 -0.27184203253738204
0.27631061663844037 -0.066182370138676561 0.79191367237261545
-0.19586252281641237 -0.034547139189328391 0.65577621460649027
0.15527563426914526 0.0090481893206586506 0.74183828578318867
-0.07857968569821594 0.30428583618302696 0.80916469794011903
-0.4506116973955443 -0.27481926032182002 0.76566381535569761
0.29032254127845647 -0.0072886981111324189 0.78091105938225525
0.21544787196035031 -0.19920553393009754 0.75218743784288478
-0.6211970543316454 0.047668927023117647 -0.63305954221294058
0.73038755187579341 -0.55471248410309215 0.68750501302702816
0.26501779941906989 0.71187310564823747 -0.21644073497866856
0.72213709375718338 -0.35178951068763098 0.63829718710110228
-0.43250882660842649 -0.77013684093128632 -0.1816693635052431
-0.63320599676278277 -0.97578884340973104 -0.35754713179206377
-0.47052012702113188 0.14331835432447804 0.69373650327697334
-0.51067577847612711 -0.24791588358044692 0.73833393783603896
-0.74696905555639148 0.10078075221356642 0.62201223967669605
0.32039218272545611 0.90121775790331071 -0.34210909712948023
-0.49602881593339987 -0.068822033548819661 0.7348881354036827
-0.040114054747448336 0.46673331555027175 0.79703444551862646
0.51787327161058272 1.1685555523363789 -0.50323764385156977
-0.42470940406633417 0.49580088381018328 0.83115154321805562
0.70319525581315645 -0.40166476903650761 0.65365395738108845
0.10763659794241676 -0.091825059691423405 0.76720140310564489
-0.03359728860372968 0.2430764507173393 0.75621219711185006
-0.56267232242558407 -0.13249859136644915 0.71874192413094562
-0.75529402676987445 -0.34397886819143508 0.41443082730603464
0.027902213835986345 0.48102379362890701 0.76417946350080967
-0.7508322669242915 -0.52013870901505754 -0.30691401157300291
-0.38476246751807253 -0.32811512058648162 0.7249454664195234
-0.185515735230112 0.47635268332783909 0.77178950949248559
-0.55517295852095572 -0.36186670335182924 0.5713124039932822
-0.62787001032999967 -0.97516522338317202 -0.33425668464902003
-0.45544936496641242 0.30482100743088125 0.7168988591464327
0.4075773818573083 0.014098846839715407 0.36810149621783239
0.80239428923614753 -0.37159885038323637 0.65821564778207176
-0.29559566228414269 -0.1383383578275641 0.79754004691499603
0.08249423117959509 0.33355177155669935 0.71785757202892597
-0.72890284082673418 -0.50200955891780552 -0.056821916218908086
0.10285225771633577 0.59725549961629554 0.66371285786937761
-0.75554198412531548 0.10064838384956687 0.68133460325334738
0.4178733108232251 0.69436467230368493 -0.32587141112523454
-0.77472041780163181 -0.70458129428961769 -0.42535546115271927
-0.19395393535953076 -0.21238688588805132 0.75008829129956212
0.93009840540433686 -0.32162690011307404 0.45595850749172229
0.82604324786495908 -0.28307949368914365 0.63617903826905575
0.12895407067178155 0.97074603181385299 -0.18654516808885546
0.021596755861807537 0.88206519067222899 0.22028252849727892
0.51838612048234722 -0.26231041458849802 0.3244226965065522
-0.5345842232800635 -0.6636514810217875 -0.28160255616814212
