# XYZ point cloud file
-0.418895396706219 -0.31046339276694113 0.72027771183185862
-0.061279861710545447 -0.16930408728765656 0.75235754608561933
-0.40193307376610221 -0.4114731433656047 0.6627315599046586
0.16272719128114943 0.47032189057725571 0.63629616106818965
0.18678237299210565 0.89727921407302702 -0.18116752094739219
0.36020557742240555 0.1726718496158508 0.48677543448539495
-0.33138548886680042 0.034003783667973408 0.78425368544829155
-0.40751838843057442 -0.11568019759309678 0.7382100536218541
-0.69382200299882868 -0.44407129344113372 0.55503265086616427
-0.447987778305734 -0.70495737534510283 -0.18979542407504191
0.069234612785223248 0.74208409237517969 0.6834183221114003
-0.05811336354594232 0.55830980794235074 0.74243041365617701
-0.63178511312224828 0.27741494233766062 0.58940006897691077
0.53409648758549366 0.52260563049826025 -0.22092796530118264
0.11389706585195825 -0.081545255448640219 0.78367757359155021
-0.066565895185703994 -0.22829114938117101 0.70251195713924375
-0.15004448549714766 -0.15641869658762531 0.75727922435680739
0.35765291081676054 0.75752941201738899 -0.30598934670976341
-0.15323467817700021 0.1596433256843639 0.77796521340159419
0.4914172953955358 -0.14243360335428612 0.68514984066189655
0.35158356411487546 0.83615321098176487 -0.31642335121856213
0.13661417968600631 -0.18188036690702702 0.53805377453703684
0.16547995972901219 0.56126103073677669 0.61185888193575622
0.32823074507882666 0.48708996355188461 -0.016866851410163974
0.29463788420063608 1.277170483611918 -0.46969856556851575
-0.43043225271233609 -0.38245140570718661 0.68307317036744131
-0.15700249874019789 -0.13881204887123211 0.765648708622642
0.38212402122049838 0.26873307006397695 0.10916139521774681
-0.54671640785375075 -0.28657156190136845 0.70153702824909203
-0.0038622991613550539 0.29637282602532622 0.78240327932783948
-0.40493321421834594 0.16243599176069168 0.75361981440039116
0.052501949138942905 -0.37223474785570332 0.68983279854906598
0.02656572087711595 -0.30755751106391926 0.40844135498009848
-0.40946778769584569 0.0032845768210094661 0.79454746504799623
-0.041919748867631057 0.69684934860917203 -0.56050389034586523
-1.0201011297235612 -1.0074099311804581 -0.40237086174302483
-0.37651398769546063 0.38697322735398387 0.63017060099937083
-0.43044171540759635 -0.29227879572014359 0.72179189572680791
0.28861934908650255 -0.29047128745474282 0.74026984394616235
-0.28782467189871852 0.47490914179073229 0.77641771219607403
0.41147096000911532 0.75186286841432981 -0.29184813692154066
-0.9535942050111208 -0.70765486276566492 -0.39834007702548746
0.69533614519210118 -0.18059406346656193 0.54619667038505781
0.4329851406073999 0.31856528456080113 -0.092360789682265576
-0.56020574549087598 -0.29743177577829272 0.69112780676174124
-0.24899571402890786 0.56472389734604533 0.56806904492734134
0.37693348227964663 0.46236876692334405 -0.16322965418844149
0.16385531816359844 -0.15065624765768959 0.76747920278677739
0.43477662558458974 0.60689102638207615 -0.23494299666616669
0.42367428845206234 0.24010133530904554 -0.012985552842216919
0.44714037614993174 0.2930117044305689 -0.069858970102222528
0.8032929933778945 -0.2926169797375886 0.5741934266042179
0.27914818792467244 1.0267279327387229 -0.37402842983669693
0.20468351257742512 0.82865205470328274 -0.098965096404528552
-0.094346025444977499 -0.39723776197296701 0.53815813391051748
0.14379786115162219 1.0496239661211422 -0.31437683396567984
0.83152796114512739 -0.30652065529829642 0.65938360423811559
-0.71599871634123247 0.1368686112213382 0.5833072155993051
-0.51331334292613917 0.22298051587945977 0.6231594936471101
-0.53174201768199225 0.13394005483880633 0.76866814846263942
0.067659176696992063 -0.054414302464376618 0.79313994894008921
-0.69550470220762861 -0.34077281870939657 0.61210419502462621
0.18208110735906757 -0.084788629906363155 0.77387448446570062
-0.18137154525228993 0.42939834058033099 0.75414168437877827
-0.20223399984357115 0.48031051310762152 0.71363666822551419
0.85274807245843931 -0.28524034638765006 0.57828463527473772
-0.35207217546384584 -0.30718157953858238 0.72944714045124037
0.7071049777762255 -0.46189916933171915 0.40967290542889501
0.47458614362870222 0.41709590888713244 -0.12950240610174113
-0.66797965687956662 -0.38324512644608433 0.64971087420609663
0.28225932764226513 -0.1390736296231232 0.79479165489464876
-0.71599597033040796 -0.9854818285261544 -0.44418929722453981
0.43342107509056405 -0.39297516301016344 0.71268303423638812
0.40191026249161865 0.22396332423435794 0.024067816492397753
-0.73656871417085767 0.19049017185007244 0.26703881510114935
-0.08095382827726505 -0.4697204527513108 -0.26304854559185387
-0.72421113101644785 -0.49223894464164886 -0.41644501095691489
0.065114553528246688 0.8848790807082425 0.17998971475044812
0.33801877924625146 1.0677819252904732 -0.40416702246420044
-0.46950824849278661 0.45875305004889455 0.46918894428804103
-0.49144911725090523 -0.840329429872682 -0.35370637653259074
0.393425429551435 1.1371339828322493 -0.438818580662927
-0.54341244449723547 0.39855568116371742 0.45305873761689242
0.44681169812362143 1.0478952175538194 -0.41581333131928488
-0.27962298980799005 0.015338281137889709 0.77025932130933672
-0.47385315515789728 0.12802722610599915 0.74942333121099658
-0.096238855810966584 0.4473355797110532 0.75766873824239855
0.2652952356854712 0.67086595800993098 0.45016437434977519
0.058049731816893768 -0.32688940824159118 0.69380554563117869
0.5025820543637991 -0.093172376056582351 0.5651429736661413
-0.019089053099833109 0.87041096123206252 0.56707440967319123
0.69784520250345849 -0.1411163170943972 0.62530800294215538
-0.11605216088902637 -0.1319620930295482 0.76363230652565228
0.12633294029289743 -0.07762002744326324 0.79353531301834046
-0.32335736833229589 0.13831801043971481 0.79075975064755522
-0.42868668985180847 -0.57778404024799812 -0.37019882840618834
-0.61241592249352017 -0.66685469903883643 -0.34041892141370411
-0.04762881936079566 0.61577804293073157 0.7286398979897033
-0.11373541083406735 -0.16105916249799002 0.75056749439228199
-0.58026749504188047 -0.36104731448097382 0.69966044960005425
0.11053925383027874 0.95552283743402955 -0.30027015342849772
0.4693152138202521 0.43574306561407461 -0.15765395665906468
-0.4629690302678604 -0.85614984052620002 -0.40478337615823889
0.25715763314909168 -0.18974539573608951 0.22252724557437276
0.81554559308753483 -0.17183663181695419 0.49434718702467606
0.24196775506221258 1.146072858133218 -0.41425311529269493
0.34040293117634235 0.49149420250299514 -0.32880318452417967
0.069058972245144901 -0.048611040987541543 0.79325821275218189
0.028907215038898926 0.6736545825471083 0.70157702958280543
0.2874458283311192 1.290418937093647 -0.48666920408440006
-0.040487215585955028 -0.34730711270723802 0.43621903836568876
0.18538078935237934 0.072486602130014788 0.75482981391042969
-0.21410830073064346 0.45624981281320487 0.77669509684333438
-0.38304004026807448 -0.34441904992269201 -0.5462670614267946
0.43009001197935959 0.23561759132546456 -0.0049849457376929251
-0.38329188640506118 -0.097154318696734521 0.77077810036283267
0.36447598365453615 0.49029417701683542 -0.1578365909421624
0.017798535518380731 -0.087379446263366134 0.7782672316350201
0.066986149534770334 0.32178033833348962 0.76354985245200169
0.7138744148444971 -0.13137438870672558 0.56746371620194225
-0.2744477913761898 0.27065268480911797 0.75949232983330006
0.19142723864348099 0.9760053608985082 -0.32284090292097467
-0.24533984450319224 -0.39412470236765529 0.6732080520721162
0.33109025993804408 0.77736730537149867 -0.28293474893559534
-0.12913752669139456 0.6772897662734394 0.63954805021428118
0.066747149998832356 0.26329610859101393 0.76420231194420474
0.18402468803088823 0.27157948355707084 0.68367116920231652
-0.55920770091972649 -0.88743840188345047 -0.38479993380536648
-0.22341371904114737 0.63709151758716942 0.52887948980335198
-0.61752856655772348 0.28571090615239214 0.63892584043353828
0.33402618692507247 0.072246360130515441 0.6321288801482936
0.26303062074391903 0.014282606972866319 0.70096123298706914
-0.80728089785213086 -0.094181158357123707 0.44934198647211332
-0.0095219460380491228 -0.10439512983991506 0.77256065543482677
0.3044496350546595 0.88864029585279614 -0.32154269636629174
0.15786242847636345 -0.051327736771540344 0.75670977668155004
0.2478213716615727 0.66449425596735523 0.1044908174513175
-0.059383517914454842 0.5639293574469999 0.74234680429740729
0.43488150124804292 0.25468454185898182 -0.027672157946089015
-0.052667214126202566 -0.10094608509080771 0.7815315393556368
0.5566498202447292 -0.64422421720927403 0.52332830411547704
-0.89556742523946253 -0.87412760892208752 -0.41308103891275749
-0.47880087931811488 0.050061654976477854 0.73613158760883834
0.33138722611070648 1.0856691535148015 -0.40753853204566148
-0.44745727211898867 -0.6054332191859757 -0.00068014824496920312
-0.89858564428286236 -0.6523941068283392 -0.42553441266476533
0.13484962008146795 0.5343700647080194 0.64319867169907141
0.16178718968293282 0.87929063407102959 0.023776151093132469
-0.69545616253585507 -0.56898566681963558 -0.29457921161573708
0.51447473454255999 -0.20998484313226484 0.76847448321170475
-0.17872022990990555 -0.48868950098226804 -0.30787493383640196
-0.41786836250594206 -0.14969763109444756 0.77011917505274896
0.44399429159732051 0.41928293616965462 -0.15012870440869897
-0.014892870796614943 0.70941147252213455 0.72429506695036672
-0.59014380458616245 -0.77124426696376958 -0.35570603179359139
0.11849086718200397 -0.12311668543005361 0.77144534853894164
-0.0031169265011925518 0.86144104870471061 0.54252329438301716
0.48423565306841354 0.49331716365580291 -0.17771545936638056
-0.79869701405055338 0.0094732191731239368 0.33612422608866743
-0.018748688538565261 0.47709560029876741 0.77167490631601021
0.37930718901317562 -0.29186133480499876 0.2815289572264561
-0.23619771447208393 0.54218647653057417 0.64480205456380268
0.6071066928629989 -0.13637902183173534 0.65186361690519945
0.71561897957873555 -0.23727030655857106 0.70829902977883563
-0.47161861047875675 -0.205157539861613 0.74189493328840861
-0.76953760510652103 0.035571002937050622 0.62743022312505659
0.17512004443364049 0.29820032140516251 0.68677269192548351
0.080877149306289198 0.43697114560055805 0.73550565395765943
0.15212484793478609 0.23208294532479812 0.72541692625267906
-0.12645543426970107 0.49715738418565181 0.70756684509273882
0.078586214802513155 0.82315043418466871 0.31225052259541997
0.216079183466519 0.41413372110782198 0.54130315573153709
-0.067364974355442087 0.81810883629994002 0.59617910245765238
-0.64252869169212801 -0.55619070639025381 0.10193708231535137
-0.058192367532669209 -0.11696066867477661 0.76749136655661765
-0.9627277255485609 -0.84484092740769867 -0.39491050520492088
0.65553551079723604 -0.18567272683809044 0.5525262470429837
0.47941192910582942 0.1441407193536044 -0.014135431769684459
0.32970915584856186 1.2323389506830349 -0.48096110462684472
-0.10268835207510563 -0.37368938451146505 0.68942345624273216
0.411994589266925 0.88499070445083916 -0.34329965696527864
-0.22073297906479894 0.86653211511084471 0.18624298216616819
0.5712845566654039 -0.17781945665520382 0.71482875708387894
-0.71857285770853707 -0.37385728172629484 0.55253078002508182
0.22742623775499737 -0.15725256330773263 0.75161574776350903
0.14449095021084224 0.81654560903927731 -0.37982845541776022
-0.48941674281333292 -0.22214560193155464 0.73821047108976723
-0.50492791576871454 -0.8838845066058596 -0.39855849332403182
0.62998748827288864 -0.65757303257162825 0.58955492918419594
0.36385699501201785 1.24625500861764 -0.49489270297537047
0.5458525263321512 0.81109607163996866 -0.32851074075932374
0.30890661067263636 -0.32424468169985765 0.28800520181430045
-0.09376174400591708 0.44934452775516398 0.75509281569460596
-0.71626178345180946 -0.5664248281541191 -0.30653922564722969
-0.94525901091649089 -0.72693787923164521 -0.39095387230569401
0.48095598480480817 1.1974439601824085 -0.4711808412016012
-0.055676574133329382 -0.39593974450356129 0.62745900181158021
-0.2487650135616235 0.58722656895902148 0.78552168208731832
-0.017016332166704728 0.61654513960520418 0.72488425412820323
-0.087542022026241284 0.3182593852068063 0.76536743025868148
0.44745908542360269 0.67147006165934897 -0.26493635585201503
0.35893349916180739 0.58779229627607776 -0.20852992443895602
-0.59904775263177257 -0.63174674376139706 -0.30278912893697019
0.1818597120042682 -0.11434302881737501 0.78971066829469905
-0.5042715407950773 -0.66122539968083061 -0.27319983313648599
0.67197627923552261 -0.15152623430877199 0.60610820503088547
-0.34079275322247327 0.14946585150563507 0.78881211738059065
-0.55049359949340726 -0.20372371391771438 0.71550361639623716
-0.5460037909406914 -0.91369883218087011 -0.41817969473455285
-0.14770939397966742 0.53302201733596455 0.73346816295156003
0.65944594938707723 -0.11351289226604777 0.60169781121146926
0.66042620805748697 -0.2852753849505465 0.3441886994288943
0.36584462238713655 0.038372924169198797 -0.077733857752212643
-0.16779548677492073 0.39686574269057751 0.77182532152653938
-0.22758163425179134 0.51568230362387979 0.78016750512757582
-0.44992570489378636 -0.17869668016222207 0.75774775051217125
0.52272017562270889 -0.56524197357133232 0.60675826652138554
-0.53617400942533777 0.013336163178500726 0.73447890772904678
0.33726700483154914 1.0262152216370106 -0.38862662534572401
0.50218968171779466 -0.13603124751217166 0.34530974141686954
0.37030956470865917 0.54299712363176411 -0.19799030853340405
-0.055990358897076931 -0.16413769347896334 0.75021764465141239
0.75747811926733277 -0.11912301983791451 0.49535082763276961
0.030883852562922698 0.24720188752977634 0.76942607945201047
-0.12665319723012658 -0.16658035611420452 0.7503185271701156
0.59461097722193301 -0.61312352656227631 0.61013311009072169
-0.40698304638628713 -0.27788989623314464 0.73453935802088033
0.34024637051771833 -0.47949011572836397 0.48925383760272823
-0.054295378082542811 0.70296687226205457 0.74500059486803671
0.29571644294419741 0.50078836070194921 0.43193645747306775
0.40357935564488656 0.65647451245209609 -0.25191925290204153
-0.3278060664167981 0.078228961539011266 0.75967954854522768
0.38121258826324578 0.017927522634114013 0.014670512691989046
-0.68403578353171213 -0.40460993480892427 0.62989109444129809
-0.48322855487305816 -0.67188408259133325 -0.083788022430907105
-0.22424455110761699 0.5345902137419678 0.61447716157144727
0.46770908403140155 0.38215245781856488 -0.1101158794448871
0.054797869404083599 0.82232273894188435 0.58439447572525616
-0.16430956580256861 -0.16971058721422949 0.75757784279902118
-0.21218010552820488 0.32589916544506181 0.77225443847861941
-0.42435786732571046 -0.11783635695525518 0.78180419527855705
-0.40053750147070843 -0.14082536504431786 0.75328483714434213
-0.2578722983988726 -0.56322940218903739 0.11200134476981383
0.14239191795005013 1.0241926160576034 -0.27329003348464376
-0.78399019876667886 -0.63249802297180935 -0.36214318732271344
0.82510007758776283 -0.36770766539188404 0.67199303907421282
0.81480889862945105 -0.4620837473108832 0.52198359334567712
-0.61183475921189867 -0.54705212880930532 -0.42905857432914019
-0.6179280954972175 -0.89570487802045307 -0.44886081662284916
0.03155379070053943 0.88152642030871753 -0.32357629066840587
0.30428697709982089 0.52709637859747183 0.33215286686113998
-0.11985255776572501 0.71084361309683963 0.58459551219813877
0.49108182272278356 0.56080782661533668 -0.21088584077053874
-0.73010189827954264 -0.37932829149274738 0.45389532788004594
0.013673648106419023 0.49114844733417229 0.76065217054115308
-0.75173121793367237 -0.98356331696427191 -0.42714589302542194
-0.59661525233426005 -0.25508884889934436 0.70283651728766383
-0.12024310719775144 0.51905254089842678 0.76766016206389143
-0.37679660609838095 -0.069690366807428461 0.75395108702718172
0.30053834055006234 0.50554217750753949 0.14474537745778804
0.84882784094520503 -0.352414828349354 0.6440814601371514
0.25615717214241229 1.1547858222337564 -0.42614943672131034
0.087690930136574252 0.6690196396362289 0.67659964764068548
0.82183368498553477 -0.42157590886239937 0.5022932039328829
0.75146358387473811 -0.30932828149752289 0.6411039394878344
0.23734997260070401 0.70156164197129467 0.050506640142907955
-0.46590188937216226 -0.54696627591829383 0.35833999431293151
-0.4650003394256359 -0.65040189932668824 -0.016238505205654619
-0.11336997599975973 0.5089836278787736 0.75878185400465714
-0.03744829139655792 0.61088944325697625 0.7286259874513612
0.1105041074164248 1.0375507464036173 -0.26846482453156995
-0.60806565523890299 -0.074925053281514664 0.71906356417421868
-0.54123078829597659 0.15045084525687713 0.78211195146680534
0.11734713846183809 0.3622568339958665 0.72191129010971267
-0.76448552786999102 -0.79436109791232212 -0.42215165983264491
-0.44982983482282179 -0.083315774883008231 0.78186614233439489
-0.10122088981013633 0.53283163455837546 0.71352385416788477
-0.64002938311670121 -0.92753541475214973 -0.40443269920227465
0.024804363442541444 0.42186514150208509 0.76787278929757274
0.58498882841591637 -0.53311211110695567 0.66383818284187512
-0.5614777905745143 -0.16726826799105154 0.72362708089943517
0.59419087122704184 -0.35547702831837213 0.76596693750699529
-0.74300155013733615 0.11321294229567158 0.40367705973564183
0.066348899957318963 -0.10631941601977601 0.77255437155886675
0.074424825485962742 0.27751416295993536 0.76490871332238086
-0.45784180194111457 -0.55870804394371021 0.16622067050130873
-0.59149370366531429 -0.58145421781992468 0.017825938859765245
-0.30050413176634549 0.2047220485626724 0.75892638146858271
-0.64157385785669874 0.13738539522957183 0.75199296917571878
0.55132396300621167 -0.53051376606587297 0.42043566780771968
0.326416710971138 -0.080281381929303564 0.095471055080125211
-0.66418613592724363 -0.7291871526624476 -0.37718170266694884
-0.075092273862210845 0.65222144990708486 0.64759593207114063
-0.48587655429362542 0.15409542681241817 0.7479059745640857
0.49104996455416483 -0.26784617762100815 0.7804832367873118
0.29153922867550364 0.37679322049189068 0.4995165790629823
0.36745633964629576 1.0672605126590429 -0.40886958824424191
0.31510733485829689 -0.19173263469145496 0.76700750920355532
0.67947317879240643 -0.11410779620070954 0.59089296944677727
0.52151246139277418 -0.1826928173170419 0.7375212376109701
-0.82023773905159914 -0.42661151400783126 -0.29972401037992569
-0.63278337827279429 -0.64455310084660766 -0.33090828280899487
-0.64959596416561283 -0.41933726521881454 0.59265829819977167
-0.79918278409776633 0.44718428397490229 -0.21837970409957208
-0.3287646104991353 0.32054242977672587 0.75148173281762265
0.16648508761264225 0.39869593487149135 0.65084804145197239
0.21920471539662856 -0.37906920771245822 0.34855804984472982
0.14351990068625753 0.89650188657883056 0.031011242176788301
-0.91166687859155759 -0.75690859485964523 -0.39592212158635576
0.39852679095761445 0.28276244968605724 -0.17875780870639701
0.17636431478814529 -0.038746778971113116 0.74002551542371364
-0.52820107498583013 -0.058358334075546026 0.71574047249141337
-0.57437423722950598 -0.23663124998784468 0.715559867059957
0.43573861387859125 0.29964239266842796 -0.083454981655517457
0.24059453634939132 -0.24578187963902565 0.7412076922495352
0.34913905415439572 1.1004809379158598 -0.41802160824825663
-0.18940091368365586 -0.16349591299829669 0.76386373846179367
0.13660779331439699 -0.14715760220730623 0.76999482128734265
0.85213933391027297 -0.30250628148967795 0.60178516856764475
-0.28690339084300831 -0.021370192347699657 0.77065890768455381
-0.091730368703238696 0.77795318181253492 0.45673910480282487
-0.86165148040827177 -0.97740399298924174 -0.42606395165387845
-0.6296614382292347 -0.38380364763667174 0.67983733424356685
-0.56750594731224346 -0.85541580271102902 -0.38010900785561219
0.15794087438800375 0.55319909651119659 0.62116502713601029
-0.24167848151776639 -0.28506484205568228 0.71785681651285493
-0.38913496145767112 -0.098227911085999153 0.76561725720544205
0.61952785478275985 -0.16865890062344491 0.34290753009587149
-0.68759415710428007 -0.29387308015204994 -0.51051430626677963
-0.15463643849025743 0.45217233512328825 0.76475258881873076
-0.46141863487253687 -0.70444270027948619 -0.17370342111522952
-0.010577825462007695 -0.19705908632989555 0.72901456920264174
-0.77590142996309464 -0.82980395245754579 -0.42495021902632324
0.16226047771408325 -0.3539277476463738 -0.20056720228914848
0.30413531193981669 -0.43421144480105411 0.41074428696933296
0.17528062580224457 0.46354433476858237 0.59054265398639494
0.66498492304332046 -0.13768755822963996 0.58778002800578477
-0.10323184670770047 0.44517611568898197 0.76056621477295971
-0.44660824766405938 -0.051912075683848258 0.78160479213519984
0.078815407741089416 0.27249699536804428 0.76292034104088202
-0.55139569113441667 -0.23531767306213425 0.71636236155014288
-0.79905892122943811 -0.032433869401444326 0.51667819099443268
0.27830773174869705 0.57372952370803798 0.14080601045150232
-0.18800996233927592 -0.54389732317356732 -0.10492801966917042
-0.025129913118263403 0.67889854022075014 0.64864781859992604
-0.12611081213125885 -0.38182943733829333 0.6810609107161909
-0.92337001275304331 -0.25776821987401632 -0.1980560131538347
-0.27589639206389904 0.21064898617777317 0.76208834293552474
-0.12423345460307189 -0.39241104581340025 0.52755825348723562
0.19068380116789996 0.94131545907544467 -0.28815704503495709
0.32261539620855473 -0.045246788605396659 -0.10664988292827005
0.39030169893882771 1.0538218492498084 -0.40697839936443181
0.74389227177449868 -0.30070710105176346 0.64519151889179227
0.70113847790641159 -0.13814845533112319 0.40061461721109026
0.39365364904180211 0.080065223941314656 0.15471544580239538
-0.029036809249049611 -0.16113774052208996 0.75352837526881267
0.24880358708738015 -0.055828370456104892 0.62347458676141088
0.13217060114042933 0.91697530279253581 -0.3278251860571828
0.056140109073183453 0.30766549229945106 0.76886945867813949
-0.041908089534562265 0.89275518341556337 -0.34469737890529029
0.17653933723299531 0.41679185009895381 0.64082172229699985
-0.51513602074227549 0.0083890258551377883 0.72224142208778908
-0.29053586150265431 0.92328731036822198 -0.094612155908826434
0.1630285157051361 0.52425467244151314 0.6248672364794956
0.17040105859672394 -0.064482636993091091 0.75050930107546421
0.099562492473808106 -0.067651986606620085 0.79293653825458854
0.43452075459741479 1.0870228385108494 -0.42422969822440493
-0.8234000732719764 -0.68610890555079607 -0.39049669996294156
0.034878065530634217 -0.34408632930419358 0.70538926905737398
0.78343989162833338 -0.49112272501215237 0.68558657246407151
0.21335409737910993 -0.39166845830703068 0.67444578891530682
-0.58506307205990993 -0.11712321685864069 0.71638447217707046
-0.81918298109281373 -0.82111974796923803 -0.46104050781440975
0.57334868250427462 -0.095068784060185152 0.5786612027441933
-0.56979497582882743 -0.081543103048886678 0.72310297125406287
-0.51788508525496724 -0.56848117923579622 -0.40849216398437882
0.73290105152909746 -0.18409425930359902 0.54195555251620675
-0.57774856160673949 0.03088704635709405 0.74065848763503528
-0.83796837730487628 -0.98518804036005747 -0.43805398194670531
0.70468730884094555 -0.14513760424558253 0.62283700948717424
-0.55785318700939257 -0.59471867390710997 -0.037373570762156305
0.10717525738039058 0.81717331272597615 0.27685169363581252
-0.15550073224343919 0.83319513848728555 0.32144271304778815
0.3561831948004901 1.1291239581842203 -0.43025943754510543
0.39440454095515065 -0.20267431567922856 0.78558086978875252
-0.3325419275644208 0.055915499063345919 0.77339013365072029
0.16568614316878438 0.31643572294777655 0.68735488890823149
-0.01496727094929895 0.45557161141427827 0.77425701178437922
0.36787650500400915 0.88797557090932688 -0.3399735238000261
-0.016053691676034987 0.59845321586789169 0.72995302018753261
-0.54370194894582369 -0.60229170291815137 0.0022873913318210981
0.0027121533893676997 -0.4035661299757578 0.54715989030079726
-0.47744091687854961 -0.27823814391075175 0.73115109944818713
0.72342398043562639 -0.26312446829779468 0.63085289732206817
-0.4836960314729879 -0.32343827500552891 0.70070466486447458
-0.59000037896259983 -0.2668781266295106 0.68211167617217239
-0.46461427245268894 -0.81969575303327957 -0.33152606185068301
-0.02950531174711557 -0.49688278075804249 0.24388099467464386
-0.75899949751781559 -0.82951726422697192 -0.41559602646336558
0.7641307719568573 -0.29786604609679479 0.58217392584389671
-0.064508389381884967 0.47319732619928878 0.75945628049442648
0.22180399590951705 0.021385522827166881 -0.53712562936792629
0.14695763109831717 0.20512550589181799 0.73492531960896734
-0.22173940883109822 -0.22247890741481413 0.75060549449601943
-0.38876919895304241 -0.68980692390494625 -0.11783154443224397
-0.12511897092463187 -0.14821067429813439 0.757255702140327
-0.36448713541230404 0.22025429692068599 0.75685835206041929
-0.56825270838496067 -0.015317608429249674 0.72531934205855197
0.42736942838224223 0.31205634203606891 -0.080269051989574791
-0.53252576154653752 -0.34299538253732109 0.69318973267403461
-0.87688369213283224 -0.35086785066143023 -0.25609853623906353
-0.78884823562719042 -0.48324676544535095 -0.33903942965828904
-0.30545494104494253 0.21588087865489669 0.75547705367549778
-0.084304407447262975 0.29575387157062494 0.76993697455501042
0.38705006317364976 0.56987986717579808 -0.21547623004854088
0.26326574839468719 0.65514043510772879 0.482210484497827
-0.60998587028419138 -0.26391859708154897 0.69595259281231936
-0.48258247859876136 -0.83865352305586072 -0.35750106594999842
-0.33878693038441554 0.38616003090524131 0.76496217270429234
0.076367909961930991 0.43259530492261256 0.74049172694757726
-0.059646853262847799 -0.29358365240743822 0.51480504554566764
0.14921183935571491 -0.087095432639571868 0.79156981936210613
-0.48114453771209753 0.069280536971724871 0.74118252839528953
0.047053074668482964 0.51944304760693871 0.72743977158662876
-0.35911928932366877 -0.72480283885299457 -0.24329969938764862
0.086083092398638428 0.44421588337420825 0.725826876190653
-0.47476311869995413 -0.22476945036778062 0.74159532079785695
0.136499062046056 0.25503903291904706 0.72280565193666213
-0.45860772094114566 0.10669180737507844 0.7580639577608892
-0.64971875067185891 -0.55226371867331636 -0.15087366642361566
0.14196277662277623 0.12038631191853 0.75708240346043709
0.14516755993594188 0.51530645185214929 0.63921372925620723
-0.83747176091386422 -0.54330407158207805 -0.35310698734250678
0.167374919335046 0.36945485380116327 0.66123713549669461
0.42501009814061774 0.10152143671916392 -0.030669494340180847
0.10994080174828014 0.79477098986237849 0.51897072909068775
-0.23452832519059541 -0.33922675110003553 0.62839056135663007
-0.64135407912786135 0.34652638902855415 -0.59417721470863327
-0.88673880070054123 -1.0638615128516484 -0.47262331587975837
0.34112958050700115 1.162138878528477 -0.44516023381266656
0.15319909219789452 -0.092942667692216929 0.78404821181703355
-0.60791548650246341 -0.28081806204520987 0.66238265672623786
0.006738992334589966 -0.12436949576732381 0.76307867071267843
-0.55590699664868559 -0.8846949669929316 -0.38908987479647195
0.50281853098493912 -0.54589350735776065 0.46290101851602117
-0.54411599044735226 -0.1615578155440005 0.71794897170181038
0.46727303481770832 -0.18267553330741038 0.75623711874875355
-0.54734227467150731 -0.1699159910946797 0.72056108597865265
-0.32065687959398304 0.13546520082917368 0.77525518043518282
-0.55551282592776374 -0.18638245445618296 0.72358398104327559
0.22535909405567622 -0.0020034422430121879 0.70539863595835683
0.042824644489286356 0.82329235437498305 0.5249766195544594
0.29499512108189663 0.58124520064265628 0.38529871072424626
0.30412359851300153 0.4866589139280233 0.27750937543338772
-0.18350180901725821 0.54624968907591764 0.66461323905851821
-0.6716000011383727 -0.4448913327828059 0.63675083586461678
-0.5253617995182509 -0.31379366793095542 0.71896530173451456
-0.55618457823115364 -0.10722258719695077 0.72726895704855199
0.19119368584719609 0.40980417160885629 0.63249301201498653
-0.8627287956054821 -0.95978836320472638 -0.43035258410025357
0.028091154888954861 0.26385479571453097 0.77533036460519078
0.28623768347392797 -0.13142117509812756 0.56773505889938392
0.39282963700833307 0.41868100108121098 -0.14637485194007915
-0.32392266817605275 0.35367417291138636 0.67776014482268465
0.33554967447957651 1.1385760318432678 -0.43287383757200359
0.48848535791326952 0.77178922909001457 -0.2926098080917523
-0.2915897183670495 -0.25815885411599027 0.74544804148146682
-0.066784301059968243 0.60368699342574494 0.73474806378486779
-0.36098912876963141 0.3555500704361485 0.76529799601656112
-0.41836669225716605 0.2216879939096259 0.75415949511092162
-0.59019402240649654 -0.64014427394046436 -0.31080521468897437
0.52025085888541867 0.37124402957387836 -0.145255159256374
-0.13464287937909525 -0.38463169912778028 -0.43773215098752338
-0.77739094850646495 -0.21816894068577852 0.50745490032230345
-0.86260917415989491 -0.64502860393623251 -0.37942863314994923
-0.80019040189985624 -0.83816166701020833 -0.43321189947685568
-0.18999397738849666 0.47987451049010232 0.71648794291195816
0.0065698009831436366 0.25351091860616748 0.77303601044378567
-0.1491230256176701 -0.50084833910566573 -0.25330862880116989
0.43341519307995213 0.36880496838458399 -0.16854578864492176
0.79519099060726717 -0.53109745143275866 0.63205634952255352
0.051918449358794305 0.79858405098735563 0.64780408754623187
-0.20229427499360852 -0.51307700437567405 -0.2654585828256284
0.8439140256052724 -0.31394317212112721 0.64541259562234643
-0.030044145692201596 0.85592070894945493 0.53283243876349617
-0.037630915516203345 0.58681335419241876 0.71983749828691357
-0.28344876389608942 0.1420690883090252 0.76439048209546501
0.15260120838867408 -0.061732605467238244 0.79180501892734867
-0.44845086579896076 0.1819864095848267 0.75103411738716908
0.74802164337774002 -0.261761209742712 0.65760480290120427
0.17225821760344218 -0.10534867126310843 0.78523508599468173
-0.19787830701986309 0.47037796410001143 -0.72113256911825374
-0.3241613926087723 0.066527773776375199 0.78406348317130536
-0.76388032388046412 -0.50251037081029182 -0.27304435992209797
-0.58269874101444952 -0.63409342638152566 -0.40457853587815329
-0.49093926741606708 -0.66472544557419866 -0.087190348590514333
0.40703747033446902 0.97997700794693809 -0.38021752906985817
0.37395765499245215 0.45703826972858863 -0.15383864834301164
-0.40489703265819799 -0.11624757348520731 0.74274705677953445
-0.046758191193731591 0.670122972578719 0.73026819838550638
-0.83880558319697229 -0.17247050401748965 0.23366609991654896
0.063060557822169017 0.57993215930663311 0.69071145279146062
0.26033247263607961 -0.35446174258971652 0.71367909958375009
-0.56551149387185262 0.082250417152433641 0.76186464780132646
-0.17710902847811383 -0.38530392681990833 0.55471429450040688
0.2360153760479804 1.0481324024249798 -0.3660383446645632
0.39047128840276457 0.4457054407604204 -0.16612323068056689
-0.47594806355136399 -0.634535497542565 0.0054136994936726524
0.50006190597604672 0.73317862784549881 -0.29306033378758478
0.21136938254261395 0.23413244292906832 0.68026471194488103
0.27528161792904626 0.83962837207935248 -0.27818596905911086
-0.22692925152263399 0.67659423050273659 0.64347919815594157
-0.5105592812714157 -0.65212749386246571 -0.27511208072382054
-0.52833497606111735 0.25620989730673926 0.78323810927078252
-0.072503781499221986 0.25520729730865988 0.77633787421762257
0.13233243822558904 -0.076709319081926353 0.78992294598387858
0.39805682015707688 0.53518090104111771 -0.23444239163358738
-0.10844541913307015 0.90088152642111874 -0.38909287287147976
-0.27931321400821219 -0.27289553507549158 0.73759486208526681
0.27340776317994298 0.94316579993679639 -0.33300965254695214
0.39203874107839454 -0.16171739024577469 0.33324852098403213
-0.42957770296442277 -0.28393376978575091 0.73216420199162968
-0.55567627490476923 -0.59508966078172421 -0.055841590941181352
0.79193681774317781 -0.52249426900589313 0.65034813177106798
-0.29960352791000844 0.13323756810393306 0.76502182531444785
-0.60074946425122988 -0.57796626518297955 0.054836189286584514
-0.72649582014109626 -0.38019102070555988 0.49294051519498328
0.77872960031120897 -0.31485707649070438 0.62984260411566595
0.43619702295121598 0.56449907172028624 -0.21606990491512512
-0.026866651374760409 0.70181580511844111 0.6219792241125659
-0.42335717895626601 -0.13707550703774629 0.77674504962388635
0.11152467892094364 0.21772775940588573 0.74729170339864837
-0.19670845295367201 0.41685593281458111 0.7659593551374666
-0.87419736854072982 -0.54561428433545345 -0.38775462449556031
-0.26547544848116189 -0.55229098555328449 -0.10366014245089694
-0.42879938663656958 -0.11167201195277343 0.78327386956124023
-0.32970563992408586 0.10538120753674107 0.79575802377002169
-0.1753233390458746 0.6073682571472041 0.60645226661376173
-0.7356390849290726 -0.98032268771983411 -0.4313770949301059
-0.18240403414962714 0.39527538398603568 0.766141693373251
-0.56959259118542604 -0.06324251510080714 0.66794810126276616
0.059492799216627645 -0.26785103947972821 0.42678506350906176
-0.54231823838535576 -0.7845399617096902 -0.34088670445878755
-0.15060414902700359 -0.54412329173069196 0.25506825623424056
0.28366000781378631 0.85585583001683929 -0.3149201047037149
0.25986707794181996 0.65039673072463522 0.025529352956290552
0.26985100372082371 0.87742132351321267 -0.2956980282366839
0.17577024750738701 -0.11821651997165006 0.78654390338102687
0.16082776130268428 -0.056700608472485925 0.77009126175716247
-0.45191382053278062 0.22416816064471234 0.76208464439891443
0.49572085307062252 -0.57290258577734576 0.55390247816658444
0.3980804554820736 0.059595211858955111 0.13678060924592117
0.23087879696025482 0.2495509623828589 0.62960129695431633
0.40410683587406027 -0.45206912574254687 0.6548210354583226
0.21079232392968095 0.73986978954442062 0.17585874738746021
-0.63858033690330629 -0.56752016739428512 -0.22414667648665798
-0.38942308457203012 0.18765687957950306 0.76387959805430228
-0.25278271876773317 0.68073077165622564 0.74634668092085654
0.82018737982174628 -0.33457792273062736 0.4607557324488063
-0.33074568298884799 0.044040375962449474 0.78008628017255033
-0.31005409796412664 0.27992158203230844 0.75903539504017736
-0.75401829771181572 -0.98752943509288116 -0.44244802689591722
-0.42992089561309399 -0.16102982676923006 0.76959973757797151
0.45325730088606164 0.38812724690492928 -0.12875865575005818
-0.55112358092343605 -0.91254578065725411 -0.41626438394476217
-0.088218713720706887 0.25472010445991167 0.77673277256115547
-0.034683402913657346 0.37716230771049375 0.78282848234188052
0.098440270111353811 0.15244277294720376 0.73466157517416342
-0.82554727864512945 -0.9593075927636221 -0.43883153486293125
0.34467533536180994 1.062428882450833 -0.40329034622964954
0.31742762329274399 -0.31755511065128417 0.73513016626481331
0.77660465437435278 -0.13011173204879078 0.53407862694164976
-0.073163729433446179 0.48625596495217316 0.75158569176733669
-0.66875597492292016 -0.55966639097357529 -0.25039760975217362
0.39646231317233571 0.15497621977157294 0.13288242551602636
-0.15430594295811773 -0.39648310868729908 0.66555595565534986
-0.22887682637157525 0.50969844327134695 0.63840431599753522
-0.36061422346179484 0.63786157299529833 0.5189440666722156
-0.025165106071128207 0.33979974095493226 0.7836539973719816
-0.14791361184065011 -0.3817199115513219 0.68603486985078632
-0.069445314520052648 -0.092928070729227485 0.78373134154585422
0.82478762923808802 -0.17578407845782085 0.513730989079626
0.65893858743208966 -0.18619474717820239 0.3528358100324489
-0.41875361320536086 -0.76832432256197336 -0.33721368032055388
0.56788330504024032 -0.21311292384339708 0.75181482718345904
-0.56996052682887033 -0.76141811162224826 -0.34467194549140068
0.44943587906503524 0.30001953251300861 -0.060727689738115487
-0.12634540409379724 0.2869141911895845 0.77252916328998156
0.31489790154049757 0.64220854237083813 -0.19261435033130425
-0.20186651654496757 -0.14727213386225202 0.7670904327613286
0.11637492458531895 1.0360709136439739 -0.29776259000039396
0.41996865988985732 0.67033922318483441 -0.25985210480820697
0.1936213796741697 -0.1597724578054649 0.64489877910736482
0.39394372795534593 0.11721441363373231 0.16925815657323184
-0.3497585056088468 0.25736199452567377 0.73730717219793007
0.4311415717838436 0.50762933535511401 -0.19112583502742453
-0.20630017000449641 -0.084883426123379735 0.77696543021432252
-0.19026658027554788 0.15416938431195959 0.77503759264038719
0.67473462434706732 -0.21156740260804341 0.56556764942939708
-0.066989416182337891 0.54931935632874485 0.74544220336814027
-0.5043142743511595 -0.31725028064536431 0.71939136318237518
-0.14566568603436281 -0.54995856214378591 0.15104596854350305
-0.08980789848082793 0.31071887444958968 0.76859277767437106
0.081216743273174075 0.80639533316545009 0.57192135888964479
0.47500398122784659 0.92815180157028543 -0.36231628465977295
-0.22009437932105413 -0.45094157698813575 0.59339998239450509
-0.34650835004444502 0.19208867078184966 0.7668500494112731
-0.067653083443673268 -0.12458368284577404 0.76403645403717135
-0.7374900470041994 -0.922409527368103 -0.41636473775845317
-0.4963635984594319 -0.6533206076089968 -0.079291627308633039
0.4614109213539237 0.14570535523747807 -0.035150782774755029
-0.71003678884167698 -0.44370013278209086 0.53295488072979946
-0.66389443875773679 -0.42686923053091164 0.61327839098624803
-0.05663837347684364 0.21581463650426258 0.77816891957937884
-0.69235390828971788 -0.4981601453504183 0.39108687627973815
-0.86097989184461454 -0.35125596578797058 -0.038545934326618791
-0.45677904366489486 0.10068060199158424 0.74436539722685957
-0.34141820144317592 0.25002080336609112 0.7566160765567993
-0.46354284907380361 -0.2977674077742769 0.7267899283424164
0.12495869923212766 1.0496034084372039 -0.30567697635329694
-0.58848413094334262 -0.18641955112227038 0.71139435417283181
-0.41501164683766945 0.49688870272026975 0.7599514608177742
0.020232855306801412 -0.058872897269470315 0.78703159661660038
-0.44525657123226026 -0.68569595266342276 -0.18743115490672757
-0.7411553141233842 -0.97470331878260197 -0.41946599036374543
0.74003633866229279 -0.24611539857709985 0.64857700908170202
0.013100703946761882 0.44167016314882268 0.76914731883277554
-0.54617043243246144 -0.30206694674935264 0.71785858197485553
-0.038586351944090325 0.62350207026136317 0.72538885485247562
-0.77979662063121502 -0.48948563547713064 -0.40103081859690803
0.25872923270034676 -0.21472907923574525 0.7501504784161277
-0.72339758503407836 -0.46766586845160418 0.18600916650979737
-0.37771999089626718 -0.099623502142694775 0.75853807732054168
0.19416815756662231 -0.13434495224705145 0.78370328400245626
0.45610364069917608 0.34401089016847308 -0.09730931320349967
-0.94808850200549699 -0.79161317618198979 -0.39376372998626863
-0.1000021202076482 0.40545722879796386 0.75993835351596584
-0.43133213610890309 -0.70630988113114057 -0.21924371056915248
0.85139805345772857 -0.27400233155699638 0.56902573624066832
-0.92087244244805699 -0.65075286051128955 -0.4099846976242798
-0.075460217961605736 0.6252615308487659 0.74980792443595901
0.31943539297938983 0.70139349017999564 -0.29424368581280902
-0.52006586499793883 -0.67405834942105258 -0.29518446854239144
-0.45505020367914994 0.27806296686842202 0.78905300789223087
0.054259576447464042 0.66552292054876538 0.68869603070589314
-0.65300856875862934 0.15031506644125869 -0.60100633119438207
0.60165960772886251 -0.59328305853366814 0.45811312261914949
-0.30655233759310363 0.074565116239980966 0.76479630054011505
0.21071664585889671 0.35786498835420488 -0.57476411290753582
0.069613525901445428 -0.17315744109518683 0.74274240996976459
-0.49413923480643973 -0.31750096147311524 0.70190570512415285
0.10194796483423119 1.0232070776915898 -0.26268345634312951
-0.48359295079013975 -0.67377728771089096 -0.11313199195117285
-0.50421403892600836 -0.40212655442163481 0.65145117943044539
-0.14345850151001116 0.29849341841307897 0.77048328427774715
-0.39580494932890531 -0.32268510001180317 0.721634635716212
0.44821211052747145 0.30185255850807025 -0.081194692938010959
-0.4646670199294789 -0.13799635948969069 0.77229722030161163
0.10757601535311778 -0.10589350677191689 0.7755582299758359
-0.11267327776732827 0.41837935023313477 0.76311531194252913
-0.097700419693609319 0.34492905060594303 0.76558629715932147
0.46366489713719261 0.59370598594257373 -0.23523589526717714
0.21046517180039359 0.48624353337735116 0.58388076939792555
0.018546090019597727 0.21388890055374254 0.77212240617239658
0.15275516678016743 0.85307808280401076 0.098955513224836977
0.48222070873951139 0.47911875075401689 -0.16560885243651846
-0.82735378194208131 0.38055138395979782 -0.29971438534974126
0.035499932728839667 0.88531914455960514 0.21861930155522469
-0.53189841608413246 -0.042567914919800387 0.71790086058220126
0.415670906441445 1.0751954637872214 -0.42305462304103614
0.085167324911409992 -0.41456178083137374 0.59931682803848929
0.14137617741668862 0.24761920764543 0.72419223002429689
-0.023578010962523877 0.50149375863723833 0.76602267612408292
0.1493171616216955 -0.16948543415350237 0.71196196067668183
0.16917113401538586 -0.25177848556402438 0.34879733959618164
-0.33476574504961931 -0.72104975257217063 -0.20460852049775546
0.30068224142971189 0.027290219149488593 0.67913308354255619
-0.06122863264864975 0.77973168724108177 0.54012227430328563
0.25824696913157763 0.21590927639134705 -0.52114310933121644
-0.43004857823956044 -0.78036012425329915 -0.29058329112845094
-0.42745923615838421 -0.15173861028964453 0.7507044281513342
-0.76841503620899587 -0.49112138596563426 -0.19869376292789909
-0.35903658935190208 0.69976631893804608 0.55113562832548713
-0.39449354747286236 0.65632132680187638 0.53615979480053699
0.2563623198121121 0.63759644708288654 0.51177332097850403
-0.35796935108513139 -0.042814139830696263 0.7751079657663289
-0.1160315631408082 0.17500294669621219 0.77934555106443337
-0.35680803579492704 0.26847780109637043 0.75864333493657199
0.46133687451707317 0.35353973828158125 -0.094197371838378174
0.050694987370501821 -0.47164480178614099 0.019877229533335594
-0.15321790036432503 -0.14820855558872914 0.76090520996030797
0.25989668635899577 1.1166992167588115 -0.40078268454565347
0.12875115463336329 -0.10169786863326458 0.77876173053052788
-0.78479714435358083 -0.80776935482644419 -0.42923631690256592
0.031075957655588127 0.29910318095039834 0.77646740705400674
-0.50656901138810895 -0.26231786828131121 0.73182912628673602
-0.24761230515341026 -0.24714837605588613 0.74493086370519279
0.043690105871888818 0.26880079185806594 0.77428820270213095
0.30867843600938194 0.4413203548895428 -0.41523624708052509
0.28170673951822067 0.80184613654075054 -0.26132801846150322
-0.66022267324485995 -0.40027150847731363 0.65814135760795289
0.15336737443963955 -0.085878563265758601 0.78793489938785655
0.50349597804327573 0.65532055359656205 -0.26220830215284074
-0.10519333916717244 0.50676995224419308 0.75264994696323306
0.22905254964344124 -0.0060160876188781742 0.73455967463196004
0.21071406541874182 0.73816005176413313 0.34223727465688825
0.5490182070331997 -0.54645471416788993 0.63790144660143255
-0.50979079424440954 -0.36148433528731161 0.67857739939055861
0.0083694068449062797 0.86283817456039813 0.59170934726236313
-0.4831493165659495 -0.64840403686968529 -0.010310838571252035
-0.02151408739430849 -0.095524276873312886 0.77828006348102008
-0.94121712344588193 -0.85374734589139223 -0.39976743074564602
-0.55981745199606792 -0.079431203629557245 0.72699592053300766
-0.94771064988097642 -0.90182158589186656 -0.40117540784023298
0.80351755795905433 -0.30766540318130442 0.59532081069907861
0.031180145688040284 -0.077239906469291242 0.78148504816642728
0.1704230928231425 0.52987982970741943 0.61513555522482832
-0.74228119962656658 -0.88067744826771133 -0.40826664405670954
-0.59964541225100731 -0.15430962745012522 0.70914060787365329
-0.078160021921336309 0.868576521424405 -0.4169076232314346
0.64852778609376571 -0.09467666013486653 0.45069397847679582
-0.13399110875836584 0.032211743268186765 0.78626007460028191
-0.56187811103991692 -0.59397820658325884 -0.013814757908681585
-0.016535017870864976 -0.35907839150033638 0.67386212052436534
-0.0077369753013272202 -0.40360378487249449 0.52183522674226168
-0.2680317963041432 0.3282795040867974 0.75661068076027505
-0.43797404508750049 -0.70684939758561427 -0.23379192604968857
0.037096968591086465 -0.067918388425987075 0.78436104279196783
0.50000124345665142 0.47076457261186455 -0.15280203880517895
-0.38526571909348206 0.1117909066303433 0.78440651957680529
0.35670471257046188 -0.37457475868628265 0.32563823012973714
-0.68375178420056848 0.22549414717050098 -0.57703988784325766
0.44022430589495798 0.25944671984635548 -0.024106844330919586
-0.16389901700816267 -0.13757333572249841 0.76891027251380528
-0.20301152967238068 0.38779413123566542 0.77298047039832962
-0.60335313098414911 -0.93913226449915754 -0.4290686570629294
-0.31329180356692632 -0.15173050660987641 0.76193687514450126
0.50573566121998681 0.79552669180806657 -0.31542669149959757
0.44947362401279634 -0.11339646766441547 0.62264434582190731
-0.055322957584962751 0.25479487522971844 0.77174298612572301
-0.75094066621137046 0.29829947834782544 -0.50742307760314276
-0.37671285857526016 0.20427241829035125 0.75860531296717415
-0.75436851089111823 0.0010750097874634434 -0.52727871701839923
0.096816236129015465 -0.41946370935752597 0.55190833126610883
0.063306049913592233 0.26622049731573938 0.76837668358776057
-0.30672022319615166 0.32897800254085396 0.67820376238673497
-0.014591704628486468 0.85314708334767353 0.5306891269069971
-0.67876053913454371 -0.44224953374849463 0.63687813076704103
-0.28868347722983856 0.35848309572013903 0.75252967009131666
-0.64930868757404703 -0.95489005897636048 -0.44406771922865929
0.084478025588305528 0.93587408796980198 -0.28600484025435513
0.12753482513227254 0.25208274888376536 0.73445264310289105
-0.048512042020036006 0.23538106322384422 0.77750128911771821
-0.057161541820434536 -0.39048208755303548 0.65582302102663093
-0.35618320258200242 0.06811297869307964 0.79910509067621049
-0.51896851812204758 -0.63630048270953665 -0.2453873943089615
-0.19597165163304453 0.44464362857172901 0.76617586071814703
0.045067991002440522 -0.35687804957056102 0.36494381354223293
0.30516019583006138 0.26286651839832587 -0.43512636098201796
0.34142579232280923 0.29793501266877165 0.33853389982080984
-0.091400143057228433 0.46985090533340923 0.75503004462388867
-0.38331108811128445 -0.093704042935478071 0.75918515862139735
-0.057143422455311565 -0.11206954050129347 0.77025707407122823
-0.90306000767676409 -0.92694348569267504 -0.45402228030831537
-0.83651535879628813 -0.71446038080743079 -0.39813629379809434
-0.26025209043241659 -0.22888977889060058 0.75208394947694579
0.20748762163804724 0.72693131081313389 -0.41737086342467755
0.81803797424900893 -0.19435617371286895 0.47822595348835861
0.83876520384687581 -0.27480147660942222 0.56847140098247095
-0.39295821330462388 0.62798029695212065 0.51795193481008717
-0.54084771561453238 -0.046161598549847582 0.73031178348882264
0.70550670395456905 -0.50373473036872873 0.43165754260651212
0.29841939075176072 -0.44452249145488665 0.61031955517960412
-0.6603058876429504 -0.96715272932762986 -0.44036402216457304
-0.60248043504931559 -0.039642607302805999 0.72614769873380869
-0.35373325572805925 0.0141061921203125 -0.69963303691810452
0.70209514720453114 -0.57363556334490085 0.6740898208622923
0.014352504710529956 -0.13718708741718544 0.75842967234148695
0.091467670246245802 0.28275908536650363 0.75698596024898102
0.0038363719932874574 0.82716498147629025 0.5214664677074885
0.70556182223644726 -0.64782363346573035 0.57362451932548453
0.43920785342915281 0.41508204631635692 -0.15161074162467614
