# XYZ point cloud file
-0.2010623088908261 0.6215543998755777 0.68826962188513985
0.10976262404675197 -0.089571762070116634 0.78000076818099728
-0.048928087710464752 0.55837413827808113 0.73844710812713865
0.096475498663480153 0.11181190169698851 0.77171314200868402
0.39983391021073089 0.15334588182385289 0.096791909782155017
0.13094477356871437 0.80671710213933778 0.24865079695564773
-0.12640052422396764 -0.31935025741915268 0.55284792628847867
0.45444159892917213 0.2007006427859821 0.028503974444376468
-0.78832795512147413 -0.016332981161831128 0.61770605628994235
-0.10704040261052228 0.26099761932240995 0.76118266488208874
-0.32082619695310655 0.35030914132441993 0.75043871841671184
-0.68834060664404717 -0.60611255694972499 -0.31791339344767167
0.20208255500035932 -0.012947397357184087 0.72324298984448987
-0.24321182884142445 0.39747757548071405 0.76342459715290634
-0.46464543054520036 -0.84694685158176242 -0.38177340524445036
0.23455350508036332 0.90058234895027134 -0.32937538600097938
-0.19419081884385037 -0.28720270346090615 0.68883489608449011
0.3481783389790678 0.065399595433971669 0.60736236944229205
-0.62208165111083247 0.32589177073504416 0.38300043930683358
-0.14042492741785395 -0.17139219284013762 0.75015604559688498
-0.19297347157848321 0.57480440684858891 0.76525931577453665
0.37993280204205604 0.46094774433985819 -0.16741901323694464
-0.14504131548143562 0.40549578330130309 0.76573382981344551
-0.43274415312252756 -0.70339506798094931 -0.21757221378918246
-0.1135337316281948 0.47669237609409265 0.7561765297433376
-0.54647494567264232 -0.016430274333082195 0.73064254314507826
-0.77723104981233249 -0.56856972585607934 -0.33458081756225155
-0.44409312885285601 -0.71565555002262471 -0.24545661027524979
-0.44800705508789918 -0.011811659996507018 0.77251724217165751
-0.62422434672831173 0.064165637232928674 0.76904984779320706
0.25489919994818422 0.01892189019623558 0.72972310535279661
0.0091700795688796077 0.80165162178206906 -0.43022881094650423
0.67172442776158903 -0.18954716356116563 0.54370683180028578
-0.31938593949257665 0.10261707588862379 0.76265166361610648
0.21981711601507925 0.26006052250156841 0.66105140786389782
-0.17271665663295011 -0.4955830215842596 0.45825380286444428
0.52406224245866895 0.4460711183059729 -0.16574393478327387
0.48348962629656711 0.92167984460768615 -0.36265894397431353
0.13254545678432805 -0.12781215168938864 0.77162547151716154
0.35233669799939094 0.39520152156622856 -0.0092323308062596254
-0.055698728355991989 0.54813928120703181 0.74099649983588067
0.65057107700303618 -0.55311280830171938 0.44347086890602583
-0.060096412339916583 0.42992363674152045 0.77271472823196863
0.11788973596856067 -0.29800736789824356 -0.4322175347636481
0.056821153144184677 0.81067213247751901 0.61750050260093881
-0.55796855970098491 -0.89736258950849646 -0.3975960717688487
0.70727980446257277 -0.22226180040493659 0.61570807956788798
-0.091171903947838473 -0.10394697142488418 0.77774370083828614
-0.86748449878879885 -0.78527764301657044 -0.40751670359606607
0.38152699123102707 0.42864500760503077 -0.14991431359496588
0.37124480626015099 1.0924614283763461 -0.4181949775046423
-0.0012528256196446819 -0.0548956347402072 0.78935730889011957
0.5104257985810321 1.1172239776101733 -0.44310138937145105
0.48954914230704105 0.76361870506770835 -0.2882834355077879
0.24077949333840465 1.0967967650861867 -0.39106800185150803
0.37607061017977372 0.37865211853320346 -0.092021843148600624
0.30790478149306111 1.2387494428441324 -0.47810898461132822
0.015656470302261027 0.77866552223304808 0.7063790547405322
0.16365424999958122 -0.32553734958153413 0.72368964789061252
0.33982255618904844 0.2380814946708032 0.48347509853493165
0.26179170458809153 0.37180310258506921 0.55632844351545607
0.76966412750159918 -0.31767625335915994 0.61742912101216518
0.25391581782171357 0.73045203300405781 -0.14603023647491398
-0.4720587505497349 0.19220873741401689 0.68823230598993312
-0.021691942179572266 0.62711155006661379 0.69415770843369096
-0.45537998373482935 -0.19139986437219392 0.74074307683021523
0.30986232262527125 0.99559587660724169 -0.37007537215805719
-0.7687909624795104 -0.54157623550003109 -0.32399858255510416
0.2913716831039892 -0.15447268772701861 0.77398410028871822
-0.16768730692923839 -0.13536721735959034 0.77017510695105251
-0.87930068384135174 -0.56370881389742067 -0.40709613815397994
0.069530949545921317 0.25799966470084001 0.76137012996358244
0.24747805874011419 0.00090959823559799702 0.68379869411718985
-0.42569682693093114 -0.088161111775843182 0.78565063821142411
0.75571487650816493 -0.21475069542861291 0.64392604039631252
-0.064052415504889382 0.66362877781918783 0.75138813593189813
0.8280329714324921 -0.22400796389442235 0.48466901327686074
0.39962967627135981 0.88319889411170216 -0.3412266346546815
0.28639792191784252 0.93293331542743907 -0.33360202346850087
0.27793416409077665 1.1733807181812255 -0.44111842467795093
-0.43509591427703143 -0.7732456973410109 -0.27667122029192193
0.62226192815829506 -0.65015099030489409 0.50294006325904661
-0.8932370394667366 -0.26045897897429171 -0.3064495590999865
0.45132143579181161 -0.14527075901253639 0.35079895318536813
-0.52932971226292125 -0.61272868521289325 -0.013513151377873456
-0.17243407065956262 0.59434157337458871 0.63343405528650898
0.19514727637675833 0.016855802046871204 0.76271988182199735
0.81198492713528481 -0.45347350643135265 0.67576609765487561
-0.33080696891306349 -0.21264969407911138 -0.61722289253756202
0.34785391053637227 -0.16262182721753327 0.78822061959738221
-0.37265081172685655 -0.69173341922427056 -0.15664564102660172
-0.06895173351877304 0.37884913409335574 0.77385949373876173
0.4388547454802314 0.4764383980125686 -0.17774525491899951
-0.3780303872957802 0.65527633573850963 0.67549352225575809
0.23802201150954261 0.15845932472388746 0.69002422656445006
-0.48519102081240817 -0.69426399710862796 -0.26519247916797006
0.74742978381488001 -0.12362424128815341 0.53725617931000258
0.20861488380180049 0.52619818919981931 0.57843051307810356
-0.30719934748999833 0.061257092827467829 0.76537148502246755
-0.37110916358309964 0.67081851318145169 0.52995718202291586
-0.79436594592822019 0.33137059802314184 -0.020159062392627547
0.67540131627966105 -0.14235146956813338 0.57190958453799112
0.47051752094310828 0.97786035385222547 -0.38350729946714956
-0.50972809253835294 -0.63839091593950315 -0.0263678961999112
-0.062157288899015839 0.68910655376249785 0.741473290695704
0.722240621537793 -0.17674239841761974 0.62181909817444492
-0.12370324261695309 0.12723184073865923 -0.74532176305375586
-0.66140605662714336 -0.01237053190779136 0.74082936975827485
-0.052681415248059693 -0.10216970884336973 0.77862142310001303
0.44302791621363014 0.10836341081670042 -0.022668266437403162
-0.083528529171800869 0.4904527490959385 0.75011389080224689
0.080956670127406483 0.55069220671357932 0.67616219366944463
0.11363761650605397 0.77659641548536129 0.58725444257919523
-0.35125776599890912 0.31590472314741191 0.75234299329907817
0.088079952019569419 0.34249399328551888 0.75100418470467289
0.028235183150475684 0.72321957014127491 -0.49737678236701299
0.30257439394362251 0.78586344579084511 -0.26651396404891514
-0.19703563845216365 0.57267321400636817 0.61495203009730393
-0.34276656472299294 -0.019535388654926322 0.76436219921466897
0.39454969729594325 -0.17053587887802557 0.76370694689643415
-0.036523447117033925 -0.088603861006202322 0.78235072780743664
0.0088978762841946946 0.2750260661197057 0.78055345541628185
-0.030611206952073644 -0.10034345233542652 0.77607050773637276
0.34481403239422548 0.39716294145042497 0.10013051905177051
-0.061830992041350896 -0.16804680761464397 0.74981446926597428
0.4921727524589059 0.26848270578350864 -0.052284170304208288
0.34929990346983431 0.9383135881581719 -0.35677303573394248
0.24824242781998862 -0.41697127136461631 0.40713730394321246
0.32469762044715722 1.2589813533344456 -0.46570706316098587
0.49290643925500888 -0.098597485037634769 0.51222788529229746
0.20849572812173989 -0.23742595810591638 0.34790327695609236
0.16555804190227263 -0.064457907799724268 0.78591747536000867
-0.53612983881961895 -0.043293106456829378 0.72688954059697997
-0.72415077182464227 -0.98523621194853206 -0.44198484229552726
0.74938130569447026 -0.29549322022315216 0.59249908415889152
-0.64756553339094958 -0.24568586932770842 -0.54312609288801639
0.43735201380339461 1.2271683226644061 -0.48897156460965796
0.1346873348585973 -0.1056336561886031 0.7776658249252506
0.40987182262536237 0.93686094898810879 -0.36327175042262105
0.34354211958002168 0.31751938537477642 0.2841016890593977
0.41721423064821295 -0.41902658405309623 0.69143412883558852
0.41707438996327184 0.70596114924378917 -0.27437014404568316
0.76886123692258934 -0.37502952550549828 0.42209393885482527
-0.1115247262940926 0.34806441220494477 0.77021131373678209
-0.60937441071905596 0.32747979370632407 0.43952022655313971
-0.70321034742222821 0.04143024511411042 0.73312441828843244
-0.039571638551379351 0.39010114568498189 0.78226506979662602
0.16845108565000544 0.76237352997147312 0.4309718927003896
0.38049241542951151 0.97146761963761996 -0.37399197947074647
0.23774024564428942 0.78798598463322733 -0.18590079425599981
-0.69944748736692475 -0.50640624121403022 0.32838749892477992
0.07242152882477626 0.59903142351760508 0.68514666218790055
0.18723010957259589 -0.019668011027626164 0.73589732218243498
0.40649717668067353 -0.19774042664286817 0.78888509844965427
-0.74575660487297313 -0.79031488237217218 -0.41222124325337717
-0.084823372194634317 -0.13383738188498029 0.75978557759193244
-0.24874278110483772 0.10489314651732329 0.77155715904881372
-0.13461609602724423 -0.14492805560110789 0.75892338088460676
0.27268442876757604 -0.04766491421737129 -0.38821899035706942
0.020460115341786711 -0.26371734424618865 -0.53259389748161823
-0.60991619764513771 -0.62106678128611748 -0.29375085738269746
0.15916964419153601 1.0311658977639784 -0.31603802711279094
0.39836996441970385 1.0870570841645026 -0.41980346234863575
0.79479028840268029 -0.2933081058992606 0.65754906914346023
-0.11417973268562776 0.25219129838425225 0.77528447342447215
0.33741646530822322 0.096692321176355733 0.51505706279620611
-0.41695571709188073 0.59631335492459314 0.67971305272588722
0.22582874313914658 -0.11990101016886712 0.766617274283238
-0.36859464946110165 0.23485210627009678 0.76574986006370249
0.15365973947909595 0.26007453776755796 0.7126945406225822
0.44515527669710764 -0.22386703697083021 0.28789388570799446
-0.10149157759200023 0.36443727400147807 0.76390387089069378
-0.53069698523247411 -0.54658080650278862 0.24743669101149202
-0.37585144786426383 -0.029311314792668242 0.79202346583496741
-0.47704885485828186 0.33210513340536707 0.78380273353017671
-0.095159232828635254 -0.43667750048064136 0.53776945833871181
0.36575593913528337 0.53699028547413974 -0.18962770698446008
0.13982645450323616 0.26899403013756285 0.72340194585620488
0.37781064700784839 0.28593223826786485 0.076975696465801491
-0.93527304581559179 0.053538265977650212 -0.1483904711665307
0.47280112458939527 -0.50250480260683261 0.63535739996801865
-0.36065456221692216 -0.040565393484563117 0.76277151096663998
0.86422290536725654 -0.32717059672791926 0.61339377303256271
0.77134536937687415 -0.31553454112582457 0.62574180732350015
-0.66382183160049024 -0.82348356382717469 -0.38722927056072898
-0.080562491850216134 0.7776854964164972 0.55432599699527829
0.088502721186586086 0.57196895832550432 0.65299179081310754
-0.27797223864695297 0.053373470500556408 0.76985129649556505
0.37150954013472415 0.4931581129335143 -0.17375458484417194
0.43691898152024322 0.31458114592324904 -0.099308998899346079
-0.49459393210329594 -0.6842361179332741 -0.26948313238222887
-0.43086772347447777 -0.17111529315659624 0.7489306208846509
0.095137856951524213 0.032793388797029976 0.78673821732690286
-0.13408443005808124 -0.11421993979472944 0.77469552736421399
0.17265743789441501 0.33061524076527782 0.6732550711720755
-0.78645375580070942 -0.75381225787278794 -0.41702103009910019
0.83211827674806216 -0.43201613581755716 0.53599461187065955
-0.60146182436054829 0.61387660320587045 0.066090077031995875
-0.022247192909247815 0.72898695732812868 0.73258611246787586
0.4373150006889901 0.22871483080920285 0.00097320129917477516
0.37090463372389593 0.31367453039990423 0.027831444807187466
-0.083367939603789409 -0.38174746569753637 0.46054915439745159
0.28977024413471142 0.80885347482887582 -0.30177987816032825
0.053129091628420611 -0.36406269606669639 0.51475831118283111
-0.33693222085604191 0.33300566167627466 0.69672473485106368
0.28250176476640831 0.7160226545803301 -0.20588977466799108
-0.1561641417860784 0.47567727091019307 0.75295056295994733
-0.50528113323180435 -0.85081272764532656 -0.36094379663271603
-0.4175275512303358 -0.38030270563936242 0.68744214731139408
-0.096434591294524807 0.43054098141300123 0.75457041813329528
-0.16347621042532978 -0.17887060864986637 0.7564071337707361
-0.57681696999534537 -0.71978680697048247 -0.33792542373243251
-0.64242740605399007 -0.86237779379190727 -0.39141805913067174
0.21462758055649545 0.33228769253681456 0.63640329958390751
-0.068579136379497641 -0.10124721319679075 0.78002933412459718
-0.29907892984904549 -0.24681021369864453 0.74859643078981009
-0.4017820832544885 -0.31170076457646445 0.72466540788959932
-0.36085464345724461 -0.069528509052648957 0.76141271434208724
-0.32639080322338998 0.2529951680306155 0.75598920319490004
0.84194082376252766 -0.37956699567907037 0.65445557312653335
-0.015553395450467633 0.58611740225570408 0.72897461852561296
-0.89856044496401766 -0.6012105500478313 -0.40955968514104946
0.0035443996585371451 -0.15011361487378672 0.75460925666881806
-0.74988370315914921 -0.54070964301143931 -0.31365445608706644
-0.59739230949255528 -0.5758534601323646 -0.14008491789772037
0.099971609927408167 0.33687130305953517 0.74529259806799963
-0.53016213076062968 -0.18613779150542697 0.73050465184261304
-0.46665439220315363 -0.83748391599702643 -0.35470737091389282
-0.44150860834065497 -0.55824933499631868 0.23926134498344709
0.30052272980317696 0.31757490115657205 0.51545813257683548
0.26974868218283632 -0.14711826909331904 0.60988373260665085
-1.0292609039854592 -1.0234264655688108 -0.41624896084330842
-0.066403810805056196 0.29040922559414994 0.77321548243661287
0.34738969472084591 0.13386833925238051 0.49956421635065595
-0.40314864981546705 -0.62766283596305072 -0.28373896345996386
-0.58294845206378199 -0.6483463974595054 -0.31703283284545059
-0.6966956202971204 -0.53938478845299187 -0.23675727166907556
-0.24467509537389276 -0.39074077650792916 0.68053613256261514
-0.5890647908799167 0.040958811995917443 0.75247417898164093
-0.13410069471981956 0.47639374837831561 0.7692686374133757
0.38624019367259876 1.1399092000136148 -0.43974432566567678
0.16931115886070813 0.41804341812829726 0.64280874482463091
-0.47963956378005435 -0.16516426536442808 0.75976044828015432
-0.29503900314280429 0.13056912772682949 0.76480430287535128
-0.1502370357255387 0.43694201945141842 0.77053132507747524
-0.69559943745449004 -0.16407172244873536 0.66956316744650968
-0.30861175249356165 0.21213761799076991 0.73999302236502063
-0.29743259972896396 0.393386750155301 0.75370848114685707
-0.31448967875731171 0.33193854037117987 0.75143515335946187
-0.45364523223321385 -0.14583990548914016 0.77454092034867505
0.065133067469240302 0.90847939365027042 -0.29848961606309032
-0.084302150395771491 0.067192826851631082 0.78852626941797155
-0.26166196301751654 -0.28409439628520161 0.72488897602730162
-0.68178780878709411 -0.78974797940828978 -0.3896480072773123
-0.02500522437685504 0.43762981783857313 0.77755022682089248
-0.18193131975687038 0.62250468680987581 0.58422236285212259
0.2872173869439365 1.2250641278194534 -0.46662008199432137
0.77884271978224717 -0.23864062027673683 0.53971682045332869
0.5591431016377868 -0.24704093896616719 0.77618502427498015
-0.07558974633094806 0.35045766656666366 0.77249921515785758
0.077489979909067586 -0.22614392945855144 -0.54654045250675942
0.19413097375972654 -0.40361375925197152 0.40100506059397389
0.23105031896152184 -0.32991866811759252 0.72626754357979451
-0.51765210225768499 -0.25333896985146609 0.71310821598531327
0.47768125415649365 0.55592013911378757 -0.22289669025554559
0.8177183769909675 -0.46730249785762545 0.65893745098774659
-0.27324019025722635 0.29394508036077127 0.75845003474470429
0.37306221843657639 0.22570733321884973 -0.21678374827422076
0.42329465725053694 0.047012931818962045 0.033872195837169272
-0.11259466549029185 0.27806044763047844 0.77457966091135333
0.4956064186660285 -0.54603863222495264 0.60268761066804899
-0.73390970376993403 -0.30793558127432874 -0.47543171486499247
0.34138616554122336 -0.0073907168161788661 -0.087247376211767147
0.79628738418618639 -0.52686369718185944 0.55567024808825494
-0.084198502930405539 0.51633611930624568 0.75136914844156077
-0.51643653059781869 -0.64596649441731557 -0.24432532395818107
-0.31063151264191902 0.27362390818504068 0.72930619442095956
0.12285001142886642 0.18335003039759812 0.73873384830390876
0.4888218712493142 1.1626291783560436 -0.46136303079346774
-0.70129797092389801 -0.63401212111166672 -0.45051881493962043
-0.59154793748189149 -0.31700045062740401 0.67723409285996317
0.22737836360491315 -0.14174782848429679 0.78040597992458061
-0.019176077459135854 -0.077638597218864902 0.78265176126750191
-0.43810833264463156 -0.82407526635482498 -0.3472438890427938
0.37811538257167143 0.90396257604347241 -0.34715196740224208
0.81468746308453888 -0.23102019569799914 0.46295638594954269
0.20176448086056098 0.26034799294700406 0.66636258158147044
0.65214958977514925 -0.478069671516133 0.39907429187112342
0.14749126543242141 0.74078944237504363 0.59550675544378251
-0.20105574312250951 -0.39227363991480502 0.64962343884609908
-0.42433096556743521 -0.30770665461103164 0.72083315482589683
-0.064048753536837921 -0.17027462541483551 0.75116990730113287
-0.40942012404325112 -0.40751825106874406 0.66561883583552017
0.16201126569620783 0.46703496376636089 0.63660283911533178
0.18775410295085493 0.89740601944609288 -0.18200948082140833
0.36410250697986157 0.1679275833564251 0.48618336323114519
-0.33148228720872908 0.036693809326067139 0.78391173214749577
-0.41190172707159434 -0.11207645071615602 0.7390641087695613
-0.69677682177119493 -0.44179763343976219 0.55447307442961513
-0.45114605076021519 -0.7065078417261077 -0.19329955305143542
0.070889365261706416 0.73860598545183365 0.68418461612033266
-0.057534095865690915 0.5570372296040631 0.74233631481064988
-0.63055994618594013 0.27921365340919735 0.58991138236951457
0.53399424774088544 0.51241004965506676 -0.21977939974614635
0.1139137532842085 -0.080407643442748977 0.78341778103245474
-0.070118036639755132 -0.2331213684553255 0.69959608105724058
-0.15339091577541808 -0.15663605143022608 0.75666445277240868
0.35907511644222012 0.75377690847192724 -0.30401994820811851
-0.15614951096722507 0.16172482678512878 0.77825109433337492
0.49182755238491893 -0.14542758130905575 0.68144276195911857
0.35335503071561902 0.83279933250462435 -0.31505493127962581
0.12996646809568801 -0.19516281033161498 0.53139531853033617
0.16453763088325957 0.55760412663138759 0.61256748903571534
0.32869536569761237 0.48199918569920897 -0.01581119068853809
0.29832798895802171 1.2773054464654878 -0.47147281991639467
-0.43690419049231366 -0.37910004887507753 0.6846951870025535
-0.16030696881040285 -0.13829588959993444 0.76527425697391394
0.38238864836465325 0.26152168256974662 0.11079137240110981
-0.54992341509378662 -0.28460226758898344 0.70159572173727947
-0.0047697273749065516 0.29581642079646464 0.78251399049416648
-0.40354513197968345 0.16529200927707777 0.75352210129774644
0.04970154725789655 -0.36896208937362118 0.69383797959857318
0.017256804312381746 -0.31974947835125889 0.40447742025216016
-0.40810351229083608 0.0054089549897682332 0.79364983606369632
-0.04150475960691935 0.69750954542329424 -0.55987598407237193
-1.0213928083151527 -1.0025313503792859 -0.40130767128848532
-0.37601479945836047 0.38965528531917215 0.63134581561001291
-0.43591791184222473 -0.28921472651089175 0.72240959022928486
0.29153406607596821 -0.28932072854226121 0.74194216958168013
-0.28296361833807282 0.4773674026542416 0.77550427564173585
0.41277778961618949 0.74657140260334209 -0.29001380339085259
-0.95297159828648592 -0.70332525562665182 -0.39792192000659199
0.69194956041172873 -0.18424226944892652 0.54211367747342365
0.43294209210869639 0.30924556473717502 -0.089298237078832443
-0.56364147692259792 -0.29521026348414736 0.69127834423421852
-0.25047381037114747 0.56598739515340313 0.56976515902181557
0.37660740807441329 0.45575031753119788 -0.16001819978337295
0.16399438370598318 -0.15065878221037643 0.76610057169334311
0.43574780640444999 0.59972470693424995 -0.23277990335030196
0.42324041285299785 0.23073272137274259 -0.009885076040184515
0.44728749401852497 0.28300538917732965 -0.067102805799475362
0.80309326502519696 -0.29259855248052702 0.5717669686134812
0.28191236335509373 1.0263563932177604 -0.37432849122147083
0.20532306375798726 0.82785632789110686 -0.099545006171611661
-0.10098506284703035 -0.39983844132994051 0.5392893139922883
0.14596843965088979 1.0525501140872411 -0.3167023286835331
0.83582707015463598 -0.30568134048505868 0.65679933727212259
-0.71537149397533994 0.13841804349232234 0.58357269804537326
-0.5128013789222905 0.22563949461413557 0.6240534195675691
-0.52983196764121487 0.13549391408721334 0.76798784809122278
0.067314736729144897 -0.052760405078059236 0.79284538935248072
-0.6946785497211323 -0.34193027020078404 0.6102027383110058
0.18382207420778229 -0.083279889576857613 0.77337725686143344
-0.18023433096912811 0.43095228791833406 0.7541364086865896
-0.20124979143962207 0.48201239960522813 0.71405503440320306
0.85258289677777555 -0.28514524508486261 0.57540617642552405
-0.35670673706178491 -0.30677296240051533 0.72897490814611743
0.70095889249130039 -0.46000030829011429 0.41086592235398456
0.47502544748299869 0.40690580581879487 -0.12772524413135855
-0.66772686717057184 -0.38461445530048266 0.64788839171540324
0.28586581881123152 -0.13771359904262859 0.79388383556206321
-0.71835014346215331 -0.98452003110742936 -0.44374144898642776
0.43889209175479493 -0.39246062750946464 0.71429121314973187
0.40099155346905491 0.21533824899342946 0.027296032617204702
-0.73699126092917311 0.1924304622483497 0.26864520508359124
-0.08913837642713851 -0.47453157172965632 -0.26220240786082982
-0.72395170893030958 -0.49085024713018299 -0.41526987090363221
0.063971349042411418 0.88456609629055016 0.18033749903644036
0.34059958831770132 1.066436812400589 -0.403920649809832
-0.46951139578595757 0.46058567949113893 0.4710304963402967
-0.49489365635691129 -0.84249938226459875 -0.35739902503276788
0.39514925335195983 1.135714281170304 -0.43817306677467727
-0.54319170539147876 0.40041703905671966 0.454711914520191
0.44638368483721891 1.0453100214293638 -0.41385380988270271
-0.28318081043391885 0.018329487911689313 0.77081726474288637
-0.4723043877786921 0.13032821626895696 0.74914208807262384
-0.096802885112111881 0.4471926376193025 0.75762275960970449
0.26366761170531561 0.66693501488842077 0.45249801288268188
0.054463341311631552 -0.32419547218444933 0.69842659221066583
0.49759762241113492 -0.10222698714829725 0.55865630642075814
-0.013944955851542318 0.86910642664126314 0.56810003370527973
0.69730172331634321 -0.14428759874056851 0.62078213497081336
-0.11906303326635737 -0.13173348003268082 0.76318538813019998
0.12695017583467916 -0.076078065607488199 0.79308449116037494
-0.32190768400703007 0.14120984783774659 0.79022068645773524
-0.43203825543330865 -0.57972768800682672 -0.36901440570361643
-0.61328901614835729 -0.66602153627740535 -0.34051545998974575
-0.046382667280411738 0.61416216464527551 0.72859502987882108
-0.11693708578611961 -0.16192007515320839 0.74970193497959947
-0.58282953708338425 -0.3612763384384543 0.69881830332013761
0.11212821337512224 0.95925889615809634 -0.30184010129240946
0.46990906096882767 0.42599360034316192 -0.15554084288976711
-0.46525744174589789 -0.85824850889378013 -0.4054828798480905
0.25064604912255817 -0.19690371594934675 0.2290692114655748
0.80988548153696627 -0.17570862027777423 0.48955019310580639
0.24548081563697366 1.1463432309697135 -0.41572139520627793
0.340115840788485 0.48677551939129415 -0.3246168834737766
0.068744363309164669 -0.046961106212208392 0.79298349116202793
0.029869880145994898 0.67072490413777253 0.70186329843036477
0.2910231829161205 1.2901311552410979 -0.48833585947536307
-0.049067788922513955 -0.35699946690274231 0.43377600530465799
0.18702758648488782 0.072531830217705817 0.75416883691205427
-0.20979702205225692 0.45854460434985356 0.77589118305704741
-0.38460493686714048 -0.34642517345398005 -0.54396112871007674
0.42984939870535754 0.22602198541023455 -0.0020662002920843747
-0.38458200475670878 -0.095114147025505247 0.77045861884534839
0.36418669833172856 0.48416660848700133 -0.15488507271723151
0.016369967797814411 -0.086431849349121848 0.77799647122978044
0.066387517128916329 0.32025377984132675 0.76381834128133974
0.71069713682196323 -0.13603150642021511 0.56231734530036448
-0.27371067032784424 0.27358566020845032 0.75960944110628814
0.19299546413577318 0.97728670278823238 -0.32360967064882651
-0.25128703132679675 -0.39133062516981809 0.67606417112294892
0.33248380302736535 0.77399305374001948 -0.28143640797441094
-0.12760525396706157 0.67719837752167678 0.64023351860000588
0.066113360139169686 0.26245163981697139 0.76428744950669802
0.18449326076992634 0.26942961303133472 0.68339067733595371
-0.56243621298647639 -0.8884306077370141 -0.38722231772771387
-0.22470786015665567 0.63770179571488583 0.53064939048188631
-0.61596082095041993 0.28743188547863951 0.63914655183722768
0.33845814646407746 0.069330666063637025 0.63093858900054656
0.26595317266924212 0.013468511969428221 0.69983263831052156
-0.80733834318778719 -0.092451521276075255 0.44933059664895159
-0.011395885759142743 -0.10376395802562755 0.77216741226144414
0.30642852899267936 0.88650491601130454 -0.32079443690456344
0.15876340425703006 -0.049945299945822086 0.75632685054622684
0.24821944754221192 0.66179597426295445 0.10419875541867363
-0.058664959855221355 0.56265661861311322 0.7422483163353033
0.43475428065059418 0.24496886917364691 -0.024777053901079427
-0.054861132432122872 -0.099641952076940044 0.78122266864287937
0.5573913456497479 -0.642199370543171 0.52630800906460706
-0.89536881942026869 -0.87032802981919133 -0.41208414781701919
-0.47797108734479821 0.052534641686353467 0.73602450740825365
0.33435234421421001 1.0848927844028431 -0.40764757268147811
-0.4555451161332229 -0.60611930123101132 -0.0017646995445801394
-0.89768096392639185 -0.64878593212745628 -0.42492990260710073
0.13397980276339183 0.53107240180916016 0.64355743042129454
0.16164173663155879 0.879192781583372 0.023247551259597543
-0.69613298313716498 -0.56715040287021168 -0.29448140199144746
0.52050901567186258 -0.20921885902083304 0.7667612467256113
-0.18630788240402651 -0.49319529723447175 -0.30646540745836859
-0.41872819902836511 -0.14835108902827443 0.7694284666400395
0.44450799678482511 0.41027624115921668 -0.14751720404765933
-0.011506685561130325 0.70704259716876017 0.72430092730123352
-0.59107462011690259 -0.77072340946408247 -0.35639512170204846
0.1181091715552185 -0.12276606049725736 0.77058811747856737
0.00010341331284280386 0.85976088390927785 0.54368221702123476
0.48456189516801729 0.48366209764546753 -0.17602563987015785
-0.79883702924423261 0.011788874479350397 0.33692888982852609
-0.018610021133497412 0.47536820947076741 0.77161962197523426
0.36622930136522314 -0.30101164888446874 0.27883155940659421
-0.23542331514011039 0.54385318037900632 0.64579874393209513
0.60703460694091405 -0.13971469121345415 0.6475825649876974
0.72088968546739807 -0.23698407847367342 0.70565821828489561
-0.47376160293731573 -0.20348524455039652 0.74170672565457751
-0.76926226933340303 0.036400472114539895 0.62713359083926057
0.17530779635289662 0.29588459946736378 0.68668633973231152
0.080250701675069536 0.43442402328454577 0.73581173116182086
0.15242839039649425 0.23070030298241662 0.72521801815719478
-0.12789015860127506 0.49742373629192116 0.70788106127846007
0.077239702799403176 0.82179387475837551 0.31241354230420804
0.21614902840568107 0.4108481214744053 0.54086253142559748
-0.062863557423639804 0.81728490264977971 0.59691259114270956
-0.64513557143011724 -0.55398260971219315 0.09976801880528896
-0.060653490238038898 -0.11658021265925633 0.76705892228733497
-0.96253430634924431 -0.84028616620159369 -0.39418225207773716
0.65234189803855713 -0.18935674411775238 0.54866565526473465
0.47956533360763132 0.13169910686416131 -0.011744935913899468
0.33220114139370338 1.2312935332160997 -0.48119143193359903
-0.10825251436222061 -0.3696128963919314 0.69415298150997273
0.41328435413434406 0.88100348537057549 -0.34177314549895321
-0.2209284591402394 0.86570279604257649 0.18896114997115199
0.57448800307082593 -0.17866517568852736 0.71196042127575865
-0.71779154126303979 -0.37466423296957174 0.55052070098359218
0.22777452653068053 -0.15812472203291428 0.74969011772583727
0.14507163799922207 0.81841539227441196 -0.37892622404544696
-0.491323580546279 -0.22070323717100848 0.73790222722691201
-0.50787740736876863 -0.88559392917800039 -0.40023316263549802
0.63427894231787718 -0.65726099873277555 0.59032070751290178
0.36564099637756797 1.244914398951452 -0.49460938126202336
0.54488683176746022 0.80537801146064858 -0.32688218931624036
0.29627714285311413 -0.33255461033898293 0.28630800496631181
-0.094432326434784386 0.449169917897148 0.75505659263522107
-0.7166594303323599 -0.56443672406214063 -0.30636151807723522
-0.94458617454491067 -0.72258639212241604 -0.39051808821026057
0.4810039513326565 1.1963891718073576 -0.46990044422602395
-0.060595940110616198 -0.39425311224454163 0.63057100871585448
-0.2420293008779737 0.58950694310173191 0.78407237379065009
-0.016228027198138761 0.61440021754131102 0.72489737495090534
-0.089490182131086726 0.31884344513048113 0.76538329604770716
0.44841332159517933 0.66468040597156097 -0.26297077098868726
0.3592720657809565 0.58247870476667529 -0.20599129737150079
-0.60050077036630611 -0.63096447314198656 -0.30301523631843885
0.18318832821475439 -0.11307355602197333 0.78899416385839771
-0.50700692091916011 -0.66165738897058191 -0.27401464402715625
0.67062417632777738 -0.15504038464262671 0.60170670820584604
-0.33908239351390534 0.15234534213176687 0.78826892712838825
-0.55084830911422955 -0.20238575853598562 0.71497276826545786
-0.54911102997891703 -0.91502517761372815 -0.41942714870965858
-0.14586536858296029 0.5337755463677567 0.73347889992811055
0.65718183177527578 -0.11846712826348238 0.59643495840776239
0.64967829452471904 -0.28923202754672594 0.34208106265188576
0.36285553052310249 0.029053479921511638 -0.072190367668056865
-0.166854547177266 0.39818734767384001 0.77165135485590186
-0.2220505210692636 0.51798623069348793 0.77906704969581941
-0.4511782850204753 -0.17730210455608741 0.75723068310486141
0.52658426714849327 -0.56432939297484097 0.60926504402791792
-0.53510794667819539 0.015060761694609681 0.73405260444243581
0.33975975334471542 1.024596639277183 -0.38819698089474741
0.48983605837425159 -0.15016457469833355 0.33783797767553736
0.37046514284612897 0.53711023803288782 -0.19516720581938429
-0.058770134722820444 -0.16524025137037057 0.74904451287425644
0.75108515070219539 -0.1254016902943853 0.48941320769245422
0.029857703539121871 0.24697917194707664 0.76937925802240059
-0.12994885051300287 -0.16746441269752488 0.74943331486568177
0.59971667381145721 -0.61297720468398964 0.61132862042148517
-0.41195659613026692 -0.27589153375258846 0.73466049440831327
0.33598046735623655 -0.47669738074373313 0.49389878566097067
-0.048261413631621508 0.70186359667493292 0.74435487449238025
0.29498713088513284 0.49633618346729946 0.43374487485012381
0.40471053020449688 0.65052406121559514 -0.24977120359960381
-0.32958707704926837 0.081527664438130643 0.76016399702269721
0.37834354931192138 0.0081900704739155117 0.019808187980789427
-0.68373849113881136 -0.40610578630717953 0.62792882591980703
-0.48616687735017905 -0.67318294766128162 -0.088226688548553867
-0.22589940269533315 0.53589880764084441 0.61585243210269924
0.46822069489435592 0.37191729580917965 -0.10815581920190098
0.056603643335478182 0.81970854798244375 0.58534798156600587
-0.16777012158701154 -0.16990377888161845 0.75689553326779269
-0.21140449239133829 0.32808462749611778 0.77216256539149875
-0.42415420919880376 -0.11640368587767114 0.78086208264967327
-0.4037120997758592 -0.13844894173674049 0.75352155438138624
-0.27358784504775002 -0.56662360014752977 0.1145301056206236
0.14418758147542832 1.0266093432804499 -0.27529356822652851
-0.78344873407037063 -0.62985342011604928 -0.36184889412813703
0.83094141856247461 -0.36646239367316191 0.6699241016678954
0.81369629389222098 -0.46014339849035757 0.52142754519693568
-0.61227189959574524 -0.54680157023577891 -0.42770007507510144
-0.61862342296553052 -0.89562912513775927 -0.44781977212023349
0.032487209599943334 0.88429006437643043 -0.3235683455895586
0.30406536106855242 0.52280606838333554 0.33360374098225165
-0.11962218213712106 0.71032841948334102 0.58559885366944764
0.49122528912407759 0.55181707997995488 -0.20927181722545285
-0.72987064096341214 -0.37832433235865182 0.45236599783516951
0.013607383218584346 0.48892973538989537 0.76073140921262095
-0.75543714338380852 -0.98226710054634481 -0.42791685992052741
-0.59640988773251991 -0.25490030250513129 0.70176050839609383
-0.11754908680849496 0.51930973658533475 0.76720083749105727
-0.38001567109569123 -0.066573844817188643 0.75449778640078735
0.30192289001426786 0.501410238016053 0.14442672584508642
0.85290476213812383 -0.35122783033813576 0.64180830040147185
0.25958697929268482 1.1546850232307087 -0.42733165348991697
0.087834273990623046 0.66550431589326742 0.6772721406143507
0.8193879809580551 -0.41999770823434091 0.50145761271093647
0.75477101994435714 -0.30875368927269164 0.63913958589911957
0.23774452047519645 0.69927153534514019 0.050145273212187647
-0.480616221984981 -0.54485776076150216 0.36207760934458122
-0.46992812484295143 -0.65178934279223455 -0.019968687989869949
-0.1120345471621107 0.5089580598470036 0.75858163018768732
-0.036462358688780228 0.60910022971176403 0.72859270299732515
0.11259928933788999 1.0414999882785345 -0.27100332907935787
-0.60711525160340329 -0.074274600477387764 0.71822509454446237
-0.53914638845733975 0.15182764378117497 0.78127967369694717
0.11682282878336991 0.3599724151091106 0.72212361730573349
-0.7639394363862273 -0.79195307934966053 -0.42128780213456984
-0.44901948509094325 -0.08172531626470203 0.78093832847191313
-0.10193124083984628 0.53252988224679676 0.71368507875500597
-0.64350955335906157 -0.92754213248317541 -0.40624722709124939
0.024383638943817232 0.41994163934292672 0.76802761398659847
0.59213181418776628 -0.53337362879605976 0.66463932173653362
-0.56104021641797885 -0.16633081011365647 0.72282916822008625
0.60480119052229497 -0.35560735835905533 0.76482169608355122
-0.74299685331769894 0.11534010840589204 0.40468013819826898
0.065349079694499324 -0.10576874353685461 0.7720406852603805
0.073882833420100269 0.27636034426080336 0.76513336278665633
-0.47018044917926716 -0.55816444499536999 0.16767632882019967
-0.59498385283954747 -0.57984644156634602 0.015768187038517567
-0.30043877075269165 0.2078711042567285 0.75916403535359489
-0.6401377539506683 0.13824841084760919 0.75129060066968245
0.5462546063761522 -0.52744903350856553 0.42410825085998383
0.32171363353954519 -0.088998495601117611 0.10140293262757183
-0.66430939269169897 -0.72777892665671828 -0.37709262345026495
-0.07552069077695478 0.65116891521886799 0.64798115463857098
-0.48415399205643439 0.15627818671700666 0.74760105259724519
0.4998662738860844 -0.26758583861706953 0.77938102039794543
0.29197319666424448 0.37243462612702238 0.50043356446660248
0.36964599523434671 1.0655439744588495 -0.4082775351487502
0.31968044413021346 -0.19104662747246692 0.76674931718480366
0.67686576513915497 -0.11912097750233031 0.5855457886250548
0.52537255441583852 -0.18298148960859884 0.73511021503594876
-0.82011055997294591 -0.42412380364425672 -0.29909170493868231
-0.6335956502526976 -0.64345112550575578 -0.33096057208922325
-0.65463841669030387 -0.4158160248029148 0.59305305898639205
-0.79925624373517579 0.44699741007118377 -0.21766128950678176
-0.3264186476374249 0.32339528112071037 0.7513596561877165
0.16609019592654306 0.39580049916922633 0.65086034651202773
0.20871743748421068 -0.38376126761295382 0.34928003245963524
0.14325026358106641 0.89670985385297186 0.030521929028012096
-0.91097520005931321 -0.75284557299283961 -0.39535136335600995
0.39756714226485812 0.27439621094699973 -0.17427801414966737
0.17739018312695976 -0.037800262168417476 0.73962895619140667
-0.52787825498438679 -0.056258266490758047 0.71555966333490462
-0.57429967654260849 -0.2361398801364345 0.71461367334077863
0.43565576489768887 0.29010210027901451 -0.080368899256583859
0.24246505438259192 -0.24454837419019171 0.74276866900983407
0.3516541284403587 1.0992277806301178 -0.4178005715301456
-0.19298281592884337 -0.16297434526606125 0.76341574478851726
0.13647061845900055 -0.14701302095546609 0.7687502155109307
0.85338270714461828 -0.30199557177679637 0.59909550683547153
-0.29055131253936395 -0.018515403823830212 0.77115640180142009
-0.093115997523483429 0.77690373467570772 0.45805586043414337
-0.86261093349531848 -0.97423538840206803 -0.42497995388337095
-0.63070235303221978 -0.38470658344719055 0.67848130075469903
-0.56913251208893989 -0.85555684419745148 -0.38116018060573253
0.15702612403732985 0.54962046071484849 0.62178256400840226
-0.24576069046464966 -0.28783788915677277 0.71604498976677
-0.3908089169929525 -0.095976712938536934 0.76549171034400088
0.60743925160802803 -0.17857690078258948 0.33718249847284198
-0.68732825437512113 -0.29352369521083332 -0.50877603467504784
-0.15305242725898438 0.45320312948000563 0.76452794423709358
-0.46423897618819865 -0.70591369324306896 -0.17769371835830761
-0.013307004876551787 -0.19991042594796227 0.72679629920860478
-0.77548880776309748 -0.8272996849380192 -0.424003204360762
0.15712839651598109 -0.36050265609291898 -0.19728005120461845
0.29640531558798955 -0.43380321284794121 0.4141067185525209
0.17470073198641956 0.46039894662095193 0.59041745490704756
0.66256978418439871 -0.14213104958145806 0.58295561982167499
-0.1036162450589444 0.44513765089521229 0.76051043642197547
-0.44564942309439459 -0.050091004367736502 0.78076841470504021
0.078299519115844873 0.27136800985208431 0.76311736735936009
-0.55208377750282978 -0.23417883329714329 0.71578469007141976
-0.79903555214180955 -0.031049480294630172 0.51664670577945349
0.27921212758361946 0.5701874854635367 0.14055286985747983
-0.20004112310782673 -0.5488089335482158 -0.1034969838782942
-0.025203165153627083 0.67704398345114569 0.64888132655400677
-0.13243435748607624 -0.37761157553326541 0.68619569756890542
-0.92299767218576179 -0.25491024058489842 -0.19755447515089486
-0.27647596648976958 0.21363523509505455 0.76239797314811408
-0.13109196726000505 -0.39655093130789609 0.52780179173713648
0.19195222263403622 0.94199900788536972 -0.28879456734281916
0.31862418065388809 -0.054041921134967197 -0.10058801059293998
0.39204842806395135 1.0517435686067067 -0.40606839881643708
0.7472417042139341 -0.3002209721275495 0.64316313469219111
0.69097257367934617 -0.14669353381150785 0.39453822243629233
0.3921541430250528 0.071352703338590118 0.15813908221528195
-0.031509232413867494 -0.16204328609012464 0.75232818916682298
0.24901096287524638 -0.057329098784610011 0.62433308497504214
0.13325623058746849 0.91989748558243178 -0.32839240437267136
0.05550193000661352 0.30638108337165271 0.76911140400816791
-0.041099615772026254 0.89491694417126411 -0.34372985877049977
0.17609412959636472 0.4136299995020245 0.64102699506574901
-0.51445524739510518 0.010598161503519776 0.7221027111674041
-0.28986806397226417 0.92263405312031921 -0.092299386456193844
0.16215436088151591 0.52071685704681414 0.62542538403161707
0.17142001331383483 -0.063226462607172351 0.75025193919078248
0.099713013700494457 -0.066089371294479449 0.792571038508882
0.43532597916473037 1.085005855186461 -0.42296358680689394
-0.82258634582715473 -0.68302166895666261 -0.39001499288440833
0.031592377826541451 -0.34076309716187225 0.7097148868023595
0.79161475286255722 -0.4902045383431517 0.68421325260910848
0.21290882541011058 -0.38896405212976859 0.67820646329505152
-0.58429586510901288 -0.11625479921376325 0.71559967170475725
-0.81840732184223164 -0.81861020005499086 -0.4593561746621404
0.56933141305246693 -0.10245922369406912 0.5726198101098845
-0.56897382072375535 -0.080384094395000716 0.72244014807114088
-0.51955057558082274 -0.56930409722411213 -0.40716920752332086
0.72949606783484455 -0.18741126675134012 0.53784660092449599
-0.57647034251367302 0.032058537433048429 0.74001037584610874
-0.8390049938886337 -0.98247520989034953 -0.43676300151793335
0.70414104804092403 -0.14820303618227015 0.61835994478790823
-0.56182398463969463 -0.59362642371911534 -0.039233907134144985
0.10592658532249288 0.8158253810777687 0.27682970040277866
-0.15631760314043674 0.83236962252547286 0.32374450304193525
0.35858630763953059 1.1279471274061752 -0.43005166494737068
0.40111938301602379 -0.20200669747676514 0.7845785927560982
-0.33323970896032051 0.058916277579811549 0.77341772323384106
0.16568569829865964 0.31409312581826576 0.68728641752106157
-0.014993541014987954 0.45390771852387068 0.77423173998276873
0.36973269570907874 0.88469812798287784 -0.33870765204985886
-0.015462927365021528 0.59634045374912503 0.72994667931384649
-0.54825922866290711 -0.60146353515471418 0.00014841339588045344
-0.0033256342255043592 -0.40383559058392393 0.54974599887890463
-0.48105940237796574 -0.27751499328200424 0.73084052975721736
0.7253618965846016 -0.26333341485386086 0.62843941597323294
-0.48943915211809497 -0.32009487274937243 0.70147260721316762
-0.59091218185237437 -0.26556891702854557 0.68164547508789886
-0.46765538842692322 -0.82190763469680661 -0.33515405391140085
-0.042758353293692153 -0.50090128171661519 0.25064840828773782
-0.758733165944391 -0.82713011641443757 -0.41487619513315011
0.76437116972647345 -0.29780531299600277 0.58008552826117921
-0.064765221973800635 0.47237678167506836 0.75934609711704937
0.22231145813041775 0.017537723351139789 -0.53445688319361651
0.14733067752719364 0.2041090368365257 0.7346558437544779
-0.22560246416945517 -0.22293355568328366 0.74969323143678501
-0.39296837546699948 -0.69324692948226385 -0.12291892484405764
-0.12828919250608806 -0.14847180003375371 0.75663908672775015
-0.36283974320407708 0.22322456488194575 0.75676799640866399
-0.56725185035313075 -0.013950897936801709 0.72479045896014016
0.42721932447820166 0.30289900259008462 -0.077178396957116036
-0.53763944859110779 -0.34055122180956587 0.69346923670430627
-0.87658837754559471 -0.34809239278482096 -0.25554085046427844
-0.78864806401528398 -0.48097580950587115 -0.33837689926166092
-0.30518991909342219 0.21904588428522231 0.75572276047505227
-0.086262562557621436 0.29641954276493365 0.76995606788742421
0.38764016935803625 0.56374130363835562 -0.2128491032479829
0.26155854222669461 0.65103365240593725 0.48464127278663582
-0.60964450890163846 -0.26396881660661009 0.69476169886307604
-0.48623242040302017 -0.84111934556132439 -0.36133813054343555
-0.33521906168986959 0.38874296001595354 0.76443180277435197
0.075763749364668342 0.43010291917479115 0.74080080606911203
-0.066537559029981708 -0.30510786244796506 0.51025685530331444
0.15010828950174471 -0.085685034976615171 0.79110506530565416
-0.48005935068630379 0.071637882653551088 0.7409859604217961
0.046592184102863143 0.51685808455274618 0.72758545691534771
-0.3634200357129771 -0.72806610072894529 -0.24620973231921361
0.085405198037634023 0.44162870168839596 0.72608922214436689
-0.47702008443299349 -0.2234547095142112 0.74129403781140146
0.13650691842667584 0.25367309883125699 0.72253667061473692
-0.45711486255542866 0.10906068452890239 0.75771823544575412
-0.65168359843133317 -0.55025754187525422 -0.15163299581092105
0.14263420249699266 0.1204077487155395 0.75661910245159802
0.14431576430089876 0.51199242897663133 0.63956856826246522
-0.83675346003811057 -0.54039163680339186 -0.35270344223654071
0.16712653514919396 0.36673565231100724 0.6611839262085013
0.42370837046210141 0.090940140427740346 -0.02646219381130166
0.10989529127746778 0.79202693420631398 0.51983718599275086
-0.23950141704197847 -0.34600471034783808 0.62551598122080421
-0.6423626334519712 0.34560836335285572 -0.594083470892663
-0.88917944041508101 -1.0616027667028369 -0.4706691543570134
0.34356987737846723 1.1610778235587862 -0.44511766366469274
0.15381517858392613 -0.091823303536084921 0.78366812839346522
-0.60892061698201871 -0.27936769963534047 0.66196443084869339
0.0048128823353579264 -0.12440349167322573 0.76239330363037894
-0.55968754060776149 -0.88607915667788717 -0.39194260872060482
0.49955801199156724 -0.54264180842862686 0.46708238786611744
-0.54416232945877141 -0.16000946221253898 0.7174813710978889
0.47144436141888946 -0.1824954418253153 0.75424171588289823
-0.54729877582741437 -0.16855739611548159 0.71999023639843251
-0.32020079953521474 0.13854227345839476 0.77514324172792204
-0.55531153872770744 -0.18539470312098771 0.72282303676115811
0.22713951438105084 -0.0022035619386748806 0.70467349188491823
0.043528621047229876 0.8210859098487866 0.525806051061525
0.29384328883038791 0.57704459376941131 0.38740215141576684
0.30503230953500804 0.48238536350524086 0.27786606943061543
-0.18392213581147132 0.54722678102511679 0.6654520049808399
-0.67364827891682921 -0.44542721218936876 0.63542578632246727
-0.52850373293125585 -0.31341826338219292 0.7184578248890805
-0.55549824749130039 -0.1060069923063125 0.7265925891503735
0.1908319171126891 0.40648667313658393 0.63281843775418345
-0.86330157025724286 -0.95663269351024738 -0.42906758543459134
0.027190489968589304 0.26336035232676025 0.77542627651008189
0.28057392122578051 -0.14269582437434281 0.56117661779776284
0.39252127949123405 0.41131963029398122 -0.14307917411932891
-0.32389348454574929 0.35660139373938904 0.67876609075319294
0.33813545596969163 1.1375363654171737 -0.43287533412521917
0.48783487291904848 0.76572480383435071 -0.29084839462545808
-0.29585475883808954 -0.25802433416822979 0.74477467142807896
-0.065235629087936786 0.60247243667902595 0.73465326542628073
-0.35769139679996442 0.35812565921614947 0.76480384443768479
-0.41633421755015831 0.22430141772854029 0.75393197982323024
-0.59165118339605272 -0.63950517014072972 -0.31101310029235307
0.52038289640019642 0.35923745388283734 -0.14416359105469567
-0.13930237604663631 -0.38809812454834258 -0.43653083037278861
-0.77721938164708604 -0.21752626930332042 0.5065053164660247
-0.86170656781315369 -0.64160337462286066 -0.37904630397024164
-0.7996938754530668 -0.83547931927445873 -0.4320449738486154
-0.18944567681919011 0.48135299765313988 0.71690719385665425
0.0053301836316279605 0.2534676250398995 0.77300125666143593
-0.1579395623164519 -0.50574364751933132 -0.25208967610179656
0.4335737239183608 0.35991395715983288 -0.16517228967713393
0.80048755774572555 -0.52973518153477706 0.63104649879865349
0.054530904900332189 0.79559177372496848 0.64862882476907524
-0.21077276304634118 -0.51762282444963859 -0.26400525488266524
0.8475729485809893 -0.31307567552656224 0.64283400770325727
-0.026890484017656036 0.85453538243892702 0.53401978834558728
-0.037482806207364661 0.58518622890979977 0.71982485419552455
-0.28528285208619764 0.14512970898312361 0.76486300047454669
0.1539715528011385 -0.060052392565779655 0.79116701087813013
-0.44663780840812706 0.18445110890706928 0.75079643826463371
0.7513573968353171 -0.26166777341662062 0.65502441829222491
0.17321057703794907 -0.10423449447820943 0.78466635846508481
-0.19733806407353605 0.47037677679356094 -0.72085216767235494
