# XYZ point cloud file
-0.41720885438411415 -0.56760019628823033 -0.37759502312686521
-0.6124602303032276 -0.67413128617801199 -0.33406953590241351
-0.08510746941183811 0.61709589537678156 0.72693626047044191
-0.044225975239157833 -0.16192511280233646 0.75744510210765981
-0.53034354045536247 -0.38424296119757706 0.6976981713408037
0.091289809262406152 0.92869791133075807 -0.28700807247187399
0.44665242623905499 0.53810180881399816 -0.1905830828317967
-0.46141829515894983 -0.84084480576745513 -0.39833933357751761
0.34723283492877499 -0.11600159882549832 0.15251993463671809
0.87015492964584951 -0.18244684711224224 0.58255265797729017
0.20439048699996931 1.1322827533620625 -0.39159940075989397
0.34004308811104522 0.52520072684298214 -0.34285037649653916
0.094389756307606376 -0.045480659129498946 0.79339832560086965
-0.012552568227249594 0.69907176907303636 0.70036810671644645
0.23612335377895022 1.2860531471067134 -0.4555722002382403
0.04311865703337503 -0.28378152694011405 0.43358597458934067
0.18464314019595918 0.095949840449520707 0.75566749941035471
-0.25249304745042878 0.39759567649245575 0.78745182798447289
-0.39365352634579409 -0.34048809675513247 -0.54973445422652389
0.42097884600474345 0.31596059850430436 -0.032531754353851028
-0.34882348773240324 -0.14697411604833999 0.77266236692453916
0.36625809631601669 0.53911995849851735 -0.17366223546359194
0.061839380651775855 -0.083062527899461003 0.78141710009828813
0.070811971105143812 0.36210807833806058 0.7680251494241892
0.72916701328816202 -0.15419990085168322 0.64578892780063635
-0.28671608196799525 0.20923729564455051 0.75949104767946807
0.18057044448035242 0.95658417138636764 -0.30878399577597193
-0.16153135736325908 -0.44226286195847919 0.60089594926249568
0.3154076444590288 0.80348114265288473 -0.29154128672109181
-0.16746377140978552 0.65535574397601692 0.62343654744801391
0.077987814036418968 0.2992665128666161 0.76619063421881251
0.18666657594505409 0.31678779760082421 0.68386123692881995
-0.50978724827141519 -0.86548611918587071 -0.35377163820510482
-0.23651721153828476 0.60975403521833371 0.50289856666458377
-0.62772078287697752 0.26807634298639904 0.63612896127020946
0.30231142756983331 0.099498439799624805 0.63436340616229092
0.24902534071318883 0.0089380273566277424 0.70399061882025205
-0.80580884218122151 -0.10678179095148188 0.45820678877949206
0.040646400754468459 -0.102419980645724 0.7765487824154107
0.28368092694091729 0.90263389768205116 -0.32458642218780298
0.16672138474967824 -0.078821122974460422 0.75386189710673346
0.26410757114510375 0.6673624404380476 0.10110266642680443
-0.088483695162409504 0.56263652574563494 0.74185885781759886
0.4232147513255029 0.33857250975597708 -0.055967073866177941
-0.00218580478914987 -0.10744719990626095 0.78173143656396427
0.54226751613327906 -0.64910262312361056 0.4627565311544517
-0.88918190824946208 -0.90766667322181238 -0.42497573689576029
-0.48955367727043608 0.0011005576877005652 0.73778478225031563
0.29578893751997271 1.0900948926781879 -0.40291075775023799
-0.35329981984612857 -0.59517531752984443 -0.028591629312893829
-0.91468867508022811 -0.69102414425255487 -0.43891461074015936
0.12728253426797664 0.57875376790590849 0.64165381514040121
0.17230594512199104 0.87122660062025403 0.012300691788526663
-0.68818920878409529 -0.58160262285895747 -0.28561076100726623
0.43290931982542702 -0.24655864506514291 0.78217854852887747
-0.11785020480472497 -0.44866652502862614 -0.34503380390911076
-0.38507601435711081 -0.19597950793867458 0.77445367550708966
0.42467059723954037 0.5057145043317135 -0.17823035102650309
-0.075710767830969417 0.71848511832763151 0.72794011637209621
-0.5898179355660389 -0.77494078576031278 -0.34669755324135032
0.14388212171178338 -0.12339605486096872 0.77939701262300698
-0.059542176288431392 0.87867273521073841 0.51449267344585436
0.46517354248581455 0.60553431535122826 -0.21476133691609434
-0.80173498395814136 -0.0086025379975502858 0.33804327569997206
-0.036840939788305604 0.49298518333909058 0.77904408438058681
0.52719016384668294 -0.19006868965535872 0.32656160219534058
-0.26319370188267044 0.49893353151676578 0.63216569677361178
0.58674918333653636 -0.1697348095878084 0.70848541264057197
0.6339259101183643 -0.29194866036522882 0.7406802200696041
-0.4301280087566397 -0.24697385862333698 0.73908846897518643
-0.76349582120029424 0.032542536044738668 0.63166111739905517
0.1774376144562666 0.34624139968998691 0.68704814515036539
0.073785448653097774 0.47959827879068229 0.73970899711900717
0.15757923064003876 0.27487087416636058 0.72587324493927863
-0.12918496956086756 0.48039920318291962 0.69534937012523912
0.081527656923725544 0.83375583987303514 0.28292598861767182
0.22324081733714252 0.45131089078112296 0.53947843238432469
-0.12481064805399456 0.81425660743748196 0.57937239447355893
-0.59958775791758967 -0.58168959573247747 0.11820005577161208
0.00054726702580865094 -0.11714651289148037 0.77149109632723167
-0.95235756850976827 -0.88390285367526644 -0.40833997311667147
0.66957011898327323 -0.20831828623824222 0.6135206163242044
0.45425672846522502 0.26677529441895587 -0.054192225507808445
0.28590501042231153 1.2472012498571559 -0.47015681616646177
-0.0177430866694408 -0.42873562781217345 0.5994776970067015
0.39002876851580481 0.93897506223148497 -0.36704740384474377
-0.23551850867937674 0.86803466991021594 0.14866396231531276
0.51620887639373336 -0.21909752208519961 0.74856607142658316
-0.72298128489242686 -0.38226539214736732 0.57838904601855745
0.22732360416475217 -0.17484724841648358 0.76895180698418208
0.13854800842598536 0.80121429173171776 -0.37684274191413181
-0.45104969640729564 -0.26255348805198997 0.73634032148121165
-0.47660858063351697 -0.86285172642439889 -0.37922719377586844
0.56772986662150515 -0.68159621996883857 0.54917375827628234
0.32150657229111346 1.2717882539544547 -0.48965391523912416
0.55474301578991003 0.91434662400183697 -0.37158243130381052
0.4517897114699565 -0.22411210345469712 0.31341430531225978
-0.10023192779195256 0.44101175344186672 0.75269269886772072
-0.71205816833118263 -0.57972412480553359 -0.29845698716787261
-0.94791414167792709 -0.76372096219647378 -0.40298466654723342
0.46066711256341364 1.2443628450339617 -0.4910436140678307
-5.5948163719676813e-05 -0.43123863689817554 0.55329340849968567
-0.28491824530260601 0.54390802866895704 0.80084591168978392
-0.051409401472000127 0.62903009063066406 0.72373518265851722
-0.067791260456772306 0.31583646987929015 0.76165919632041224
0.42708288803342498 0.74958972998821594 -0.29399357296924933
0.35337600895374521 0.63062471004510456 -0.22259641065173241
-0.58987704559712029 -0.63831083572519098 -0.29493334096476076
0.1821864632734389 -0.11845153185948121 0.7938535342040991
-0.48650913977895982 -0.65917926736084365 -0.26737659219147858
0.6643935043671263 -0.18387468876608182 0.67003514003712361
-0.35296919711947794 0.086124265364263763 0.79487333289174344
-0.54073236567040794 -0.24238337116521436 0.71883661603038718
-0.50852300182892662 -0.89382527983480742 -0.4000354663036596
-0.18199068165893095 0.49618562005636235 0.73181739606657104
0.66344839259986088 -0.13820987111090233 0.67580935295605915
0.78777627431603037 -0.23826267185803118 0.40480452019849245
0.39585732600021117 0.12739970711011495 -0.1209637981909033
-0.18569049268623417 0.35526044464554296 0.77548023061439508
-0.26772513797070019 0.46226077320363301 0.79319515644835548
-0.41622943336236062 -0.22258524238648336 0.75923940588818795
0.45228539456076078 -0.59558533700792538 0.54204784599934186
-0.54720408084014593 -0.02458123152972469 0.73919872522609609
0.30574511568393348 1.0427394320288883 -0.39179228560347923
0.62816436127934594 -0.049959766479798162 0.45216505848134858
0.36537971234635336 0.5916360594142489 -0.2139384282972614
0.0031766023729744575 -0.16608359253348226 0.7592037285037101
0.81451018592278501 -0.12075777272529464 0.59245136921841368
0.048774178759543929 0.27299904286942933 0.76994742924707094
-0.056409020138289634 -0.16840689126068753 0.75679394909493425
0.51199949782301246 -0.64333899606448597 0.56064019651971009
-0.32654480642153771 -0.31408637429980146 0.72001835556366878
0.38375189206729488 -0.4837707093040855 0.41664421561898024
-0.12286461910551338 0.68779690936252891 0.75811413915052484
0.29693310541458118 0.54951788184015982 0.42993295586491698
0.3835858730847832 0.71450866113862332 -0.27283156016959964
-0.30525403978060694 0.022274810192248751 0.75444604064715293
0.40847824362401752 0.10919865874187451 -0.029530931550336703
-0.67751578096874709 -0.41368275457034365 0.64635740867093006
-0.45340805137587381 -0.66215643832449267 -0.059823746378578235
-0.23108744028934325 0.49931876599615066 0.59366617450859671
0.44370577609274164 0.48693019420467465 -0.14406280576157471
0.0029195016225003201 0.85149161672821805 0.56610174058857776
-0.094445258176790503 -0.1772177142371234 0.76025188272841859
-0.22474756782841609 0.27291114483438506 0.77510804894376761
-0.406690211296592 -0.16755387216730133 0.78883229219572115
-0.34596428029936988 -0.18285860302629331 0.74706262517579347
-0.063409279067172974 -0.49022968666656652 -0.0074097331471527639
0.13340296334536106 0.99584881760671351 -0.25940502436595914
-0.79109715529547486 -0.65042257424287975 -0.36026995105854098
0.74359199721232017 -0.43128582620205691 0.69885968398663989
0.83618736810953465 -0.49163014700611996 0.54963508509015346
-0.62527562425309924 -0.55400902132411378 -0.4307642169163266
-0.62613623817873076 -0.90293712634939283 -0.45393713358454235
0.018495316433032372 0.86529682553296539 -0.32928492948423482
0.30883476395709408 0.563455038120658 0.32878857759489577
-0.14891444935182108 0.69750319974516728 0.55962845547597695
0.47656482278712531 0.67287661666073717 -0.24928479469712883
-0.72997716140946523 -0.40065313279612624 0.47796986111915274
-0.0043993317365504936 0.51710355550876841 0.76733255141256507
-0.66759563898715157 -0.97343557173132034 -0.4060999739354525
-0.59204997430538242 -0.28206610049669756 0.71185813841923817
-0.15937887180152188 0.48577726635674168 0.775617405159025
-0.32809617577333938 -0.11689784090902045 0.7456805038301475
0.30980229808650961 0.5153997630456999 0.14264173167063099
0.79164771737575279 -0.41215830864395997 0.67998852679836341
0.21692968610015839 1.1463635703379893 -0.40614896695235814
0.052519382139593063 0.70829493177023295 0.67682620946815852
0.85822782078966497 -0.44595609530768598 0.53884424733499436
0.69208552775373278 -0.36642663414142618 0.67094009232067231
0.25462325204364333 0.69997149864222052 0.047531398601170949
-0.25298393104773709 -0.53569832080095026 0.23669512371160284
-0.41339971006659937 -0.63889030656067369 -0.015367366701662721
-0.14283100353748068 0.48518030965190206 0.7612903159532447
-0.072649099203857759 0.61632390736791365 0.72708663875430446
0.092182732868678841 1.0079830454764362 -0.25718184082855799
-0.61575636780960963 -0.098842624037638771 0.7287029539292682
-0.55228757312747234 0.12218083007855185 0.78793350523977779
0.11815973633883914 0.40927171869801526 0.72392504740179442
-0.77701769958034816 -0.81748582051012431 -0.42869425908534353
-0.44572311336395387 -0.13236737967667533 0.78886576202260272
-0.11357970946383489 0.52149330365108781 0.70368426013820695
-0.57372494630688209 -0.909650623369199 -0.37545718606680367
0.016726741791643462 0.45245592613244412 0.77484118036527327
0.46841267241319429 -0.58102888470456548 0.6196994657889805
-0.56198292137142403 -0.20153606148356928 0.73081003467553884
0.4439464979710408 -0.41117018012779027 0.75719583738734819
-0.74997361526541795 0.094084541259304544 0.40169575215668374
0.10418207416211089 -0.10161559460470215 0.77832404010041856
0.082384868526617083 0.31763303343610971 0.76814932230911737
-0.29150543553228658 -0.54708546532111502 0.094363232762781024
-0.54166394512424176 -0.59919924437085825 0.028946221373187253
-0.30440589778058325 0.14287077130678583 0.75742789494447393
-0.64332923894991723 0.1248616513488976 0.75624452622234628
0.61803612509135064 -0.51798063952818296 0.38353504118623682
0.38422580013239838 0.0042846982188322613 0.041719253110031218
-0.67163457767835411 -0.74079747313199196 -0.3735959916999132
-0.096341107126988845 0.64861928095311328 0.62939082782080646
-0.50226852818991574 0.11207123927753138 0.75076202680715554
0.37353784705842941 -0.31119078382879906 0.7762301059906207
0.28970714417749832 0.42917204616097138 0.49731529979402822
0.3361656214944162 1.0922828636023496 -0.41684379504101798
0.26206561192387312 -0.23651522993790053 0.75719912149842106
0.68753556361789947 -0.13791757840652963 0.66780470344902865
0.46239606942569367 -0.22081602906656883 0.76333480503242424
-0.81883390500307485 -0.4408105065941279 -0.29461442367587765
-0.6310049916262841 -0.65327980376454065 -0.32391751340577457
-0.56842923216240138 -0.46723871184360455 0.57282969308440101
-0.79967663037200509 0.45466002454939591 -0.21989830087872475
-0.35413899006599081 0.26259387442145155 0.75364070409491291
0.16843469420822998 0.44543064385196374 0.65021543394025372
0.33621055801395983 -0.31068059249027158 0.33140619467823651
0.15228804173609944 0.88912544266982252 0.015426058917917373
-0.91501388248701687 -0.79058582188856352 -0.40647337918199611
0.40149993701410835 0.35653334462861608 -0.20600743080280637
0.18477480609354302 -0.065060902894806816 0.73767753462922503
-0.53338857475102941 -0.10223365668637641 0.71837850152729743
-0.56752235002190332 -0.26767670101799723 0.72270341084626821
0.42345431253062316 0.38570220168035263 -0.11192593217154823
0.22063638726851309 -0.30177632322108394 0.70852958047137182
0.31481111629555869 1.1172771126495675 -0.4200390950254338
-0.11977609193542094 -0.17582712263318712 0.76332463160859909
0.15107805750056968 -0.1593512049739374 0.77932284609913349
0.82839601565146381 -0.35298746893396782 0.65139664576525336
-0.22882482364454404 -0.05595385052178159 0.76299277621058792
-0.10394730542077468 0.77688014026363561 0.41943420709443124
-0.83062747108779433 -1.0001074535382521 -0.43336223719982669
-0.6019654965114114 -0.40160388895275467 0.68535772062934441
-0.5557392849775411 -0.8508589890491951 -0.36760173451966338
0.14881106264604682 0.60046309570916634 0.61991317821644998
-0.179491834264212 -0.29766545787514787 0.72051756967513292
-0.35259282920142709 -0.14762155681654976 0.76513119670088159
0.75012953351813394 -0.1014137484680866 0.44100648364289885
-0.70685975142524171 -0.30151104371392723 -0.51395747946732229
-0.18149891245883509 0.41184628390829658 0.76855502935240594
-0.43737796185924083 -0.6916432873749212 -0.14833793726264854
0.03373947182595316 -0.20540420833737372 0.74494350105942075
-0.7847033478181018 -0.853893282617884 -0.43252511858025144
0.2318955843710313 -0.27099981387284799 -0.28267435017943043
0.39159394529116298 -0.40705028179257496 0.3625135861619273
0.17951891355573935 0.50464219919558673 0.58782520956221784
0.66970052521529055 -0.16348633833120374 0.65799204735210015
-0.11247127597076201 0.43273984789598785 0.75960862354745196
-0.44651705839265787 -0.10234470000031948 0.78812820167005881
0.087150674858747834 0.31279713989690094 0.76575350967471945
-0.53487479162973273 -0.27254168554808089 0.71888987188062714
-0.7960730871838706 -0.040629124394223837 0.52259839451071599
0.29113251281358998 0.58186042803897209 0.13820258596309998
-0.062192839233489394 -0.47981437713203867 -0.17922156915223297
-0.051505720024408674 0.68823180607446943 0.6331335493622916
-0.028077882802762133 -0.43403338718055551 0.58431111330271124
-0.92140908431451862 -0.27053750960630296 -0.1943311394280629
-0.27249869077598987 0.15319090487589015 0.7595605037425095
-0.053951360190950481 -0.37660231628685281 0.48462062974365239
0.18728843846855625 0.9249270770686735 -0.27818078065538643
0.36892935897608936 0.043088332284632713 -0.15735819535601792
0.36242976732036425 1.0884711885364879 -0.42110010488833538
0.68324180571485726 -0.35786587275719484 0.67537756492931411
0.80654863505611729 -0.10037437347074629 0.50436695240538665
0.40883016222392143 0.14180440861350974 0.12674114771139955
0.023921509313652223 -0.16487988093992101 0.76248903822783731
0.26807509769463422 -0.080132160020674803 0.61258136679561659
0.11925391745691627 0.89393586986633977 -0.3169131968064427
0.06199285167528501 0.34539487514925327 0.77333184589471848
-0.053728105866916565 0.87856638877255477 -0.36253240784025387
0.17654476455356871 0.46606463318114777 0.64036105214227312
-0.52482048019135163 -0.035917304347986345 0.72461408460786103
-0.29656843378263886 0.93055343406849289 -0.11955060425739816
0.15631391272569317 0.57252238388722532 0.62397347449466789
0.17747142434382113 -0.095498683807250018 0.74645487469601424
0.1186972084230149 -0.065107741386000839 0.79397594763795798
0.4133486815199916 1.1344147983208401 -0.44622690060489489
-0.83391854229993356 -0.70951364596312416 -0.39433056514963383
0.085673985671320452 -0.40114980331902927 0.62717253700837672
0.6737374066545101 -0.55510086295338112 0.68899036706530126
0.20734006435719721 -0.44577094352557722 0.60078186055207583
-0.59161424385393957 -0.14687801432276615 0.72508985702772932
-0.83831757256977113 -0.85897086811492152 -0.47731668373147684
0.5967869927783056 -0.10416694566681173 0.65919644964134783
-0.57741919075027681 -0.11423380146622542 0.73044165573554665
-0.52208331699591781 -0.56786421075590676 -0.41144113979376584
0.75314688605396896 -0.20742638186714046 0.6114104954958437
-0.58763741982366469 0.0030891844946623337 0.74711157640181369
-0.80898552481303909 -1.0060549160016752 -0.44621708695009943
0.68937930894216493 -0.18138389184802861 0.68773737342323393
-0.506144884880257 -0.60653544523098812 -0.029678819425646097
0.11400996382320727 0.82636560401494563 0.25202596803034627
-0.1715578243504865 0.8312132575858584 0.27970005302765166
0.32127963130781723 1.1476979779708074 -0.432492786693075
0.31222405990476432 -0.23675928714720129 0.78373636420338233
-0.31725906077022614 -0.0032341025082733843 0.77361639365514279
0.16855905979099362 0.36391073108635652 0.68760635209023313
-0.029542216623298145 0.4733810515367125 0.78189436688468206
0.34242349544454953 0.92331425509292586 -0.35392432981614519
-0.047411919192512642 0.61174709461545618 0.72956642977532837
-0.48489742213057241 -0.61185937275469904 0.005035996148412103
0.065175692087478865 -0.41089456365761734 0.48141943245933927
-0.41159436013683148 -0.306888738666653 0.72553238453121693
0.67829335355227727 -0.31497948575920276 0.66822920485429727
-0.39236349738749254 -0.37198813665553487 0.676791259567878
-0.57404708639396063 -0.30249281948453088 0.6844477909669564
-0.43231813735374658 -0.79247501752707095 -0.29619348831387171
0.16542637417259698 -0.39075605668669411 0.081452567606305593
-0.76519001646855145 -0.85055535459952836 -0.42045762722537816
0.74492008946251076 -0.34248865365489678 0.62234902823496707
-0.077023721120752953 0.4735998863039157 0.76016794767681617
0.21355827232025604 0.035983001168162332 -0.55656300193585295
0.15375559858622978 0.2446327238063688 0.73530256466144639
-0.15294589751189847 -0.23754444338847946 0.75054840378889409
-0.35783161461012014 -0.65956747875791599 -0.10086948051162103
-0.055922419397660406 -0.15087378814173391 0.76191383824196812
-0.38312503343857429 0.16113786571754485 0.75851026145581457
-0.57822985795183968 -0.047670226232156665 0.73144492353100077
0.41746928289667551 0.39280271149749524 -0.10706083287422175
-0.45090379743248832 -0.38387463783196729 0.675342352662895
-0.87501271742127074 -0.36507219365233112 -0.25128592440954556
-0.79146622175450432 -0.49731020311646379 -0.33549228982326262
-0.31238375787179962 0.15355605906154057 0.75392786649182497
-0.062308665182399636 0.29452755790092056 0.76687680814301906
0.37492567417956479 0.62339750104669633 -0.23341150138132605
0.25275006542238998 0.70579093275062377 0.48307818034373273
-0.60731563818910672 -0.28791918325032384 0.70661682308744389
-0.43278712773866346 -0.80420097249313471 -0.31445529096253644
-0.36758377670039977 0.33505012492017183 0.77033819607083487
0.06918016622654477 0.4746962099989176 0.74517640539734753
0.0021965550100446762 -0.24769941701811149 0.53989988267550615
0.15834978400408772 -0.083804452460579881 0.79397048236064727
-0.49370247193792238 0.022055368153608867 0.7435501462945453
0.031776936885250961 0.5522802957295383 0.72961338756951566
-0.33819019566998065 -0.69811432704263154 -0.23629493322111728
0.079765744272549455 0.48674986342253845 0.72887172360523778
-0.4294076428903395 -0.26344684566340959 0.73927318136100695
0.14429098786186501 0.29502970447676091 0.72304704734835035
-0.47318003535750108 0.058177170452681892 0.76138856039849401
-0.62118172894152224 -0.56909812221795431 -0.13548106275678773
0.15081841871477764 0.14783306422225451 0.75731053245452973
0.13955851718608869 0.56100912859219676 0.63791827456011152
-0.84461906643088014 -0.56157748280578357 -0.35248645972359149
0.1700302661551234 0.41616433656464125 0.66088049193430098
0.4269896669338209 0.20003685500662982 -0.069719220319857556
0.079745996319388723 0.82695856956913616 0.50136038605519051
-0.17991070206036852 -0.33252870994177997 0.6302261644277305
-0.63887929125308673 0.34920357837608407 -0.59515104887110226
-0.82334023759145936 -1.0779082151309378 -0.48169455717370013
0.30361509803206843 1.179034802986493 -0.44367359899823455
0.16848237770531682 -0.084434857450084166 0.78805784543365043
-0.59215819377581624 -0.31623619893074917 0.66490475955823314
0.057542757858271898 -0.12202642398844432 0.77006975876926553
-0.49377849842767318 -0.85617146579151893 -0.35115878211002993
0.54095004289314375 -0.54442660087593708 0.4066206953287006
-0.54032841169211565 -0.20183942577728864 0.72172556501296015
0.40917761802197106 -0.21576122407650189 0.77535976022885
-0.54369345989638873 -0.20869079193456486 0.72514285902529707
-0.32230422594940933 0.072026648824934369 0.77743305751360836
-0.55220803374646721 -0.22200867400882274 0.72972265979345963
0.22587467152055751 -0.019163278259611616 0.70614542266745239
0.0050737916157856944 0.84637850269238868 0.49823419392025592
0.29648226563858771 0.62431618555740442 0.38350111053816427
0.30955794120396263 0.51195985985200565 0.27406492436763763
-0.20154149594185355 0.51260423548729861 0.64901556566494989
-0.6311367578402951 -0.46322243896880888 0.63734559132999635
-0.46681430287870285 -0.34131968480694241 0.71462991758757965
-0.56153004849113586 -0.14263850671450484 0.73412421542916917
0.19047118618539116 0.46130084276894223 0.63221239963477238
-0.84164644332070537 -0.98628128874982401 -0.44064527162650791
0.042169344142763521 0.29249759767247241 0.77787761858946514
0.3313068904527654 -0.11222715178121945 0.63960840307157341
0.39039011028120285 0.48124727321917504 -0.16699401554972582
-0.33992572690397083 0.29803487856508859 0.66862768568405073
0.29879981982143988 1.1530040938144381 -0.43126022026115507
0.48574893731914415 0.87177435055191665 -0.33578620201902254
-0.22042598078274978 -0.28166508057610784 0.73955122345037516
-0.10542009160329258 0.59722033036922539 0.73394965571890936
-0.38777490414588556 0.30541678296311048 0.77007030267931498
-0.43854053395995152 0.17118357929525985 0.75654530420447941
-0.58247809800306527 -0.64587377083707143 -0.30358115694934362
0.5023143373214225 0.51308509436415761 -0.18561793863918652
-0.10450327619163602 -0.36205267436980648 -0.4598652114202757
-0.77653270511194705 -0.22700812168776174 0.527651902753
-0.87173998537452491 -0.66941612626392732 -0.38366012387196591
-0.80978082646013405 -0.86610280443683774 -0.44366699333986404
-0.21239316599007907 0.43725036719160748 0.70937548734391598
0.026091311632598035 0.27454009122957146 0.77338464904607296
-0.070954132897583122 -0.45121775574067868 -0.30287860093388375
0.41990020748326629 0.45041101292298436 -0.19542972188435215
0.73046584438154127 -0.58511790823334309 0.63881562542116388
-0.0089846810607241423 0.829412119261562 0.64037079610663206
-0.12948352428173848 -0.46971931042523618 -0.30655549904959756
0.78919871242425188 -0.37265384483298192 0.6863559843542002
-0.083512720775672733 0.86652942263716071 0.50351995260594506
-0.062619392993866541 0.59360078649261183 0.71520560446161063
-0.26189422384004502 0.090686461139938501 0.75933512276476733
0.15341462583148768 -0.071628613283643006 0.79175828316219521
-0.46658605955053645 0.13445722908388191 0.7534306556825392
0.68754178214240369 -0.31777605790102825 0.69491715414602107
0.18068760121241212 -0.1019504004119014 0.7898772815382582
-0.19477020871884676 0.47283758064576631 -0.72244604464748363
-0.31516753477185944 0.005145272934734102 0.78825298185997283
-0.75696624767188325 -0.51773102164445639 -0.26386424517937357
-0.5955049315352241 -0.64014061407959888 -0.40521888464530065
-0.45801786090871133 -0.65897467032898049 -0.067529256378894065
0.38368381187198963 1.0265601725695674 -0.40134328085508386
0.37547420834714273 0.51094517401996598 -0.17145357796564653
-0.34564341640341922 -0.16163573137609433 0.73119404510262598
-0.10128069634038184 0.66718308818546035 0.73269112682679172
-0.8360897524017048 -0.19338636137167065 0.24473550630198204
0.044914960526000414 0.61362744001789338 0.68900297338923266
0.23125179985572686 -0.4147426012337192 0.65460737104629807
-0.5755660780580456 0.055077894065323818 0.76806623644493399
-0.11192123707277801 -0.37365755329522443 0.52092096885011951
0.20934514246651759 1.0357624297914043 -0.35102828133740971
0.3868987797757768 0.50619638026189051 -0.18604328341486109
-0.41133995109841237 -0.62752262627289923 -0.0027333244905083376
0.49270386998563254 0.8307902194977288 -0.33112416732144823
0.20988181063131606 0.28163939095595936 0.68052411537300639
0.26502666657344776 0.8467013092726674 -0.27884390829266437
-0.26740542481829266 0.64285852095569673 0.64052838883042185
-0.49237621039371504 -0.65082921005257965 -0.26982846714851405
-0.53984030814490325 0.23005380367076356 0.78758186395506513
-0.046583293325767272 0.25737321187673956 0.77424007578017218
0.1476394633930056 -0.069202796574437286 0.7921388139940877
0.38565582071814219 0.59200907351222298 -0.2533965681364414
-0.11220650359449991 0.88930460987955939 -0.40392549697927116
-0.21111879907255116 -0.29386262627905069 0.73357814226509355
0.25209676575443041 0.94626496374186786 -0.33008137834809048
0.51817553624661628 -0.059718190245948932 0.43120068834091985
-0.35093494111367818 -0.31537629939671774 0.72033081339791494
-0.50537985170868183 -0.60622290798184775 -0.047920817454967235
0.71151161433306243 -0.58033483342140357 0.65551875424787731
-0.28478273337026394 0.076715754881247378 0.76172702319661667
-0.54914525687360083 -0.59753786263903841 0.065076242866269229
-0.72854721704325698 -0.39655522933150422 0.51784120020247926
0.72709267951907464 -0.37062090210890375 0.66345818692533287
0.41527535011908867 0.64187116560655255 -0.24279780670580919
-0.05200260544035018 0.71053206114595469 0.6026439576657534
-0.39908588391111266 -0.1851618892941338 0.78291911709974471
0.12290510011445122 0.25355969384641242 0.74756369859106275
-0.22628058691140041 0.36179759603332151 0.7713692008453954
-0.88706525113544643 -0.56864835459635854 -0.3928962734620427
-0.14258305627717505 -0.50334891619276068 -0.16366025994799394
-0.41428781248586688 -0.16148582293968339 0.79056400255862869
-0.33473629042339326 0.041115050921991969 0.80344497032344719
-0.1883203949236929 0.58192674804269728 0.5837446788490297
-0.68735761395330996 -0.98142415970351671 -0.42455171800989966
-0.2015955716063047 0.34890663238686592 0.7685832895487934
-0.57576519325081676 -0.10439321069918606 0.67001517666234278
0.14252758663886311 -0.19100723049641388 0.46831213808482275
-0.53678360334521358 -0.78195698408151593 -0.32798149695199008
0.07638011907698683 -0.44045199390968293 0.078182254943392593
0.27066690524154069 0.8620387406500285 -0.31408206767763858
0.2753298587059021 0.65062820139119992 0.023515802592212864
0.25635161221718761 0.88157458120490162 -0.29461954095996745
0.17948781542094139 -0.12230687016202424 0.79157867886187905
0.16425040542395664 -0.080596548602514417 0.76824712051311206
-0.47111769314480512 0.18052391281217339 0.76554903074930536
0.46769911981201062 -0.59122369485184123 0.48297958274672315
0.41314158394339984 0.12985591595083434 0.10448255994092648
0.23108282541085146 0.28720409369854849 0.63042658548983166
0.34651153188397643 -0.50050359104698572 0.58738591835514953
0.22464978200304131 0.74598206455917904 0.16771371719369199
-0.6164290065754443 -0.57971059112997825 -0.21251455618848958
-0.40727353070957406 0.13095871262824321 0.76665810389538791
-0.28523621884522754 0.64954212823058199 0.75946980703330524
0.88635224023511228 -0.34416591770127525 0.51685021654837682
-0.31622909515806441 -0.015485513967053333 0.78280232652191017
-0.33088814016110746 0.21793929159514613 0.76100640878791381
-0.7168446684013432 -0.99483985254502194 -0.44298821070217365
-0.39904388794204237 -0.20635091127802907 0.77436901217355114
0.43226270500015573 0.48148783421926566 -0.15890381597360914
-0.51757756398966848 -0.89519632530174498 -0.39981546022282366
-0.06182974127867169 0.25304786313370187 0.77426933655017116
-0.036228477555567906 0.3903033411982797 0.78933437344047519
0.12233512281531489 0.16209669251110626 0.7342865119120261
-0.80841685987235934 -0.98286566657725594 -0.44873543641415026
0.31171870870656448 1.0793634049364016 -0.40622128148105929
0.26485855931906599 -0.37765377744747042 0.69289266606054145
0.81116971942881833 -0.14701259864403227 0.62295874842471166
-0.086020983120192795 0.48355186856579735 0.75012477178925252
-0.65272598485870503 -0.57245735337999193 -0.23924001313724474
0.40472234238475835 0.20907965386751926 0.1118472587336079
-0.03771007026659845 -0.44276904680548768 0.55785955487961392
-0.2393301637034142 0.47048626955851347 0.62042439452468301
-0.38815595130478187 0.61236344000477771 0.50827946111745348
-0.020507981133391695 0.35653365851685592 0.78943380289829079
-0.061313991053964401 -0.43660493203170958 0.59877417636731778
-0.017540157093918651 -0.10137956198379428 0.78262934003060103
0.86793793986689138 -0.19361962115090137 0.59884181881943155
0.78538043319915118 -0.13023531638335228 0.44541609547097805
-0.41577372010387137 -0.75239519401807087 -0.33050110871340621
0.48550027088307957 -0.25566218070583346 0.77140577070342697
-0.56816840542281 -0.763299922275257 -0.33458822551586209
0.43003924080092304 0.39204687163557139 -0.090836412244748033
-0.10499013252427858 0.27436696155557883 0.76904097034987551
0.31712197286222477 0.66825483339223268 -0.20085711765614178
-0.13147422488481197 -0.16095612882571686 0.76535305818168275
0.093433712287051662 1.0035609898932165 -0.27760176370926182
0.39862491748431239 0.73569416432730605 -0.28399746860037212
0.22562152030963034 -0.15874755058940693 0.69310816853143642
0.40445484403088017 0.16924914913321487 0.14730892087301584
-0.36854030747468869 0.19778162282631628 0.73618563197993581
0.41194372146235025 0.58395084802446462 -0.21666386666225179
-0.1397049715438925 -0.10299442570280348 0.77229777278109779
-0.14905625687404722 0.12983347503231002 0.76845713817592376
0.67699755019035024 -0.24206091200572999 0.61889609681665636
-0.09401145484619633 0.54566683347226075 0.74501741266319677
-0.43482398825059931 -0.34320154847389794 0.71229199323854075
0.062427790522022519 -0.4453835980102383 -0.0054578799717752702
-0.070089405263587423 0.30787602889704502 0.76544115035004623
0.037159177544651811 0.83903468759768174 0.55542620204801363
0.46776641375018357 1.0048121150067786 -0.39928744297552043
-0.04238078427655978 -0.46426981847798388 0.44802343591043048
-0.36142170439751453 0.12995015189847159 0.7691867626039226
-0.006448214332436919 -0.12475413336087371 0.76867293653100255
-0.72092751621995887 -0.93493425158520083 -0.41623411720359726
-0.45834099589120569 -0.65052182598309116 -0.064825818604877572
0.44444720812676053 0.25729221905200461 -0.073677852737347393
-0.68756868518389069 -0.47099649054716419 0.54184126166675028
-0.60611044028226502 -0.46247876475369698 0.60407819647759808
-0.026289126030007992 0.22093960935782064 0.77591120029756588
-0.61830199034619682 -0.5414577404926888 0.38015734177604799
-0.85138293802020826 -0.37265712353245384 -0.023274843338950468
-0.47035428411771818 0.050201463173994654 0.7460873585575456
-0.36130624835519143 0.18953817575226051 0.75823201373097504
-0.38790346439543555 -0.32552876021758514 0.71739846584673472
0.10346106744685812 1.0165697539584926 -0.28363709873963927
-0.59083484153930499 -0.21529065169024442 0.72079533236194848
-0.43480803004754875 0.46830023908912821 0.76546241041508978
0.059355982854640388 -0.054413930309323177 0.78801988308678794
-0.41608583780957531 -0.67494382183295087 -0.17695568798755268
-0.66349518909341043 -0.96584522005571749 -0.39847215696644689
0.68796385474678345 -0.29950281671550272 0.68943668521747981
0.0018363795424249929 0.46863142241819133 0.77644641300246509
-0.50509202293764588 -0.33285253289357364 0.71694657311660848
-0.076281197924629396 0.6280826762274323 0.72345057656839273
-0.79273902706390231 -0.50438596464637575 -0.4023545755456901
0.23063483751246849 -0.26749665086303054 0.72782176162601164
-0.70396273331095927 -0.49907416473508626 0.2120728902051443
-0.32719902112532395 -0.14404453327348943 0.75274707719792744
0.19215680361142518 -0.14484781904726773 0.79024768571770032
0.43460253852182973 0.44039946354464377 -0.12839979093907061
-0.94521984209294629 -0.82947741108224005 -0.4064513810568009
-0.0980039834881552 0.39691249015700691 0.75717630555710436
-0.40794856124948353 -0.69242151972864185 -0.20706732414451245
0.8518719375888395 -0.31553712929596145 0.62799425725298752
-0.93285081771499989 -0.68799066610879178 -0.422604436491401
-0.12855276183563547 0.6080881562686713 0.75681777634217084
0.31381576606412409 0.72355718595463969 -0.30098733933058952
-0.50844670637079048 -0.6733519047735399 -0.28839209211608363
-0.47336848161080525 0.240102216999313 0.79466881475574525
0.018139767204615964 0.69725549152654054 0.68723752887876266
-0.6615454176090978 0.14936399500271413 -0.60301704125981104
0.64123222603973318 -0.59032959393676521 0.42036021178458594
-0.27518827176177751 0.024311066621795163 0.75898455050553792
0.1957784471934545 0.35220450681144655 -0.58201348903549288
0.10106809059709576 -0.18446942886661688 0.75793053146982103
-0.40621558517020162 -0.36377972774898559 0.68080224184783944
0.081527065350215366 0.99529153124525749 -0.25524889580000654
-0.45324849566166847 -0.66665991751370868 -0.09213936920551058
-0.38778189157773113 -0.45746641800141674 0.60115340390046157
-0.12540130965589924 0.2802886274877352 0.76669539506719175
-0.31480135701744416 -0.36382444710062423 0.70024356183523295
0.43075275206594199 0.394486242799438 -0.11138636259096657
-0.45274954569200077 -0.18369438515311387 0.77851250948595663
0.13606741084421969 -0.10092714158347249 0.78144804034041204
-0.11721855560071504 0.4039130822987147 0.76176641211441876
-0.083950668896079605 0.33918295607101712 0.76243637502191675
0.44336888694245147 0.68384781889776036 -0.26669349004130538
0.20737535368519389 0.53819572368103508 0.58307620616643074
0.041825785972491758 0.23416870408790658 0.77148424308397257
0.16464906124608092 0.85044479364083969 0.083335225537297219
0.46262452259982467 0.59198806149493777 -0.20298177505409853
-0.82694902013233218 0.38650674104805383 -0.30024280387280378
0.032808591830075784 0.89280331050434114 0.17710918818757104
-0.53908882309011119 -0.084915334935439901 0.72116831522942348
0.39372833196114243 1.1263989284373963 -0.44689284721536637
0.12713084459983293 -0.44614905676770533 0.51697229235546116
0.14836677802546205 0.28870890723485587 0.72453877523418342
-0.044859576382037858 0.51494185377588764 0.77212776392354066
0.17322842288479023 -0.18035305995888962 0.73924675089279646
0.28013637559860172 -0.14719607013272196 0.40488549089107906
-0.31057786316688407 -0.68049081192025618 -0.18305993011781307
0.27562612960900879 0.032151044252692884 0.68295714254982798
-0.092369904518136536 0.78192813145195927 0.50945163191122766
0.2490642884049592 0.2283634509522372 -0.53587802543844987
-0.40860004209743295 -0.75572641231270232 -0.26095301644278202
-0.38265042871819333 -0.19695776436515322 0.7464117117115201
-0.75555284582091531 -0.5095188934367556 -0.18460424262930974
-0.38467520175039738 0.68213747359729471 0.54599538855777752
-0.41905535752637491 0.63739430232279393 0.52952067761755117
0.24464663927838615 0.69104460362441245 0.51347090514153582
-0.32919408801697614 -0.096433777855894132 0.77696220119765158
-0.07685409788416564 0.16674494282366581 0.7747458152776403
-0.37939867720089637 0.21111950286818626 0.76125373039357314
0.43790643807957963 0.45356306554538151 -0.12655978631409681
0.19261408531448865 -0.36296638608533272 -0.10916567821115919
-0.083222695107025402 -0.15420759779538074 0.76349171212275202
0.22410528133204366 1.1045131790977791 -0.38265727367451419
0.1517030945603608 -0.095595564451176784 0.784077084989109
-0.79744487824736865 -0.83389277745756463 -0.43811114757310676
0.039320508228485096 0.33089856328506073 0.78115465080709434
-0.461848518307022 -0.29728732949078918 0.72985220113240956
-0.1794879174401558 -0.26526909518043595 0.74327832363185564
0.055058707805670792 0.30210796121908601 0.77767417241853032
0.30500080123692896 0.46097555334801399 -0.42783051447991127
0.27442902582308193 0.81217359391094135 -0.26361644543252538
-0.64388778502046762 -0.41279852452177757 0.66905879848777161
0.16570402369504222 -0.077538330740729577 0.79092897496250636
0.49432174811536811 0.76186848774282367 -0.3006266182920001
-0.12884427010487798 0.48923355852630834 0.7523119999221759
0.21982656533549516 -0.015425153976870831 0.73640033322421417
0.20977839759402173 0.7631378214884279 0.33236480257806011
0.45415000735809485 -0.58631569496326108 0.58260025462171328
-0.41097558873428852 -0.41340236721713985 0.64735890338465296
-0.058716577064672038 0.88312338705962645 0.57356985522253723
-0.43509384700530518 -0.64020425171429274 -0.0049017980040328979
0.027439741333466827 -0.095874145655042042 0.78049022861976347
-0.93209096956202586 -0.89078361019663443 -0.41248526817621567
-0.56715342523338563 -0.11397445254612748 0.73385187511479444
-0.92974499681869816 -0.93771985825867521 -0.41350113514494069
0.77749513461611741 -0.35642952120878846 0.63766090526441532
0.071714222523979743 -0.071516234296929326 0.78408581953161516
0.16369039162321997 0.57857595400285078 0.61413313188825036
-0.73583438152198255 -0.8966101564190847 -0.40916194098341485
-0.60513253529879307 -0.18093258320222816 0.71939985958282548
-0.074216712208297508 0.86349083307371899 -0.4277725114014892
0.72983301389658095 -0.066594948768756268 0.5572976903396194
-0.080323141531863484 0.020241052410380433 0.78127750345828595
-0.5086431329593637 -0.60673539348812433 -0.0064413676095798067
0.073220759702962823 -0.40344037984282011 0.57760192909290353
0.14920608821975634 -0.38032325778851117 0.38830856796678503
-0.29000160074107839 0.26691987339849899 0.75823363705890401
-0.41646412540548283 -0.69444573007094235 -0.2228178701510064
0.075174048732748133 -0.061514554420423195 0.78634971967621325
0.4864667605528723 0.60009672952762827 -0.19537247466039176
-0.39731745635117477 0.0529125930654466 0.78967594771174632
0.4837025360471614 -0.30707068790070835 0.32275327257377207
-0.68729091031735479 0.22554446382581617 -0.57876601647924986
0.42516217557522396 0.34505032068580022 -0.052770236838323825
-0.096595527556388561 -0.14827596169194024 0.76843049824476672
-0.2300406330947169 0.33085766792565607 0.77949863047585666
-0.56544796094014771 -0.92680489436045477 -0.41628553553132264
-0.24106599856713729 -0.17684000216625329 0.75709865864223502
0.50289823222404095 0.89055514688269 -0.35515889779393461
0.46350186371469704 -0.12480499744534157 0.68707089188034054
-0.028307222048312042 0.26020293066484257 0.76902559086305899
-0.74985617397211968 0.29963770593216843 -0.50812790470966718
-0.39485189511819385 0.14615060015431602 0.76056350720627108
-0.76610611826220065 -0.0036552892794556868 -0.53059289312503921
0.14962938514210578 -0.43525999133040116 0.47496519985928565
0.073594235446535095 0.30314063835874805 0.77124169543569021
-0.30816777037767906 0.27481078959578653 0.66503839756345684
-0.066090391394851622 0.86727459182053224 0.50035166956950405
-0.6512351316497984 -0.45512414270447454 0.64371258605866544
-0.31616627973539835 0.29891792621869739 0.75513611939050662
-0.56412914914083245 -0.92912216217979804 -0.41621484554917387
0.061639573863779162 0.91085772805511311 -0.2805515021589553
0.13509118691820277 0.29373633893796125 0.73506152807437442
-0.021579938566503643 0.2430136491168895 0.77596583146938869
-0.0018376572262752688 -0.43575420103953633 0.57753415685214238
-0.36068324895609294 0.0060389662880790951 0.80736227688107931
-0.49419346580711476 -0.63659512778686 -0.23940839636185274
-0.23097604226472868 0.38835345208287286 0.77337338176115011
0.15277406740634092 -0.27091549233223233 0.36065403105974614
0.30341744674645099 0.29117651197957883 -0.45371084893068669
0.33433344654912389 0.31786674627602451 0.33863877852372504
-0.10316989327029091 0.46104353138208864 0.75350288905067053
-0.33818894612196004 -0.14065661770069493 0.75450799717084394
0.00024667383422638522 -0.11283977475556384 0.77355975662311671
-0.89818311053588573 -0.96858506513711173 -0.47285154843401855
-0.84684117376167478 -0.74033059267385237 -0.40403410022313224
-0.18889728346454149 -0.24798455790912755 0.74887354015509722
0.20115348135878719 0.71591047574098354 -0.41720911753863632
0.88056486617759333 -0.20156567855379137 0.56354809889669966
0.83787031513310239 -0.31604259449566285 0.62555544885112191
-0.41864811592208184 0.60515934450618847 0.5088180430924929
-0.549080816390358 -0.084561330214569352 0.73562401859523519
0.77506957307582525 -0.50087367922974835 0.4363947185020165
0.29190059192850981 -0.48376178525592195 0.53166981461715013
-0.61573295555697172 -0.95951203112143624 -0.4311425130786759
-0.61066887009314996 -0.064132156954489261 0.73476373425704367
-0.37064532629477398 0.010372581587382967 -0.69552771591087392
0.58061760433045606 -0.62815641179673065 0.65415982361750302
0.063774087200300755 -0.13650445431625258 0.76717612051997897
0.097868082197379636 0.3258944520468674 0.75983368580848154
-0.035097489250858871 0.84342147282669799 0.49066794536390468
0.67359323348551925 -0.67570562559114222 0.55639095028584329
0.42133655000759518 0.4987667347059741 -0.1788269522746404
0.64622618047386027 -0.21090687064657487 0.62356873174762395
0.19327859631397359 -0.040323327646781593 0.74523623566779751
-0.10017361793134683 -0.4581340699972074 0.54801462065896489
-0.33693485160031855 -0.12315509274437719 0.77749114030123323
-0.31118136330927371 0.89368900030947174 0.0012769430501338164
-0.24989432703941361 0.49356880939712866 0.66711032830907158
-0.40632067818565076 -0.61450913395351492 0.0077977287242139148
-0.55627267565992611 -0.28901293227868852 0.72240277521028062
-0.32892579867194627 -0.088747582120026536 0.76406491648136665
0.8933303225898328 -0.27605705648140599 0.55263818552671928
0.46408116988283155 -0.48626343759481472 0.38893759957322471
-0.321137715483232 -0.409686677691667 -0.48500284160397911
0.30892410994994179 0.48290580080735168 0.41820669285781698
-0.89352853709130642 -0.049646636938675215 -0.38782667263608595
0.31024698022858388 0.75157848732771981 -0.30018607524124974
0.22448919827439795 1.1898664089589417 -0.42607659168172063
0.68144354886624114 -0.34011120332692002 0.68796244118345307
-0.058455363863316734 0.65670788419128101 0.71514044619902606
0.70062890366517649 -0.32763054313276996 0.7047228471811593
0.61168869750835597 -0.69018273091326421 0.51083066291936596
-0.051694568508963812 -0.25642034220937404 0.60637812651188661
0.39981246321833908 0.46219348545339045 -0.14567349935017759
-0.087926400258083959 0.23124706092106706 0.73779915809440944
0.05020641737164766 0.60098209947448566 -0.58269360304106854
0.24260282128292943 0.71489796820613805 0.25198681366595466
0.13991929030311212 -0.15425716740310946 0.77954982235196368
-0.55860870644082183 -0.34786646668503884 0.6775031202875148
-0.23753851761910028 -0.23094538539187859 0.74936900049883448
-0.5491490652440234 0.39864468113557416 0.49014233004601238
-0.19521744323034795 0.40377282467145115 0.75447080028153124
0.18497687963284193 -0.35593728017529713 0.67363030568306925
-0.40828523817438622 -0.27832808962979394 0.73108613053468119
0.25642390358621014 0.77921958342820119 -0.21012449701547098
-0.80481335202259885 -0.50658264770908445 -0.34958736839075932
0.13662132223143431 -0.11889470600010199 0.7788447836503174
-0.28223789788719955 0.021823957890616086 0.71417290143522294
0.014862975837786507 -0.059548417720673541 0.78861809193772459
-0.03956042185171782 0.33670504104508581 0.78716828979515796
-0.43849935845139498 -0.1302852400554988 0.79201967683161456
0.17257466591618709 -0.09796934428213433 0.78742713512918527
-0.034920621862283951 -0.200571493210699 0.75741297405506103
-0.35756311032258381 0.2891867857151631 -0.72734615842607653
0.77871569259789908 -0.080138345003543776 0.50663845280518238
0.36014128985053162 0.51113659233670461 -0.12879271765277878
0.67658512156219786 -0.26517336039125894 0.63694614397032501
-0.41985818744302605 -0.67653092512169799 -0.1603180036793308
-0.46208543121196044 -0.85493878887070807 -0.37193607305738041
-0.24325859060604671 0.46440043842455836 0.67345227045343137
-0.43581163043114657 -0.033852386326220341 0.78738684716445562
-0.31437635519867513 0.70656882360105921 0.58646060086194751
0.36834788949842334 0.75644134501857252 -0.28877505840975459
-0.33371406237122869 0.18410284491996132 0.75572488594479026
0.044770246351248488 0.47326054909831328 0.75920942529129665
0.56497174834620978 1.0339372430261875 -0.41721570865435353
-0.08826709550911005 0.76914571057161041 0.73558732897764756
0.66387586449738478 -0.21582424930260302 0.61342866122686956
-0.084193366438256589 -0.13470957077867496 0.7725489752107304
-0.033965265270722966 0.25638961947010941 0.77350665480340908
-0.37996961235504045 0.17464651960157918 0.76451629337973515
-0.74032905275147698 0.10193194440628517 0.46656567862573084
0.10042518867837202 0.43315288168903265 0.73459144866988524
-0.8137509743135638 -0.50627939729411531 -0.37920748318669695
-0.4943095880686883 -0.23756017513648064 0.74609386006829226
-0.032251697664094081 0.60629922291915861 0.72632186867940263
-0.59659961764648983 -0.10655793375226352 0.64185582174113165
-0.46550400261998703 -0.84416303221179767 -0.35319870004130749
-0.16770059992975916 0.64081213163768069 0.65752368466795019
0.21932212690305164 -0.24696004082820622 0.72838924207693179
0.85707385734667696 -0.26799296341454948 0.61667075902432922
-0.33057189949892063 -0.094631124673693723 0.77361634205974994
0.090057164702898262 0.26892764123260093 0.75174161056883726
-0.87516316305620023 -0.37399502052357114 -0.14361505956184395
0.20748741519886948 0.45960770481758573 0.61376728170814054
-0.28171717995633117 0.70325342650906375 0.67541513928739505
0.4320108605883064 0.41313930590015246 -0.11593327860660452
-0.76361221992100781 -0.7948009511897256 -0.42053689402886363
-0.37505710674858506 -0.22072988184144471 0.74153231436383749
0.75405875057441563 -0.58091498075344816 0.48638179438262164
0.82399703701639737 -0.36820787390713861 0.66296693342551549
0.23211698657506474 0.91160516067206743 -0.29989578936250183
0.21096215001512064 0.81611346049530908 -0.025452717992090257
0.14626571104352593 -0.43358596664865345 0.60892888308908377
-0.51565921776135326 -0.66166451687984029 -0.29054357102146611
0.095279907807167774 0.56019870975074326 0.66922045109920969
0.038532290843249939 -0.1203331215463237 0.76974932170673505
-0.44922536282950887 -0.20166401638596554 0.77540524142112588
-0.0046049376155394839 0.58100943613303002 0.72769928507069448
-0.54082386216386169 0.42368593819022671 0.63671392308172514
-0.94156469448218161 -0.041528417476902391 -0.27147376670048118
-0.065460172229904856 0.49195023216870482 0.76420441707359288
0.38377826479414523 0.51109744176402927 -0.18684173816368599
0.2655978224696014 0.74797803899878801 -0.18612944862300651
0.32921581013448531 0.99247392650066502 -0.37883857586473013
0.37415928777721774 0.032580741452242989 0.32312626763307328
