# XYZ point cloud file
0.40280523641800414 0.28222166373774193 -0.071186009643376735
0.12903549972902795 0.54463131675434262 0.63634476751092439
0.48141160987148623 1.07416803912567 -0.41778788384432275
0.088766290634481493 0.57503877419920713 0.66370311146348859
0.10274573556208821 -0.38206966493045513 0.67243261272041366
-0.92955377538535799 -0.03124489096951244 -0.029722461765402386
-0.033540823502382189 0.93809617391429789 -0.30971762321244611
0.24880486021844916 -0.090323842049471637 0.78801514330944222
0.63100086437687963 -0.29094089918605448 0.75755348075243845
0.37905047020274196 0.35163734309644212 -0.10323796732612323
0.47351864505478147 0.44267735041626466 -0.19343699177386853
-0.73064584715037029 -0.42660949712733753 0.28068066925438284
-0.3119939073685174 -0.096210812412088842 0.76789683030176459
0.33685803567638573 0.98517101184886613 -0.36710601244416807
-0.28964351249851461 0.71894725595832831 0.552871656379887
-0.7751520447705138 -0.91937517404792324 -0.41753154825009275
-0.57344238472244413 0.29893907584281898 0.68538921740730441
-0.50338321031362376 -0.73920757452435737 -0.29928404756552496
-0.19200839219863042 0.50985732632504366 0.71291276149432559
-0.47379372860548497 0.85139343654411537 -0.23205884003833788
0.18539669864663466 0.80098444071821007 0.067701497004692968
0.24946723297659901 0.57382001372331359 0.50656026544579813
-0.037958146322573327 -0.070077459452502211 0.78059318922291965
-0.73822060473819562 -0.68032475707439133 -0.39069604202319219
-0.26570960891911 0.4422018356498576 0.75789723034360801
0.86333627077721076 -0.30882073469746807 0.56919604929504786
-0.035669995779514352 0.29071905802011244 0.7829582240501276
0.69777347316535554 -0.27002611879027505 0.59595440558375756
0.10830553437313029 -0.061183193485735643 0.78178734179202358
-0.45216355283444543 -0.81954033118349301 -0.35586483382618717
-0.36886052381493784 0.23609159537112312 0.76320007816240221
-0.61726164239258807 -0.58500553227339225 -0.25028806246105439
-0.61364765686624523 -0.56175764502247105 -0.060782377969582413
-0.16963286202326344 -0.26893323685785475 0.71066902100904095
0.43530665300792393 1.144056959594737 -0.44079461201745573
0.42195510096768984 0.43174758973703398 -0.16779768801119133
0.29536250804500952 0.0044175601835796385 0.70105549950627832
-0.90138141865079646 0.14031972502724877 -0.069086223520580248
0.38323562401726008 0.14398100499807853 0.39658813486332889
0.16237743505253732 -0.31648866792511043 -0.24465353062840478
0.048703214575695597 0.40286215185928675 0.75847300430787312
0.19207537137146602 0.64686636191272306 0.58345483546701127
-0.32446190417942233 -0.32839208753629023 0.70350193909990111
-0.66895900505810246 -0.52558441525754418 0.021612484233289209
-0.48635777948806691 -0.20011458954959238 0.7382631595285214
0.49284660888570286 0.7328095131998964 -0.28554526386356116
0.057050498594591659 -0.42437656790340128 0.35145931783640449
-0.52335591645647028 -0.63278376696470673 -0.02040401194264696
-0.52631140693712819 -0.89526851686337672 -0.41105229805687316
-0.56403222312974322 -0.16433640495029422 0.69769588179543174
-0.06785743785249565 0.59806891187248823 0.69163820176045943
0.31626751486612648 0.84326043254133154 -0.29337616728754767
0.39366377643193573 0.36214911379239823 -0.12373358297855219
0.21493723121736785 -0.23517390228063739 -0.22591275256473509
-0.58136069757459641 -0.81927648504458794 -0.36915445285713133
0.087860609010277813 0.65135278144520292 0.68427199567086583
-0.58263467098658417 -0.68876846571937378 -0.32929518661032731
-0.56886909814737407 -0.387856614172847 0.62414376775261715
-0.44700684150293313 -0.12990892003846 0.74866119105497964
0.79656101614740038 -0.25870618136664802 0.66734612007297045
-0.27418415141830366 0.26877247489094103 0.76299078134532028
-0.15464932331525461 0.57277670212990195 0.68893695216579953
-0.35392405480957478 -0.0054854240505104457 0.77876902126000291
0.13921373186338926 0.94782251337711898 -0.050197830692866319
0.33314321531535995 -0.12841958833160305 0.78538389536248232
0.61024252603799312 -0.66257738182087778 0.56608458942676521
-0.5249684590990924 -0.66686407453227403 -0.25102832523337248
0.45685277817715075 -0.45201913199843347 0.69639960295766556
-0.15496352439629391 0.44448516709566022 0.72100722954737928
0.43276748616160532 1.0078579057983106 -0.38835857115658001
-0.18016573380916867 0.94368120607426587 -0.049852227650199143
-0.73349235144690317 -0.60905885530079651 -0.34228804645424127
0.38807372639786664 0.036950811664656413 0.14323064888258941
-0.14803340404236387 -0.56068813400736772 -0.16989111216726727
0.20287975541902625 0.55337646161880194 0.58610254207582368
0.68982718235731255 -0.65540158137536864 0.56900253983124571
-0.20129398518794517 -0.14668742562968973 0.76290457152497915
-0.34867093963715945 0.069760223717869607 0.7667826066851946
0.17462773768707107 0.33275952772158846 -0.61263310566307538
-0.34218270699118847 0.029234800748366041 0.78296654843233782
-0.39863993477138848 -0.084356991674159332 0.75893808358796555
-0.40128196487390255 0.56464258156127123 0.44244897611935219
-0.60606678482171072 -0.65948326281173486 -0.40914076040636793
-0.58631829227298482 -0.32446990195840186 0.69788031099390002
0.6879796679063972 -0.27154861975085254 0.56205783198851123
0.36850535152647979 1.1561739886325864 -0.44719351613502667
0.67525731830508562 -0.52282895601273083 0.67869583316288029
0.37355303795510508 -0.25024403328959721 0.45608846027957028
-0.32838436174610308 0.12395893018410042 0.77031958226014474
-0.59692819532617136 0.21892468670435683 0.72182124462931885
-0.69017107085920726 -0.38661413638065945 -0.44871130807197801
0.70422227006775273 -0.22994925033702707 0.53623870342186208
-0.0082297233889647714 0.56592021059442033 0.72378816727178852
0.38064683589386661 1.1096951773546468 -0.42423909325981413
-0.43196805674885042 -0.12345334081607717 0.75311630374126137
-0.022469561690357409 0.1837241966248051 0.75497287726741114
0.79478421629937657 -0.3043746794774993 0.5667074727873711
-0.076964621591670834 0.53613636227210826 0.74486315673934134
-0.73105202582593343 -0.94805394016665012 -0.41352268595300679
-0.11929826518525743 -0.15220970148426716 0.74888291603273949
0.73726293171945656 -0.63628542235552565 0.59932482321179492
0.43209174411169116 0.60373883803010564 -0.24089678133781334
0.28698794038561815 0.79888552310988814 -0.25023902875788195
0.78645886755472816 -0.50752931739641127 0.54551280520343326
0.28619760264816207 1.0892701422549749 -0.40162601495418571
0.005337633345334325 -0.30508694040639384 0.59189094669003595
0.0018268451940528507 0.85149993264836077 0.54982252213605287
-0.28073851774359326 -0.40238254105940285 0.61238785194570156
-0.49563208341146492 -0.2531797510044278 0.72902591625933066
-0.7568931233190952 -0.45327726126646795 -0.025196990766492178
-0.52361061912111673 -0.70093225270469262 -0.29678480140528407
-0.064752522546889679 0.5300888915283295 0.74254045937502267
0.021722304194540243 0.25825747822366196 0.77269769359285334
-0.37355070741462271 0.010937806434011321 0.78786806242365337
0.075923040318606638 -0.025060033637640089 0.79040303040612514
0.74469606801483934 -0.26954908014486989 0.46000681579894831
0.19130261208192678 -0.15022868848073045 0.76075522616862656
0.046371948829978749 0.82615367560429931 0.66183149088270898
0.21555358912748801 0.69064668720367806 0.32842804589068919
-0.27235832018070028 0.30927473318006449 0.75983717818627117
0.76708832844494168 -0.32284183341982775 0.61541111344483568
0.40056708710111621 0.21995457777392247 -0.027887596092373457
0.12833763848460933 0.4889240339337082 0.64414946425610431
0.3400821798299809 0.59974818782364814 -0.18701857648763109
-0.030167574235946404 0.19454012243193652 -0.73843038272325145
0.2304824324882091 0.4935639840437549 0.55491517808382085
-0.065097526962006214 0.58818756482461687 0.73742659846700231
-0.45006039535726217 0.0027049349242567189 0.76147944735117878
0.024249040438661496 0.3255175557862362 0.77752622514211378
-0.39302774607125812 0.52700981280464276 0.71473515663046339
0.29028145665837712 -0.38948697557886192 0.71053127704039909
-0.16713349896023999 0.63170934217808572 0.68624314654459795
0.11239280240560134 -0.083588781943085166 0.77429383084981929
-0.050205556694379538 0.54636717575494487 0.73680639456093111
0.099584379300729609 0.12080579891625476 0.77011873721031421
0.39111146816105702 0.078661952618283237 0.11160500884732727
0.12045648757293037 0.79308793482037032 0.24495636981994995
-0.17608442644073818 -0.39445340114626148 0.54600398405440487
0.44548676474638427 0.11623186472753133 0.032507315448796703
-0.77334057915145493 -0.010391829389098106 0.62431624138268482
-0.12467065838689706 0.26763427150467223 0.76233359628812902
-0.29933656228212158 0.36573334916166722 0.74978173661904446
-0.69075181285229004 -0.58822854210493247 -0.30960642137833538
0.2167141093459648 -0.01601660712739772 0.72040461836542491
-0.22118487186019564 0.41346007856353495 0.76094490437613871
-0.49651404183441716 -0.86421670867616562 -0.40367253909774625
0.24902716127455093 0.91415330588109356 -0.32955918665622264
-0.22762137026705176 -0.33045234666915135 0.67289913376714594
0.38380931964385923 0.046510239073406012 0.59836345917941358
-0.62172347689496377 0.3342561574151599 0.40858663193566414
-0.1624260068939094 -0.18427923903943366 0.74106455313399877
-0.14556339594030732 0.58804608465931985 0.75449713595528767
0.37703605393438266 0.42077635417223824 -0.14784457118324212
-0.14838551200902117 0.40991715235499271 0.76581702402042595
-0.4598691901183809 -0.71240067724698619 -0.23816859487394382
-0.11436790312703948 0.47559004646032754 0.75534378949441694
-0.53335299114183954 -0.010199786982489911 0.73174999083678083
-0.77400013649201815 -0.54306737290850293 -0.32409163187927525
-0.46958352780439405 -0.72351332539984625 -0.2630261298882477
-0.43752357488284588 -0.00041534765369100057 0.76902404383211032
-0.59981466539110073 0.064988398908782941 0.76327848647859309
0.27973234389529011 0.020036195006031932 0.72237507823970404
0.020783115501445515 0.83039147383746892 -0.41266801986787982
0.64043385438153422 -0.24605800079737072 0.54461173477018221
-0.32919543009570873 0.1228886931003963 0.76600712711496288
0.2279166919186153 0.25158242886194238 0.66308810431221232
-0.24308928562447107 -0.50329915268450165 0.5027352859387122
0.49371892076571555 0.37422850533233643 -0.17484116847157338
0.47125029875036617 0.89318819384895853 -0.35081764121535031
0.13217441443768507 -0.1298791021635104 0.76243242120178145
0.35580346213910374 0.34509074494964054 0.005409084613432924
-0.057201176798542974 0.53728548681293375 0.73941028843444134
0.62971409521974664 -0.52617329777355515 0.50691905506970869
-0.065674845687631489 0.42345043308017871 0.77245245249950956
0.069574786706349645 -0.35144989758707545 -0.4151687931119703
0.070504381495318569 0.78748643948574504 0.61637069307946968
-0.58019106647277763 -0.90085155057416699 -0.40634209267433796
0.70399351441798075 -0.25195636579592495 0.60996954587747965
-0.10696373259690972 -0.098571204454824368 0.77434787543417904
-0.86073194281069121 -0.75606418094239203 -0.40368981030818318
0.37727467978839968 0.38553730183090273 -0.12984306365174092
0.38475379187408976 1.0790017675729775 -0.41270550419078944
-0.0081560619606619866 -0.04362341502548972 0.78705075840608707
0.49209297416872388 1.0937675436938115 -0.4234417746591923
0.46986555795120921 0.72215419691097438 -0.28013083569702601
0.26837911199108788 1.1002969380731091 -0.39906890977939469
0.37153814477230185 0.32938858714909891 -0.072441143620334714
0.33371791725311084 1.2276458131160268 -0.48055482655514403
0.050923985574307551 0.75922059849967205 0.70315007361268922
0.16111849655442256 -0.31099794205055531 0.75505525242830984
0.36141956581497681 0.21922515837148637 0.48991446536090422
0.26244169729185529 0.35400284687779937 0.56622019375651078
0.78288813395072054 -0.32386113859278431 0.61639165268320184
0.26489878901753983 0.71457035070010022 -0.13751912560396207
-0.46205022370087079 0.2053865526338825 0.69684715673714237
-0.024775349669482694 0.61065972386992406 0.69214247597802792
-0.47363370921336667 -0.17801027314040851 0.73946164404062564
0.32886888886577381 0.98814379983069855 -0.3660925363457217
-0.76620135948385659 -0.51731498592307545 -0.31233979789538324
0.31819894624407397 -0.14843698531972294 0.77035484453230296
-0.18869851841995455 -0.13219005521904137 0.7662482169991911
-0.87065843352387251 -0.53348374883244531 -0.40658483091704589
0.06616885135693451 0.257030280637224 0.76285143755536922
0.2660260146310236 -0.012024817122906484 0.67983950490399181
-0.41856558031037849 -0.078364250828000692 0.77719817456298479
0.76490812889935 -0.24163826525550824 0.62746823804333829
-0.026360472947743574 0.65960678930310657 0.74499550693453021
0.79235998999658364 -0.27617440316873143 0.49147195364344398
0.40502686861742987 0.85971976706408171 -0.33032611653909072
0.30493770173591628 0.92630260688319588 -0.3284628000473262
0.30561914671481816 1.1685569203607482 -0.44575974381215033
-0.46310342892232903 -0.78770303136602138 -0.30423366955575126
0.61788416115164324 -0.62780548500549926 0.54410736414675398
-0.88750188191386359 -0.23328031238941449 -0.29211847013102066
0.35690212327609316 -0.30319523317343489 0.34687295095722703
-0.55009243304672495 -0.60789066607363296 -0.032142579377175906
-0.17531133096601792 0.59581999717145706 0.63864006964231335
0.21229150691773668 0.025555837381190827 0.75729298849818782
0.86501240835521287 -0.4418532451594448 0.65256284042501989
-0.33507089512196764 -0.23310544648331089 -0.60530596322354313
0.3763018811793799 -0.15121932132928961 0.77667456263459655
-0.40835971586818509 -0.70830580034937896 -0.19000999054343737
-0.077721516967748983 0.37595531336620169 0.77403819563662779
0.43338322869708534 0.42413179416295854 -0.16638346245357383
-0.3294703457775654 0.66416826883523683 0.66324845858204196
0.25560052062613181 0.15616601917440143 0.68787875486906813
-0.50606685656238604 -0.6971398045847117 -0.27514508545305993
0.70985124037761693 -0.20801778078623379 0.52053946348349101
0.19574924952362238 0.50171576905283288 0.58924734988849536
-0.324985965093191 0.080947355583543157 0.76906465228351628
-0.34282658899218887 0.67634571100064633 0.53422847501063409
-0.79683140806782227 0.33804505518774874 0.0044023688492869084
0.64636784047323204 -0.21306632696237848 0.55769361009293306
0.46149918614205987 0.95256674174959066 -0.37061597501047316
-0.53076962664774285 -0.63739347200674601 -0.050931498678496112
-0.019639316120347416 0.68621626048963513 0.73456452032671393
0.71660478357146218 -0.22047265187143417 0.60564351561303198
-0.1120579514116713 0.1179870380582031 -0.73592584347256818
-0.64028215365615182 -0.013776388416578911 0.73743316625978839
-0.065733654258842478 -0.097279850056786188 0.77472126103949535
0.41809253563547344 0.027148069300164224 -0.0066807067061702696
-0.088043376934528794 0.48476139173521915 0.74914079850414805
0.069959037661050161 0.52889921197548873 0.67758876568579929
0.10988543058289935 0.74835499783621628 0.58966550571039789
-0.33004885445350141 0.33076658087755817 0.75174251993843821
0.083364646721385327 0.33325078422391208 0.7548748388138371
0.041123155919064125 0.74939034308610397 -0.48046106392733989
0.31530998122812548 0.77160485790407307 -0.25586141069189594
-0.2045072026033381 0.57528344829557376 0.62253541693411452
-0.36060357649500219 -0.00061034423618977485 0.76656904964507788
0.41452542334542386 -0.17306476757452671 0.74891306861007223
-0.047722525422905449 -0.08152357756673112 0.77901726928291737
0.0024282637590573586 0.27407743256648587 0.78260472370501866
-0.042026372251847022 -0.097280240278330155 0.77163276432822059
0.36035558377763977 0.34940259290966225 0.1073080345773576
-0.081081285969723638 -0.18398938246885876 0.73927085804611004
0.47117222415930016 0.18056203702176532 -0.05910178707586411
0.36321922466873602 0.92467432787118753 -0.34894872115496867
0.19696925044496538 -0.40900212244847367 0.48818199107199334
0.35185243821190326 1.2504715810790898 -0.47573360321264069
0.43098245752639741 -0.22862017973971227 0.48721834197105807
0.16460593782371546 -0.3030072574659286 0.38449359990574195
0.17840988289974291 -0.051557331505616588 0.78220079854370539
-0.525840841324829 -0.035848086706391058 0.72848882910067525
-0.73405516300808893 -0.97646681127773505 -0.43615207633979836
0.75053150045621209 -0.30875949952190851 0.59726439203318904
-0.64094386499197764 -0.24153355357247364 -0.53459445567917996
0.43756342758487143 1.205194783519838 -0.47415306212864294
0.13816578476478725 -0.10197370996607802 0.77028871867629256
0.41342304054689194 0.91425218014538956 -0.35215844388866913
0.36508186827956735 0.27735983576472023 0.28603844846389492
0.4300794553878049 -0.41279833775265473 0.71813348577735781
0.41876642149087928 0.6723322771902982 -0.26302606029947029
0.73181543148487549 -0.38680295226286709 0.46654515319348278
-0.12300126590854887 0.35039854432986317 0.77077260480832255
-0.60561163292698339 0.33628153425493323 0.46160125209188241
-0.68088439056123207 0.042285805011278654 0.72999726115366137
-0.045293121148041848 0.38335976772342484 0.78303863997022005
0.15462950086001115 0.73881253967871352 0.43431605946691221
0.38989987858824549 0.95353006429425591 -0.36446812690808983
0.24929773988797166 0.77862269094313419 -0.17957556808540787
-0.70683690329210691 -0.48623818469972946 0.32519513471751793
0.063337678351189197 0.57451489712259374 0.68684622810207241
0.20061680431948048 -0.019458228330698546 0.7333705388444649
0.44953350678182602 -0.1850311328420311 0.77726626100749741
-0.74451790580497956 -0.76998817744300041 -0.40587615242210617
-0.10196389077146506 -0.14050532214052325 0.75296463198557362
-0.26925884984976989 0.12234034382176517 0.77513239687753721
-0.15461390681772968 -0.15100619183320418 0.75233748574732751
0.24356725228601306 -0.085639082001504718 -0.35497723243465273
-0.014281839883990788 -0.30853244243549582 -0.52234754605589373
-0.61863524530006053 -0.61081511791547172 -0.28969488680055022
0.18101254349059204 1.0570190783748359 -0.33657324759359497
0.40640415305664135 1.0703308128134612 -0.41126755088474454
0.82143494717937671 -0.30003418050262276 0.64222201925688438
-0.12957300808201921 0.25916269357572297 0.77655402177437871
0.3618976061024668 0.057616499849903136 0.50929518079201586
-0.37430429522297715 0.60502489670521165 0.67007959660020866
0.2441764220614786 -0.11441337966247644 0.76566579146107472
-0.35034975304058946 0.25013589693786109 0.76470111628178339
0.15631959726780309 0.255408883092894 0.7133685224172126
0.34944792835216987 -0.34622035973601761 0.31649781692055257
-0.11367587930956802 0.36537665433245969 0.76429666565152754
-0.56671872377243204 -0.52710285101974463 0.23573013776573148
-0.36950426292810334 -0.015640727330215043 0.78466797144773581
-0.44245088252829845 0.34061060548898858 0.77430443965801565
-0.14913119311567868 -0.4419829478267232 0.58642365219233383
0.36681493081148275 0.50306372044390635 -0.17163309250855718
0.14090646935323292 0.26444231501717042 0.72481804035488651
0.38170586837361498 0.22362182445570511 0.088403250171356973
-0.93370551804290258 0.074897517054479223 -0.13213791858802981
0.4794179429501213 -0.49288394186886464 0.67064699539388428
-0.37681761614608433 -0.022079275255194375 0.76425628357057218
0.88403887974399709 -0.33453364187244716 0.60059459515494851
0.78725082752390563 -0.32130775092030817 0.62244945305704391
-0.66993648651990356 -0.80939930123438586 -0.38383578640701188
-0.069568665630455939 0.77059707934835764 0.55506473001495182
0.076743098781882679 0.54934743240249695 0.65414226690538602
-0.29937254152996218 0.072023289116486922 0.77342061879622914
0.37045634798308313 0.45580581111115848 -0.15476122646255419
0.42603852587893698 0.2505122894444316 -0.085382294530884195
-0.51442886940770727 -0.68610853042115849 -0.2775843471268864
-0.4485536316085188 -0.15815646832736974 0.7470532371661549
0.099678499221717232 0.046234764707293152 0.78449370310537603
-0.15279630312730319 -0.10934765032227389 0.77137210646110965
0.17230219550029346 0.31934269489878808 0.67575862566197387
-0.78217971649041385 -0.73043077945049184 -0.41120250200514619
0.83557307929581981 -0.42725497855462713 0.548990515976719
-0.60195597059351158 0.61038080197695788 0.0894975752829823
0.015571341171323638 0.71612259925371013 0.7274347751852126
0.42816475243348506 0.15244237015410178 0.010975918050064593
0.37112638459158376 0.25519992005180825 0.042650067591452512
-0.13671069651921641 -0.42059349314510541 0.49278790496999392
0.3012403789683411 0.80570420629921102 -0.29260494195152731
0.0058869199168327668 -0.39564495088922058 0.55860626352211185
-0.3303613208910221 0.34919079862383562 0.70469727665477366
0.29241405028339784 0.69961071339184144 -0.19410046670091319
-0.14660528161198272 0.48260441582718983 0.75205898776979696
-0.53085586267270468 -0.85876561431712695 -0.37730728406765124
-0.44101200077992786 -0.35133928086193222 0.69826139879677385
-0.10569691518614377 0.4283048456473999 0.75435964611629047
-0.18626662747995937 -0.18639657657134023 0.7487263731053595
-0.58803267987617769 -0.71303088892487487 -0.33794104072706155
-0.65184077223766534 -0.85169095251268345 -0.38966749046167948
0.21644146026306288 0.31893220620966289 0.641195455842416
-0.082687375660299267 -0.095049491825974997 0.77660574057535037
-0.32582641484301433 -0.24598574967456699 0.7434420112672111
-0.42737731008023161 -0.29609111016099021 0.72565864759623011
-0.38054522713120065 -0.051867140581297377 0.76280958192445336
-0.31441505693305061 0.27065973342269878 0.7573503040885492
0.88121778733749068 -0.37479793187788424 0.63548029251013816
-0.017581080441154029 0.56916263800090761 0.7276033729289475
-0.88986714839253267 -0.57059052391387866 -0.41160543362493307
-0.010826394187709809 -0.16356781819346367 0.74433225823937121
-0.74856205897101979 -0.51810840767168109 -0.30177067504735433
-0.60994039247288612 -0.56552214118881494 -0.14002487694713395
0.095797732636974331 0.32776973852681657 0.74927251242600867
-0.52867916140102267 -0.17932281073644063 0.72754521822499008
-0.49409867447937117 -0.84877809661659498 -0.37207691815787491
-0.49435017577630092 -0.54955963997756996 0.22789595088249115
0.30921935082852059 0.30027735733724903 0.52555114160090355
0.22665825635658621 -0.24484171349437744 0.58360537148754688
-1.0214370000787474 -0.99395534522129658 -0.40803679451336983
-0.079118902740567876 0.29282524386090003 0.77386843383752701
0.37581391528062369 0.098605598092515123 0.49296221208539492
-0.43314209070167919 -0.64312968973234064 -0.29199696650995577
-0.59336160311255437 -0.64117751132549827 -0.31470314944984601
-0.70023065297800002 -0.52097895979179398 -0.22569541619170863
-0.26767801276941583 -0.35311028715106474 0.71262042677417625
-0.56838905875711987 0.04357865146385187 0.74979873783770135
-0.12234749449753934 0.48066093251323316 0.76689672641855999
0.39663076746643711 1.1239614914666269 -0.43215902354453561
0.16329837711117534 0.40078239050900955 0.64696384448986066
-0.47792499316852854 -0.1578462306395263 0.75304588917922066
-0.30680914351000865 0.15010814811367723 0.76833098998406535
-0.14248512156215298 0.44338038895149801 0.76901987441150865
-0.68043347241684415 -0.16910973978968968 0.6700908333662392
-0.3151861913905023 0.23178313061502109 0.74604426300495041
-0.27217599167312301 0.40853300139821336 0.75143284265622867
-0.29571685161126737 0.34808910755924138 0.7514821284299309
-0.44960070666017771 -0.13874536108168378 0.76560361681287059
0.088721523146285008 0.95786730739881598 -0.30635503672367825
-0.098326750399223783 0.080455150701993716 0.78935156541925267
-0.29028039636196468 -0.30098271380580499 0.71501792056116642
-0.68539491069132197 -0.7736076892046917 -0.38491828490924185
-0.029280907415348167 0.42683657974506239 0.77819236065283381
-0.18839286284360668 0.62238983218792576 0.59156177193519788
0.31584167037123834 1.2174815578049198 -0.47228182672897034
0.75881038787952093 -0.27623217435744785 0.54379285615727468
0.61089896120408582 -0.23464307615710212 0.75687868058207641
-0.086380178535421237 0.34980716975353765 0.77286840749970276
0.045925721473297543 -0.26873814234769711 -0.53418808520225269
0.13932121043340828 -0.40624517957330397 0.47581581037566778
0.23420647094917513 -0.31822690920265018 0.75458433232186906
-0.53828417876501078 -0.23849488594061441 0.71331383707446872
0.46582865973573107 0.50342951365565014 -0.21761072357149658
0.86592356857731545 -0.45557916028646517 0.63878228761227263
-0.2650305031916389 0.31185414219023677 0.75987139797205305
0.35471835161795795 0.18386737409062093 -0.18556742122548542
0.39624018688090956 -0.036808079106229741 0.052867262894903178
-0.12702777426672185 0.28366621772466516 0.7756868049911656
0.49809772616548997 -0.53411924331548022 0.64214551831825162
-0.7275802877905404 -0.2947572529444642 -0.46602092090953029
0.30514363347137774 -0.070054819136640134 -0.050941924661444205
0.81220928033440032 -0.51181696552186473 0.56503111725141508
-0.084430583157157457 0.51020535355841368 0.74995865760893077
-0.53471878686624486 -0.64516309362745261 -0.24997796442432119
-0.30921131226004661 0.29201077103667394 0.73527655372308631
0.12601106990509692 0.18534985139633875 0.73664196917029123
0.4765541348254434 1.1399038921191824 -0.44271574558352
-0.6981999672355661 -0.61994027397891927 -0.44361170679014883
-0.60611372818436848 -0.30561965125481905 0.676382441483244
0.2375932730585717 -0.13778652507560096 0.77086692702991577
-0.028507462327340249 -0.070382358501035469 0.77948131518797581
-0.46704345725754592 -0.83783716656121854 -0.36545712866764823
0.38739174847565749 0.88431925407051182 -0.33704223632122776
0.77316680143616168 -0.28440739062302356 0.47555676438246763
0.20870957310869187 0.25207009163800365 0.66638620683428229
0.61572909513589025 -0.46178641474032389 0.47083388585022234
0.1375881216492445 0.70968773903585358 0.60195186882619822
-0.22742102944275899 -0.36896100001118981 0.67996320247035058
-0.44978352041065506 -0.28774273290508745 0.72330976256534107
-0.083380400884223604 -0.18523333234101358 0.74089771018275741
-0.43334178026704251 -0.36855167623761176 0.68507624122021937
0.15297541489515964 0.44692758268649158 0.64159782080451677
0.1983139025977998 0.90077026524068948 -0.18559995873247814
0.39614737440358283 0.14481809642380483 0.48581145824543626
-0.33183227072051835 0.054414936591470564 0.7811298571250056
-0.43711121292418653 -0.090420379509563276 0.74389309389743818
-0.70705571470871575 -0.42619580988526806 0.55259581466931174
-0.47588637402663103 -0.7137494164004039 -0.21636962938022641
0.076681261144230461 0.70917236282707208 0.68574120606232936
-0.057146224454271533 0.54622651070677897 0.74059312997193583
-0.61498607350736378 0.28832082408070647 0.5993639224371301
0.50590866159133085 0.45041513791094268 -0.22478242513474811
0.11808183523287852 -0.071998550909114556 0.77839677941429386
-0.10089456975624245 -0.28011480960385171 0.68188446481111598
-0.17473628921806039 -0.16390679210208958 0.74955700192941599
0.36773975447380636 0.73792331999441885 -0.2915451109737397
-0.17484358593484473 0.17431163977075492 0.78041499010484294
0.48520943170974817 -0.19136699976967009 0.66051855996841624
0.36472999739921264 0.81524929685631342 -0.30461452760151531
0.068179083353868464 -0.32056286468849038 0.50700512660365149
0.15139283747727461 0.53237134637273975 0.61952064377453109
0.33842882892572845 0.43997238375337133 -0.0040487974366349988
0.32971431405245255 1.2703837380311374 -0.48544445290369076
-0.46031846204147797 -0.34846808319996825 0.69506232512280164
-0.18104528033167355 -0.13900943543284328 0.76029615900819003
0.38830958248778558 0.19693563562076832 0.12023143257471602
-0.56750934147267174 -0.27233258644032432 0.7005290412817784
-0.011703719438848736 0.29365991734697161 0.78451678966118621
-0.39055222871068196 0.18043418019195379 0.75491045820036984
0.035712228505673238 -0.33866513160699085 0.73744782740729065
-0.051928128005187091 -0.41041060761782688 0.42133261178035042
-0.39531339629596829 0.017641038906873518 0.7867398458002266
-0.02687638830828476 0.71601481468744943 -0.54232549254226825
-1.0136229895913171 -0.9685870964977763 -0.3947461162155701
-0.37018196090704691 0.40282680800251924 0.64409815368565493
-0.46193033140997386 -0.26835545178558817 0.72489506970849149
0.30560786851338406 -0.28689643003247056 0.75749894666753903
-0.2426866465388926 0.4910814648877686 0.76594196254027747
0.41551394347275306 0.7156927822755339 -0.27876925214508574
-0.94451337267498925 -0.67084147240768655 -0.40265638123263159
0.66067380835770706 -0.2427622784311918 0.54113803563267737
0.42260600146484251 0.24491560536695367 -0.0750745616322952
-0.58195456366880194 -0.28138748352362342 0.69116470234397642
-0.25689695853408523 0.57106698353377006 0.58245287689978631
0.37370592795187463 0.41526650170949964 -0.14028408037524542
0.16266665508556599 -0.15686207449491718 0.75578725804447089
0.43310895404853511 0.55661901463321684 -0.22215683187113555
0.41291444352288664 0.15921809859485592 0.0043209684346621202
0.43560329460350289 0.2116729514575777 -0.056728533088641342
0.80090247917290469 -0.3104175966088345 0.57417607941950521
0.30412341486553984 1.0280810682994233 -0.37722290676343562
0.21179756367640579 0.82247921226579024 -0.098461171969258743
-0.14058886092166034 -0.39968453299342954 0.58010706480807173
0.17028516136973337 1.0840119270365065 -0.34359872244463396
0.86711904258219619 -0.31106451051208417 0.63670025934499463
-0.70192488833032485 0.1478132036603963 0.59428574804424761
-0.50565562827470956 0.23787265973755289 0.63817342483547801
-0.50656712314521712 0.14175167436279956 0.76431322266747781
0.067809960940223846 -0.039542676072759519 0.7897341781966194
-0.68510721870971025 -0.35129003323794805 0.60696418806732677
0.19812692500448037 -0.074336869130032568 0.77138811682193165
-0.17346989969571069 0.44098490825953363 0.75426883624078656
-0.1941142608355193 0.49234459683292187 0.71696683946825157
0.8537057865494333 -0.30557456056157051 0.57020345323575583
-0.38350790342625629 -0.30362126251625909 0.72536166512508693
0.66729978678900892 -0.44945033171278048 0.47292656720882675
0.46123931537081475 0.3370761262325761 -0.12662488326069621
-0.66327052995013958 -0.39402557029729834 0.6387323634687192
0.3106867278426293 -0.1236558423528642 0.78494986094047015
-0.72846666039289798 -0.97656743322832895 -0.43771852853962123
0.46052831842953879 -0.39169765194080952 0.73015706734668839
0.39208368647378578 0.1462672077101459 0.043777953422228677
-0.73860563307292892 0.20400978375072221 0.29799593365735222
-0.15872526197009318 -0.53316847297709558 -0.2622101635613312
-0.72051159441337509 -0.47402177623225583 -0.40496595380914968
0.059120499106896318 0.88234343416496053 0.17305076423547572
0.35830130861577558 1.0565897390473609 -0.40055922296357593
-0.46701750880082216 0.46776652994419443 0.49209680065430828
-0.52204343590003432 -0.85283382608492708 -0.37663839416456035
0.40426433545232499 1.1193755090015731 -0.43034490594882158
-0.5394032221437044 0.40811521775763993 0.47609053994786521
0.43676966141780937 1.0210926514319603 -0.39427831119686374
-0.3054669775840253 0.036745102104312366 0.77392756468813362
-0.45577522370062695 0.14116531840990909 0.74981196102869729
-0.10339992356143313 0.44439299114828756 0.75714641338088517
0.24230491695944067 0.6397022768172711 0.4718722476399746
0.040395150481877806 -0.3123687726435449 0.73413339480178763
0.44874098693361475 -0.21354421418541136 0.53267461408666961
0.030987707698407974 0.86375779303650191 0.56515099218900922
0.68562807239226231 -0.20102756451544579 0.59958876760777002
-0.13766497472790462 -0.13518104384066731 0.75748672141803475
0.13372294081080582 -0.06288367168527742 0.78836952814998185
-0.31074402827999137 0.15925614294047108 0.78661774695852271
-0.4540718963016408 -0.59369897423897378 -0.36777259919254845
-0.62077497592284958 -0.65573295983806368 -0.33660801958451536
-0.041135191450884179 0.60100856245347956 0.72630499485836997
-0.13760401606309358 -0.17552333767839912 0.74055660963596637
-0.59717236044740218 -0.36202152745966032 0.68956055356371948
0.13456866244406918 1.0076204447449726 -0.3224429067215997
0.45763243476641691 0.36249381379322898 -0.15030361863584574
-0.48993803174283967 -0.87099294282102235 -0.41109383350491946
0.204089379301994 -0.2697269081898348 0.26643494609546181
0.76845573668188649 -0.24587509433098731 0.48796653144498947
0.27544747066361097 1.148533038356744 -0.42584550609911886
0.33730736058418209 0.47494159038368089 -0.2992894302041087
0.06958027756523677 -0.033498424674348826 0.79000763607549551
0.031077197998087058 0.64656909626379466 0.70130412932884978
0.32320291850293614 1.2809016981550947 -0.50025197735977578
-0.10938281099698344 -0.41969296010156754 0.45857177431758345
0.20239090955914918 0.080222942669955444 0.75001263055543355
-0.17751549929600685 0.47348911931946347 0.7693480152176404
-0.39453290939264907 -0.36587003774310212 -0.53283949437575373
0.41995430164687164 0.15199480375146379 0.01025803737657327
-0.39236689822983806 -0.081554611247739217 0.76642290694677118
0.3634853506806266 0.44583312748894599 -0.13593204950024784
0.0096727991696923254 -0.082079935348431832 0.77369683792825228
0.061778842054017957 0.3135790788075532 0.76717753645794406
0.68016109587897944 -0.21033967727637481 0.54662033103853247
-0.26858133654327787 0.29179740645157892 0.76146611328127856
0.21133752859552501 0.99659337884104637 -0.33370660000363017
-0.27481510108228235 -0.35777558237006346 0.70528645734469464
0.34352780008282124 0.75686743172075133 -0.26973251479100568
-0.11480574906414631 0.67645908997487147 0.64171009048056593
0.062598501645680926 0.26112283276228965 0.76616243380903271
0.18916959830949764 0.26206214506671088 0.68417293883846853
-0.5847424397844101 -0.8911206366947706 -0.39785836465770075
-0.22900191281479465 0.63921790302960524 0.54261140581359535
-0.59611348906780748 0.29598331979715375 0.64392808756997333
0.37393025429705062 0.057317494326184715 0.62318113139390618
0.28986339697517849 0.0056614883556953544 0.69289433627963959
-0.80085864343285706 -0.079836121556697393 0.46873663508043817
-0.021661726297807604 -0.10321175746663513 0.76694093846586853
0.32238820577577698 0.87644006301870903 -0.31318822876155039
0.16932443133602249 -0.044411816185526476 0.75537690578076422
0.25012072528197393 0.64132185302062794 0.11111447241360572
-0.057257966340628741 0.55191586248275826 0.74040990027705955
0.42433074017385408 0.17201169353721113 -0.012798431828198176
-0.067877061493597068 -0.093031372205690133 0.7777542784167899
0.55179806099814499 -0.62384447540024723 0.57058308984765915
-0.88899980628851072 -0.84203052041450555 -0.40705989291893019
-0.46801537422205541 0.064667198372649892 0.73891453131014995
0.35507069031997318 1.0797667391825367 -0.40907791392498893
-0.49017490589597656 -0.60768071201131235 -0.025086957952250799
-0.88956092627027772 -0.622137531504384 -0.42897768002133496
0.1223126675017383 0.50814669065952245 0.64774874209966615
0.15982864789739182 0.87790335339727399 0.017383750107946128
-0.69851471866253689 -0.54891760395543621 -0.28447198247990002
0.558471717433072 -0.20392212812581079 0.7489037404012393
-0.24108801708880967 -0.54012817792656875 -0.30882992660302477
-0.42304837410645035 -0.13919831708375163 0.76201207276956295
0.43643603713743673 0.35184021745818939 -0.13635420010958299
0.0098140361178806756 0.689039823530047 0.72117993621403276
-0.60189763994806178 -0.76282767130693152 -0.35654760014845976
0.11682213471809888 -0.12508380830628596 0.76170401115970243
0.02790724715172388 0.84955074629012017 0.54128062038141822
0.46867347391161118 0.42074781370461523 -0.17490191657248033
-0.79668564630653194 0.02761189483841342 0.3629851888751402
-0.021899164283091466 0.46200566862170334 0.77195724017063627
0.27878845308394062 -0.38327550698294033 0.33170300771996608
-0.2279090973085971 0.5530189243256487 0.65322302250126407
0.59714694212843966 -0.19419478742203466 0.62559423103420642
0.75364764724044164 -0.24559612404789455 0.68318529488017532
-0.48620961635678839 -0.19284259522393299 0.73827270724422611
-0.7534216779770091 0.043205985972324612 0.63326129211916005
0.17735886155132619 0.2872553586029305 0.68877452834763808
0.072485401747613309 0.4182367018633979 0.73946746549989495
0.15668406201702823 0.22868007266671064 0.72563588107717791
-0.1386158648561775 0.49613789386051366 0.70888629023030658
0.066967119196988278 0.80863445848480531 0.30740427793949365
0.21526449604702691 0.39097110578306804 0.54310314272643723
-0.024474003500309038 0.81467444254780474 0.59471001868759021
-0.65365668921313258 -0.53994589143087524 0.094207772772740839
-0.075229920702220454 -0.11871141692296305 0.7615194924839237
-0.95421931688861594 -0.80664325290488925 -0.3932794252806513
0.62128972011532113 -0.24549017975137488 0.54964006862108405
0.4540681794918946 0.039460217858902524 -0.0092408420111276257
0.35312242294005713 1.2170960573692824 -0.47860470667399646
-0.12853030212161798 -0.33528674697703664 0.7343969709535223
0.41612062738616373 0.85584933291427845 -0.3307165227519242
-0.21156678424475572 0.86316188354857903 0.20580634379495233
0.58971644901862419 -0.19995515666620989 0.69216659323450713
-0.70963013410988651 -0.3818128185258054 0.54994695538227978
0.22573777813745011 -0.17429991624670649 0.73629526428175218
0.15635573285911164 0.85550529168763312 -0.37513355791699254
-0.50206134177336992 -0.21156118682189629 0.73371328999339802
-0.53262984192628693 -0.8944329517559293 -0.40930711445275847
0.65346668145036801 -0.65443795369759528 0.59437359396633482
0.38050409838736954 1.2266303872477451 -0.48704403230149218
0.51839252547606485 0.76802909136124065 -0.32065787842291016
0.21368619308702108 -0.39974266991555041 0.34586548349808766
-0.10171955609762051 0.44604392181999586 0.75459489085288323
-0.7174635847153823 -0.54439676060675346 -0.29574504370550869
-0.93584332330122866 -0.68789568136398316 -0.39236879747889475
0.47429463623420176 1.1747129257698496 -0.45543767628638676
-0.08637334616949488 -0.36558619626661581 0.67643170674651287
-0.18554222639465223 0.602674607886728 0.76744284531901741
-0.01522766875832815 0.5967859853359716 0.7232066339317762
-0.10370839589320724 0.3212684404134265 0.7659675190893469
0.44413761517225225 0.62421523642280263 -0.25370762723999718
0.36245210521182258 0.55199714402994715 -0.18909395237224658
-0.60977420081362865 -0.62177274587973486 -0.29957583463145632
0.19362503478583193 -0.10310321507158449 0.78174875545718692
-0.52552009499089003 -0.66238224685601921 -0.2793125254530473
0.65204683031939226 -0.21304955047038732 0.58683239080457028
-0.32527620737889862 0.16958986912851337 0.78473020246432235
-0.55007324605276153 -0.19580299341026119 0.7134358624522521
-0.57198972926091329 -0.92155993598137975 -0.42527723557964769
-0.13369354055132732 0.53871465084831627 0.73272859907108234
0.63158255029541266 -0.19462396784501834 0.57371800240291293
0.57974759069592352 -0.34284561107409139 0.39229626861192557
0.32997978573506614 -0.035811167801721666 -0.038848997956122844
-0.16227468068358064 0.40685202053392544 0.77089599777014906
-0.17818939935676781 0.53223682146458806 0.76839142284711759
-0.45789894850251756 -0.16816457519404793 0.7512772524680057
0.53413863321517141 -0.55816308902226908 0.63904202066085958
-0.52129197522745585 0.022262866199543652 0.73534096551096795
0.35671399233780932 1.0145549175893063 -0.3837037271903263
0.39451354378488901 -0.30198356385361969 0.33965517944237789
0.37125758599744074 0.50299991796168442 -0.1772221073964424
-0.077777850170043905 -0.18169654543783409 0.73838366996027105
0.69995414598162853 -0.22053383848948727 0.4789418174000879
0.023580880574591845 0.24826394599536705 0.77020415478140336
-0.15141211292294798 -0.1810649137269813 0.74020830633985391
0.61834878774772761 -0.61291354149827271 0.62076115316678582
-0.43889572287988443 -0.26296515952755328 0.73344226185215433
0.30648310587633176 -0.44139944396689401 0.57708653354469774
-0.0044813128051757189 0.69615762381171109 0.73741112604345194
0.28506408405478822 0.47393484281060161 0.45364048228366016
0.40731986518802543 0.61606899595435571 -0.2369714777476446
-0.34118892835543591 0.10206684817412359 0.76391106847621337
0.34625921159043926 -0.06721199633821584 0.048393205911082759
-0.67926986731810501 -0.41616470470518507 0.61864805339874307
-0.50681154978633813 -0.67802422995653089 -0.11639861255494743
-0.23445164979739985 0.54127993152794573 0.62545834834794867
0.45607771798755792 0.30068384217131516 -0.10528145807755607
0.067201810969528708 0.79806014494665689 0.58371444163131414
-0.1902799776708477 -0.1767876240567503 0.74959062212208316
-0.20729611798211778 0.34243136977199562 0.77219955496809689
-0.42053345946573017 -0.10711899809415826 0.77218030478762234
-0.42323584955423854 -0.12348028838465552 0.75307422134545376
-0.35210808833835117 -0.59351799700493046 0.1027099201452728
0.1641162195747512 1.0516536782870052 -0.29729577454232725
-0.77950293792446101 -0.6033475357337803 -0.35372849597412248
0.87392553583860177 -0.36161233898848799 0.64863675251489283
0.81441517058290458 -0.45146855698191501 0.5408089072662996
-0.61520861964778417 -0.54077416413864299 -0.41867803129617265
-0.6285174914400673 -0.89472260007758564 -0.44058589753331034
0.051843656403661953 0.9267435025497599 -0.31886448162455316
0.2980114440267343 0.50051631321676027 0.35272531667565765
-0.11515993863569207 0.70589143344055572 0.58826688460266929
0.47398676289084207 0.49450018078911917 -0.20785703133777389
-0.72614525042533984 -0.37477742583102014 0.45998875504395276
0.0085719733784443974 0.47221144106653767 0.76202278322745398
-0.76746197899670099 -0.96969424677299365 -0.42716704859814669
-0.59115281585559387 -0.25565896527064069 0.69730463906290863
-0.10073163697524024 0.52140285164083267 0.76385663957139371
-0.39984367156475997 -0.04720989765428385 0.75725791499753869
0.31409200049896668 0.46991057567569605 0.15236546431422937
0.88505690096259571 -0.35145511005144492 0.62433942966150369
0.28859511294301043 1.1532932243613718 -0.43420967637220009
0.08156959515704898 0.63664825848591278 0.68028702179666034
0.81067146527482947 -0.41817819821589097 0.5248873328687047
0.77316353651810488 -0.31394211215966905 0.63446407179437969
0.24054820591450721 0.68136576833281026 0.056023333776701989
-0.52860438692957246 -0.52028188253276042 0.36092626956822826
-0.49594183808747871 -0.65553107758298168 -0.052756315557083155
-0.10526001489721182 0.50810434239378033 0.75678414566274488
-0.033462916781203944 0.59440988884779422 0.726521792447406
0.13890935465156318 1.0832177687508073 -0.30562635920363235
-0.59211179404628922 -0.073373012736896115 0.71816380726698315
-0.51302141974669979 0.15713298782111629 0.77525492575153887
0.11193053425272126 0.34871012779908028 0.72561216144330931
-0.76139286169741505 -0.77124016707152698 -0.41483115487680422
-0.44000458112193286 -0.072730936960306636 0.77362908882252901
-0.10863395935355413 0.52782938666930157 0.71333050452683522
-0.66169053979503722 -0.92338875810056464 -0.41206442877142457
0.018199769890543394 0.40690979431530394 0.77040743370795806
0.6224208138112175 -0.53663014586259195 0.66751804458985831
-0.55353206237111152 -0.16301508240394824 0.72058820899932841
0.66908908187976124 -0.34931364700155143 0.74413067620738005
-0.73965087857450484 0.12824523195224025 0.42843939900757455
0.06128856505287672 -0.10575224153265239 0.76536830302273806
0.070852763951570807 0.2733466111366063 0.76802688974427369
-0.51397897801966153 -0.55038410266515925 0.15254339284020091
-0.6085284527055137 -0.56891780652903634 0.0064553284955426449
-0.29981681753416467 0.22726425612427192 0.76196369110771522
-0.61502975348358291 0.1419258767632634 0.74689086999594156
0.51511396255131814 -0.49614677050730549 0.50624982133307128
0.2822384215729592 -0.16428269634909753 0.13544196909662531
-0.66799414085959441 -0.71266669210442224 -0.37208238410623906
-0.079293763647328319 0.64112099991341864 0.64704712973943557
-0.46549755849266461 0.16626037876688926 0.74790574648624286
0.55426563425309183 -0.25900692091121869 0.76438387077393344
0.29425320337879413 0.35348501796718601 0.51327925268318531
0.38278841908050509 1.0517926519684977 -0.40203153651926371
0.34785022852071279 -0.18855830018609865 0.76503094287244267
0.649210503166465 -0.19686521753813935 0.56380770369419508
0.54608912002438359 -0.1952761083979766 0.71648732902239232
-0.8159620847653466 -0.39804413487731161 -0.2834375426821456
-0.63964601615879246 -0.63099488755831601 -0.32570189248836634
-0.67227068389459532 -0.39060634540975414 0.59368617935429491
-0.80200098558237709 0.44958688498745847 -0.20689898374371651
-0.30724914015804217 0.33927163134198501 0.75137326564392914
0.16138322775135805 0.38013661750745342 0.65411595019219604
0.14297178615976236 -0.40934214391050361 0.41999916528753189
0.14149211912148729 0.89807651985042369 0.022345493257795113
-0.90283777753637917 -0.71967818480414358 -0.39399556174393346
0.38220068458865342 0.22631746374835693 -0.1480183883987074
0.18936234619411607 -0.036810723355156227 0.73845018008051255
-0.52153270413080577 -0.046441466474561821 0.71909798294879068
-0.57011865986977028 -0.23480872895212812 0.71007352528325118
0.42423394155561667 0.22363794491414524 -0.066401808113315752
0.25392066915095768 -0.24365634778493472 0.75620469631252973
0.36846419423785903 1.0881274534666456 -0.41440179275749145
-0.21588256012880436 -0.16354645224386744 0.75809954946585734
0.13389068869977905 -0.15160693250569324 0.7592080290127452
0.86453371986087291 -0.3156631952997504 0.58985838090438136
-0.31328752310128039 -0.00089996411357162742 0.77351351640183807
-0.097637064263338402 0.76833624004219025 0.46086856559350653
-0.86077618796424815 -0.95111391617671437 -0.41614517353045777
-0.63512041621438442 -0.39001819472959554 0.66796503816682806
-0.5849533850819375 -0.85289847388304629 -0.3843137509065162
0.14434223414357916 0.52493924431448491 0.62802940452672029
-0.2754364252487278 -0.31153484928160324 0.70446981389784824
-0.40109788655336587 -0.081274335619205829 0.76299108767016199
0.51973126829588523 -0.29571521160450231 0.35588618478950806
-0.68111008080334123 -0.28504076634002296 -0.49975061439485735
-0.14380655660348651 0.46009215059678787 0.76309453984840037
-0.48723831234964976 -0.71236674996076133 -0.20195360210831126
-0.036561058080209818 -0.23189108389475876 0.71215615647100705
-0.77309843886106933 -0.80669799550113197 -0.41722057918083877
0.087674337041518058 -0.42670459539089833 -0.16580704504795918
0.24899483350378659 -0.41659313908405693 0.49991008829628214
0.16740868707155698 0.44059285604732956 0.59328002975643646
0.63602658764420283 -0.21077240419513465 0.56769704593317627
-0.10897750831017561 0.44321936610946189 0.76001840267646537
-0.43540392924953153 -0.040044297347410662 0.77465590799218109
0.075593219080829499 0.26872613177841131 0.7658166294875759
-0.55384802024533997 -0.22822174715134835 0.71268767205726269
-0.78946841448354022 -0.020345994611970397 0.53162514624036228
0.28592471671215947 0.54420505583767742 0.14910908512015375
-0.27308705701212332 -0.59424892077229075 -0.11540695738332829
-0.028391708822383066 0.66092353087847755 0.64655463430412552
-0.15485111434627896 -0.34282374345913524 0.72743027779866409
-0.91826971390287859 -0.22482445830858033 -0.17856305463428868
-0.28076339870553113 0.23234926307731563 0.76538323064972902
-0.17341481192553942 -0.40859262615864722 0.56154199688468154
0.20783438793599629 0.95427231338237029 -0.29466371160765448
0.27825294743718842 -0.11567043255455189 -0.061920267735366963
0.40054895513927136 1.034846068114426 -0.39720653288117447
0.76542813975042634 -0.30641273505952071 0.63784557814726384
0.61505574819176445 -0.25903566506728737 0.4003547425033247
0.3792304578333372 -0.0078516447045373639 0.17408335668661934
-0.048796300039249729 -0.17681788915833607 0.74191839293385797
0.25818288755044705 -0.086388367077098849 0.62903366479714862
0.14980098643435635 0.96260650333078424 -0.33921993094131153
0.050873225042359138 0.30122788423212121 0.77220324904868853
-0.020257341491954683 0.92776374911266946 -0.33084018244124458
0.17046808355908638 0.39638076594341243 0.64575045376884255
