# XYZ point cloud file
-0.20936077535098718 0.94718835494867903 -0.10330462604190949
-0.73924649225144634 -0.64817736221821498 -0.34612877167250211
0.40941806286841143 0.18238300565900545 0.10225338662110417
0.048874469648183094 -0.42252440795768287 -0.25114491829634389
0.21056065348764719 0.63786334228626629 0.57104383149164484
0.64338209248140288 -0.68788547697104008 0.53429568492651214
-0.1116515298937486 -0.16138405870617589 0.76676476012144512
-0.31248458857902506 -0.0062273642921342187 0.76006313672021264
0.14287047723917823 0.31296102951347393 -0.63580235611583191
-0.3327890375863376 -0.046217486369442673 0.79384731749104986
-0.32476848127717517 -0.14445075233673421 0.75181676045944812
-0.40960691421520323 0.53229634027420936 0.39988698932917544
-0.61811049062620071 -0.67434229604758178 -0.4173928827966904
-0.54655600724063902 -0.35080127060498167 0.70859001990836745
0.71289564013676454 -0.26475012239743734 0.60904933123433125
0.31570164450930349 1.1922768836210125 -0.45423958635403849
0.48815101311748776 -0.57195989959463134 0.65748651613055209
0.5187720869540442 -0.058005156978211403 0.58334652121316832
-0.3147523299548709 0.043804711275329922 0.76773560132745544
-0.62872543652810009 0.19603721533479401 0.72553819803248487
-0.70861437252421666 -0.4070740925699976 -0.46349890569590357
0.75899589681554858 -0.18233813095856277 0.62212372574632591
-0.029636801879973973 0.60286415327242793 0.72378387671846767
0.33101256143022795 1.1436608078508854 -0.43275342573708997
-0.37253944291916241 -0.18296408856576463 0.75127649302560684
0.028684011820018895 0.17772659497862264 0.75249184034426619
0.79805875634721701 -0.32149416444313061 0.61554182643813649
-0.10615171158363523 0.53660766048735553 0.7462980403539401
-0.65271881343468152 -0.95440143226425356 -0.394111144191438
-0.035093265807290663 -0.14447631871090039 0.76207445930702988
0.63474349926156037 -0.67875483718070484 0.59012039062374555
0.41160847383210353 0.71991816983604195 -0.27879010574567076
0.26656668724483268 0.81802120725731697 -0.26070535923410532
0.79692563001344752 -0.55193147297092793 0.537059811804804
0.22487959498829468 1.0850270349966209 -0.38444304842283827
0.098491791367820269 -0.18763658821126228 0.66575781811419432
-0.093578626594478465 0.86599113358515467 0.52634645769200539
-0.18229226765873818 -0.37553209807262533 0.58359878868607851
-0.41148190692661046 -0.29023135281982615 0.72918103491235087
-0.73657106701267594 -0.50359151719192141 -0.017288249708324432
-0.49128232960848095 -0.69655029487183651 -0.28009395588300201
-0.086308829293159306 0.5397076572702737 0.74315974004480978
0.044489700609233296 0.28370874867894003 0.77254372511552027
-0.38276997771521337 -0.059844088683421059 0.80382867352689047
0.096745413444494943 -0.036962783900879259 0.79347283001198043
0.87734823013164487 -0.19510010713037218 0.53831912398793036
0.18880213097327214 -0.16185827407414877 0.78189215533906786
-0.09196647660755275 0.83727564315681491 0.66976927898002714
0.23200366279101559 0.73913961589437349 0.31138496245713121
-0.30110359692139355 0.22965057913826481 0.75990993930418682
0.71040780092374689 -0.36790567029868981 0.64677682206628662
0.40792329249367754 0.36085443930384287 -0.070074461203581961
0.13621372786380448 0.55666148531581428 0.63829617986025511
0.33122046307248354 0.66231355508712397 -0.21468471127455047
-0.069990326960713389 0.17764246308361464 -0.74150753486406629
0.24118897733734457 0.57430897683777715 0.53798131217292067
-0.11639082471046436 0.58625296618907186 0.74082599856960485
-0.46598867017155499 -0.058835639745192125 0.76797073068465593
0.034344195309699899 0.36369989174795592 0.77965654491571801
-0.45630620177732339 0.49267524431433873 0.72807372283914162
0.2684945428721619 -0.46426893216541743 0.59056356947990762
-0.24613067904408581 0.58129381419960424 0.68791974187262284
0.13429138487194336 -0.08367915423846739 0.78401764703804844
-0.073377409003683169 0.56326680623427805 0.73722118155310312
0.11317223612795146 0.13203312932570554 0.77166551300189212
0.40856210169386031 0.22176740813024765 0.07212174326006604
0.14118375337966427 0.81630801158528499 0.22946092369721693
-0.06667445632214708 -0.27791328213857724 0.57411152384241504
0.43123850735450731 0.29689395999854185 -0.0017402010402740586
-0.78042832021273512 -0.018246386052682695 0.62511086928229531
-0.071300457113778748 0.25321168295891994 0.75506964345262517
-0.34952740418106032 0.29396856075695288 0.75315261514703025
-0.68508993413425401 -0.61976296431605338 -0.31004632062044912
0.20511613806269224 -0.03223890079321734 0.72463289382978946
-0.2758668830425961 0.33855753864112526 0.76904474636508979
-0.40708148932489507 -0.80351522410501097 -0.33591910789278323
0.22458516828139352 0.89338991570919291 -0.32269276958954052
-0.1368241845017053 -0.28436965878136178 0.70365955890674314
0.31201475927932165 0.086973261057678997 0.6121991518815193
-0.63298215408202907 0.30083735388741206 0.37328672548612474
-0.070948007388977885 -0.17384732160797611 0.75643627014684256
-0.24150118871966697 0.52650752766213849 0.77883073471218722
0.37842815362998294 0.52162622953039772 -0.18761489657103425
-0.15308645647226626 0.37894181698188589 0.76548261043117805
-0.40461557481302179 -0.68820592053795693 -0.20464369442549213
-0.13074868569890441 0.4592719571098165 0.75562867026594027
-0.55688298413735993 -0.052901926118718023 0.73657850487272469
-0.78041320093269917 -0.58671107773962916 -0.33005042794601991
-0.4214674285554878 -0.70207404725803357 -0.23125861292287464
-0.45317178594783059 -0.062785105233647442 0.77801136467984477
-0.62873928623847064 0.049434494396697559 0.77763005064450041
0.23520226791691812 0.02588141509320252 0.73388381391654711
0.01393492822061404 0.79831773078069546 -0.43880872397287973
0.6913677802251641 -0.20686967904633491 0.6096494713423688
-0.29992964380238618 0.045773061375259161 0.75827371362446527
0.21758983109401697 0.3106244570846215 0.66096075099912177
0.060079593815430599 -0.43991785867541111 0.27785410883059924
0.5152749458025454 0.59310299493709095 -0.20716733987735125
0.47658414994148757 0.99813139685169716 -0.39877946139158738
0.15069960345797995 -0.13213687388893547 0.78037423189142174
0.36340079161649896 0.43673857382106718 -0.021276647876064203
-0.078794288773138987 0.55090777329848351 0.73980441975652766
0.71055036975903363 -0.55327592397502201 0.4248047024910564
-0.067551494243559773 0.43384622583750243 0.77631397960990078
0.13839154469066983 -0.26474455414702192 -0.47258603874410099
3.5316699978693578e-05 0.84314564701566042 0.60403270294849598
-0.51210758600322492 -0.87639058017234994 -0.37043352425374998
0.67733586803561252 -0.26443291138338054 0.66506312479096064
-0.034795321914998567 -0.11232118827673432 0.77789942679891233
-0.8735006554372049 -0.81952946813122018 -0.4179298774381941
0.38224984830387143 0.49167073767763725 -0.17088239152674234
0.33834549140792092 1.1170949932687577 -0.4255104211405687
0.038067446672727101 -0.057434547244689327 0.78916933618146423
0.50659898384157032 1.1824567123309748 -0.47785138743965305
0.48904266582593436 0.86744979759155427 -0.33266292217654225
0.20659780439869735 1.0842971375709354 -0.37239484978175597
0.38293088407738196 0.44025860970362629 -0.11221435911925326
0.2615584756034508 1.245127615591926 -0.46040281825892038
-0.059793467522581523 0.79906502022136294 0.71026110759098948
0.16801246136404302 -0.38572483769363686 0.66086715422608844
0.32397947122791493 0.28763373866775055 0.48001218609608998
0.26023581889936054 0.42803161835821157 0.55402284703051041
0.72200635664253809 -0.37006178754150199 0.65146932861132933
0.26240062074032267 0.73343626422886388 -0.14726967995294871
-0.48896755536111414 0.14408136048986542 0.68548835601975711
-0.04699942050498862 0.64010476496299518 0.68646773637361136
-0.40230184817136205 -0.23292969131126107 0.73453593703558084
0.27928923621702495 1.0076486579832178 -0.37065007860272559
-0.76960506840551091 -0.55869178573218159 -0.318629727128247
0.24462462611100477 -0.19083698265615112 0.77077284345738928
-0.10131467647971704 -0.1480035577711547 0.76933947995728325
-0.89613030886481226 -0.59403524613086578 -0.41566514087206841
0.081841237060302774 0.29218509976841034 0.76251630822714578
0.24414852927333186 -0.013670921645008605 0.68647536547479682
-0.41730540779136049 -0.13803853467977323 0.79391628280163573
0.71018560020661425 -0.26236103718415649 0.69553918842399964
-0.12992131876805502 0.6461378878804851 0.76364942987047257
0.88863023147700915 -0.23409053462621898 0.56585199342322801
0.37530335695367967 0.93385635816383683 -0.36311493520895155
0.26284889016461932 0.94136043392433777 -0.33334755267074456
0.23538782168706973 1.1715082457870665 -0.42392936500404588
-0.40476998086452909 -0.74094407198219159 -0.23131443423985498
0.63147424895828408 -0.65663631034373537 0.4628730347043053
-0.89618566421926005 -0.27362416107359844 -0.30642189038170375
0.58087718707827207 -0.045085779460453779 0.46326546853551243
-0.46672436815597962 -0.61897082528131619 -0.010109024667602107
-0.18709435940687058 0.56853010069491106 0.61385089081336375
0.18884929939494555 0.022799700088633301 0.76516706061022743
0.70914398606765872 -0.51646775936470846 0.68931634418041376
-0.34483217390543786 -0.2117188826434262 -0.61823295874584616
0.29639420719905729 -0.18200578122302602 0.79552278571417201
-0.33053371391544317 -0.66254477560003089 -0.15210216389359843
-0.065261399566708178 0.38131136215741535 0.77550341882031582
0.41827015449108274 0.56267282134103169 -0.20555711656809805
-0.40283997512676706 0.63618378868818648 0.67897146649632845
0.22921091419493678 0.20031861952415397 0.69104525933131811
-0.46559269224214006 -0.68832559438889351 -0.25492363685959418
0.78279770305348961 -0.13354348508121916 0.62956345902009936
0.2043060696148018 0.58039349674719176 0.57679048416984546
-0.26785444307807893 0.013613909288153536 0.75824815145328728
-0.3994032942275112 0.65078506092509203 0.52172489858515547
-0.79708698129417144 0.33034157567003231 -0.025780547580835034
0.68794953826167671 -0.16031566331330538 0.64807841367956565
0.46014102907642496 1.0448920374314028 -0.41647275697644659
-0.45824771359593797 -0.63762301847128988 -0.015970426600145249
-0.13048137262333626 0.67174601286147961 0.75275031677304227
0.69850412831269182 -0.21446232815623745 0.68316774969461869
-0.14525798493109576 0.1110085543597279 -0.73836856215229929
-0.66355675786573443 -0.022224090561167031 0.75195451029136606
-0.0018552390552315501 -0.10830020232579329 0.77984999754183271
0.43570778402515487 0.22002648798022051 -0.062386465927676937
-0.096714652427067449 0.48532937617572713 0.74837941859800594
0.071669988956983843 0.58840420733349674 0.67374677712929731
0.074211800536346573 0.81711748271162321 0.57685508118298623
-0.37790293119164176 0.2610474860429024 0.75500110109743446
0.089692168685246543 0.38682694883094371 0.75438590372959791
0.031955233713233611 0.71989122453412335 -0.50588645203166038
0.29078584772256022 0.80522343400303242 -0.27250625677672602
-0.20298779854977056 0.54438968185213099 0.59328749211312726
-0.29785969563582171 -0.067117089083708947 0.75816389753664382
0.34677882442369423 -0.19674224723227951 0.78068837543451153
0.01086351385814055 -0.093976106800965908 0.78308737166367592
0.022338278182445492 0.29947632267108659 0.78371481267709342
0.01883323462746489 -0.10277204830081033 0.7785645261767975
0.34634749854217262 0.4195557434756978 0.096124518254747215
-0.0045089240707341105 -0.17046542445729429 0.75920034743760567
0.4641026435235176 0.40240714812822631 -0.09035412070819504
0.32062355106195639 0.96519837912826745 -0.36624008316760737
0.34768177284067292 -0.38331821520511866 0.36251812599818756
0.27750561390332962 1.2568882053496111 -0.44555246680407379
0.55232697987392498 -0.068064845972489962 0.61095321016587345
0.31584198748294057 -0.17910132283893176 0.26850219526890129
0.16147682809491926 -0.081890385311865543 0.78664278541481192
-0.54440722498387117 -0.083155247701261814 0.73200015725641521
-0.67639619674790197 -0.98616814150317111 -0.43769138892536574
0.72151969593383569 -0.34087836615342582 0.63129682214939242
-0.66880245156828266 -0.25205883066593948 -0.54807193071835059
0.40851151202200242 1.2688715296236523 -0.50070385009452778
0.15367270152336232 -0.10313922986158275 0.78344732808107409
0.38682227180538575 0.98834240702710474 -0.38661547225255433
0.33732784280141459 0.33851176415574002 0.2848157880590918
0.33789275730498503 -0.47361679816079061 0.63391013392749684
0.39438400247337313 0.77152197225138508 -0.29901202376992231
0.85997542528937743 -0.37120094633576883 0.46630858097021965
-0.10014529075019141 0.33825628814605579 0.76843913349470405
-0.62286976844856667 0.30181227297226876 0.43049342105660671
-0.69956693723395347 0.037182535341724332 0.74118547445787186
-0.043072152257167318 0.40169499261261876 0.78853199487663694
0.15754677832885022 0.79450666761500344 0.41743852854013053
0.35285465162900209 1.0095398987780584 -0.39009113141448282
0.24412988387533119 0.78653878918100162 -0.18522083564726088
-0.64148577756233749 -0.54771726067065973 0.33131839995021117
0.052140471420187851 0.63652256082330183 0.68371129350263793
0.19171564018012077 -0.040331143714190887 0.73679163603301046
0.31937421111854292 -0.22759358920968253 0.79050651142030581
-0.75649837667474173 -0.81249119148245974 -0.41672101187490362
-0.02191498518317303 -0.13484800575525213 0.76500644928447059
-0.20303532757881726 0.068954384097111188 0.76382358193362165
-0.066497709902392899 -0.14885995953673259 0.7628720825314943
0.28665126951065645 0.0068202210842116529 -0.42723441317113853
0.024079703395052832 -0.25636592817728143 -0.5495420496006389
-0.59765344088874883 -0.62935471044278657 -0.28513403255201197
0.14390364599832139 1.0033984844320827 -0.29640931407402604
0.36989531933465969 1.121588030294248 -0.43378350789311426
0.72534866624823735 -0.35080076119233183 0.69516096714563558
-0.084697050815634611 0.24372799068597217 0.77179418540203137
0.32505285955133445 0.10345513461879108 0.52033259908057872
-0.44009145201425781 0.57576652070687295 0.68152978539959719
0.20605427254864139 -0.15586261617880126 0.76262997358221618
-0.39059368633880354 0.17789038973037297 0.76928598712179053
0.15896553920779866 0.30326947083432287 0.71308963941370074
0.60336501710341395 -0.11072050791395327 0.37446171818612051
-0.089791938177711472 0.35770082883895071 0.76105805106089264
-0.35552958106131882 -0.554433237961383 0.17699160340957398
-0.36729886246141064 -0.085821955260224403 0.80053011706448984
-0.49561675876202571 0.30118088071266413 0.78913024269909116
0.092655445993528929 -0.41486285856302629 0.384057706431296
0.36215050059803389 0.58847290992664369 -0.20677112589530111
0.14548777582245975 0.31309678149374776 0.72392174071051274
0.38350010474803753 0.33193860506879957 0.063750625699103836
-0.93698140984594147 0.048432378513251884 -0.15048643524466376
0.40026856122187837 -0.54361367386724169 0.56805265707016339
-0.31833245881225025 -0.089757852527847071 0.75749844241873276
0.82912568176539025 -0.38014137489386002 0.66018386051846578
0.71830068229138533 -0.36938048448348582 0.65957133793162637
-0.66285544330863644 -0.83417562636000575 -0.3822262735310602
-0.11636737390216467 0.77693833613598784 0.52598712527884572
0.080257144365248223 0.60918804397189774 0.64878370289815246
-0.2276276658652705 0.014388699522637438 0.76162278025820385
0.37008738815542586 0.54900770846300873 -0.19229973214110885
0.4231724132748127 0.40668416178760936 -0.12857647611330236
-0.47522149813273984 -0.67986294000246517 -0.2605594872331789
-0.37819139981908734 -0.2124396876337622 0.74399457471307784
0.11219789045389916 0.043638751651030816 0.78656051848772002
-0.071830322162497851 -0.12499300545809433 0.77407551403791786
0.17559350786646633 0.37895229819304177 0.6731839806512987
-0.80101403552171746 -0.78072355537385363 -0.42433334797352096
0.84641746171664067 -0.46708364093718302 0.57010046192789954
-0.60763510504565943 0.61512751212389105 0.054375789018783038
-0.095046814386222422 0.73206675611486105 0.74152961668209194
0.42359068460596916 0.31769154652490528 -0.027534885706966605
0.38148573843082545 0.36396438099109929 0.012549690637108313
0.0027711773583973809 -0.32809392466527854 0.43986154943087818
0.27992623438839814 0.82141931551293368 -0.30447700690666224
0.19674649335502181 -0.33825595663233798 0.39525459075411717
-0.35566553810227219 0.27634075314095741 0.69044472684094416
0.28501783580217932 0.73189562381111273 -0.21069872541962908
-0.18485341682097101 0.43711680320598489 0.75425701189126571
-0.4614317014875553 -0.82298130882880649 -0.32272119611728556
-0.31685741836625425 -0.43288429853307875 0.64004602504477504
-0.096287569642186099 0.42362762108835739 0.75154529812616389
-0.096149508288306151 -0.18736756724401005 0.75968349678123737
-0.57470223172001056 -0.72382357061914693 -0.32904799200728441
-0.63306216313440444 -0.86791114339487052 -0.38365820164101194
0.21413590824741391 0.38592226776862759 0.63575578154821866
-0.016296213836739071 -0.10953394023225727 0.78032853616456599
-0.22556182513289968 -0.2703756717336887 0.74337544965276869
-0.31735847910260873 -0.35417518991178554 0.70486119547166126
-0.30856452901767284 -0.11400776105559984 0.7547133130047996
-0.34538071188768527 0.19154907868187276 0.75711689690893991
0.76772255802166001 -0.44045257346492406 0.6846875662034515
-0.042682342905550286 0.60161978002601657 0.7281030611269852
-0.91423128771022988 -0.6363927266840117 -0.42032021797422203
0.051161832134340557 -0.15198764084638228 0.76470765206407698
-0.74793334367876696 -0.55700350966293488 -0.30710638440772087
-0.55776494166056523 -0.59002874067823985 -0.12752160889425257
0.10177393988550421 0.3830492676276549 0.7481724792736113
-0.52002262009190758 -0.22575352940280524 0.73462656311339458
-0.43443460616505547 -0.80950914488584935 -0.32237960161293699
-0.23035295716718451 -0.53349536715421841 0.13356277737580058
0.2950649826889844 0.37249072961599694 0.51215096776253155
0.30449591760756789 -0.13328030985900696 0.67409190077138881
-0.9730009690421717 -1.0630385320982345 -0.43144826413601933
-0.044318100839603858 0.29395117745307786 0.77171190434392933
0.32753223247300411 0.14939759594322055 0.50523824530520756
-0.36875233420674647 -0.60985740132480881 -0.29349333700247016
-0.57492222805531412 -0.65370192732885535 -0.31016692110645927
-0.67995495285548202 -0.55596229081047355 -0.22454605140018735
-0.14921174660565839 -0.44445072212609915 0.59967013393492419
-0.5984573992744231 0.017274033059903715 0.76040402350373881
-0.1660774378684664 0.44243146495020724 0.77560811632746862
0.35448939844661709 1.1691380595577456 -0.4487952653886218
0.17089056640250533 0.46715958413187053 0.64193569950326168
-0.46426711332949822 -0.20778900273398637 0.76496491613578854
-0.27286921927003505 0.077364646678775628 0.75989279968021961
-0.17488423244105888 0.40000914026907708 0.77539866431177273
-0.6988399602529114 -0.17035660317239731 0.68798387364546798
-0.30346263196341283 0.15322724972709345 0.7331113262889879
-0.32966016252521513 0.33775988461664652 0.75787640592138672
-0.34140928282897676 0.27363637105681948 0.7536851592233873
-0.4387979465080889 -0.19007684935831382 0.78202024773099055
0.045297409529950983 0.88440407388939235 -0.29820083337201631
-0.037585109704309616 0.061796601134417983 0.78514868311700781
-0.19638160175770736 -0.29750687082696459 0.72660126961318383
-0.68678981756562507 -0.8037986643495092 -0.38716183015872474
-0.036697834452354527 0.45319132670682905 0.78472049977079017
-0.18972238354399451 0.59988970967176769 0.55958502778639918
0.24077673194490501 1.2248739765520753 -0.44542345059707955
0.79599936320553866 -0.2661040011520015 0.60281875043662581
0.44537188073849165 -0.28735343413665504 0.78499446045313404
-0.064892187572411331 0.35147169603378003 0.77243656687320694
0.07301439109700425 -0.22027625034918685 -0.56465622566379992
0.2983467348979616 -0.36051679172628681 0.36206616716968565
0.20985925995404386 -0.39052099364238302 0.66980129180608561
-0.45807031597774994 -0.29478692857301247 0.70360256353664852
0.45732703445463585 0.6597601912191422 -0.25675520293090415
0.72906926848736475 -0.52802167235892483 0.67363519630449442
-0.29006902918422384 0.23289224606690695 0.75914436014723563
0.38483220033074872 0.30099033390232677 -0.24878722603177295
0.42791832136065011 0.15270890451955665 -0.0083367601044592732
-0.087955671148904457 0.26971949876330825 0.77171949544853291
0.43488569962727297 -0.57748069574797256 0.53274947462333966
-0.74969602453492001 -0.31716479363314054 -0.47992420679670111
0.38317134604236003 0.087681099692247244 -0.13696980971971939
0.7896739031037896 -0.56367930303666469 0.56941995218017105
-0.10595542549529569 0.50887948588076881 0.75115712720734784
-0.48949375265863182 -0.64546022693680349 -0.23697941920553589
-0.32051702623451206 0.21343012433371378 0.72402427629685917
0.13618188359026817 0.20975675131350613 0.73932494268265803
0.47615738641781036 1.2188070204365289 -0.48884449528021534
-0.7298273909664772 -0.65449461309554824 -0.45766558638480603
-0.54542663873544939 -0.35491217959256627 0.67192063697918059
0.21502471917310118 -0.15603909893293633 0.7892034693476182
0.026305786095434769 -0.079536077951907203 0.78374605742498105
-0.41375419392281287 -0.79600782856746299 -0.31982690494136001
0.35154655118986966 0.94463040644824048 -0.36403725290557176
0.8881652877635986 -0.23348875488285614 0.54400978809638234
0.20315957235874293 0.30431989820522176 0.66689348323568609
0.74652108458045063 -0.46508333527457779 0.39865999193455481
0.11365500307334742 0.78758246603836568 0.59074326957435552
-0.12992936047166381 -0.4282253854568765 0.58600252026059163
-0.33482577261872848 -0.35465749549760872 0.69879438125539828
-0.0078689215743281693 -0.17412317384310683 0.76008855102802642
-0.28830103001376983 -0.46275520087272781 0.59320656634082969
0.16109134814482218 0.51627775614501559 0.6354328948262058
0.19313535755919986 0.88106232314787292 -0.17750721382001799
0.33591675096462836 0.20849401729591932 0.48505139690569621
-0.31841348349794885 -0.022385352254981061 0.78844013379999467
-0.34639762213035397 -0.15958620718886252 0.72586414340364414
-0.64529815787494726 -0.48107527742937961 0.55086328869453638
-0.42375505535017055 -0.69234877413101081 -0.17088896340936621
0.017362334153489201 0.77657268647830335 0.684272953272413
-0.084051294579552405 0.5585007642933455 0.74180129424198071
-0.64288376635943223 0.25920167842906139 0.58550331056776628
0.52606156642704605 0.64970067269445764 -0.25913572001718066
0.13595395651304898 -0.073348818116393488 0.78646975552041809
-0.020047296193752118 -0.2313076602277313 0.72198769905497784
-0.083437547672616574 -0.16141331912645285 0.76058737092149187
0.33946708962564287 0.78793587920341679 -0.31595172292372808
-0.11266014807429769 0.14438373753347022 0.77256529069120461
0.46925834699649727 -0.17135649314565171 0.72852784308064145
0.32954078480071303 0.86614754858827325 -0.32732279456116231
0.19118601600999341 -0.14238988455852919 0.60144416142861878
0.15683709086860631 0.6072247373066233 0.61066910102855321
0.33692218820095832 0.5083761489872245 -0.022883577232445163
0.24802494498175065 1.2702591088508797 -0.4432752594822027
-0.33146431697531398 -0.43375676975045252 0.63741076586141787
-0.092321264754360755 -0.14687365991457568 0.7664665047438195
0.38519000976489792 0.30508475160382886 0.098690885596546707
-0.49707004591616055 -0.32352852992941394 0.69437305397363502
0.0063198388861849253 0.31760620115839444 0.78655349951982245
-0.42007786747410591 0.1091121127422543 0.75514118327521018
0.08548564848504725 -0.42659414416647934 0.61396392809750733
0.1139241280940837 -0.22944131138038415 0.43107170058101651
-0.41272027197032912 -0.049161375853112865 0.80196635847808651
-0.033373779221584243 0.69924795322856426 -0.56918076877482804
-0.96770230720203898 -1.0410944359336369 -0.41379908638050544
-0.39574640646841885 0.34039661473419702 0.62142211556339078
-0.34564845026761759 -0.33649659297281431 0.70218870959076085
0.24698043965841521 -0.34733998276971789 0.70409935123383516
-0.32047063026939782 0.42776864885289245 0.78556421791592257
0.38971348415964258 0.80841937660508023 -0.31403755396100763
-0.95784604137601903 -0.74726322276177193 -0.41189764070274748
0.71328002594651707 -0.20150093353849741 0.61151122192054608
0.42070566361688577 0.39915668596984233 -0.11800036158357585
-0.50824483653701691 -0.33559415323373898 0.68288265957060545
-0.25702664158805533 0.53212962287446786 0.54695749980642816
0.37679231612652586 0.51549395657501407 -0.17987103536056637
0.17080121764533374 -0.16469151515683578 0.7780220498881425
0.4136450380998582 0.67912621711166565 -0.26029595194697208
0.41789128082631066 0.31518332478825783 -0.037736921953282376
0.42979416985158991 0.38104106828395601 -0.09773654795574771
0.79340115514764875 -0.33382324031502719 0.62117477149601541
0.25098457887237657 1.0236309327334538 -0.36559784605040235
0.21676357506812849 0.81733457906294404 -0.099084005153471821
-0.027731239691092924 -0.39148263687173923 0.48748528528758772
0.12701907626052389 1.0209110341941994 -0.29402119245509795
0.76855773011794781 -0.36427495953213906 0.69740005381089265
-0.72002400184801729 0.12411209580456806 0.58249908688446084
-0.52895060612709699 0.1827247655934654 0.61853156128360354
-0.54407754611983705 0.10330166357059412 0.77372454933490076
0.091461125653722775 -0.0532187994183424 0.79330371817199996
-0.69950491882482879 -0.34832973158330205 0.63447109249442235
0.17697627618008482 -0.11187168620342192 0.77215912916707286
-0.20288927271764123 0.38682373428052585 0.75443157065048183
-0.22623025866343482 0.43712993005483725 0.70782155471341923
0.8469321099251772 -0.32769397145347057 0.63304391458453591
-0.28169644711965702 -0.33673950324459412 0.71760729282152269
0.79141422018813046 -0.45252250688273676 0.42413110582240376
0.45126853253118782 0.52198164239458578 -0.16309603463039224
-0.66104443334896246 -0.39390105909847151 0.66456856750274795
0.24821363007868058 -0.15197761977471913 0.7982983913092867
-0.67269654196996953 -0.98535767348239567 -0.44016111731717977
0.34271886796511808 -0.44963698994327927 0.66848015108321679
0.40727115253949364 0.28782938179389816 0.0025262451828069743
-0.74227009935225396 0.1719534778541898 0.2630103824911032
-0.003198910936532684 -0.41756244511286233 -0.31858571592362139
-0.73700760905185803 -0.50413790454980545 -0.41737059084041661
0.067689506417906387 0.88959018085270003 0.14622960104599514
0.30606074811370831 1.082945976660028 -0.40619097696139406
-0.48545812813355838 0.4281141135874007 0.45735170052141427
-0.44546139398271123 -0.80962873287369419 -0.31327565313578987
0.36461913900119214 1.1665430612546857 -0.44872515788748402
-0.55866344738043949 0.37188496721723374 0.44365428532196205
0.43465967268647887 1.1104270695149268 -0.44813278744436147
-0.22779637423894883 -0.018989747190094164 0.76258658503034837
-0.48892038553708517 0.084595681284359792 0.7522436123348335
-0.10301171198170778 0.43884429608128528 0.75607576782822328
0.25691187340927968 0.71601165776966269 0.44982679872666242
0.11588808474920143 -0.37534843140758056 0.61839044073643112
0.53606562052107165 -0.090150670684941758 0.6460309442798291
-0.078927904937359017 0.8839703720450629 0.5463072045048385
0.68283138211620553 -0.17530375232232842 0.68889012665466876
-0.053604705683738985 -0.13578671426542854 0.76646651589473791
0.1371842714314937 -0.077219544607807222 0.79489949337050536
-0.3314812500147184 0.07731601250958331 0.79703261274253379
-0.41695721164148836 -0.56761971465822514 -0.37757026738171184
-0.61238283163893925 -0.67400258867621243 -0.33411953621506818
-0.083194976793151909 0.61777254427681072 0.72700248999166206
-0.048485417710821821 -0.16238445351728004 0.75688709719964642
-0.53252451037749893 -0.38295378634226984 0.69803447085989134
0.092096067243261359 0.93034474574643156 -0.28751984320701851
0.44643283228879227 0.53393129219474389 -0.18864609691913614
-0.46155138155533848 -0.8412602179251536 -0.39839373709343207
0.34673588536352895 -0.11754571585935736 0.15593288956257823
0.87019453940953895 -0.18122349615424582 0.58065348142358242
0.20595052656355506 1.1335873868288715 -0.39307936126497722
0.33996466436751405 0.5254279237915469 -0.3423268379759925
0.092626591116243162 -0.046308361155187328 0.79332697389572182
-0.010537272411880849 0.69828550418564106 0.70044760738873002
0.23899980875241056 1.2865039941663099 -0.4570656175846004
0.040963153816079512 -0.28508550768687613 0.4344252588339792
0.18458438010904388 0.094868047307613779 0.75567594757297973
-0.25101291242253865 0.40148498781280573 0.78698790056876078
-0.39326230365382742 -0.34049022569675813 -0.54950541266098796
0.42078741396558428 0.31254390734861204 -0.030258129880795792
-0.35090333413853614 -0.14417019445204904 0.77249449222407307
0.36610932305553945 0.53756882710862897 -0.17244598542632872
0.058830394937359642 -0.084212751157220822 0.78093532041479463
0.070745715618784288 0.35980589679421371 0.76755497971514153
0.72922622342707655 -0.15277446716879695 0.64411474780731659
-0.2860448385331722 0.21287185752855642 0.75956778134628777
0.18095845854612946 0.95863324545580042 -0.30957993568696551
-0.16399511598621075 -0.44089684921386052 0.60327394088907216
0.31577346124963412 0.80303231790513507 -0.29135981921506371
-0.16492724527336122 0.65764552647618046 0.6241445368077585
0.077677643037361577 0.2972415977038807 0.76586937979142
0.18700710546204391 0.31499420456967897 0.68369078694130803
-0.51073709797248767 -0.86582323831914998 -0.35429132760323689
-0.23432831006360288 0.61198786442452047 0.50432543293061372
-0.6276725287821705 0.26829647946105695 0.63615043711427788
0.30298491682503936 0.098942304859676256 0.63424433796411339
0.24931680889724817 0.0096156580820121462 0.70464809050218502
-0.80583983162451034 -0.1070290954587243 0.45815405929566211
0.037329212515999188 -0.10338835367356936 0.77605582648267735
0.28432518769703563 0.90269338736499805 -0.32485307259704754
0.16644401562783173 -0.077452690893814236 0.7549438757734781
0.26324749109139134 0.66800532623030762 0.10107356399114487
-0.086950927561190383 0.56334387628269056 0.74189434781164998
0.42304291224425583 0.33503544645125771 -0.053724787457699819
-0.0050927240155544951 -0.10774748292619662 0.78166641697913164
0.54172867856843254 -0.64994135411500764 0.46476650813095066
-0.88924766463249938 -0.90709139140650397 -0.42482693018816775
-0.48901721304918055 0.0033010269498197076 0.73786331020995632
0.29728845777069068 1.091271857268481 -0.40374810994302024
-0.35399840415399808 -0.59544947278694504 -0.028893573578222309
-0.91435792266020499 -0.69032829592826905 -0.43876563062259777
0.12812836592189569 0.57698491668442387 0.64176382719838454
0.17133246950696446 0.87208982860319395 0.012996473138304765
-0.68814450721899334 -0.58142108474556409 -0.28568469874932667
0.43353376935777987 -0.24573505539094498 0.78195572639375488
-0.11753645255011236 -0.44863388368744417 -0.34465414086507806
-0.38719203917307254 -0.19327120057887459 0.77419986513959671
0.4245612543520707 0.50234953514549829 -0.17646800664427076
-0.072988023295664561 0.71892774834643092 0.72759134419167637
-0.58988366827584571 -0.77487489638054896 -0.3467644000987562
0.14136711523556755 -0.12436953651325666 0.77887266088591289
-0.05657114423078724 0.87882783655845031 0.51537589965931829
0.46480487958268668 0.60079682502532705 -0.21272724397028142
-0.80158213641298914 -0.0087632025119486201 0.33818630400626049
-0.03610807634674984 0.49228360816692529 0.77862792901079025
0.5254834812626541 -0.19224205459807919 0.32600691130340476
-0.26112058327433374 0.50194301861856516 0.63283215074222454
0.58671040685592857 -0.16846008441748239 0.70723906707941886
0.63508943166149834 -0.29013751050898406 0.74007510520983733
-0.43208552919185195 -0.2447213795572194 0.73926357814805144
-0.76390278497450481 0.032073768107304446 0.63153903553853041
0.17780112269039705 0.34423903700127312 0.68683496721375104
0.074364412470742991 0.4774561362642018 0.73940357517749167
0.15769170447518377 0.27290980433462408 0.72566574480212553
-0.12799568810007145 0.4819787819820327 0.69616486124608024
0.081859452846060776 0.83379380804511527 0.28465501863135856
0.22353809010368764 0.45040353121977716 0.53953699426052282
-0.12169320318847099 0.81588573100652795 0.57969461440479719
-0.59987769853819373 -0.58174852710002511 0.11779091124454499
-0.0031312807087147121 -0.11789187023062908 0.771004874641946
-0.95238923154738231 -0.88319772658101048 -0.4082371782012082
0.66946059125245938 -0.20695971636709487 0.61248627890087626
0.45411344415701649 0.26174210353750738 -0.051403745053239192
0.28859885273061536 1.246312193170148 -0.47084277513513939
-0.019801000640228494 -0.42688413042071716 0.60231850595228043
0.39069906138247745 0.93710041891048235 -0.3664016479290737
-0.23401059375963484 0.86851850141620446 0.15023932529384787
0.51650321226804863 -0.21792684912371385 0.74786871116806664
-0.72263893650560362 -0.38236151333391533 0.57812531964578895
0.22562412641414653 -0.17475490725447784 0.76855288270669764
0.13901525092653344 0.8029380509822488 -0.37720350430712912
-0.45287056982499507 -0.26037241305508374 0.73650040678819551
-0.47719809434277494 -0.86330806074970923 -0.37953044837934158
0.56768495777697581 -0.68142804293657377 0.55090911029680179
0.32443280848397649 1.2700117928151116 -0.48991181160034358
0.55404253316660856 0.91094765915102016 -0.3699230746931903
0.44993773290502759 -0.22648010393815454 0.31333170107017061
-0.099528145818027269 0.44191266569748677 0.75288291810175778
-0.71200079735807265 -0.57953767021395564 -0.29849327898590872
-0.94779196606152283 -0.76306865279628777 -0.40282678752789991
0.46265818757883892 1.2423202681680934 -0.4902266775088826
-0.002179865006212367 -0.43036804015989105 0.55572214804980824
-0.28375342786253555 0.54687569542638714 0.80010481938482059
-0.049644784212631521 0.62897232294201189 0.72380592519114906
-0.068057019301335231 0.31615242961011347 0.76194793905271396
0.427127482760568 0.74676213145705361 -0.29277850923698878
0.35337543394567206 0.62940588377623641 -0.22172736081704159
-0.58983912641086533 -0.63819434543827924 -0.29506993980803919
0.18079132366625572 -0.11910599272023603 0.79366815995498108
-0.48652283716224076 -0.65921458932732069 -0.26762756310397151
0.66452099095792505 -0.1823565973768666 0.6687514164391164
-0.35270261669310798 0.08962908948135162 0.79468106653794024
-0.54108362225554174 -0.24060320019455794 0.71894063406719155
-0.50925941717686385 -0.89425406383823258 -0.40033221533033725
-0.18014277126104616 0.4990910455081945 0.73189448418958492
0.66337027575801244 -0.13688488125694676 0.67415001861888069
0.78668156445033333 -0.23906456106733742 0.40370227702191275
0.39574607022601072 0.12505595952781334 -0.11847602957906389
-0.18492018271035704 0.35810109078465047 0.77531117033132801
-0.26625025143471248 0.46583806463816901 0.79260824198146906
-0.41814100245755981 -0.22008886346302292 0.75917352086027634
0.45222257258356535 -0.59532050739380082 0.54449677948538078
-0.54673005630186822 -0.023044633426367866 0.73916915485220258
0.30703626251327876 1.0428954091639255 -0.39222906318167361
0.62699897143349403 -0.050665968395087191 0.45010073139053119
0.3653422856611428 0.59021318789190502 -0.21290449268736822
-0.00063288398908412091 -0.16651529782526708 0.75871529567598728
0.81437258741183882 -0.11964444396705076 0.5903252019637657
0.04826364974576336 0.2715458299098259 0.76980535458427735
-0.06066016392213669 -0.16876271828272138 0.75628878402791955
0.51211463764138898 -0.64300305339602915 0.56271969508005171
-0.32932686192029337 -0.31264972176745331 0.72104486558787784
0.38236033368798417 -0.4843609130130524 0.41880419502394428
-0.11990975111143598 0.6900184218508052 0.75720105009870764
0.29710898011387599 0.54816808050774313 0.42958449826096068
0.38377061632516529 0.71255682944924104 -0.27192617365284377
-0.30600324857960004 0.025320363543599456 0.75474013364949499
0.40833154870732358 0.10642647359998136 -0.026721372501718577
-0.67777809451905568 -0.41339907834086276 0.64629102830190277
-0.45374721370349391 -0.6628598129451202 -0.06057178360098181
-0.22920294423710175 0.50189715991606931 0.59491554050708828
0.44347975348357238 0.48224569873835321 -0.14188260103623307
0.0054331449337610138 0.85068064687953182 0.56686283263220627
-0.09841028657817219 -0.17719626457471449 0.76003542404208879
-0.22421940369869731 0.2762721903379024 0.77500098497969461
-0.40807408948541024 -0.16468475236184688 0.78853456393741084
-0.34839537096405593 -0.18066563037214323 0.7473339618934709
-0.064346570300841677 -0.49038415901631893 -0.0065684293228596147
0.13307801123372087 0.99770930485261999 -0.26000413333325412
-0.79102001004093125 -0.65014451733253598 -0.36015399003191462
0.74493661888081419 -0.42883073871806232 0.69854779137550294
0.83616853861786922 -0.49047887781011212 0.54932609239436747
-0.6249491577432309 -0.55389873814921375 -0.43062550411155875
-0.6261723963644954 -0.90296252001629185 -0.45373803700603688
0.019205610570551812 0.86568209633277604 -0.32898551176910829
0.30864835903665266 0.56282103751311752 0.32840574946276213
-0.1464778448608115 0.69926384139275655 0.56084333948894738
0.47613444268648664 0.66827445760088011 -0.24734310578224594
-0.72958959225593389 -0.4006253163560185 0.4777949420774199
-0.0035706673984066128 0.51584477010035101 0.76696142905002951
-0.66899868638132176 -0.97347039285342518 -0.40660441317335305
-0.59223944858831601 -0.2808487420467678 0.71182306339191825
-0.157766049963044 0.48844945064988821 0.7751835042392301
-0.32994848242196895 -0.11448620910456953 0.74610271971918252
0.30914421322086127 0.51559159928147835 0.142510820674282
0.79280404500110535 -0.40979081866717593 0.67942312160786411
0.21867440090929335 1.1472652153003295 -0.40752186911984722
0.054257257896409783 0.70664067104869588 0.67691374062538223
0.85814235464283684 -0.4449146976158076 0.53829314615948887
0.69295709016239471 -0.36428640565962667 0.67069216169468593
0.25368546542981107 0.70074321217683888 0.047523912312575689
-0.25524760353164311 -0.53548526632807381 0.23798109286551483
-0.41388395409637724 -0.63970908069702404 -0.015972048434854447
-0.14142847823126203 0.4871954284294695 0.76115544215252839
-0.07083591382726695 0.61671516600623733 0.72716206498678382
0.091965321912951481 1.0094554598187671 -0.25749288038906215
-0.61540984963528444 -0.098015841489633715 0.72855628277656947
-0.55205930685369253 0.12325547612191379 0.78773566619978297
0.11851564564591399 0.4070029532531052 0.72365242467582114
-0.7769174853069245 -0.81711537104375953 -0.42847013741530837
-0.44626248567712423 -0.12971053564932067 0.78866246986179789
-0.112214101319978 0.52281504045619087 0.70431282790173277
-0.57492175121304712 -0.90984248062426332 -0.37598602997584685
0.017093712431034191 0.4507730878235563 0.7743793446623144
0.46893032060654605 -0.57983444458022149 0.62181127809930992
-0.56194913149030867 -0.20001014813789908 0.73077507119231555
0.44547564503071158 -0.40913366023952591 0.75811102602879377
-0.74970511397746975 0.094044907187416094 0.40190346265477928
0.10123717762942874 -0.1028810494080048 0.77772459952456252
0.082141662243117253 0.31532180421370271 0.76770669105810896
-0.29294979742516603 -0.5469888084840977 0.094683121270723092
-0.54202781374748099 -0.59926767366291145 0.028484924662814048
-0.30407042869393308 0.14640016988246263 0.75757666894437747
-0.64350975987201764 0.12500415773714479 0.75605749799217392
0.61685873360573851 -0.51912707854344831 0.38471080075874609
0.38394429988116485 0.0020465171042260977 0.044822557827878029
-0.6715736123908016 -0.74059695801307424 -0.37352617458409298
-0.094399670268671798 0.64970863519597799 0.63041135646999891
-0.50165855413450799 0.11387996585391313 0.75072836939766319
0.37471307888318961 -0.30960915704112324 0.77696328105899859
0.29005488011219427 0.4276378129729963 0.49685292282007065
0.33764508365568702 1.0919195069432277 -0.4170442075683134
0.26232874413611285 -0.23467798578433019 0.75850513251609764
0.68750597601490426 -0.13655866567751929 0.66609084853941702
0.46259874244333332 -0.21988883166460482 0.76280452909246499
-0.8187435798823941 -0.4407269002960108 -0.29454828384578668
-0.63093598111332483 -0.65312989469295513 -0.32397540103259281
-0.5699939596565855 -0.46614831454718475 0.57388654843188291
-0.80006709291832578 0.45385496050807639 -0.21982676881952967
-0.35302551737083832 0.26581423366166179 0.75361949470054768
0.16893947546191157 0.44362960465552703 0.65014802210554201
0.33420830853620487 -0.31269717606470238 0.33230209607115002
0.15138684154457849 0.8898653182350742 0.016375330591030135
-0.9149356965726767 -0.78999484865489222 -0.40629023815033349
0.40137530212594186 0.35462369322902987 -0.20432395630805544
0.18459498903897043 -0.063654529322178632 0.73880546470959674
-0.53301950810657672 -0.10038625480037577 0.71847933066689862
-0.56784129418846874 -0.26620729337766491 0.7226918162897924
0.42331415604408562 0.38234336171890249 -0.10985157515827737
0.22029412070591547 -0.29956306360070073 0.71065720539987431
0.31646510416129559 1.1173435785906136 -0.42050944467831997
-0.12347310017915447 -0.1755338185555857 0.76332570791400123
0.14900192037151783 -0.15953737462015738 0.77909090289284588
0.82923404696703074 -0.35089215015402431 0.65048209284929781
-0.2311510975383726 -0.054268311613085984 0.76335480664387845
-0.10198221610431801 0.77782222808802715 0.4213933080725063
-0.83110808460867958 -0.99973820795002588 -0.43333198726561939
-0.60321446951621738 -0.40064209664349892 0.68550231762764113
-0.55605968343727596 -0.85095550032681544 -0.3677286731950673
0.14967342077247281 0.59858282010613095 0.61999522282236352
-0.18280477534531769 -0.296922220203097 0.7209563572655604
-0.35459310264340616 -0.14489702982543928 0.76509473291715224
0.74911722497813571 -0.10200089743576157 0.43906206170213746
-0.7064727697582498 -0.30143908854667156 -0.51377692413372245
-0.18028455362974682 0.41475935811980591 0.76837357477214496
-0.43768003783044662 -0.69218217297430229 -0.14902106739123555
0.030597011782589334 -0.2051870513330627 0.74466811539305588
-0.78465715893966603 -0.8535109823806577 -0.43230589926665886
0.23254083820999938 -0.27193805386421843 -0.28058442179156629
0.38981794339420617 -0.40837861733736958 0.36404677099871829
0.18000121000852687 0.50333891110525997 0.58796205215644015
0.66968076322024217 -0.16206565825182651 0.65655216024535967
-0.11175897246886279 0.4338687973665003 0.75970158869324322
-0.44681444266564085 -0.099681041648173263 0.78795649516560928
0.086919024659238175 0.31050668461760722 0.7653376818484654
-0.53556008838071989 -0.27075005243514383 0.71901478836886312
-0.796269304304559 -0.040999843078818543 0.52253829571257882
0.2903983861392021 0.58225946002148987 0.13803897136898158
-0.062315044231539218 -0.47987521849452985 -0.17874486733228068
-0.049600714923997202 0.68855362441784251 0.63399214423654549
-0.030223560239420522 -0.43223319295240969 0.58722517341985059
-0.92146364179004081 -0.27070629999305496 -0.19422974359336065
-0.27244366675870424 0.15653343821914767 0.75974248245626796
-0.056309694382804309 -0.3770668309498717 0.4863362966318121
0.18728987849635814 0.92653696212065029 -0.27874585361216475
0.36885964982251096 0.041115992297811488 -0.15487407979675183
0.36381765633805685 1.0875284191891268 -0.42098781260645879
0.68411632661039334 -0.35573134366098458 0.67511819018542019
0.80590028194586694 -0.10015672513336682 0.50219641667058657
0.40849542214363055 0.13939660793641195 0.12935261634764927
0.020395907862933882 -0.16525814060013744 0.76206970380032857
0.26778964533042426 -0.078668046828639149 0.61439712269901303
0.11999214999504204 0.8958825142228406 -0.31746089399770128
0.061793263545723676 0.34318032129893083 0.77285402609715526
-0.053506973337491104 0.87842530917480133 -0.36188833284471755
0.17709957842487256 0.46414512846451572 0.64025137491399864
-0.52430264543653493 -0.034055627112072884 0.72469122362759819
-0.29647457991310944 0.9301825434004698 -0.11875393674334411
0.15709863008410707 0.57060459227750471 0.62399885158692037
0.17722543409030322 -0.093964489265189854 0.74764609038943508
0.11700478025585426 -0.065971897925638956 0.79385524661478168
0.41478518701602241 1.1326243575805179 -0.44562763048359955
-0.83381321331841463 -0.70912880844451553 -0.39413928094255368
0.084161205161223052 -0.39910886189128192 0.63001051225154248
0.67498805717985988 -0.55262653652969362 0.68944433871370769
0.20632517704535758 -0.44420771506802481 0.60346073377281106
-0.59128966866632027 -0.14571694516167533 0.72500362701791943
-0.83805055636191739 -0.8583841702506616 -0.47711553953164554
0.59618879091365784 -0.10310065883532005 0.65741777489430131
-0.57705756035718991 -0.11293959047480762 0.73037652080686044
-0.52177893867160208 -0.56781859092325304 -0.41135770608942224
0.75322806077684845 -0.20600467880727535 0.61008187218208509
-0.58728505564837974 0.0040783814107800964 0.74698910251889927
-0.80944949278334377 -1.005764470063788 -0.44617619826501986
0.68969242042970791 -0.17983889080517912 0.68632164890012159
-0.50650723512133311 -0.60660138099886218 -0.030145745283979952
0.11401421475281381 0.82649243162386909 0.25353636221300757
-0.16956280026536774 0.83210260409958181 0.28163539902885582
0.32310246302202472 1.1475501176480236 -0.43290943024936723
0.3129374142893937 -0.23551401169351749 0.78439730795133444
-0.31812015815299333 4.5705157390329987e-05 0.77360805942029032
0.16892913301521162 0.36192321862154131 0.68742016877129775
-0.028980253088576546 0.47250281144427575 0.78144572236130294
0.34319870745123637 0.92243516660972347 -0.35375360958766677
-0.045788251850353845 0.61159374088192919 0.72960846817301039
-0.48536409643233469 -0.612056552388065 0.0045686596286662606
0.063045264433441162 -0.41094519202014013 0.48357950247100945
-0.4145740954742223 -0.30530621539002389 0.7258708786268393
0.67896424431592095 -0.31299460310808058 0.66777838334982365
-0.39471863518946293 -0.37035843329683971 0.67817237301404276
-0.57448908355516437 -0.30102013723542154 0.68467326869906842
-0.43297652396326214 -0.79302588564218546 -0.29681287987495697
0.1648556133659298 -0.39151297357234682 0.084632582354190689
-0.7651958874599103 -0.85021063802449426 -0.42026327731004542
0.74539197174522087 -0.34068338908566176 0.62183377246490812
-0.076231483260414734 0.47397353250327612 0.76016134172088812
0.21363115606497729 0.035883811721973302 -0.55605665811996019
0.15376778289453341 0.24278795128643083 0.73512703389416423
-0.15651654133890247 -0.23694657330570124 0.75078679398764692
-0.3581599665195796 -0.66074112744702695 -0.10164788688709603
-0.060078501546598773 -0.1512722469801524 0.76143202639233465
-0.38230108256351514 0.16425668582907216 0.75853355982588155
-0.57779463659099406 -0.046456577050035364 0.73138247032829895
0.41731918144343183 0.38962987209112754 -0.1050504163488668
-0.45326431442128978 -0.38244455967751279 0.67646960333638617
-0.87498046283207032 -0.36508602332119544 -0.25120276878480041
-0.791334975054653 -0.4971749386270794 -0.33540867961817611
-0.31189103923964012 0.15709750781281606 0.75408763409990343
-0.062745756407906583 0.29471338981367623 0.76710426317240987
0.37496801928548962 0.62174268735049054 -0.23240480745770142
0.25335808885375855 0.70392407347274144 0.4831483654648725
-0.60741576063924185 -0.28686863627386749 0.70654966877215486
-0.43374976661804965 -0.80481940773423055 -0.31520906990679798
-0.36653507866594737 0.33788144331735426 0.77013338726273162
0.069729716020702881 0.47254388675587933 0.74483753641136019
-3.2262878022493169e-05 -0.24806239742378011 0.5401249242088646
0.15680509444655399 -0.084819145596100043 0.79373328127926435
-0.49313779773694932 0.024161714843335069 0.74358772225103209
0.032746053371994321 0.55082054699236238 0.72952821842295368
-0.33830443064736926 -0.69879748761538707 -0.2367697354541427
0.080380979139533792 0.48469280919536573 0.72864819888795029
-0.43162128061598537 -0.2613022840947441 0.73941230988681994
0.1444012931972054 0.29325119349968531 0.72292676781570808
-0.47261060689606893 0.060431807432875573 0.76136277802650909
-0.62128384196695663 -0.56890835992782307 -0.1357960498688553
0.150574243644229 0.14648335574276672 0.75727609305014854
