# XYZ point cloud file
0.21629052208311883 -0.053956704958055823 0.69576504821319851
0.4501453564131348 -0.23704156941644783 0.68545390488284674
-0.68109086145383024 -0.72611495889909783 -0.39116334132933517
-0.16661599401918248 -0.15679947684889051 0.72462862966907426
-0.26507170857033646 0.13531342633773491 0.76042026315512068
-0.21829571146195148 -0.15162257057448336 0.72693557000658338
0.218073216057455 -0.1160920071080831 -0.13731133381414651
-0.032997119650506335 -0.4363408988972477 -0.37545753197660758
-0.64376839406904018 -0.61381226463988092 -0.26655450093306676
0.28633122795151422 1.0467082036932549 -0.37133109563141886
0.31011140265538106 0.97022797442760833 -0.37366210836725067
0.76734950723853113 -0.3809967510476735 0.57704346428087305
-0.12705201999563442 0.22999764158873681 0.76317459100082186
0.36429477626839191 0.069959840275725327 0.52526420255265549
-0.17893249406341205 0.55821196473602797 0.68847186602373966
0.2528275011580936 -0.14223227168483454 0.70895579434661826
-0.25284273884077013 0.24352984612552753 0.75723886895824144
0.14402764810559621 0.20013417872836214 0.7277181646201738
0.2129684066566912 -0.20606525396148001 0.65411213910151655
-0.10928420468617261 0.33093364614591358 0.75209751092546995
-0.66060026191102317 -0.42616530509192074 0.22472945769695052
-0.37237455568745936 0.043312621430414922 0.75895194668716037
-0.26693768138747132 0.2919483737471591 0.77130779375885528
-0.15831653726021067 -0.35472348145191646 0.64485119951893388
0.33966223378493154 0.50915986649770062 -0.12478028301259414
0.12498571669642144 0.20858818630988374 0.7395427774921286
0.36382607975759473 0.26911931634866448 0.14706493140867494
-0.83380639434038706 0.12083333413919384 0.032749841548033842
0.52391359549605943 -0.38276886102677921 0.67016673437712893
-0.38665939019285833 0.035317947211964906 0.75178479130613507
0.83174544189285571 -0.40090710956731357 0.55965890999524515
0.73769032120953826 -0.37010648916994349 0.58326700877909854
-0.65322128261643186 -0.78126848014352301 -0.37555814997894466
0.0071362346781729258 0.71486547074482409 0.53060674027738486
0.025169667070071178 0.476495469459433 0.66956407209433255
-0.29915984677310359 0.09583672599312365 0.75897463947664612
0.34142619700937615 0.46446363251841305 -0.10237711589747533
0.37508052285141602 0.2534153190798385 -0.012513728738028362
-0.60975328018326813 -0.69758102520377463 -0.29505398764704616
-0.4702253525059481 -0.078518537971604019 0.73798283276696885
0.10056522489747399 -0.012943802628289092 0.74985323859134656
-0.19334440307505973 -0.11513242719123973 0.74030556552132509
0.14497477229614786 0.26599687032021002 0.70435029995522846
-0.70243193105095258 -0.67911160388625191 -0.39254030370138437
0.81779897693432257 -0.40607008949076473 0.56310094374452735
-0.460883592569445 0.61225311842254015 0.24662481296292782
0.018878063882857177 0.68785169010970115 0.68050045652878399
0.3886266052050571 0.17942182838364928 0.083253862007945045
0.35244254372217299 0.29522574923515776 0.10287926664247493
-0.17932310894483927 -0.18550184463521546 0.68424905773938516
0.31393660983595062 0.79518986012331361 -0.2800684577253989
-0.0034585275175746943 -0.3349158154682641 0.63097985407805623
-0.22706294435636565 0.33913034691340016 0.71726066996544358
0.30516581772772255 0.70678254899454274 -0.16476171931526906
-0.10657905437484771 0.47483744004846962 0.72724258205388903
-0.62937414392927771 -0.84539858642783994 -0.37432436619879361
-0.43076454610063841 -0.21725005835157241 0.70465313624259274
-0.099030558232715116 0.3915294734311523 0.74067801160946356
-0.24306208762476844 -0.17695197877108626 0.72287069823450523
-0.62637452403371441 -0.71552655000333498 -0.33908601009180828
-0.64545433943818509 -0.8207281644664457 -0.38318029337249015
0.17938078305947247 0.2750773143236156 0.68294551337932141
-0.11871426050340173 -0.11976912506102799 0.73934039978372201
-0.35518771584900932 -0.19230204664735417 0.72598806331416377
-0.42648099303981368 -0.20364724261756173 0.71981489282321753
-0.39494967180497031 0.0057550489823583462 0.75036667061744922
-0.23684764852713069 0.27595351548329461 0.74921520169853384
0.8600249085227295 -0.42179987273268083 0.55912354146510257
-0.041510094500210926 0.51457811954968413 0.71489905250069885
-0.79027549432228028 -0.49471354048983152 -0.38081313259062277
-0.077929199697416074 -0.20307751187406708 0.70825095109164682
-0.70823558010918219 -0.50201933142298305 -0.23802672105104072
-0.65851511335431745 -0.55906286722889931 -0.1060685024670267
0.059707410306976794 0.27370634782911374 0.76903948430105729
-0.49704268390092299 -0.13166002861887627 0.72670783852976406
-0.61253713773663421 -0.84345599143509808 -0.38556237605373056
-0.61955030758077179 -0.46055067553380979 0.19590142213357709
0.25961285615087926 0.29111597468222605 0.59700233342074593
0.090032096487903779 -0.28951000770435797 0.64058762503069566
-0.81179594620309636 -0.82049235959389755 -0.33091393186264995
-0.082407583714250165 0.25267671603226205 0.76404130677529114
0.37728772338775141 0.11214746064962355 0.51586212508086149
-0.55108122385599323 -0.67565944330522498 -0.33631633193992627
-0.62821142526835416 -0.64799715617867459 -0.3052826828362285
-0.68683019591309957 -0.51418185097650237 -0.16190327239082514
-0.25829530694006397 -0.21382230765646959 0.7231795028523198
-0.41812501586806761 -0.0025170883427385604 0.75633355374529287
-0.09964783946442779 0.47549237357408991 0.73874427844189938
0.30634536444243565 1.0179182862080101 -0.38543932652662072
0.11727070665352235 0.34379051461150034 0.68338573734711705
-0.47166729155909604 -0.095709681305599759 0.73970359342782999
-0.29300260399451616 0.18125060362800482 0.75556807427690842
-0.12044676372006702 0.44127857119036307 0.74337685155740907
-0.53848431729874058 -0.21649980831288129 0.69377072756649927
-0.26713258664377815 0.24886461846440788 0.74172917771384661
-0.16159667276789502 0.39506876966881599 0.74079242924489552
-0.19721576037494337 0.34101945213016904 0.7439904930302017
-0.45247907185648728 -0.073898872299380969 0.74571868203975455
0.3530671057776722 1.1569762446030634 -0.4595090359958629
-0.10527542403367907 0.050034156290719167 0.76487655315569736
-0.33556134434952245 -0.23784205243391021 0.70935464491697431
-0.65927014826644914 -0.7468994976697596 -0.37438926237110159
-0.062185559661582346 0.38766868121545706 0.77430599090473073
-0.089142032851720288 0.57887971793580562 0.59528980095266348
0.29604345994214842 1.1101941633936576 -0.40854698080023155
0.65973557629706248 -0.33293473705727727 0.58732463610770314
0.59334407689387847 -0.31749302810009006 0.64371934825259292
-0.092934685321477861 0.31335363665682259 0.76288870577816681
0.033545000864737773 -0.38709479119651924 -0.34818540966541534
0.1118975805563196 -0.18619249591829323 0.68097481806537363
0.240871662611434 -0.26837968259218492 0.72373655313398899
-0.53645236641120864 -0.15042868818435728 0.71778244141603142
0.37289439293460802 0.45585930653710527 -0.17502623049047017
0.88397423168696987 -0.45086917684176697 0.55628055636214047
-0.20679158613631632 0.32380466099991168 0.74583309778838647
0.31495366744880648 0.18346090781168556 -0.06290764314956121
0.35491019104598109 -0.023814859073507222 0.1650632597756907
-0.12545014331837834 0.25468997323775966 0.76281244473558285
0.55705522711991695 -0.40260990198009949 0.65860473987643164
-0.66401623163537415 -0.28867510625380888 -0.41307835647317859
0.26727264764988767 -0.064491645855170532 0.10316865349686033
0.84159271203376029 -0.44504871221218423 0.55956001716695791
-0.080039742233584121 0.47579951166153123 0.73025792546538959
-0.6184686900443559 -0.65379922764264542 -0.25569484573162882
-0.2383342468135865 0.29844904531148053 0.73448820002102266
0.1315513652172271 0.12657115499661664 0.72946356547030877
0.31670622430674733 1.0215252499626608 -0.37501259694068345
-0.64546642513823294 -0.60760700697737402 -0.43683973388782782
-0.59271209339310804 -0.21222342192097088 0.69206473047635519
0.20020632217239775 -0.21825962566952484 0.70072507736912204
-0.064566465234684234 -0.10870711192337268 0.74137679042874893
-0.60039450280591034 -0.83902318894218997 -0.39183208816092119
0.32249028054420315 0.8259203967626636 -0.30955241199509942
0.65582785720665349 -0.32121211086836965 0.58741450825344055
0.19721454498768143 0.20420166875596735 0.68828203401845034
0.60992359489703796 -0.32516927883310487 0.61122857437680711
0.0061221095048309415 0.63135667257532724 0.6181092676642379
-0.23032177004779619 -0.21115666360613261 0.71602538767871948
-0.44200762302622021 -0.19510307291932172 0.71855085747322445
-0.14996056894600063 -0.20342513556069086 0.71057785054307043
-0.42113729406141776 -0.21889355250182341 0.69533581283692669
0.094712323112740915 0.38653573879120096 0.67925501705266278
0.23119901151222688 0.87283594810649134 -0.15992715450083494
0.38515292884315144 0.17037082909470413 0.53730088995361314
-0.33700568441499179 0.11032440730694937 0.75958319065993418
-0.42711823383924408 -0.035379702815774294 0.73999184562849329
-0.68234657560082113 -0.31424815193968492 0.59241333405159935
-0.62756413482112805 -0.71424975777696353 -0.24258351326718142
-0.01290669353371765 0.64456163005129952 0.67213208359746446
-0.061596082063362978 0.50341398962784645 0.72176627141330219
-0.42644017801376499 0.24169844412898378 0.66889915333706984
0.38704134774850729 0.36878431688495361 -0.18168720027830609
0.083240318740579466 -0.14072671923106483 0.73115561337176072
-0.18438121847094391 -0.26531421088229479 0.68432065624371674
-0.23905227082437186 -0.15816566022307654 0.72538671777944508
0.33248368797673677 0.70854333059968511 -0.26516377516687228
-0.17108706256147066 0.15689284394593095 0.76384510330389066
0.37901873786051771 -0.30774224117809013 0.62763948577239148
0.32566246141000121 0.77783961188868922 -0.27974819340095358
-0.065517333507404074 -0.26900498030123998 0.65134834009159714
0.064812367139852611 0.46668674887675543 0.6596963394402211
0.33387597954000903 0.47425555556021237 0.046471043484073604
0.30574560482634183 1.1450904170953748 -0.43722420916515503
-0.44756904447027157 -0.21614517653618748 0.7009256547570093
-0.23439082112388077 -0.13370041621047868 0.73386839215113309
0.37080774748835221 0.24541859359723972 0.1782439691542006
-0.56384992919131527 -0.17939500509635664 0.70868511631080366
-0.036405730088819421 0.25101401976920812 0.78450126915879359
-0.29879325456544503 0.17767750970396534 0.75356008791549556
0.044089726734727996 -0.24137558546993532 0.7355261127353252
-0.13241415171966398 -0.19418467207525936 0.67339663449859266
-0.3579327924393132 0.049051708884734424 0.76396959749887117
0.23069338371748671 0.8406326677757594 -0.54362035195505243
-0.81655435452827163 -0.80396199277359859 -0.32135212950376335
-0.23892800484788346 0.37876230774888064 0.68050268236462674
-0.45179130753527286 -0.18201087175536834 0.72009120069352139
0.31027490124623114 -0.26034972865761041 0.71165495336180662
-0.10888689954571529 0.46772450578254876 0.74457970016069375
0.34232929771180132 0.67227267953725445 -0.24784428625306631
-0.81797495260816611 -0.56123836840395036 -0.3747233262908356
0.5403361832431115 -0.30712499404997473 0.60243482395102488
0.37422342228956396 0.25185623312002647 -0.0026282241745878565
-0.57280324794932991 -0.18738732658957424 0.70274773827173576
-0.13838095111442961 0.53752051816229063 0.60563776627621024
0.34287237513926705 0.42563370299224701 -0.082905425228538832
0.11022260064106115 -0.22673238935752416 0.69767258090407402
0.3606385815942712 0.52610344184722635 -0.18158508958152275
0.37443008882405415 0.18408854685106135 0.080376899388172163
0.38580569810027221 0.21960879579636128 0.015339647613931362
0.73003769161628274 -0.35950513919105553 0.57870368844537001
0.30931187791303394 0.9723586957234307 -0.37030037124416637
0.22092773232420981 0.79429126816517837 -0.056703765201476131
-0.16004420823190646 -0.19329104127848495 0.69827229767623766
0.29317684888166262 1.080305050525098 -0.39277698411119744
0.81576914795152089 -0.39753123180352645 0.56605924767209981
-0.50758498800795415 0.09859474317156991 0.66610684439655454
-0.36036429561883132 0.20666110140346916 0.69041346162270401
-0.35797080978350415 0.1000201411257029 0.76646158261009401
0.051987594570477302 -0.095998075788566339 0.74280255889662428
-0.61025568237071681 -0.34392428059691937 0.63534960798232021
0.20865192236697272 -0.11267263717781262 0.71628140951497343
-0.13111657108550467 0.43838404328620939 0.73241949541810047
-0.12059006339350997 0.47904182115411764 0.70413968422857742
0.77724864354962819 -0.37470103479996375 0.5676392100337595
-0.4004838200272447 -0.21837633022414771 0.7187441392318803
0.65198936956485554 -0.33675099916771778 0.60081150273011374
0.39364432106894132 0.32452126989342567 -0.075519823782659756
-0.63081892029320574 -0.3343191652757298 0.65688396099864921
0.29762233811762662 -0.19932869597108649 0.70599506556288016
-0.66800624104083717 -0.90047244723788911 -0.40074858574485361
0.47788553543850032 -0.3377424126673958 0.68513445048981136
0.36108748310975081 0.17987876216015763 0.11913505762294996
-0.5800713179284287 0.18477641670998324 0.44591888754890263
-0.28265251248208578 -0.63795909780965054 -0.25187004983479078
-0.67287311525495319 -0.46532623412566831 -0.36188190643591867
0.088713162810065249 0.81951362217581192 0.15740736648102605
0.30869651199903547 0.97359242948817837 -0.37320907713502827
-0.30597481304013385 0.4340211452713767 0.57963193165326032
-0.63204447503929906 -0.84084502365831781 -0.37099737982052616
0.30755657412561277 1.0113697318682195 -0.38558834084157034
-0.37294450969707604 0.37339563664425413 0.57595323693023737
0.31313581854671657 0.93991347655939883 -0.33671846985433618
-0.31024311763753776 0.063753281975641229 0.75852816302300941
-0.33863179252726372 0.12050259025834542 0.75468449549212213
-0.09860122323749998 0.41074312265404167 0.74171887724088847
0.074748642852113356 0.57983446686354512 0.54929367656375749
0.048761411942547461 -0.24666360563935008 0.7304332921350305
0.28821895048686252 -0.29573055602484466 0.61892313949329303
0.090863395552417181 0.81781880020208497 0.51178759718553035
0.56080597319556658 -0.3308864318188256 0.59563490274616093
-0.19736104719717051 -0.14158968167633645 0.73021175682885975
0.11706481541239744 -0.12827486478199113 0.73343187249913999
-0.27605615934538186 0.19096479536952415 0.76375553348400604
-0.52274022883000271 -0.63841606028393905 -0.39609234567939211
-0.63770051794738158 -0.65741900652645491 -0.32401892685915001
-0.045100623132666939 0.55549728505934937 0.70298716050719356
-0.21083494541717718 -0.17987227275873252 0.71674028744018159
-0.6127603547180831 -0.24848675643196039 0.69730494209057614
0.3690827648468904 1.1392175926582819 -0.45295494269308634
0.38570021851420133 0.33997764696841237 -0.095403002812373572
-0.57331916261718696 -0.87229550211328633 -0.44687549065290355
0.17828323587927741 -0.23833897202411691 0.39461001282459129
0.63023002281691731 -0.32077240491971715 0.5872649017454008
0.29168425175159474 1.0691066847775712 -0.39222140225133195
0.3236819861674558 0.48116190283959881 -0.22240974212064124
0.054685842941499807 -0.090321097817685825 0.74394929533860132
-0.021317750457471085 0.58396094653319608 0.68886147931664254
0.30202115555253517 1.1542204964107565 -0.42897292319053726
-0.16824186627404591 -0.18867338202327488 0.67889196418659825
0.21215019229042742 0.023779755769098188 0.72680021714323839
-0.092335602459250765 0.47218723362690085 0.73946473340243202
-0.37871808702801957 -0.45144644677089119 -0.52521744803576986
0.38102637228025937 0.17799917017136124 0.084949378233972084
-0.41907656101584401 -0.0064844429878903043 0.74878654511192178
0.33928090409891354 0.46013403643465978 -0.084002287770527317
-0.034221868027580316 -0.12903006343445433 0.734878423616105
0.029603724674474918 0.26188403132934468 0.77996304858977439
0.53927324712783198 -0.31775611613092103 0.59625681196235059
-0.21820906648593397 0.30727144982597743 0.74736112410049849
0.29710708960497101 0.99101484966661246 -0.35894436501803995
-0.26873842581458707 -0.21272176800003173 0.72081433333650136
0.32417175478145399 0.73873054478330502 -0.24396907708369042
-0.031257297574716958 0.63698671428125486 0.62187385250357252
0.044752892741336758 0.20695825255513967 0.77111661107233065
0.17469962401666894 0.21102243525185749 0.7054145041787141
-0.64234665250287648 -0.86292245454210015 -0.38104084733971177
-0.10453799131282793 0.59998062759475701 0.56374078699941776
-0.40329255215049642 0.24581648184082106 0.69792797725723066
0.38245045448107451 0.048838541627903354 0.62885477779243892
0.30407227765049916 -0.024026484684636529 0.66580391675917383
-0.6237247270366435 -0.12030166963751387 0.56559902846039645
-0.072702525748107094 -0.14245488959150165 0.73031358374447475
0.31226707822360922 0.84485326658166748 -0.29079425797668002
0.18390382347023237 -0.079260922760344243 0.7105977474591274
0.21999993473340229 0.61763313097013572 0.1767438594137527
-0.06085591778474253 0.5099795918089427 0.72058796980895412
0.38230778376144947 0.19272554027496014 0.061290506689383406
-0.10252052927061772 -0.12139098008619165 0.73895301035689442
0.64476449315517614 -0.44733250999712837 0.62325277507362475
-0.75430503973631069 -0.737218098259949 -0.37423609971913585
-0.37431811476445631 0.060429235484456001 0.74577880256230511
0.31344774378434082 0.99216871913460736 -0.3930592401580153
-0.64301337812914205 -0.57152871548184692 -0.0610357915308537
-0.77799545436562845 -0.53680023164716228 -0.41199999139687549
0.056288412024904755 0.44089448675932275 0.67800069972326948
0.14983916889059223 0.81895445096984432 0.040014495405722883
-0.68212846688693851 -0.54151584276828224 -0.23201189434890424
0.52130041345962164 -0.30662449789833701 0.6468146255225804
-0.3601723422099834 -0.63225835164297273 -0.33904266587420295
-0.4532663665950567 -0.05685318731481992 0.74333115777506009
0.37666986748528508 0.34249604198372552 -0.076282527140039136
-0.010111149403814856 0.64676220797394102 0.68624344424642647
-0.63065979360153968 -0.75697751956099157 -0.35850551452523227
0.065050045860525652 -0.19493025989853408 0.71049121051157726
0.058404311291917033 0.79017342773654597 0.49482823520791719
0.38475741112844553 0.38697333208418705 -0.13041208861363707
-0.62980543441254788 0.0020169397986604665 0.49215257450665462
-0.057122717155345004 0.42015007703974838 0.76721923433850936
0.18124281200325265 -0.18625729564053373 0.6624559628786022
-0.11739629183372724 0.52768093886958667 0.65939683216838141
0.47791874742925006 -0.32084485357741244 0.60902488688623446
0.69142753091466058 -0.36148188332523112 0.5949181239623087
-0.50081576123581328 -0.10909976061411975 0.7316812490493616
-0.5469182257334797 -0.015072639234842811 0.68862395567234636
0.15541549418342848 0.23513991138203671 0.71390013929822604
0.022995637145027281 0.36104754383717541 0.75845919147542773
0.14763938999678805 0.17346980718083849 0.73567236097771893
-0.10057681746180247 0.45419406805917362 0.69619315696375494
0.065153095310291675 0.72965740786346522 0.30505018512783622
0.18329054020957836 0.34464820911912497 0.58622104484624593
0.063398637004191016 0.77301426867490264 0.55386752936072003
-0.69433333305040179 -0.49994086763696721 0.14001441739220866
-0.13195765376524804 -0.1434372146246119 0.72965857221065633
-0.80441105743010155 -0.68152323874087806 -0.35453713113608032
0.50580765447180331 -0.3002814760647059 0.60875156714262513
0.40454961745028939 0.035114800238599031 0.08384708879687075
0.30030875334001461 1.104407202729929 -0.40060314779555739
-0.11675382750105623 -0.22862398737729883 0.73545742763016264
0.32769392251430851 0.79113826982894153 -0.30179927028458842
-0.044407447264601885 0.84807408587814592 0.25021734894026615
0.50976462716573734 -0.32246489957614699 0.62215677414880943
-0.63441095953117532 -0.37426018721630339 0.59139256396331685
0.15956453648072011 -0.25452271493059975 0.68027419938690947
0.35627951064999586 0.98208050834197991 -0.43532106785779412
-0.513901516593811 -0.1270785863143562 0.72830966538194364
-0.6089760095225305 -0.87727403161040129 -0.41759670123997061
0.75830535091864881 -0.49845995280593236 0.59144568499282446
0.3053484388844252 1.1091985458055102 -0.39583599030284233
0.34942005396904108 0.66239520750662706 -0.29640660240719363
0.13355943884537499 -0.17626394569897563 0.66824286499666741
-0.096287668849838859 0.41038099756998214 0.73971428299996056
-0.69144042215713775 -0.53358370655980369 -0.24037398493161533
-0.81164217473769362 -0.58391944578263022 -0.35818757382867084
0.3160195393609353 1.043762706360793 -0.39116386005447623
-0.086895756983288663 -0.21253039017801889 0.72004781712482657
-0.033987527674015361 0.57512069075600003 0.7332592936718596
-0.038613948151113853 0.54299501524008953 0.70673746302032026
-0.099406581827491181 0.2825920675444813 0.75502588403736492
0.35611087051951351 0.57733080773611256 -0.21857439119502686
0.33732589480619346 0.55499388017860518 -0.14751082659341108
-0.63822482066452579 -0.62611853226556491 -0.28140664947496852
0.16755898957253135 -0.17790167973804927 0.71736850411694952
-0.60897216884139382 -0.67479623223408502 -0.29137338869402285
0.52918194739442848 -0.31929702023644957 0.60148548647438993
-0.27400606891148627 0.19144483819138003 0.76422824320473115
-0.5121661401983193 -0.15061138257902762 0.71827074590871831
-0.62077407538729901 -0.8911463321258406 -0.42000702365679565
-0.081532239229078485 0.52254194249777797 0.7077433674982192
0.4893284354773384 -0.3191628928784791 0.60088637424557634
0.47877711520548444 -0.2549967166624274 0.62404293374586306
0.29019831050162281 -0.029458974800416371 0.10340152358141275
-0.14079655687343351 0.40856119515434663 0.74722746718091937
-0.061299421986756641 0.51812877082079112 0.73670790239746697
-0.47829864929303412 -0.086626245459592965 0.73797666528365813
0.60146669577964151 -0.42552502901451383 0.647497443470189
-0.40792211127151923 0.0017910217085974622 0.74453607936579314
0.31120311599499217 0.94092880555164804 -0.35942704339290721
0.22644118348820952 -0.2329003156913334 0.64349584850645636
0.34122804192007017 0.50660459046307338 -0.12983759536962225
-0.14895480204352984 -0.20255174591654246 0.70934513388216391
0.53985422299907071 -0.30643042258405195 0.5965451461584661
0.013607214541523582 0.19501009554995896 0.76706622300916472
-0.22367696900435918 -0.18112950357361157 0.71693799742114717
0.70621083218389658 -0.4719819356565651 0.6136499691010151
-0.44389858711795505 -0.18341781245618094 0.72509203396295785
0.32513007546814654 -0.26796245615894243 0.68115736625439638
0.025825911228574583 0.67883943113959511 0.68779092021639077
0.17354832626716332 0.4497882428422173 0.54809933738878769
0.34935660745225405 0.59117763018439362 -0.20006429568217143
-0.32610663751776148 0.14071411064455397 0.75336063456528635
0.30814785984923176 -0.052460458516588204 0.17600060700206299
-0.64613844366761075 -0.35431939126586443 0.64146757057783965
-0.6592934770198724 -0.65895503532895994 -0.1289132056197051
-0.13496572274052809 0.50847802474686787 0.63591620855577702
0.39497458152359499 0.29619917860158651 -0.049269928421212583
0.017274739131440953 0.72370023628431923 0.55385164050396174
-0.2496708154872449 -0.16670860840936186 0.72476348061368068
-0.17915698526465285 0.35617738394286746 0.7505084292851274
-0.43065168951373689 -0.039349883648373662 0.74971839383134853
-0.44315893212565705 -0.051820030158715724 0.74266730795478342
-0.52217928301994121 -0.57507362780653182 0.052352968736830263
0.25329693832708067 1.0285396692338313 -0.31918161126700362
-0.72245984818061793 -0.57104065444196905 -0.30789474687676233
0.85091484982472976 -0.41753820935199926 0.56281248445568277
0.80799661844329573 -0.40784781340697407 0.56574631291905497
-0.60103547603467966 -0.5565378190470831 -0.40535790670938532
-0.60415552800007077 -0.86412337920289772 -0.45094800509194677
0.32116557396975054 1.1496999725731403 -0.46484556827826218
0.19869825434219734 0.48344307088661509 0.45167684421187637
-0.030028539659482156 0.65546305609652578 0.57358046759817771
0.37680824955797743 0.44722479288525463 -0.16989572171706513
-0.64952945186266042 -0.36662918363424524 0.52383748624160109
-0.036178730503400036 0.42263706367075748 0.76416008226572973
-0.70757781987459012 -0.88530165130185212 -0.36100618942478135
-0.54493216793275145 -0.21931522226988598 0.70414779234671165
-0.076759437011860499 0.51350424855757915 0.73247996757358536
-0.40342841819837361 0.0092697970691677511 0.7480367423307106
0.29383544675031548 0.48290793386362729 0.22235371294913442
0.84890945630789727 -0.41248662191363294 0.55914831044506119
0.2920958026583973 1.0689516511528492 -0.3910266800939457
-0.0071769115497484215 0.56708399307839841 0.68672367810815071
0.78318459255837258 -0.38667238536869597 0.57012409738540626
0.72412329326283453 -0.36676495812352528 0.5873594998145526
0.22105992752081871 0.65774598909137794 0.11614479526376442
-0.6161005065380003 -0.39313785533719425 0.34619906560959457
-0.66817029757387303 -0.61457828144782134 -0.081810296974518693
-0.088473224548690332 0.488839597133083 0.73147448479898269
-0.044565474386867976 0.54569615619718803 0.70608904958943874
0.27686519428744916 1.0961406521358423 -0.3753723711756809
-0.46824298512248852 -0.1049194167921339 0.7305284686678899
-0.35460492035865343 0.10985557973519544 0.77372353967458718
0.075986809656027887 0.29180308582757242 0.74821970566320228
-0.68606894233256455 -0.7212445523500044 -0.40074710888141496
-0.41416391322863433 -0.031083641404958229 0.75421114854022342
-0.081274428150410749 0.48327118115721035 0.69720042985087538
-0.67001604617368216 -0.87319572193914485 -0.37244907324196674
-0.023897430204274261 0.35849003387740197 0.77790042151143268
0.68122125739611494 -0.43623894146497477 0.62856058557270433
-0.49116408480530982 -0.14435435920493944 0.72418356467305589
0.68467785058273734 -0.35602067836005347 0.63364881310777399
-0.56738565040979516 0.096341577401708456 0.54705280605098849
0.010178740202485104 -0.16496743735480202 0.72211256889911279
0.046268099181539846 0.22078167506146684 0.77768830784630705
-0.63766802098463948 -0.47575048019212929 0.12512360853077098
-0.6795166210296717 -0.53709332307143853 0.034113440773817061
-0.25723565479382238 0.24966200808383832 0.75028363327054493
-0.42189488060410341 0.080279434105007041 0.76134784701959646
0.54115500533903638 -0.32493501886747644 0.63310122244477363
0.25096192838112152 -0.14037924595271889 0.2695247022163052
-0.65424853054934751 -0.69854803356940209 -0.35971447434400261
-0.041733290224052588 0.58214500384614531 0.62885907684094811
-0.3350914621113219 0.13755719996572857 0.7551499954953842
0.56040567689574838 -0.2885150248242585 0.66387559976206578
0.22811189520256381 0.33823902197056732 0.59121313679019227
0.31008093057618691 0.96186095532829086 -0.37034002589065906
0.35275848369551932 -0.20442021643008701 0.69862739098623372
0.50486833273214138 -0.31942298797238777 0.59874675607460626
0.47933483290692497 -0.31233362088023142 0.63512819302048484
-0.7492710671902767 -0.37224848462049831 -0.18976707617829547
-0.64850574708326825 -0.63047439591013177 -0.30388841733601701
-0.64837036742403864 -0.26447548163710088 0.62381497316708057
-0.73452195434114387 0.50146083960138021 -0.041915986073458811
-0.20499331641426632 0.33023525452974489 0.74527822208384364
0.12287973352953063 0.32333934388259244 0.68727706553164847
0.098071409953550126 -0.17548976584786935 0.67611056379651835
0.14083237406806592 0.83824357004538896 0.03337095342337193
-0.78411048135428452 -0.62646679252321658 -0.3604714266177762
0.33657037840306181 0.22443732621292867 -0.046774299234243699
0.20448699636207479 -0.068185889297716074 0.69923571054362732
-0.43858681594851845 -0.041948579788988027 0.73088540319861384
-0.53064028754388648 -0.19302162964232927 0.71320343878016068
0.37571441722329801 0.23087741590029864 0.008430301898766146
0.25818117620433956 -0.22632451704738976 0.71345110534151246
0.30767550128256005 0.9950756972741317 -0.38278309274723021
-0.26374974953211572 -0.14832010386478878 0.73208484387262285
0.083730927064105121 -0.21700343038737557 0.70287737536378447
0.79953807218890205 -0.38600551467626509 0.5648869066593738
-0.32478060959039023 0.031294533069340602 0.7572048322153222
-0.0088422593072774447 0.70802497513214568 0.45125223922896929
-0.72777687574570038 -0.84137527785260779 -0.36996448563058948
-0.63270409887813805 -0.29255522787433996 0.67994844710178803
-0.62291020947400533 -0.83600005625782003 -0.38982106490441382
0.063083933103339707 0.45895984363601627 0.66574237986867413
-0.3269414855355941 -0.24730300530673865 0.70410917232410863
-0.4223906886805997 -0.0087404973145499554 0.74788491431182624
0.36552393698471308 -0.24199704605435457 0.63225118825290716
-0.61828978519323385 -0.29324824025462881 -0.45875289200491132
-0.11399163538104595 0.45653871730718443 0.73719244461447708
-0.63672104439915422 -0.70984606862925048 -0.22095576348076307
-0.11334590446595039 -0.24858216234037478 0.69112765473331894
-0.68877210917877463 -0.74764029592797687 -0.40208164176318562
0.032477219368924892 -0.48810605065096446 0.040003254463027105
0.23799012336819492 -0.21509431542054003 0.67556299677573772
0.12413828560403228 0.38097532857304905 0.6306877800739068
0.5031535700910108 -0.31367734514248369 0.60264312657850816
-0.10350225052747675 0.41339056589296241 0.74338809867759359
-0.39751986202259282 -0.0074734546148267356 0.75685504844889007
0.052701347682198918 0.21542118573945501 0.77512137876822429
-0.53034307104601552 -0.16830318713843795 0.71587891579564911
-0.59786932917581481 -0.067547642450308309 0.61558273232786576
0.25644753978308543 0.53924386147490111 0.22133099092662434
-0.44493362157113836 -0.6432933686726745 -0.17016833707098655
-0.022628691085341934 0.59345948642260815 0.6282611771426172
-0.14262185823155349 -0.23219329394948396 0.73201413487600497
-0.81895106581658261 -0.18572590082519813 -0.040710984021631091
-0.25121941815679705 0.25543515379373538 0.75173082448092288
-0.19953738172082991 -0.19408960043136148 0.69337251701784464
0.27686516529166738 0.94280128234084337 -0.3007155874676446
0.24163163746451843 -0.11261625274699227 0.10533619481101297
0.3115305626687821 0.94349913941139363 -0.36264935066775728
0.71392292872349261 -0.36345070606695984 0.58933624899196779
0.45179071638995971 -0.27061854730245827 0.615501931202318
0.3516283615886806 0.03343945079483035 0.25676489597370278
-0.11588905838424335 -0.20496238175187642 0.70890436396087164
0.26224730114916994 -0.079533533896089637 0.62674635779381305
0.36413078852329939 1.0839468267294006 -0.44174861044739977
0.021225366129822731 0.25063972648608157 0.7821901767206576
0.19935792825263654 1.1400955593632141 -0.43526470663730699
0.12231926406161708 0.34101720629885435 0.68433477643458485
-0.40608476475252431 0.012740424148297791 0.73811492635192444
-0.12669357067481535 0.96443731674688316 -0.0035686118556625956
0.07509366837410214 0.43407658981030828 0.67128972603617054
0.19670958730848298 -0.089434538598295532 0.70630975365698134
0.08596962242752193 -0.11499925749952844 0.73773588952821267
0.31196503473498893 0.96045104721858721 -0.3671572481575609
-0.73759975340483486 -0.60258020978906313 -0.34881083469648289
0.0281987979367333 -0.24144322436281662 0.73809463400769459
0.88355108893483947 -0.45951011369221284 0.56074055703259962
0.21590121660767103 -0.27353160354393502 0.72175056692754946
-0.47626944608039157 -0.12468300975442403 0.72534472636879599
-0.68797133448776826 -0.72706521637974042 -0.44713482779664737
0.37293653251359438 -0.30423834942322614 0.61136325719095685
-0.45666577825878996 -0.089428669680435391 0.73209299937894912
-0.55606208574051053 -0.60572674668622817 -0.40818072586652399
0.57863435440337463 -0.31469290044389098 0.59649799969800199
-0.41780980914123411 -0.003373690494901993 0.74942258319580013
-0.71066105206219454 -0.85811075148618876 -0.3841114937274881
0.56899640098145821 -0.33142271320466854 0.59484102144863904
-0.66556405960351661 -0.56207025971812818 -0.034504689373523689
0.080927191410507859 0.72473510953832054 0.27895531454250566
-0.0099903781351571297 0.79143124720186009 0.34729069773935173
0.30616737031579344 1.0154648087117923 -0.38862625139423379
0.44694283882230135 -0.23258858900573109 0.68628360123899235
-0.33177921433837199 0.12633150108023194 0.75725646307850614
0.14167008305896678 0.25060215032658562 0.71480756816122426
-0.055305657392722196 0.39955612341163516 0.77246916761145101
0.32363313132593419 0.8133420239227096 -0.30261996042004036
-0.041076766585087299 0.52545817587489019 0.71432480349603988
-0.67110720409827707 -0.55943287034047806 -0.010153549060653688
-0.048643690927343997 -0.19866004564441475 0.70471794280522193
-0.5326548227006267 -0.17486171656527993 0.7213633994107429
0.6632152899685585 -0.34565929803075335 0.59480927960276819
-0.49903559855404378 -0.1952506625037973 0.70718859592056038
-0.55918576529758468 -0.20167338681965852 0.6960831388652613
-0.62004385930401718 -0.82873310425482938 -0.36476742867900569
-0.18771494544345124 -0.53079018329957073 0.40145003838594029
-0.68511919377807828 -0.75316600599091377 -0.39227077493998941
0.69796072468929959 -0.35097538006130335 0.58703228150995468
-0.078165993533009015 0.42523576326139079 0.745374477433975
0.21682016986764552 -0.042176266630050918 -0.28654707687955749
0.14816751293292629 0.14826283639243165 0.73819555014822225
-0.2990666867565408 -0.19807645966987053 0.72079424081898136
-0.64160617922286356 -0.69135979025402783 -0.20910512404299908
-0.21476385924366426 -0.15849257882783085 0.72440106910462809
-0.25976847442708095 0.23863541131155941 0.75259903837572129
-0.43212042306643283 -0.035571798855921877 0.73868585974989909
0.37242856044070116 0.25031710933528117 0.0096673119292898235
-0.55323189390867178 -0.213107337078279 0.70074426281292723
-0.78758541466270593 -0.28518473386749843 -0.12131952807545687
-0.72764607533220627 -0.43405726167464032 -0.25250367236128213
-0.25313198036054896 0.25740633029031557 0.74856107956131623
-0.09848613236934689 0.26200696794732892 0.75953038412806251
0.34780644257530824 0.52179361529095303 -0.15170610268097207
0.069965025348486698 0.56458509653664457 0.58155905831778831
-0.551826108799089 -0.23520249227215295 0.69883825362556795
-0.63147115621339545 -0.84181633838245951 -0.3757756874135012
-0.175364785368326 0.37906804163453423 0.7497427639540728
0.019091471714057562 0.3580861585493178 0.76267337672012747
-0.20612580231741884 -0.23319701081574706 0.67142758410196723
0.13774230279050315 -0.14411876239936561 0.72887174149760003
-0.3658420327809182 0.07240632935234359 0.7490471409075079
-0.0093806496718307208 0.43658049104999819 0.73708725918887108
-0.58864630097822435 -0.76087659253915074 -0.33446480703554649
0.028908671995812263 0.36584222539370437 0.74889204833950185
-0.51184526981524048 -0.12583825703250717 0.72947043534017375
0.12914861760531648 0.19307571110524258 0.73220592332632517
-0.33819013140329357 0.10850258484766151 0.75725627719223265
-0.67488376892061908 -0.52912962317763679 -0.089688407758256261
0.1565589824155329 0.068665203093111415 0.73884644575417102
0.068616219510858834 0.4246067900726942 0.67756872712754301
-0.75902236610495954 -0.47110040813164655 -0.2790397203002204
0.13179480007002242 0.29749723500830605 0.69460500030189198
0.35155002753961817 0.018099196417377783 0.1092565235645484
0.021049199609096014 0.68099011331492676 0.51815275558847773
-0.33145372311581656 -0.25526663563053731 0.68578034526647169
-0.57726417126249174 0.3616914682967014 -0.55531398577889846
-0.72540265152193939 -0.91198733046489266 -0.3798062450369919
0.30192154499546664 1.0472456560737697 -0.39126562982874091
0.12805106312834424 -0.1594666995205376 0.72432194719471177
-0.57231138966010242 -0.21630755106049726 0.68403247776689646
-0.068517529569737778 -0.17389997314179872 0.7184461787854648
-0.64905728953559638 -0.8617437900036542 -0.38025829511195575
0.51632283423233338 -0.3369117937585866 0.6457976259258702
-0.4883766127059852 -0.12233543829501414 0.72322855226664284
0.44094782389629344 -0.2972483888465991 0.64989481715385189
-0.49201592142534167 -0.13163974466320028 0.72337666356275054
-0.28663155377592719 0.19152226054027643 0.75805272474219709
-0.50013283380111506 -0.15063109779158523 0.72258869749217602
0.25878535016857196 -0.037667580994666494 0.67210012225922355
0.022810096880233388 0.72253226253562808 0.49739065383585324
0.14380230533795713 0.51897172768514643 0.50627005311872253
0.25254340555543209 0.45459906275429773 0.37763457180450821
-0.1057633854365676 0.52074539895290073 0.66376197397603054
-0.679036097517419 -0.32247756539415739 0.65023953992999051
-0.57076727922285819 -0.2041149460274756 0.71235954589244788
-0.46219454109308789 -0.10086499656066827 0.73172844014532146
0.13405277462222331 0.33728475223387377 0.6818467325404951
-0.72449466505621984 -0.82634229318189245 -0.38052372479926611
0.0027159138399261984 0.2133271071799232 0.77790842209454514
0.076848088720991317 -0.28365325523427032 0.63831826148284687
0.35023048647035893 0.37392159662378077 -0.060738477069442354
-0.22068035131341013 0.36174272096605264 0.70466606879875737
0.30308538694256004 1.0302347605388036 -0.38862101325205956
0.34662299562242627 0.66274825454117092 -0.25536795924997513
-0.35372780270626158 -0.20299252312551985 0.72307162992889751
-0.050542312410376766 0.55444021348334438 0.70608452301878266
-0.19810238848208961 0.34671977393141695 0.75323047137735255
-0.27943526461205348 0.21813569539119904 0.75506052821437919
-0.63295813637974696 -0.63699924166620114 -0.29443351983876731
0.40417377198514348 0.2256987793504841 -0.09338368056875801
-0.24134001306394026 -0.55140056444735563 -0.40236940610093086
-0.61441839305327228 -0.25911976141270454 0.58818170236222578
-0.76760357372912935 -0.55035273871116086 -0.32904136905987258
-0.69600412016636959 -0.74604580113271002 -0.40991860892790477
-0.1211132247883242 0.47476524058076919 0.70531047054134177
-0.012522522894485189 0.2047615765236479 0.7688363373179099
-0.35983675494603951 -0.64696797395511041 -0.2886252094952475
0.36474035266784277 0.29325808555263322 -0.071002530454517654
0.88408522891755903 -0.46929156385413151 0.55366305601351762
0.0071876921019180529 0.70608832553472034 0.61698093840801516
-0.40036114909100462 -0.63965110604835296 -0.31200170353032064
0.82359893883469881 -0.39951875799648917 0.563235222056921
0.060761263725104264 0.79233508510726125 0.48943654319764729
-0.04733143721764943 0.51721899241416835 0.7022638721719483
-0.2834142604164267 0.1919082307055362 0.75564662518714165
0.16924265888883117 -0.10231113867709496 0.73012187869300771
-0.30795401068146155 0.17465004702465414 0.75519384704142212
0.70382131953121851 -0.3603383944054972 0.58822307876682611
0.14982586618046922 -0.1741941493139354 0.71864135230458093
0.037379001705554415 0.47644722404571382 -0.63233944150528743
-0.31909704094515057 0.13756867201229461 0.7604115356265515
-0.7180909406347471 -0.46079661620138346 -0.17920388308723467
-0.5986852071901243 -0.64427369668059065 -0.39950671533002868
-0.65704495775218419 -0.65068375579603455 -0.12690613986411314
0.31775772115533485 0.87610854599919463 -0.33594523168349255
0.34199727126725143 0.42242148863757478 -0.073717892624925341
-0.4293406993277884 -0.034231915594350681 0.74170341604196199
-0.020918096554003007 0.6197366619576048 0.69197195891130914
-0.69100621901013959 -0.16587867693310088 0.39458346728877025
-0.00012572907647756537 0.48587695494290095 0.70027133754348547
0.27334910254737732 -0.28140585806149332 0.71963421066588218
-0.39179132421119256 0.04312952167161388 0.76225676955640775
-0.25405615688277416 -0.20662759495191274 0.6916537910195526
0.29019858118360276 0.99988320660984975 -0.35156656805996001
0.34841103288666631 0.40111602716942585 -0.082721284251398686
-0.66839359222038297 -0.5910276976160258 -0.054074366682204555
0.35444457291294018 0.60630256365107904 -0.25709690946845143
0.20992777038655852 0.18092540626741815 0.70285515069104232
0.30330500587752596 0.81575532227204128 -0.24602689618702733
-0.03480929648538833 0.65349766920392938 0.63997657595217383
-0.6093953970404673 -0.66508646533173632 -0.28914642571367466
-0.31728704174129874 0.21246196308709475 0.77465187787710832
-0.090009867448249903 0.22294957188897158 0.76572378248258754
0.11633492012576196 -0.132955058404578 0.73295351653065932
0.34879645481863619 0.48033175941541906 -0.15953254035527031
0.10064876335599138 1.130025128766853 -0.44445761933420158
-0.34725826553818884 -0.22052284858250459 0.71714378277523672
0.30090602811272049 0.90185008569714142 -0.30460132761185577
0.12618177910407324 -0.21898897419463381 0.65383291202579175
-0.4743193430599737 -0.18811992394085664 0.72289292238549852
-0.66190514830995895 -0.56650620755442205 -0.05185680387334024
0.88694855530237682 -0.46887241500640897 0.55496495761606912
-0.29208063393202099 0.18927139702232765 0.75517920972189767
-0.68605498352136429 -0.52481182662235071 0.071473484189954917
-0.64484547832591943 -0.37177027455099321 0.55097702489875289
0.74855903154646675 -0.37361547753325297 0.58062633188431967
0.3647612622189671 0.48590717122981175 -0.15867730955330472
-0.016862957479770735 0.61441903531967768 0.60107731207319759
-0.44387154133458928 -0.051041864909825208 0.74627791424344014
0.10732570997831647 0.15992200715852078 0.74802873810102088
-0.12656656145814349 0.43785809242362994 0.73822027217552222
-0.78087195025849887 -0.45554056232167461 -0.33179828138873901
-0.49952241535949682 -0.61536093319341667 -0.17130514616037473
-0.42687592529064045 -0.038016928620525192 0.75095610644651867
-0.29163531332688297 0.16341077975273066 0.76509132583869377
-0.089897336688004259 0.5660162687470276 0.6136482730924957
-0.68203044995302164 -0.88827648014471539 -0.3843600891774166
-0.14428586286018774 0.41068076708768153 0.74270552644065901
-0.46435444763512024 -0.057204674489279128 0.70704630578372107
-0.12008814157784242 -0.212094790523631 0.6679271469412944
-0.61925390379473555 -0.78093352632028257 -0.35795072992901922
-0.35246933295035277 -0.55115160907710781 0.33380803864399056
0.31244350581316205 0.83485745466059136 -0.29790228671217989
0.25698145921451854 0.62052645190837907 0.095278517339933089
0.30075030453883755 0.84946044000066934 -0.2656928006503918
0.15400064806497249 -0.18486968488052469 0.71495908491699822
0.18663989252006941 -0.087431905475686023 0.7171900941968854
-0.29126388723636509 0.20683490432742957 0.76087132161563265
0.55553155123876263 -0.39738794802298472 0.65271812585125577
0.34881704748023878 0.0062896475567342236 0.24841568322542251
0.23678481108583904 0.19577076523233394 0.65054500685021921
0.43885504246295381 -0.343596005507111 0.68964602956599386
0.15437239047997142 0.66563763559432765 0.23208776394044506
-0.66381998467838166 -0.55030843038079702 -0.17201112798242946
-0.27914452958074065 0.20180894836579277 0.75750690508452045
-0.0075700013348338757 0.65927647527696376 0.69933986400245995
0.71345265645636524 -0.34323753838089388 0.58189753903619579
-0.3340372978706343 0.11801993165895297 0.75886139989952639
-0.21646178562461138 0.30487930663652918 0.74863670337336163
-0.67866922171192101 -0.88979978004191818 -0.39577197415159304
-0.46132192706479991 -0.069666974895833178 0.74209626868655842
0.3839034095716336 0.30724947842132622 -0.056081839203708128
-0.62006368908057041 -0.88901581591450007 -0.41881172388923638
-0.10545889360478222 0.22706908064814435 0.76548294714229836
-0.069013536271570697 0.33356116927711454 0.78006855061315861
0.115473921463078 0.098453338125459311 0.71402582368094869
-0.70240675437614541 -0.84099574653167775 -0.39434026068560435
0.30968806598897913 0.96661092849692309 -0.37185348998247747
0.34185812064007948 -0.27944464851240447 0.70874659563211395
0.58547122077513858 -0.3212351787971599 0.58961539610590519
-0.079785017525709989 0.43825564233514669 0.73587567684823174
-0.67374558430133114 -0.53786952549008937 -0.18849262257289467
0.36545986799254582 0.11679948090226944 0.21969476569469215
-0.17595585153674342 -0.24063643375015964 0.72463676394351495
-0.14087075901716162 0.49076870044904375 0.65591369969260338
-0.16750943896363957 0.6056718189754644 0.5825225570748982
-0.059725970168542641 0.29638750908468481 0.78328240396093385
-0.16364615721818687 -0.2212030306439523 0.73269261533769736
-0.11521433001446191 -0.10754932060686961 0.74285905910769134
0.65151799635853624 -0.3289833937007689 0.5835107173039602
0.41993958076863025 -0.25051765510026414 0.62602214642482146
-0.57325987482748886 -0.80247128146136948 -0.39886104778097753
0.5602390191020481 -0.32401937364429756 0.6312174662724388
-0.6255074402627141 -0.75365160013949684 -0.35222652888112727
0.39087890714394469 0.22900858955753023 0.018059311572789838
-0.13847096915553259 0.26909042104223602 0.76043781734957427
0.32026355363123038 0.62582515130075933 -0.14098957794495171
-0.27279082712546554 -0.12616629413566827 0.73745216401828806
0.32757993819811837 1.1355930770685614 -0.43430088737254557
0.35174314822208075 0.59372922536511119 -0.21055242206428204
0.029469657483180867 -0.28709282005259951 0.65031027635192995
0.36256416799202995 0.077978231604646453 0.25694440716326739
-0.2468310102325848 0.27542262901706138 0.74180111206730981
0.36698755652998472 0.43575711809513251 -0.12560366767091224
-0.26018912957433304 -0.058973617682774204 0.75140166807135689
-0.20761789503309291 0.16467654049809788 0.76251439259965359
0.547971381966188 -0.30885454177791161 0.60589770948457478
-0.06650154587882362 0.49913742979857112 0.72387349112244159
-0.55528784968539568 -0.20796919532253177 0.71326641522366696
-0.38806202564513015 -0.59959950692156738 0.18286087833203091
-0.10311232320133179 0.27749739387375172 0.75804556027602743
0.011322742069882707 0.69862999130211278 0.55530536349577098
0.32697364825189279 0.81075918157107552 -0.31575657100782806
-0.27336221553418483 -0.29186809744372866 0.67522001232643447
-0.26437286341707367 0.22386592601122679 0.75588084993090554
-0.14670293742674634 -0.15009095394897898 0.72712812144979821
-0.67678280467777263 -0.83930649916457067 -0.38656916868925428
-0.65674537101071451 -0.63588361078881661 -0.11571039889377843
0.38571011880056716 0.04552727831645953 0.079527159596503694
-0.681508309447862 -0.35367083113714592 0.57408463737570781
-0.66421085452443585 -0.28771968249231961 0.63895613177091626
-0.073105194600227907 0.18232357985891667 0.76611027550154986
-0.7059476251845016 -0.36163134565132715 0.43268257533194543
-0.75763792603599533 -0.30903469233516567 0.11825812056116725
-0.34430231960489976 0.10799815446119787 0.75068586887899436
-0.23963543036221413 0.27063718117175917 0.75049627649070416
-0.51431895431244268 -0.19614515149457645 0.71885599012995982
0.31576807858693812 1.1222734893410724 -0.42434077600916353
-0.50736186113078041 -0.17495823151166157 0.71564961345948142
-0.18115844663773828 0.46204804353729401 0.74375616528733701
-0.015761569465651881 -0.095574659647773785 0.74473609175128974
-0.62105694346360174 -0.69599488216779548 -0.24061742583990231
-0.70296547239405882 -0.88104400820938089 -0.35944132576284638
0.68107983025705776 -0.35292070032525125 0.59028369208885767
-0.034721189539002051 0.37897966546099582 0.77553399886759244
-0.57143965020074017 -0.20141168916999241 0.71140176522693199
-0.041701238869661594 0.55872075292506551 0.70086150212176435
-0.71346177486454287 -0.44236446193102275 -0.33746854955520789
0.28238638679735795 -0.20943787204503117 0.70803326944267475
-0.69103764403847201 -0.43266343298206422 0.27658184129409769
-0.41672907134563886 -0.015366917765716082 0.74741483956940424
0.16855402904410721 -0.20431500148864501 0.70739811435785516
0.38979464573680112 0.26454351428624179 -0.023071378976101897
-0.80327361252685847 -0.64051854346463344 -0.35840066746640886
-0.1057465156603854 0.37052330874908712 0.74654203216027959
-0.6120710764863837 -0.72366046211821011 -0.27799210327062873
0.76446547741529747 -0.36880790602089952 0.56934559590373146
-0.79968121439849149 -0.52529268338945467 -0.38882481960078508
-0.030602071651516738 0.59600903406030703 0.70874191266725894
0.32290796066400951 0.68582398987881277 -0.24897918460409407
-0.61079214012538685 -0.6854043409600461 -0.30909970376234597
-0.2671809377063159 0.24945659509339269 0.77344130559813085
