# XYZ point cloud file
-0.037928447547599831 0.87815561458035996 0.55873651776221234
0.69615710853236124 -0.14273904741793508 0.64533795048729559
-0.10238148313834472 -0.13549663373595955 0.76366464036795101
0.12592735688957646 -0.082762015373351261 0.79438148141033693
-0.32756577712693513 0.12435898374915411 0.79313225525060993
-0.41908953766550372 -0.57098525631448993 -0.37475879666632039
-0.60952882034294653 -0.66958803818996415 -0.33783548107088457
-0.054986694991413287 0.62167942732201942 0.72802345740643259
-0.099654691551648966 -0.16230867876479937 0.75164531308163429
-0.56708082459599041 -0.36430230715474465 0.70104203680833699
0.10365569718834777 0.94486169743519 -0.29532794854321054
0.46052192142801829 0.46889131532400796 -0.16552168829521818
-0.45645712949844874 -0.84803325758589665 -0.40244062247467483
0.27781988861597995 -0.18145129068572885 0.20246512954038565
0.83819540283101901 -0.16842968745734144 0.51892108809123982
0.22871070467833476 1.1465675470866827 -0.40896208263176348
0.33985638174230459 0.50642727677690758 -0.33721484803164969
0.072622024880644176 -0.053685482779631588 0.79349492462251803
0.021415716460083445 0.68563927877632658 0.70031088499125005
0.27351950615265253 1.2892920767097991 -0.47738424616312969
-0.0066249067248236315 -0.3169024519527639 0.44138479390231211
0.18272675319514065 0.074788410967805419 0.75525493765715801
-0.22813491843523082 0.44497900904078058 0.78033196919277259
-0.38028352661851628 -0.33903889575132773 -0.55106488046601854
0.42601119871378046 0.26069105102212475 -0.012236798749551525
-0.37629339648728433 -0.10771732178858429 0.77106248292897028
0.36426893825071005 0.50759908210920202 -0.16478716543020511
0.024887394373052985 -0.092118514042575539 0.7780998964980812
0.068814803847999428 0.32946294066129056 0.76321852066356577
0.72358940526999049 -0.1279933321453397 0.59096456050089685
-0.277332882520966 0.25722078656604097 0.7597410360933825
0.18597249476076172 0.97302953779855272 -0.3195755864708083
-0.21625076084964689 -0.40543343258895881 0.65823306379644109
0.32532384534339798 0.79071727321383989 -0.28879582230759482
-0.13701528879106206 0.67627807967883502 0.63538059946912817
0.069698658919350009 0.26868671170412473 0.76367168708213384
0.18436653221019128 0.28171256178637094 0.68275395205150247
-0.54316415712128219 -0.88159170879806936 -0.37339627740570513
-0.22139418431959257 0.6320520860575618 0.52231115661134098
-0.62198816119287414 0.27926537844262 0.63774530886176173
0.32248431752660167 0.083551066755074288 0.631812390487692
0.25827116194588484 0.01561637902639923 0.70422155944666898
-0.80572562209890464 -0.10075384651594987 0.4522429951606064
-0.0007160487277815264 -0.10873497622957395 0.77270382829800788
0.29689087103025003 0.898525557580232 -0.32564335917117404
0.16110310459569632 -0.057911718824662728 0.75971737943184436
0.25002240244280927 0.67117293918542487 0.10352575705253031
-0.064489505184056384 0.56842799158369495 0.74223791858968635
0.4299209633247898 0.28096066477547055 -0.035092467849064946
-0.041871878367857107 -0.10653023222139479 0.78179969936256821
0.55242865987335676 -0.65233110518876014 0.51140480912212283
-0.89482188769210858 -0.88864994712506018 -0.41781545806784237
-0.48156520853542872 0.037726644024807854 0.737202998719372
0.3200762458448132 1.0928556265299534 -0.40926916262855251
-0.4165516141501584 -0.6025233372938672 -0.0067183182656105345
-0.90389442630652894 -0.66727798861742116 -0.43022158276781042
0.13601915455549829 0.54787394409075318 0.64213440631420582
0.1625742522305984 0.87813073704931099 0.024624152548701872
-0.691755985866223 -0.57548527804341632 -0.29107160633139983
0.4882237119499564 -0.21755520079229385 0.77486537812980671
-0.15575262126906386 -0.47168789364545916 -0.32590697086703102
-0.41221667734234302 -0.15841889391280972 0.77132423350474966
0.43661475379501979 0.4481885589296617 -0.15820083387933437
-0.029835419032963273 0.71900367338483484 0.7235703393458679
-0.58700571372344967 -0.77242372991166874 -0.35179930842892659
0.12045824227959656 -0.12751153298482665 0.77337051640823873
-0.017391420265980173 0.87025366824517647 0.53355627676101913
0.47651971690606132 0.52820397103688776 -0.18555956960252828
-0.79775988218476357 0.00060885982655989324 0.33609217431602323
-0.021300167688394822 0.48397407667612313 0.77284150432621423
0.4352748592708906 -0.25946561787941125 0.29374025630254152
-0.24086077865652555 0.53354235047904197 0.64135195304051074
0.60319562793054615 -0.13727801740128864 0.67001447932222646
0.69089955489667432 -0.24669645445048349 0.71992093226608844
-0.46115979293520581 -0.21438586714153018 0.74139530357261307
-0.76862098423866598 0.033294479373090269 0.6288259610380198
0.17583761136376097 0.30902479528752025 0.68564024547482028
0.081504836833516947 0.44806144322397401 0.73534240654222049
0.15285182831070188 0.23979548193063671 0.72460196706981606
-0.12291004782625237 0.49533320995582431 0.70545967040947311
0.081721696088195017 0.82714219185364612 0.30839168746507184
0.2183721330182351 0.42635359707871245 0.54046170115131709
-0.084071712633871698 0.82199013823913369 0.59016585912744812
-0.62724544207584643 -0.56749395072849751 0.11334539026457158
-0.046930973793195108 -0.12083732459548191 0.7676242418212702
-0.96179438434604592 -0.86214815466331984 -0.3998276880928735
0.66653412326309081 -0.18297127457409035 0.5722625385178155
0.46803949510507437 0.17938059024300657 -0.021048345888402764
0.31967409626893328 1.234262955554815 -0.47760655916400196
-0.075095383429754747 -0.39070354125496642 0.66751833667103355
0.40554918320170685 0.90355095075148384 -0.35161230295755175
-0.22172357074363447 0.86800946669599721 0.17573299844632251
0.55484004715782476 -0.18408829651347602 0.72688070801142146
-0.71908401134993483 -0.37596917045696898 0.56403126953889782
0.22496531622533666 -0.16041266650479558 0.75847188586753589
0.14156344965727141 0.8136961762397803 -0.38205922639038015
-0.47987358727692708 -0.23079381202720484 0.73813636004042849
-0.49278485354470547 -0.87626632971040763 -0.3913278703217884
0.60982715963248779 -0.66156046918211953 0.58583560182112393
0.35634276717901869 1.2473855681624215 -0.49203703987021719
0.54776727215244492 0.83589806324492599 -0.33637728578686676
0.36298457993314059 -0.29363638464867847 0.29506209448948795
-0.092780150968991393 0.44978553749646899 0.7548960469164081
-0.71378317799004876 -0.57332110191702768 -0.30346318033591224
-0.94780099332180257 -0.7430274508807706 -0.39504613148291767
0.48097634419837121 1.1992865441052736 -0.47389068125975875
-0.033265117139109179 -0.40318122057871797 0.61174533148984622
-0.267328852421997 0.5774299562136278 0.79076890343264061
-0.023050054062750291 0.62485021698667076 0.72430215315572699
-0.080132062757002132 0.31680959204699599 0.76493198568260823
0.44028119505491503 0.69845075343432228 -0.27381495720099025
0.35645801115555287 0.60465880221986623 -0.21547925895684017
-0.59334130277626329 -0.63452254203186342 -0.29941241191390766
0.17780230238872718 -0.11984006752321852 0.79158168596690004
-0.49467176859124962 -0.65960216560727147 -0.26994861057123565
0.67402602152472468 -0.15135648095780319 0.62638207200663842
-0.34603948562794073 0.13550623927361372 0.79119326742531015
-0.54774337066598378 -0.21263305650065689 0.71760394995939336
-0.53185718374593627 -0.9072334382206968 -0.41213630379722233
-0.1558009995959253 0.52851620471024674 0.73320996453439591
0.66444539061305363 -0.11017609499469039 0.62424376931967984
0.70850435528808475 -0.27304294533065399 0.35944585736582368
0.37076253400186232 0.058282973997455301 -0.090245053369663708
-0.17193591591941981 0.39030807683688007 0.77294599397566
-0.24433493729711131 0.50479010991644557 0.78463426033175132
-0.44296319756205094 -0.18741698580115695 0.75833301109412332
0.50339688239625957 -0.572539591632653 0.59595457504278926
-0.53950672942970357 0.0039178407363245071 0.73669672911464623
0.32741519251837303 1.0359630462711564 -0.39234980923251328
0.55134076723823 -0.095770385739175734 0.37621743178652878
0.36801446704872376 0.561215831663052 -0.20527559085466862
-0.044046727789464057 -0.16503021033330256 0.75264260796122251
0.78156233095521088 -0.10960418992747645 0.52290963348922048
0.035695289909398298 0.25006212754134793 0.76912488815308588
-0.11213126682037 -0.16771066857338468 0.751453607999923
0.57002449495391261 -0.61758777138463827 0.60443887284398556
-0.38222689048447478 -0.28673019845357217 0.73370730221074165
0.35932708103069899 -0.48793990369861717 0.47057814892327343
-0.075501162307077152 0.70684531804867423 0.7469098388962454
0.29782690462795358 0.51836797978830518 0.42748440786548692
0.39668122039986287 0.67891361822569962 -0.26023157808332797
-0.32043156997903566 0.064336503116294352 0.75815064909401464
0.38536869025720932 0.038142772149594606 0.00290521632605234
-0.68260515246289799 -0.40479744132287721 0.63836247191838602
-0.47170937539318913 -0.66894890725317424 -0.068432509305408118
-0.22046538304356034 0.52733235178557525 0.60949963868409363
0.4587916571909858 0.41577720121102857 -0.11783865237861946
0.04369741014311046 0.83477247557101286 0.57826046314942126
-0.14868478990169365 -0.17223424270156862 0.75828629711215179
-0.21527649301890506 0.31572420257182721 0.77321284172807214
-0.42292982021228909 -0.12717036510739987 0.78423631841286934
-0.38600399854345824 -0.15140395441716237 0.75144618140665109
-0.20471489625400352 -0.54584006817781727 0.067173773560590178
0.13599902839712286 1.0158115090940534 -0.26590673852700952
-0.78595819706907122 -0.64117801241163619 -0.36144501140820751
0.79961432254430065 -0.37851250722694552 0.68232123586700411
0.82240007854082364 -0.47166199291211175 0.53082302326391329
-0.61233069344811097 -0.54855738100939178 -0.43098405921062266
-0.61619272238976874 -0.89662171537126056 -0.45182166229580289
0.027325312536809587 0.87265164332933054 -0.32381829355859892
0.30584348392071092 0.54304465635612331 0.3276996768074234
-0.12362741049165038 0.71138839815350008 0.57864714309890974
0.48484350486096162 0.59481967942726399 -0.21891991498496921
-0.72778308901865785 -0.38758050181387205 0.46508516903975661
0.011576046714992572 0.50022890090128147 0.76145112341000942
-0.72865569343971082 -0.98483671010199458 -0.4219412134902587
-0.59583594097028936 -0.26031322653097533 0.70718722866724093
-0.13086983112476958 0.51652189444745744 0.7696918601808429
-0.36256927209907985 -0.082430889797429074 0.75158787969267404
0.30088253492637307 0.51659711810433961 0.14221197159633192
0.83111048909245255 -0.3634172550405701 0.6562391183371723
0.24308267473534784 1.1563535274350443 -0.42171227273930612
0.08262034353928982 0.6837574104453239 0.6752135655091287
0.83514915919195687 -0.43017840213172764 0.51294146946376173
0.73632931970786331 -0.31856296071764056 0.65301924771820907
0.23955841001071576 0.7065131393384334 0.050021498572473178
-0.40667008688447481 -0.55145532514358564 0.31955333153735488
-0.44674209262100817 -0.64661954733684013 -0.0086629797966342181
-0.11982333346041685 0.50798632755883766 0.75949769054983296
-0.04396912885304971 0.61758710641421999 0.72805905793001191
0.1021333767417687 1.0251365403087789 -0.26002830423899148
-0.61061638326138734 -0.080344354443518284 0.7231063178083339
-0.5469244908619828 0.14363153415911967 0.78484232867525172
0.11895745047084461 0.37282726910463815 0.72116272535603798
-0.7671737086868422 -0.80333642065875566 -0.42493739778723238
-0.45120374582091927 -0.093168760798768346 0.78471317434372168
-0.1007388694919058 0.53328138666785407 0.7118405081970991
-0.62053317317442236 -0.92454917953323701 -0.39497268279864173
0.024732639397285539 0.43018183196288362 0.76852448338926393
0.551904161248018 -0.53748907928622724 0.66014923223204747
-0.56199372512733703 -0.17477935834152447 0.72699958361000938
0.54982020661412889 -0.35867608252862482 0.76936804916267576
-0.74318209812921054 0.10475972415381918 0.40219243109548142
0.071213789998324728 -0.11071444984762069 0.77309051008628593
0.076645930108810489 0.28406707971535461 0.76429145556804912
-0.40868721555810339 -0.55899510785180695 0.14374408603938704
-0.57403922530620122 -0.58960344115465091 0.02687128003454653
-0.30078574649732559 0.19058521612916834 0.75867702899204126
-0.64447024667434505 0.13392027121851768 0.75396602231568011
0.57611484142623226 -0.53875418994758384 0.4100604285235363
0.33881179633658576 -0.065731180736448458 0.080537112526627652
-0.66424480287561405 -0.7337482890510465 -0.37580602080015169
-0.07644758241923455 0.65535725433652825 0.64398538798642502
-0.49147084459674772 0.14344591636075776 0.74938763739344161
0.45616671286839505 -0.27129613755127213 0.78409272170026156
0.29144280904252184 0.39431627527462609 0.49522755737527291
0.35871868491592096 1.077133651262109 -0.4130954104337512
0.30097967113195523 -0.19771187224340636 0.76959255424317163
0.6860578387213252 -0.11049833449617807 0.6140922467509462
0.50297323301396091 -0.18945055463941962 0.74730305669658037
-0.81984402536181378 -0.43507813986499855 -0.29822021460109305
-0.62973269302116286 -0.64827981257339218 -0.32808591880491633
-0.62223059137295422 -0.43471240335474448 0.59194668455739263
-0.79963491064299674 0.44860548554487423 -0.22025396111312734
-0.3369241050782108 0.30709777130383031 0.75256248351290722
0.16838511149143187 0.41099761990741257 0.64982411691087805
0.26431348733592586 -0.36029244368765134 0.34457166432957465
0.14425644193484288 0.8945764471369273 0.031351803681314294
-0.91407758340810119 -0.77171217342756648 -0.39966981188987205
0.39745343374929121 0.30508107857277977 -0.18801998170136258
0.179527365240574 -0.044448451564004898 0.7431357879627285
-0.5289118257783656 -0.069571288393596831 0.71728103281715505
-0.57311572914723286 -0.2428326996156791 0.71910776771469642
0.430344370278263 0.32667874210267556 -0.091279965898024784
0.23744615513959388 -0.25607872154040745 0.7379102088794447
0.33931827101001488 1.1084053258391329 -0.42064785034588859
-0.17290787005651964 -0.16764205490938355 0.76403768490131529
0.13750216502270973 -0.15149246939474503 0.77403706162800567
0.84643191318031086 -0.3120158275789473 0.61708915023993072
-0.270702635201161 -0.032073966769655016 0.76844060952651994
-0.08966690826930801 0.78012156683304923 0.44889721602302579
-0.85364254702970577 -0.98874342764988654 -0.43000899399392978
-0.62284266210468786 -0.38550596529287873 0.68396060274669424
-0.5609014793834799 -0.85380258241657003 -0.3751223789307101
0.15889261908483832 0.56786004140989199 0.61975033683767755
-0.22344176826848638 -0.2808482919521591 0.72287341543070482
-0.38081034875398245 -0.10925179350838476 0.76525716096848839
0.66987280773230395 -0.14056628088279854 0.36980089898371205
-0.69146864983630252 -0.29644247473003915 -0.51335030961760353
-0.16129536115840892 0.44660999773221111 0.76592587134558165
-0.45102717155504024 -0.69984459226814266 -0.1594626334233098
0.00021369885919853004 -0.19408331329199502 0.73583699384523626
-0.77764027177007122 -0.83926913067030284 -0.42819710991087589
0.17249840940563566 -0.34028645758036591 -0.2273842331840541
0.33865538775040704 -0.43283441176396575 0.3976243029054487
0.17801185544254849 0.47591034592129766 0.58961134132209736
0.67130926157639692 -0.13484378563847876 0.60965572176865379
-0.10328648374215277 0.44493888211783972 0.76061632648253852
-0.44873373128895366 -0.062478744297813193 0.78434148600658204
0.081062861786392659 0.27901263181879443 0.76225533514206667
-0.5470563289030963 -0.24353088421698743 0.71824928162543245
-0.79777387664221067 -0.037191752484929452 0.51847482807523093
0.27959997286951932 0.58331327133535638 0.13877797637175249
-0.1496884709631594 -0.52289102677614352 -0.13563901294097036
-0.028172982836977667 0.68573643927435413 0.64550723352233685
-0.095379984479450286 -0.39929801986813729 0.65652340175710222
-0.92375743501026619 -0.26677010794708522 -0.19721062899249375
-0.27379274799881159 0.19760643900466413 0.76147712779401999
-0.095849748976888804 -0.37994745357313597 0.52167911676368561
0.1870122944771424 0.93893388652602638 -0.2853792382089182
0.33132695491128317 -0.027850753460596067 -0.12191323357662398
0.38311718643539194 1.0649028468124229 -0.41237085669250995
0.72843771889154141 -0.30980185837730811 0.65725230380389732
0.74254207860656152 -0.11769825588630489 0.42932154377416509
0.39683112023755029 0.097001679802978913 0.14786272505779507
-0.018399601749138128 -0.16255955795298394 0.75630522497386732
0.25556271195304703 -0.05917224109909025 0.62397699285568109
0.12717787453422247 0.9098238137608412 -0.32571583394096315
0.058268456644555044 0.31440880000213589 0.76858873995079424
-0.044417427141203447 0.88560801906697506 -0.34786189247833299
0.17819564393337828 0.43013048781484287 0.63950269697147455
-0.51733445589876226 -0.0029916160680620862 0.72359461567293515
-0.29205469542183238 0.92589885667923966 -0.10254714742056725
0.16432231430761135 0.53879169676938332 0.62347696058832902
0.17339747214597878 -0.071320141002945814 0.75340635378922372
0.1010536931341619 -0.072763838317862373 0.79345551832479089
0.43105063897192508 1.096599193034713 -0.43000421784875442
-0.82682139371716301 -0.69663915625915962 -0.39192529906006968
0.052459158256169758 -0.36024560891742574 0.68757165502294271
0.74838092714912818 -0.49875024052454719 0.69136164532782374
0.21617033672504249 -0.40486786884775405 0.65925574173826007
-0.5870325397816174 -0.12394526028808883 0.72019837003615805
-0.82359963137020209 -0.83377500999318244 -0.46770827596054332
0.58511078706999342 -0.084342749443433895 0.60339520026854387
-0.57206127430876563 -0.089274523100105085 0.72636801056408906
-0.51410445828671714 -0.5660601392913307 -0.41116027543542444
0.74513860865172887 -0.18278887316296633 0.56309257738160312
-0.58142492262032874 0.024141032794052109 0.74349126734848348
-0.82992847345220344 -0.9952763922058665 -0.44251560808692858
0.70312449947775235 -0.1469640279936355 0.64285524914146563
-0.53959248229600831 -0.60033036789914007 -0.030223539798059917
0.11053348252671924 0.82091942756775893 0.27415945923223006
-0.15521500177884207 0.83434792015316717 0.3110719846981238
0.346806044612471 1.1361554192636163 -0.43243006659819549
0.36975639842194141 -0.2067027086726636 0.78922916585061031
-0.32890887135940261 0.042366586837854214 0.77341123241453147
0.16685014113397756 0.32725930334523134 0.68632826017592663
-0.01672576766372913 0.46232497106843873 0.77541666205100857
0.35976220577975226 0.90350666546217084 -0.34684936079510109
-0.021258206975247163 0.6066437049007698 0.72960270746948286
-0.52342006097669014 -0.60699896104553375 0.0085965498394351414
0.028644050190536063 -0.40305676967741455 0.53319646433646994
-0.4602275990619944 -0.28380090761113053 0.7303753622214133
0.71356276571981425 -0.2706342219138218 0.64470383394933961
-0.45384499919609311 -0.3369538245939836 0.69821423974219599
-0.58463719837838823 -0.27572055949350016 0.68436123138712901
-0.45219684728241916 -0.81049483783588983 -0.31646939435015753
0.011720825345577168 -0.48795685240874676 0.18788342985783402
-0.7599166929379888 -0.83808155326394385 -0.41775573499253582
0.76257860572422942 -0.30520914467056137 0.59603809463242285
-0.065333950824793874 0.47625368804092094 0.75976933177797168
0.21815233921249622 0.029554267164776604 -0.54404452453973917
0.14771078658415604 0.21153335668847717 0.73427789526804155
-0.20396375832976332 -0.22430017702281724 0.75244883302093779
-0.37588143460462931 -0.67837893380460912 -0.1044005009227611
-0.11091500487952999 -0.15072104626389837 0.75765702754630126
-0.37023840461927193 0.20622667397742589 0.75781604175176831
-0.57125178220293549 -0.023324070841646005 0.72804595799347105
0.42294452339145039 0.33768182493886201 -0.088007142884752199
-0.50637158153637074 -0.35379694494824321 0.6919443451013132
-0.87695166349984532 -0.35999743609689006 -0.25474310027173352
-0.78931376223349936 -0.49098708653624001 -0.33810423523427779
-0.30655434309672103 0.20157500116509652 0.75524286314729139
-0.076638137209215529 0.29415341251763305 0.76954450644318495
0.38249822642838893 0.59033315637814709 -0.22321429020117378
0.26482792166258662 0.67240862432632298 0.47908607791935331
-0.60971760336155967 -0.26835079067349454 0.70095052226098353
-0.46602179581693193 -0.82790372523159306 -0.34051516024875639
-0.35004964449797171 0.37414392407475106 0.7671893357981947
0.07691457028761306 0.44347431272356808 0.74040439076557441
-0.033942830681780833 -0.26194056208771777 0.52908485935530081
0.14726619805176711 -0.092134083499102903 0.79229771988916475
-0.48475965805654653 0.057456570432073306 0.74251010792647065
0.046230662452103388 0.5301219884772479 0.72740764537602853
-0.34684625687057036 -0.71250119743280038 -0.2375163296844196
0.086970274161132011 0.45542572103687817 0.72555131677628726
-0.46367359061972024 -0.23282462501324375 0.74123281792086271
0.13827515534057966 0.2624325465075934 0.7222932913732194
-0.4634838417828604 0.094870944857017747 0.75974995311596594
-0.63900449003213566 -0.56055901841034839 -0.1435508804653729
0.14245503076998034 0.12292321805248996 0.75707533118410986
0.14662491715542103 0.5289121483270236 0.63810257936662929
-0.84016092359222228 -0.55280794125724242 -0.35296429281628505
0.16910168743706322 0.38125235795926393 0.66025400726577921
0.42202501790900016 0.12726721729818458 -0.040319360520907566
0.10530472276823843 0.80693675738811521 0.51445269835141882
-0.21422624160257442 -0.32278215748246453 0.63637342460566515
-0.64037286221530465 0.3483437502852218 -0.59474941404485904
-0.86940687141111805 -1.0725470073241752 -0.47898981775925975
0.33151905593332742 1.167378167438951 -0.44572638181301905
0.1516892859737311 -0.097888180600939734 0.78416005609647854
-0.60203616100010038 -0.29018826693507904 0.66492306623184838
0.01532346195926948 -0.12769422241177497 0.76401674422944144
-0.53669541372889462 -0.87707117252572075 -0.3754652971907948
0.51838548056070977 -0.55581167321018299 0.44854708215893524
-0.54284892991690015 -0.17113759378238314 0.72009687223710017
0.448235913292649 -0.18953034142764746 0.76397659629767389
-0.5463521572808645 -0.17888097568541284 0.72300589085470968
-0.32170953159936744 0.12124669609862337 0.77611118801033818
-0.55500922984515455 -0.1941424611890632 0.7266128430264196
0.22574712624370363 -0.0041477878360520748 0.70885729125241426
0.035932491747260542 0.83319531941836367 0.51836431499580549
0.29750112404768458 0.59771558199744845 0.3812766690865601
0.30423894848577504 0.50105494304865061 0.27371203245687781
-0.18423064907211995 0.54071265409472424 0.66100454217794891
-0.65949136902952432 -0.447710098721533 0.64116066345598988
-0.51000792327201339 -0.31860268095472577 0.71894118865306478
-0.55788187714217941 -0.11542016881459816 0.73041004741769733
0.19257647462819705 0.42382344377742953 0.63086406050850385
-0.85727665028888378 -0.971835762992594 -0.43523111133038839
0.031872335174000455 0.26761710070821643 0.77504390133319667
0.3046112134298653 -0.10718928432063191 0.59187925319721124
0.39109245378146085 0.43962087331512123 -0.15406875137820819
-0.32539996688693407 0.34010488876160849 0.67514863912248479
0.32544358552203434 1.1446215177337926 -0.433943747272453
0.48797983939751788 0.79754320798015499 -0.30218787744536257
-0.271195491729884 -0.2615612976245778 0.74686866016335074
-0.074906288377519559 0.60777804376023536 0.73439141180307299
-0.37142082035470025 0.34356353480602309 0.76736061878375494
-0.42517369786071413 0.20923945344775063 0.75543431913758852
-0.58474154336440165 -0.64237101732858193 -0.30771467632996341
0.51043634534394045 0.4127394341745827 -0.15027179975258775
-0.12118767350649229 -0.37336770978121692 -0.44984539776658394
-0.77608587044267097 -0.22230262171947857 0.51507432446677726
-0.86625197241918439 -0.65651854810052512 -0.38089812525765687
-0.80232948741131871 -0.84889040371862023 -0.43759240077340422
-0.19360327822579393 0.47246412779906333 0.71490568238758101
0.012046256378425824 0.25549611849749532 0.77280561671188952
-0.12250360727678 -0.48175796688477845 -0.27590227129157796
0.42742054343757019 0.39565312271671615 -0.17689557862200189
0.77344483487317461 -0.53955724518888104 0.63811583807245498
0.038155428751394993 0.81254430492633212 0.64338111117181196
-0.17592380862462065 -0.49541147877786074 -0.28463109663352171
0.82745104221723409 -0.32469216152030711 0.65878541109794142
-0.043645546421643644 0.86289931579152501 0.52382109202685756
-0.040954115534717062 0.59288987221018274 0.71894652642246815
-0.2761220194603311 0.12945650235360162 0.76295503400647213
0.15111511057611438 -0.066954435782323074 0.79400823110926666
-0.45449131906163132 0.17011421022515094 0.75233439909028554
0.73198924157424017 -0.27053696030198893 0.67113426342218929
0.16934985103517874 -0.1105113538582021 0.78617195398054029
-0.19937847475820547 0.47094747334793219 -0.72104563584033343
-0.32333259952889648 0.053192040114154793 0.78532579637936628
-0.76116632888261293 -0.51096515472575987 -0.2696445688368474
-0.58246175520775179 -0.63477597693865917 -0.40564821168961629
-0.47828935876997036 -0.66316056955405855 -0.074015118310514438
0.40093142202284682 0.9946508588582077 -0.38746923382017329
0.37360636540891079 0.475506302589217 -0.16111522365716624
-0.3867448252245822 -0.12941060844895347 0.73989413695421824
-0.060216683057390696 0.67633285323256942 0.72997117786450705
-0.83628676027990423 -0.1831777791619551 0.23739596299503329
0.061927592124277453 0.59166459161744989 0.68999377033811715
0.25561569862034617 -0.3668767604911487 0.70343121051365998
-0.57000586946229248 0.075759869241981193 0.764659008439045
-0.15081664558431385 -0.37177546613437329 0.55232565501547981
0.22544982926865487 1.0495828437098034 -0.36335317359338504
0.38841002002637737 0.46641314163380443 -0.17386873351854959
-0.45386390603192694 -0.63257194747642842 0.0090522296714770079
0.49671602898681044 0.76143987378327438 -0.30161857297003358
0.20997474830627993 0.24483846079164628 0.67891770765487358
0.27037075115108422 0.84686233070593886 -0.28109612936158257
-0.2414851244268732 0.669816976624098 0.64216748354655806
-0.50089707472571021 -0.6508688055491163 -0.27221523260476843
-0.53524459687498904 0.24929241698263738 0.78540547961235241
-0.06446311829665774 0.25351916720748058 0.77597083286769752
0.13167274360597503 -0.081521848435997857 0.79003839287412347
0.39321511597686509 0.55673915282622843 -0.24253214048182059
-0.1086538222637019 0.89660274624930736 -0.39191827798985202
-0.25954816720616236 -0.27411715528555902 0.74006126909157999
0.26517512308098645 0.94962462095974232 -0.33489321002489092
0.44130144557553308 -0.11529864110319687 0.36262987155799742
-0.40625919109331221 -0.2911175685217966 0.73148186603732945
-0.53777238650682335 -0.6003966338011395 -0.04894876966683448
0.76545348858653028 -0.5306059144583255 0.65628314894168227
-0.294594941579021 0.11982311717059346 0.76407142399186778
-0.58283745155074485 -0.58684634884873788 0.064088200217643276
-0.72533919220740017 -0.38612028226128103 0.50436241917105651
0.76559927042694653 -0.32426375724162426 0.64235014511869792
0.42870586450595738 0.59182307018207325 -0.22462921634090449
-0.029424578819998715 0.70832607343062914 0.61808199105744066
-0.42020386128140785 -0.1459744175110842 0.77873819283226275
0.11386175554531519 0.22290822117697751 0.74681320162795117
-0.20545714961232875 0.40701484196232585 0.76775530913108803
-0.87893273652658532 -0.55648247587769362 -0.38964938412388328
-0.22661471572365244 -0.53591973853589536 -0.12789925378685751
-0.42813601627111098 -0.12108372767651332 0.78589294477316152
-0.33354402629377944 0.091744101662868616 0.7984817282218355
-0.17353232432857624 0.60357258202103869 0.6012999395247034
-0.72134448537456164 -0.98371447625340735 -0.43054608728205324
-0.18689839386561857 0.3873878447764838 0.76700504024316629
-0.56940968262236424 -0.074882287288989602 0.66924367855029487
0.093577291870332147 -0.22756202593324204 0.44435132701056013
-0.53712880552414255 -0.78315038776811363 -0.33507557410152167
-0.098863818510828594 -0.53196492503285242 0.1912246553290835
0.27839340657276779 0.86308493409148213 -0.31806646405902228
0.26153384259700374 0.656878023752693 0.024188340524393226
0.26383833095110987 0.88394572799978022 -0.2980380633365769
0.1725062997418263 -0.12366592889853667 0.78852982167067687
0.1619859819623457 -0.062872778234085658 0.77313176939266626
-0.45919459368515447 0.21327394666266741 0.76380197222545121
0.4895174292640263 -0.58268648067552453 0.539127481202609
0.40070324602972107 0.077847309905754614 0.12894054015648138
0.22991826401457161 0.26008653385146907 0.62924772128314288
0.39079676479190084 -0.46268647957959685 0.6425428646480249
0.21338342400504473 0.7455036445846126 0.17528435244243923
-0.62965620915349518 -0.57366520009502509 -0.21894288033798226
-0.39535437906462789 0.17414969291457894 0.76528571420967495
-0.27184691612497147 0.67276384630025809 0.75039337600764888
0.8451040126194016 -0.33856023641439847 0.47580760093930863
-0.3281660567457152 0.030886287769234855 0.78082077701303731
-0.31637749454007746 0.26590568254884417 0.76002328747886949
-0.74258205334159433 -0.99247822924439433 -0.44436455077604009
-0.42483935483988944 -0.16934469459676293 0.77105180814392504
0.4452415931397411 0.41869933527981829 -0.13666356589397921
-0.53808047005756166 -0.90685207681578106 -0.41077109479013707
-0.07991488167681382 0.25232110043524125 0.77629367980334507
-0.033780565851515121 0.38104058591648915 0.78378990779877977
0.10490609169713139 0.15224390524316878 0.73624891249098567
-0.82049575361735272 -0.96964503656761281 -0.44368028194061893
0.33478708923063039 1.0714797775544014 -0.40661097719033634
0.30525950375826483 -0.3274774675291654 0.73006074297460088
0.79254889060422329 -0.12588489769347788 0.55956821271979251
-0.073832608203957761 0.48870794542835938 0.75152930043069865
-0.66205007113976677 -0.56625371299516303 -0.24572795467596364
0.39820957078939045 0.17220721710041431 0.12735064905174553
-0.11928389150389762 -0.41420356159559724 0.63676323705431415
-0.22670505726119927 0.5015895444194598 0.63400782808268819
-0.36901971101956121 0.63135485681897308 0.51484388965126193
-0.022989245766439126 0.34335017634369258 0.78431102053627377
-0.11920849397247935 -0.39784882643364838 0.66533523538040029
-0.057770716156824164 -0.099011153866261026 0.78381414266241567
0.84329391947076715 -0.17450522494007892 0.53760421017405946
0.70759510950989579 -0.16368771243856672 0.37784519685252249
-0.41162791701135326 -0.75960065823647227 -0.33365326448537935
0.5419561048024093 -0.22119963590307012 0.75996692133625032
-0.5661167837040022 -0.76176058183937911 -0.34018085573294243
0.44205565054120655 0.32954706483023699 -0.068263034049358851
-0.11871029820409262 0.28314759228635245 0.77193755739527958
0.31453337560444083 0.65386626414955984 -0.19778659238440355
-0.18512909078688722 -0.15234800943239435 0.7666802723991335
0.107290300032993 1.0236183413857951 -0.28852559851293513
0.4126604353414649 0.69456990015756404 -0.26851592719043182
0.20480833847707913 -0.14555088133166016 0.66208277086374068
0.39631830945783975 0.1334622988389178 0.1638044902692144
-0.35459363974126745 0.24306601389506355 0.73727241013219569
0.42411412005745319 0.53445551292283255 -0.19944734715301848
-0.1896451080381496 -0.092395111276460717 0.77565864727889622
-0.17755801966146123 0.14594763881852835 0.7735049845172739
0.68174910582311554 -0.21218425831581911 0.58332423485101259
-0.07160097090415718 0.55304412872458553 0.74540779059181883
-0.48522030287276152 -0.32188651419471981 0.71908406885477749
-0.096526019889800807 -0.531701618024357 0.092475431625274496
-0.08257349623025334 0.3091272143571393 0.76819969880661443
0.072824624938704119 0.81940574320156578 0.56668320092079316
0.47447803069435324 0.94599298700609324 -0.37124074549878827
-0.17211582010844495 -0.46607329067594705 0.54913764862720882
-0.35128914482274354 0.17773131785012453 0.767999238667052
-0.055851564749474392 -0.12804222747236138 0.76428494602445252
-0.73185731097054574 -0.9286892506329032 -0.41705874736779336
-0.48204333570861024 -0.65280022885219324 -0.068389940329470988
0.45266721180047398 0.17733605129473062 -0.043145454953414486
-0.70117811469336289 -0.4525540429959527 0.54060835080235492
-0.64456740888454078 -0.43707495182840006 0.61527008203178113
-0.047905440484413475 0.21386720070158916 0.77773822821143757
-0.66720554126658271 -0.51475210459080856 0.39418864617282212
-0.85779038570166222 -0.36321567074633521 -0.032844850864933939
-0.46069646776766149 0.088090783951475515 0.74543801805215537
-0.34749105757285292 0.2359030868540799 0.75752992843839806
-0.44201299676029748 -0.30343863305852814 0.72620815587035015
0.11594956901767262 1.0380998621598003 -0.29622712076734459
-0.58942911610984083 -0.19256248101472551 0.71563329539537079
-0.42711664470439814 0.48865742860738592 0.76214823021919109
0.026776814987215403 -0.063966088067858307 0.78664429733958485
-0.43229840290491239 -0.68094483680523865 -0.17992313900764145
-0.71975775238764594 -0.97618171627196304 -0.41391288248875213
0.72700309178179623 -0.2540917872929489 0.66300709086611676
0.012323592181587628 0.44979790300887235 0.76999237043291746
-0.53581852295147314 -0.30770131151518498 0.71872585281670531
-0.045857702878905116 0.63021300839603622 0.72466771076211867
-0.78308512057997648 -0.49654406944393159 -0.40210039743089787
0.25289485277335189 -0.223599083625178 0.74964090342182743
-0.71497700147190812 -0.48153203113488274 0.19900256504935809
-0.36422490258354401 -0.11093473545301435 0.75670075304961149
0.18994261931220535 -0.13994150924868798 0.7867820650928099
0.44791151134432994 0.37508694984892799 -0.10500442617708217
-0.94909990162189217 -0.80821150489363447 -0.39825202119653369
-0.096876527347035335 0.40487892892412369 0.75967632319903444
-0.41976707542814751 -0.70004772715063268 -0.21138921193811555
0.85430514514121114 -0.28147353322509261 0.58642749441839825
-0.9254822392510178 -0.66594533951131041 -0.4142818681592928
-0.089681266107746183 0.62788720996899228 0.75099564893760817
0.31700418473512926 0.71302263133088317 -0.3001512162036768
-0.51243264231291619 -0.67293925993892856 -0.29176953129814365
-0.46382265874579787 0.26862497198791857 0.79166879249082456
0.048570980817629561 0.67855190691356171 0.68737664643416441
-0.65492621182414723 0.15065613323989169 -0.60251293891748503
0.61562985340307819 -0.60304348097845262 0.44912920984279836
-0.29685962206872318 0.061707087220675305 0.76305208592333784
0.20612380596201696 0.36377041193728132 -0.58031755674507224
0.076216893927835372 -0.17331576292623563 0.7489508019356883
-0.46558936646971461 -0.3304310659351728 0.69983841414318748
0.093473435315544862 1.0101012039699171 -0.25510428743642777
-0.47157831117596771 -0.67156950234765844 -0.099850178978620363
-0.46649677452455762 -0.41853327529810613 0.64231344816267111
-0.13650635382970222 0.29392671770469248 0.76981832380929838
-0.36944853874703654 -0.33136930308318924 0.72059436708164881
0.44113628183631448 0.33114134281668584 -0.088894950187832222
-0.46396511469419011 -0.14677572110604586 0.77480764089923326
0.10982172344006358 -0.11058068275001709 0.77624760409154447
-0.11152699324651394 0.41715592672729596 0.76308379542719873
-0.091752456586448261 0.3435316946264968 0.76522162181114073
0.45604049322768958 0.62387055140191094 -0.24380841636264705
0.21209252474231732 0.50190252473600516 0.58174559326137754
0.024634728128575034 0.21494761547332963 0.77183800930654112
0.15489801846753437 0.85348795136496847 0.098742986232220886
0.47446006366533311 0.51416984594563431 -0.17348935547814293
-0.82761701199842541 0.38147259266201594 -0.30095169713829506
0.03736973946689659 0.88670070428419479 0.21190446494559811
-0.53333963699209619 -0.053352412407203786 0.71964037351677312
0.41267581981907853 1.0847282999815668 -0.42921925561391028
0.10364294556205778 -0.42354063140390075 0.58027740205023193
0.14279955652963849 0.25513988329670489 0.72356896718188324
-0.026801893373146868 0.50834107668192008 0.76702276611704168
0.15507495920240899 -0.16573031766078428 0.72218893953425223
0.21308855071734456 -0.2057296287294017 0.36851624105789682
-0.3226744664467347 -0.70494857111178533 -0.19087394517056744
0.29204664373790479 0.03222951023110987 0.68167257407195692
-0.065630753285049082 0.78425641420048819 0.53300964882968627
0.25522271798486962 0.2257110697755742 -0.52842159129860988
-0.41984956445837085 -0.77105411819960779 -0.27653958926644506
-0.41583966712946108 -0.16243869641269271 0.74948163811090662
-0.76387340478888888 -0.50113404178685172 -0.19307014586510185
-0.37087237283596153 0.6944337302099246 0.54852796858887132
-0.40470134675094016 0.65061526095844968 0.53310044521653488
0.25788866735297233 0.65539048360305685 0.50873924772927026
-0.35207137333739524 -0.054577977709602266 0.77539181564741355
-0.10451086318698799 0.16983706326167036 0.77844952488877617
-0.3642636604612477 0.25493983641526086 0.75993555538224733
0.45264832487979589 0.3858346698367896 -0.10186706146392766
0.077724925514996102 -0.45711447719651055 -0.024966350023372996
-0.13816443642528498 -0.15144404704530245 0.76100735754616178
0.2473818328515911 1.1185843828026165 -0.39770010049768345
0.12939479095354045 -0.10657776697643584 0.77926948403016993
-0.78768809715720423 -0.81777805462933628 -0.43294460823388548
0.033688479749059752 0.30439407233336091 0.776395218759105
-0.495499779722536 -0.26919947364606145 0.73189541194660634
-0.22892128560792457 -0.24861038393562751 0.74721295470669524
0.046707870819517439 0.27362702073943268 0.77391303293971703
0.30751592196315158 0.45366273358813203 -0.42371108635081001
0.27784360548667308 0.80985477067849843 -0.2647685926380241
-0.65642955912821321 -0.40076063995347511 0.664459705890593
0.15142651017137609 -0.090734681324943445 0.78803395073252247
0.49893406875857238 0.68691362508184639 -0.27031372529154041
-0.10934660293153797 0.50676871863200335 0.75275833157442662
0.22575799861377277 -0.0072295978772061176 0.7378018891518856
0.21171800256855988 0.74854320835047616 0.34011599023173211
0.52254369202742623 -0.55230284646135219 0.6306261484692719
-0.47728539976475304 -0.37612660531568309 0.6746641651076537
-0.010517353598118007 0.87310064993823566 0.5838622099686237
-0.46612947702632113 -0.64602433218882283 -0.00096889222774976247
-0.012343976666699064 -0.10042454658319944 0.7783230334413993
-0.9403890504746979 -0.87014497910693933 -0.40454306331615797
-0.56203696709280848 -0.087587439689023938 0.73009078942869721
-0.9445511724509057 -0.91821826204716928 -0.40605675458473911
0.79857511749543164 -0.31630471331830812 0.60944002437224043
0.037351033773092013 -0.082092196683513086 0.78115634245897603
0.17173401081265638 0.54468417866254804 0.61362474854243665
-0.73959328419828707 -0.88793863671293138 -0.40902418869717394
-0.60136280696445965 -0.16012281003668249 0.71359164865131319
-0.078048668084131023 0.86536625868319916 -0.41919804566717644
0.68175039573515051 -0.072463897332445626 0.48146002812503497
-0.1199052078550551 0.024900325315924565 0.78509976366701384
-0.54324896868369166 -0.60000455306391132 -0.0063536936796761978
0.010216964460539657 -0.37564894605371357 0.64886273245194559
0.030866903700498938 -0.41191865311018816 0.48074575477058801
-0.27427931425860663 0.31510914961449465 0.75741853197779818
-0.42686560048167266 -0.70102048137712103 -0.2268401157775255
0.042772647502744121 -0.072824626926264457 0.78394042469162528
0.49381301031667846 0.5084505955938603 -0.16005758447413854
-0.39029530953071401 0.09847288667713272 0.78667243033447676
0.40502512575443461 -0.35911008911459552 0.32413620096444262
-0.68443394392093282 0.22604109698213115 -0.57815055885887645
0.43431346763725998 0.28669347314806615 -0.031440927207672331
-0.14841733075706998 -0.14238217595395675 0.76873024352867247
-0.21128594776953946 0.37740211243849053 0.7751003063748616
-0.5897635348312793 -0.93586028829749424 -0.42547682903774842
-0.29527553449563015 -0.15881550321389071 0.76040060972485612
0.50444356281843028 0.82092584902180121 -0.32414556144300732
0.45673048644130176 -0.10395427403373425 0.64348076974787993
-0.046921747504882205 0.25359387630671071 0.77139857936598677
-0.75044504791005728 0.29888596179570293 -0.50803904917682097
-0.38243098108134177 0.19041191644641842 0.7596905140191339
-0.75747470719711529 -0.00097198340640680669 -0.52930205305911926
0.11939670834149751 -0.424504652582816 0.53387112832977479
0.065992550338506817 0.27179492032704111 0.76782925499806076
-0.3025714640912156 0.31548235312288853 0.67466974278704317
-0.0268797652215369 0.86103111133892973 0.52176801349342661
-0.67111218980832632 -0.4431203581518588 0.64284684490090171
-0.29736361170354542 0.34530464162447494 0.7537061907633813
-0.62428121572259609 -0.94942164601249956 -0.43642708223477378
0.077065522712743473 0.92343198965658502 -0.28187609820667348
0.12921382824245597 0.25938303363799164 0.73373196261393048
-0.040665312126435538 0.23432452786161129 0.77716542637470987
-0.035595947950469053 -0.40127512820876632 0.63879596102053071
-0.36022265367274997 0.055031784856875987 0.80215200869671932
-0.50764555274563605 -0.63609727187262877 -0.2419164891988661
-0.20710840372099426 0.43455509577658091 0.76853837752729426
0.087074275685324665 -0.32454203935634585 0.36746300999500114
0.30408253433040944 0.27632163694083545 -0.44415481888974284
0.33751859806179141 0.31268430737311803 0.33632497140362005
-0.091922037564472703 0.47075264803284989 0.75497114878542249
-0.37145209704709714 -0.10528075762525368 0.75765078613723436
-0.0460313599100175 -0.11626532848585169 0.77031256691865835
-0.9017281957112484 -0.94229106549036601 -0.46186643962142426
-0.83999370147154728 -0.72581396144403953 -0.40033232609235725
-0.24112334384153655 -0.23211874902342267 0.75323739307918824
0.20507597968750257 0.72895780392459031 -0.42214589472638764
0.84332773048498666 -0.19127216175649497 0.50176704165529173
0.84158711208561954 -0.28203618844537903 0.58556792491332033
-0.40161467335539669 0.62166847536502168 0.51418976581511444
-0.54320973247419602 -0.055499633193861087 0.73280575272266901
0.7300527504849299 -0.51165874790320309 0.43273219070719549
0.30146006214491194 -0.45655230663881952 0.59289725024159523
-0.64562778858610814 -0.9662973432218962 -0.43862726930468909
-0.60532408912882829 -0.045328257464895216 0.72978355154926078
-0.35599220059398462 0.015220506042775916 -0.70005644221731345
0.66438303523028708 -0.57689208612071763 0.67604376727157955
0.022856151796986524 -0.1397981150978278 0.76023280213198774
0.093359299227557813 0.29021932416364038 0.75622989980837296
-0.0034419438339057251 0.83531752994008457 0.51386915281255607
0.69334279765644169 -0.65388068561219814 0.57418638313397352
0.43228422609433892 0.44313006972064173 -0.15969138687894713
0.64752998502819992 -0.18330515533592395 0.5847685683588324
0.19265247546277919 -0.026094879046816288 0.74854133726824656
-0.19000415427217376 -0.42952953253873183 0.62802098650292137
-0.36227600416097516 -0.082339623600237388 0.77529457828363846
-0.30320396069377153 0.89009187765729481 0.020282928851851345
-0.22533166255618653 0.53010474373384042 0.67336982064978823
-0.45817588523795649 -0.61774541229713975 0.023816479495032183
-0.5664342537030933 -0.26365084457761157 0.71976366865263408
-0.35356424143540721 -0.048766244361541311 0.76553045420944166
0.85866786174983645 -0.26390027830861928 0.50097696227397392
0.43026466295171417 -0.50042593159754523 0.43351075922938165
-0.31930738872155562 -0.41356914974474535 -0.48310662664584925
0.30883159902452917 0.45336127364029721 0.41620748135894203
-0.89007470177356307 -0.049009075667086677 -0.38672909712851755
0.3149160274966647 0.74223099859809238 -0.29978200079417761
0.25422230318582706 1.196776267360697 -0.44249564602761637
0.72810339334535001 -0.29181680788827347 0.66767633440720786
-0.02625005693656135 0.65403906385000088 0.71633572753961872
0.74921564248944605 -0.27921072697890015 0.68114636962146946
0.62710629494566206 -0.68282119932032792 0.54363523348987641
-0.084250994331824813 -0.25835200005281056 0.59399279705539598
0.40307577942639483 0.41662998276489205 -0.13091067345256135
-0.11599738261313064 0.23923552612450028 0.74622460249041822
0.048890108786519448 0.60881932763092195 -0.58073734380746345
0.23628991044233771 0.70681807331892799 0.25740548633073956
0.12338636557970517 -0.14812020822997463 0.7744945705726316
-0.58185350202981567 -0.32134083921175716 0.68098169213820903
-0.29387242620867937 -0.21482124896951049 0.75407317505113358
-0.53478164753585133 0.41627307688098725 0.49511432488902329
-0.17628201076426819 0.4401147895638351 0.75432952035126721
0.1867957866802783 -0.31045286179177478 0.71734771049658619
-0.45223218538120591 -0.25155131404450515 0.73549247308277899
0.25078926082198905 0.78182839708811258 -0.21170782521730303
-0.80090897958297624 -0.49972394164636569 -0.35135234780715052
0.11090719662868764 -0.12436112155934498 0.77286132603899027
-0.31588590131244132 0.054803239920595104 0.725642912435573
-0.019599917090118879 -0.061007691156587551 0.79009727882582403
-0.044806032682629393 0.32884195006672368 0.78370214186552012
-0.44457399743035353 -0.090424742739685371 0.78761130688794623
0.1569057012431756 -0.10825928822767539 0.78314430631913901
-0.07773035587908339 -0.19165835770572937 0.75403115654618968
-0.35528248123043227 0.28749383348354618 -0.72900983188418778
0.71451955482018548 -0.099500343604229435 0.42937259808141803
0.35351040011458679 0.482773082689679 -0.12105329078061899
0.69175072218914124 -0.22971329973987764 0.60558162452985798
-0.43632991322871817 -0.68288494615826068 -0.16466332661368277
-0.48212993295455675 -0.87096892314127672 -0.38634905804298469
-0.22164736965251564 0.50109009590417131 0.68066296670352777
-0.43289037937348951 0.0078986559222933295 0.78420965639892515
-0.29631507651221511 0.72308011200120248 0.58804589591336409
0.38165848880436926 0.72694942181158595 -0.27850842934015674
-0.32193843334245287 0.23230920255649323 0.75576443810044758
0.053566976157753743 0.44579287559740344 0.75364084542221477
0.55697551565689096 0.95185509548513636 -0.37735126687256226
-0.034841453392971289 0.77276557821846037 0.72519072703234411
0.66240594912534334 -0.1897127112464867 0.57403841468192951
-0.13337446302969624 -0.1287547428759126 0.77371316060290063
-0.052158985904071642 0.25018210437218702 0.77518793565420818
-0.36642222124494594 0.21964029750974134 0.76323490901763869
-0.73427458059205719 0.11165184445998833 0.46706390295983269
0.10369779066709839 0.39760501186512087 0.73076737707954642
-0.80661270393727236 -0.49862002947382322 -0.37947103679396221
-0.50760155921946648 -0.20519027690919245 0.74462443398221723
-0.0085670215143807127 0.59781569261643064 0.72655407589253596
-0.58970041822905728 -0.078462211488034228 0.64104139887889566
-0.48759833644017903 -0.86034215125418001 -0.36976298060740831
-0.13455991309848514 0.66434769185185916 0.66526830905746248
0.23497831545606118 -0.20491302439167525 0.74855653079643858
0.84949414059647665 -0.23916108906749312 0.56806936466167457
-0.35353760093877895 -0.053111886454942692 0.77282621397520046
0.078125225309861435 0.24323555909075623 0.75184608460806324
-0.88029869622118184 -0.3671638936710977 -0.15002931612028014
0.20960467408460204 0.42173291449991268 0.61227320933104679
-0.26528266618042551 0.72222008643661795 0.67117050199760442
0.44389295763184577 0.34925350396698462 -0.093166671412564739
-0.7533265433580878 -0.78193976258587128 -0.41784125982352904
-0.41539769136576865 -0.1900270053782247 0.74571976041475452
0.73300681064347373 -0.5772702099506164 0.49055137057638376
0.84818581450463171 -0.32454105540513112 0.63092798061416744
0.23819818972464191 0.91964480780662328 -0.30625846418842073
0.19736671575060427 0.82638012480664003 -0.020370939119022324
0.14078397680665944 -0.39185471141449835 0.66867827737672414
-0.52006638820995121 -0.66078947470181859 -0.29365079785086223
0.10336834725767119 0.5323560164393033 0.67023224529484615
-0.0063144541032613688 -0.12589026848523521 0.76417251362731253
-0.4637881478905399 -0.16540920377812185 0.77186787781412747
0.014086580545622951 0.56657127303772281 0.72717418398763911
-0.53234544597121669 0.43700764194877451 0.63843480131220964
-0.94088316251072079 -0.042102789172943744 -0.27103466122662567
-0.051075615990384904 0.49135959074938995 0.76217834874051427
