# XYZ point cloud file
0.42561759403734695 -0.29454579959860006 0.60703933290930134
0.64674568380927133 -0.35048404653064491 0.59109549796832539
-0.46074897885422339 -0.076339104138950731 0.73463300764677486
-0.46624282994320998 -0.018864328836790456 0.68207207015543592
0.11487912830669256 0.19310945314961536 0.7007946756019372
-0.015319005482304027 0.32990103943677074 0.75716931610477367
0.1092255746701658 0.13110724203934598 0.72249002418482178
-0.080932498590518431 0.41586029146289771 0.66780480857033364
0.077172152500336821 0.69939143254352487 0.25223221875054147
0.1541420618876912 0.29814471842710244 0.55776995508151828
0.070890451678926159 0.76673672161113693 0.52797694428274156
-0.68412372696653767 -0.469442264325731 0.15497931612814497
-0.14546826276028257 -0.12817865332973444 0.72588923654899817
-0.73428857198954045 -0.65647851009111591 -0.32604313636144111
0.46261362918307058 -0.28312096471583548 0.60232496979448369
0.34291337188953097 0.048739513957050562 0.2054345930878112
0.30207286526596278 1.0724613447547391 -0.40653998291472071
-0.10911158828956324 -0.21270059803185148 0.71010821613791375
0.30668849195773351 0.75732166091622766 -0.27576224167507579
0.021479631377323116 0.8445347784977546 0.21398522404929743
0.46251836972084664 -0.30556154882349063 0.61584479856906826
-0.60197841913165373 -0.32399486547166756 0.61674803494722807
0.12714682225843105 -0.23393982639915745 0.66918818785081235
0.3435318136627652 0.98762812890757878 -0.41218473004700495
-0.47416811325190977 -0.090895698759779542 0.73293221240890638
-0.61604942336114954 -0.84153539292523583 -0.40919052243064957
0.78616806545266604 -0.47662849975679222 0.59944677332539342
0.31051126514719751 1.0777967145517682 -0.40486402410505562
0.33167421583612455 0.62223594819009342 -0.26593758123289746
0.09766891329158528 -0.16869971862339606 0.65404572773716607
-0.093602452162578231 0.37555814244078789 0.72367765906045101
-0.64513512973197606 -0.53774101027808818 -0.22435012201394944
-0.74137858615691243 -0.57195824536541995 -0.32952244741469672
0.31796095236272404 1.008056458278249 -0.40352099673218333
-0.084905229678465588 -0.19200142035718493 0.68984636205609551
-0.021728217952386775 0.56615934785323851 0.71671701395883636
-0.052360091258037755 0.51674754009358459 0.6941901150911578
-0.098230899643155789 0.24483418188931605 0.73611226381175765
0.32103314880331979 0.55394198669579708 -0.16249104711806162
0.29758013957305351 0.54332121465382244 -0.09236840010242453
-0.62607257787067816 -0.62377419447990512 -0.2749713444291757
0.13670271992504768 -0.18258771187596068 0.70284411665243507
-0.62426351787461165 -0.66660799510845337 -0.29383145377937492
0.47905560111776868 -0.29732449348439793 0.59874338195830523
-0.24001549454570448 0.18961833121584171 0.75914518031280398
-0.47199648207663181 -0.11626547819000876 0.72568636853140944
-0.61852422157373343 -0.85153648191315767 -0.40841134698230031
-0.063251403955333352 0.4960491395013511 0.69078074576242265
0.43310419403996886 -0.29072950996620417 0.60201668652413076
0.4401409592775819 -0.25583792604362054 0.61449096502305434
0.21619034087492217 0.020917047908604047 0.23256565505678406
-0.12388964333965236 0.38259211480086908 0.73700772715810015
-0.044336956084022106 0.50532393788561691 0.72316965989501458
-0.44172850842298739 -0.053965096255727651 0.74427057981143285
0.61822701771602684 -0.40826564221741357 0.65037841520810646
-0.3623430719423455 0.011334020418743762 0.74179615180052627
0.29345939355487261 0.91084946702563485 -0.34458833964902436
0.16999417066408762 -0.2059048931679488 0.64700240011652443
0.29788515468890786 0.49976982364518996 -0.066700471625939173
-0.16213913611545949 -0.17213002421306633 0.70516131854470299
0.48202806181058788 -0.2860710650836471 0.59918196062565965
-0.011779258618863642 0.15744899098185172 0.7562303910375423
-0.22985142709214723 -0.14993292950038573 0.71535889325395186
0.72940839054835882 -0.45222769846444155 0.62057418205639792
-0.4120638009940385 -0.15304153291931399 0.70600527189231421
0.32530081811136169 -0.26279698343242597 0.65939167910811092
0.012912547665030694 0.66859717340461433 0.68304635822467219
0.13465223737885434 0.42579097361176554 0.53457535685453195
0.3116689078638073 0.57273566173437196 -0.14506543294640029
-0.28518522845478822 0.13293452107746173 0.74277575541641294
0.23844636963056232 -0.011246179271676482 0.29891544490974287
-0.61997263970255245 -0.28881737809999919 0.66536005174131052
-0.69307073388228879 -0.62397498213963498 -0.11779670198926784
-0.085248220721080958 0.47410791954192355 0.60166028811882022
0.34996307608324173 0.28189640051236786 0.035113572532721626
0.0045491997365121328 0.71703785719724067 0.52787351058592691
-0.24863160734447309 -0.13987825781861041 0.71851769861401138
-0.15358157922268934 0.33420046981409079 0.74016741240012562
-0.39836857444390628 -0.010983089495382181 0.75762452897146337
-0.40447202019379702 -0.033114179793986231 0.73823537521424321
-0.62023273259605993 -0.55229349973084396 0.019679947858060487
0.26176500539687098 0.99700370370866054 -0.34103690530468445
-0.66707842091081382 -0.57309600452530685 -0.28805639021437468
0.82462993640272364 -0.4093673098422661 0.56191457572323023
0.79774577210917197 -0.4029743729923001 0.56199011044477665
-0.59599430441889734 -0.56730385664505789 -0.40068880406389962
-0.60260147807138731 -0.83857874346287087 -0.45000097993189936
0.32959921965528771 1.1357634156122884 -0.46882348428589093
0.16878899511140144 0.45414643011165268 0.42915297353380044
-0.00039708113896619324 0.6280694559620601 0.53772182151892878
0.34170528401963374 0.42018896288332108 -0.10254349869400414
-0.60609702375636099 -0.32861548719499645 0.5460176067581024
-0.064565153367422967 0.3943776380392876 0.7637420387606344
-0.65791561484598926 -0.8357270602515019 -0.32998830163737436
-0.50999222753544049 -0.17557118728723964 0.71742483157131165
-0.071039269333936339 0.48951670447397522 0.72455543047143367
-0.36198136014788362 0.015450345813339261 0.73849786509543724
0.28118471373894049 0.43195503346493425 0.19309595476186026
0.81998329301947093 -0.40395227256073873 0.55888000413689554
0.28726944988536118 1.0357203103280472 -0.39295816305714659
-0.038675661751683243 0.55067540187728081 0.67866504244434545
0.76629432704897771 -0.38354893943427681 0.56545683207439446
0.69550257311606467 -0.35909407066879062 0.58027173611477512
0.21614259703664196 0.61296971370306252 0.078887047231807728
-0.65933349678069852 -0.3587858545021021 0.3231786164605559
-0.71624459576994415 -0.57905462755968795 -0.082457960599594315
-0.082441023113247525 0.46074147611843053 0.7199794421678849
-0.053618914706854426 0.51878700162512903 0.69253205049367761
0.29582706814013982 1.0701116147145964 -0.40072494838729433
-0.42438017034386855 -0.086336670949182626 0.73384494951371027
-0.31123532912189322 0.11111086748067045 0.7639086733106577
0.035344746167712993 0.25576409498482189 0.74295344619708015
-0.65075611086417773 -0.70883411369409188 -0.385909751720662
-0.38089057279941008 -0.0066611595286785175 0.75957576805699478
-0.069274504076142218 0.44716952252931463 0.67220912885548589
-0.64164378882703321 -0.8291825609802288 -0.34571904873241088
-0.056240392109613069 0.32848667198143033 0.77986931906795398
0.69618793593797645 -0.42303215290369245 0.63096679615327744
-0.45306539747749408 -0.11294127853058455 0.73211755610058526
0.67098886946469494 -0.36315723701969826 0.62211554691574289
-0.46150917075033826 0.079372824367406558 0.53868744095666488
-0.018331100145815182 -0.15520938132806972 0.71846734894660402
0.0075698662274390482 0.18632269395186274 0.77693695740853652
-0.68679974916869213 -0.44811280694299782 0.10372012022366484
-0.68106861314506384 -0.51123611413964198 0.043609890547325669
-0.2178984644288926 0.2360018136445845 0.73890528238725972
-0.36620310514748189 0.079185167062484574 0.74997370812336683
0.54204281978142532 -0.32373080415960942 0.61823615551943378
0.18342584882514146 -0.093543707925045183 0.38624266225451187
-0.63066158739134881 -0.69252232218084941 -0.34941271105336558
-0.027731167005061952 0.54879306806405559 0.59640665669761805
-0.288668093059397 0.1358905161349977 0.74528230652441163
0.54059207724905256 -0.30373020255019156 0.64536400504804003
0.1863829965833772 0.30285426423618933 0.57714934859956912
0.29622494103616148 0.92929015984327812 -0.36021471513241998
0.34571745386175179 -0.2255180445528282 0.67191191547297002
0.44831366911203063 -0.29208801684157759 0.60013153102204564
0.4340118362079165 -0.2986890152252597 0.62696173558739687
-0.6707351608742993 -0.38498916746617695 -0.16758479417686178
-0.62834803230147696 -0.62930009488048988 -0.29495234394093472
-0.61113069949354015 -0.22066541982130072 0.61725175281913458
-0.61673517227816088 0.48739405450555928 -0.030675503185630504
-0.1661050367797654 0.31718630765125511 0.73106372848064094
0.085411473975616214 0.28341550468771537 0.67166601374253254
0.07417563247954595 -0.16758933247590191 0.65470497724484744
0.1534167377453457 0.80788725542779716 -0.016376551980928689
-0.71859178538428026 -0.61381224895683051 -0.33428557245309687
0.27217431227477373 0.2551915112615788 0.063533478451686776
0.20180407811838519 -0.10412945246478067 0.66403410612514246
-0.39224048028900471 -0.027039650840926299 0.73072764053137762
-0.49484117907552516 -0.15159128838234182 0.72473576299301978
0.32078188459140566 0.23547025141747646 0.10338354861058896
0.25964937186734405 -0.2349226195907006 0.69279690405366434
0.29469635065150968 0.96346878970999583 -0.37462466519025384
-0.25728954782323687 -0.12677578987553595 0.72216527121383978
0.058100314215209836 -0.20375773405642761 0.68963005572727898
0.76426440792982908 -0.3774813666055743 0.56377567427353936
-0.29512828553954096 0.027145395503294978 0.74346927985366307
0.027655836058334771 0.67971880199548274 0.40424685393032611
-0.67304090953081896 -0.80191639773880219 -0.34744640800670146
-0.60082955907959779 -0.22826227913522512 0.69654725435779863
-0.61834348840513531 -0.81061785813722942 -0.38168004222422436
0.026199886238000847 0.43132724980554826 0.65313310399085189
-0.32055396685347493 -0.197393991079581 0.69172169345182466
-0.38553784471843922 0.0092891867763116309 0.74898841043018205
0.31186436598472245 -0.22879842312184628 0.63129953701049324
-0.59894882543435823 -0.31790343569838342 -0.44008012212974723
-0.09876193812199574 0.43057488296858271 0.72604322310184299
-0.66629827220164639 -0.68065885346421506 -0.21229733280611018
-0.12793502058626183 -0.20834924279033107 0.68214909469912621
-0.65244201997817441 -0.73074458245117047 -0.38684128049159439
-0.067875054404464841 -0.42054008284858568 0.14266439674944653
0.22695373011585712 -0.2128664821752535 0.65063435295516703
0.092852939568868198 0.33988554685617878 0.6071283239237788
0.45145196635372981 -0.28961578026035628 0.60094349779153955
-0.099785443223872061 0.38007977385242508 0.72924162641581791
-0.36320740727110179 0.012746410137177477 0.76020687415313004
0.014151373019726021 0.18031832464258013 0.77326775315385365
-0.49108226953003209 -0.12923652047777967 0.72432043663044166
-0.50536155763743462 -0.073011309342289721 0.61406354799920093
0.24499156730657523 0.49109616309899273 0.18705262945392942
-0.5534411182377319 -0.63540755211661448 -0.20907940096851085
-0.021626235069790667 0.56333163172281253 0.59903517874141254
-0.1360432533518745 -0.21477984714001153 0.70850108022628611
-0.70050092769523964 -0.20363465337864284 -0.017972083000111994
-0.2145506991211743 0.2383699193585711 0.73952804453759713
-0.20949894020139265 -0.15931609422671045 0.67036062133769336
0.26960675452816663 0.91283804485284037 -0.30284225001529297
0.16304353154681284 -0.049910277330658559 0.23906753278557513
0.29904789209638594 0.90882985921398252 -0.35341240589027745
0.68423846997953142 -0.35551841002374651 0.58199984230984292
0.39556786521751253 -0.25470892170929726 0.61667474201650663
0.30449726678132993 0.040796902571054616 0.3362105187709199
-0.13071417938271079 -0.17719219964946564 0.70256969427924165
0.2578016026985761 -0.10588870062953681 0.61312093116327571
0.35997388959435739 1.0749152541869869 -0.43240561266386113
-0.016067008714863995 0.21755657759621538 0.78329946641452253
0.22282854539029628 1.1425744469640708 -0.44349963570747786
0.082768595851172577 0.30357808671969355 0.67081151112516491
-0.35843831703687457 0.021102070174224608 0.73470754992178211
-0.057566745405685182 0.98275617513728619 -0.023723977426468146
0.037094997340109792 0.4044515727521425 0.65904259060896386
0.19509405064990881 -0.12206202240346542 0.67129761360002682
0.061075210003799674 -0.12720843288581563 0.72239079228420966
0.3057753175766269 0.92232450435118629 -0.36614756719295727
-0.68124278672531169 -0.60014184538877657 -0.32740204208699186
0.034170721496386225 -0.23114358553038272 0.71753587064819158
0.87992560853463841 -0.4502190417523666 0.56116587986043553
0.21995394374066191 -0.26392173013941189 0.70069635761008442
-0.43506534890182502 -0.1007266541607521 0.7309137026010375
-0.66251538622877248 -0.70559406142295611 -0.43188911053798495
0.31746813112196448 -0.26781977933973522 0.61353683888705435
-0.41409405973099522 -0.069701552008039513 0.73522700610316472
-0.57493200873885186 -0.61447119999304434 -0.41381613969955122
0.53199549767040621 -0.2996525388600495 0.59291350783860208
-0.37114881001749911 0.0049798606317343896 0.74587278867149909
-0.66297582847007597 -0.81701078747164413 -0.36412135541203794
0.51524596021835811 -0.30917167516171462 0.59435502442913934
-0.67418944801596759 -0.53981656967970171 -0.029094943759910841
0.089335400856635605 0.69304173995682739 0.2267816763060555
0.044424325388929375 0.77586878492888367 0.30374417462358672
0.29593274977946216 0.98287199466752462 -0.3839253358607273
0.42657643682984436 -0.25303918385115054 0.66252792864463927
-0.29470101164823315 0.12561246393139847 0.75277675892888407
0.10189862717156251 0.20902614346896264 0.70172329328485272
-0.079281815568763347 0.37042640229917989 0.77266825536491357
0.29970611758445465 0.78394328709253536 -0.2756101656784935
-0.05576797732984895 0.49816445599945602 0.70260002664056831
-0.68946544787598896 -0.53225139215854256 -0.0068517181113625369
-0.053695916739739169 -0.17877058846010474 0.67611711039783939
-0.49620142627210129 -0.13197743118657357 0.72138415090989838
0.62895370622232005 -0.33586200901624785 0.58702975953493608
-0.46239935809147337 -0.16491022625740293 0.68567882329460073
-0.51760862580444966 -0.1615113606656271 0.70482209103132343
-0.63454188789000954 -0.79286150706695224 -0.34911643839939277
-0.27513631648784287 -0.4694983405895119 0.46436940017301964
-0.64873888466856933 -0.73675047790130677 -0.37727943263584862
0.66759126301097016 -0.34357245169256379 0.5799731107098216
-0.084548366964008137 0.39215764489003302 0.73380272677025804
0.15133878982543347 0.020478706781183575 -0.18820650281846696
0.11153902553557127 0.10570357751347625 0.72365725647752743
-0.28979721456151331 -0.16452310485769939 0.70836034627597977
-0.70149895920267147 -0.65399019118040069 -0.20736652285296575
-0.22059883781114253 -0.13336107692721288 0.72235097454200448
-0.21850812505207573 0.23051277683882621 0.74141917734891472
-0.3858979496252517 -0.023613434671520217 0.73765704618996653
0.31932747025370567 0.2526992225947744 0.099638417888704645
-0.51490201425412319 -0.17383934448981186 0.687068090868868
-0.68824863384241297 -0.30056178233430941 -0.097573268741182773
-0.66346317489852336 -0.44491296927839841 -0.23187757110937568
-0.21290867193159668 0.24366657777764988 0.73667451215853719
-0.09900081067604205 0.22504088435754266 0.74182286520820551
0.30467742994215019 0.51257541002635243 -0.088089283604105617
0.03070333221812227 0.55830970762384791 0.57275699787548096
-0.51775700345542974 -0.19021088576493739 0.71335518383951868
-0.63855774522724129 -0.80011943937819563 -0.35289559694407968
-0.14094121989466801 0.36711856439026924 0.73392521337675021
-0.019297888739070457 0.32723018347998689 0.762354249452037
-0.22907858338620318 -0.17590739516998788 0.66505885012693522
0.10681130938086481 -0.15332204709076525 0.71588147792200285
-0.32014639050600469 0.076381790735051247 0.74314364460795668
-0.038613965865377686 0.40646356743420231 0.73016270958746965
-0.64368486659399915 -0.73817090942253838 -0.34659174685604022
-0.0083023182820918251 0.33363855642023399 0.74496569017171854
-0.47309090056533454 -0.089291156895639823 0.73361123778197124
0.093938953684910453 0.14984885748026056 0.71680768558349062
-0.29534481462448348 0.11064492280528171 0.75033957003863305
-0.64387879086825883 -0.52312540779617311 -0.076564194034125066
0.12604782152830585 0.027168221567996476 0.71917388356378975
0.032852713111968246 0.39250616770901203 0.66375384518744163
-0.68810864391375937 -0.47872201783371793 -0.25550391252118487
0.093909361935176072 0.25638915570048759 0.67919525315358253
0.28275560851303361 0.050304322021359482 0.23307209651985694
0.0064108767377124565 0.66704039259762027 0.48697497013118163
-0.33615605623366202 -0.19397102965519331 0.67476204898162084
-0.56381960239928119 0.32566433805424033 -0.5196526721200474
-0.67249090293752367 -0.85270504011022208 -0.35665795663560207
0.29638499057132961 1.0132421606903428 -0.39155937764268067
0.090952832447272591 -0.16107006219219144 0.71880834546316086
-0.52958686702627955 -0.17614731294576025 0.69293921341264975
-0.090419064103489044 -0.15556692811670736 0.7159174739472145
-0.6380872284135517 -0.81811723383098656 -0.3545812633192531
0.5224116579497845 -0.33141133115117238 0.63238562541448839
-0.44702808775722236 -0.093744665619833079 0.72886441897477727
0.39765222214810203 -0.28747200987169652 0.63986565904761505
-0.45191010465907766 -0.10122192697158816 0.72997936551787168
-0.24992716941949489 0.18604269170393994 0.7517877244846245
-0.46221876656169991 -0.11676779548048444 0.73102830268631624
0.25179690143562627 -0.079114101765355827 0.63891471922140575
0.02115738563082159 0.70784670400409144 0.46083895334830505
0.10915770719912743 0.50076827172933847 0.4900418132041775
0.23030116860457861 0.41193481375316665 0.34745839647445909
-0.06951165140439608 0.48830961590582955 0.63428948194127965
-0.64802503278922163 -0.25430508251536388 0.66330872055434309
-0.5333664833998526 -0.15431747499934012 0.71620906663399708
-0.42154407188866694 -0.077542670342422682 0.73623717280984913
0.092540106509387154 0.30075518404880341 0.66969448697527323
-0.67352364023447775 -0.78925890333446702 -0.35952860624888983
-0.026809907914720821 0.1787176407644564 0.7736255676270396
0.033910152221296064 -0.22823866128673531 0.64049734606329656
0.30024253161897807 0.37539283136650425 0.018064837627764341
-0.16764192393744493 0.33937585643649459 0.68313056000935957
0.29456981112599667 0.99689319158032852 -0.38581010710492336
0.33052471239495773 0.61853701632576907 -0.22589031922396785
-0.33615348410244428 -0.16826768112561741 0.70644999631663197
-0.053109112613444864 0.52802934139478719 0.6923677664602268
-0.16153266735316274 0.33574811149977357 0.73777635969566502
-0.23609945319539127 0.21186412539211208 0.74308920672597889
-0.62380376605650767 -0.63442800221033302 -0.28907078233644956
0.35637112400352855 0.21388380113521244 0.0081028113103744914
-0.3404521857070284 -0.56241527145289183 -0.42233650709349302
-0.54600792668013076 -0.24430804726947208 0.60159162621233042
-0.7005978322856663 -0.55049152787776823 -0.30460098164872473
-0.65899720902894998 -0.72704644430004706 -0.39383968015855109
-0.090575530915314673 0.4458988621546851 0.68378448758904486
-0.033920147526980804 0.16786899459688165 0.7576759820358614
-0.46996470092117626 -0.64912702298790315 -0.32500347834418886
0.30639506525390026 0.30526206291663804 0.028550893083281181
0.88677791186020638 -0.45798834870470451 0.55489591303872299
-0.014251930055199757 0.70249555946611064 0.60192088283316281
-0.50067631218625852 -0.64319564826427111 -0.34860002707549853
0.78874925946403207 -0.39029506791813695 0.56284169826472574
0.069162443838690635 0.78726390361575582 0.45620327281765416
-0.053849639274032413 0.4860717360760578 0.68461010408860457
-0.24705450272782348 0.1763648902075392 0.74282494678193434
0.15256988509225256 -0.12877561166950446 0.70159555465642143
-0.26308148580858637 0.17089218903592762 0.74446961559260005
0.66649572721878425 -0.35022205058799738 0.58267314037270923
0.11420648991856053 -0.17561264144821642 0.70997831610820628
0.0031636830729873111 0.44962991970384003 -0.60434273921829007
-0.28532549186650713 0.13869182164326599 0.75871593873927834
-0.65442511477212761 -0.46808472311456484 -0.15997890475730525
-0.59986367560120168 -0.648074460506054 -0.39874768594675203
-0.68704766346049029 -0.61923511127541619 -0.11833983152786498
0.30279375573732281 0.84006210015681937 -0.32104026641783978
0.29556728379770725 0.42028229230177949 -0.0034900258244316973
-0.38511453515661764 -0.025238754305528133 0.72851256902688499
-0.029873466129752835 0.60095145535967376 0.68167563176254919
-0.58157108788007505 -0.17556111627654314 0.4039455220938839
-0.026798567725056621 0.45686191706703738 0.68724959803362662
0.27683700872745631 -0.27627003889088986 0.70183266377957931
-0.34648985080725403 0.048330490874188392 0.75592092914281439
-0.2625083092084442 -0.16437311513216812 0.6710902331259927
0.28112309729372864 0.96635035535156355 -0.35158964629582989
0.29875124596606994 0.40264395770661743 -0.0049826562342669689
-0.71351642826781658 -0.5583860554124529 -0.058530910862231167
0.32809716699657976 0.57306832660972162 -0.21137424558512752
0.16863202841652658 0.1365603698337976 0.68773439964694294
0.28425291281706411 0.78398448109003738 -0.23277833867534881
-0.004444789738114352 0.64041597530993588 0.61618144284042442
-0.62303683173712443 -0.65804251221617704 -0.29137398666926462
-0.27227774969223217 0.20748480703545003 0.75918187719790797
-0.094397581644177997 0.187337062098206 0.74990105644637506
0.083996311427889103 -0.14139059423612377 0.72300434800087121
0.29938181378168238 0.48295769596911597 -0.082690390654703627
0.12047658190198884 1.133833080718798 -0.44548315361543622
-0.33304441477265978 -0.1805655153521819 0.70142213744688675
0.28536622873204998 0.86843998251315746 -0.29569298100446773
0.072800942231192822 -0.18735131662720494 0.65698852071098113
-0.44172589898627801 -0.15274252604951766 0.70876721953864985
-0.66958280835501682 -0.5460083533922262 -0.046779187216762885
0.88846256249187716 -0.45784191439179622 0.55620302063747751
-0.25420593183344709 0.17736041606207564 0.74468512342718185
-0.6881414666280663 -0.49580984027220598 0.081569361344176805
-0.60603967999765196 -0.32851877451695799 0.57458890275419749
0.71934499673439189 -0.3658621235417554 0.57499568208298735
0.3228232961296893 0.47029295447195629 -0.090614633239460396
-0.011898918690612437 0.58437929296419888 0.56799421492303548
-0.41114306100824249 -0.020833263989175954 0.75467931927002008
0.073922633643252134 0.1185190043018709 0.73397774262503646
-0.10349502840735969 0.41658657872987437 0.72694064539659475
-0.71111153313070563 -0.46216640668887621 -0.3058992662925597
-0.59015316185691535 -0.60638890834386316 -0.20610706788868605
-0.39470853098266256 -0.010105753482619662 0.75859119861525048
-0.25997671640440001 0.16499191716883477 0.7634915744877917
-0.048755279794449713 0.53192248078472293 0.57762079095810392
-0.64319497574916973 -0.8451187548526109 -0.36375475684733116
-0.12310281330179551 0.38543749094746982 0.73091575828225031
-0.41052832236125214 -0.045789026848567893 0.70608645832084216
-0.15341897069084945 -0.16422160634923255 0.66375053427848263
-0.62109628729421873 -0.76343611835409941 -0.35267780288075468
-0.44535475708307093 -0.50446825106389959 0.35247982197912275
0.2861545147810034 0.81666036919316198 -0.26994976701195483
0.24966563798094743 0.5730148280821119 0.064865898146750034
0.2835968763890353 0.81656913080709614 -0.25540302815567539
0.1226984274370827 -0.18608103806455478 0.70187247809405484
0.1807839925937289 -0.12011939635189339 0.68192845363463483
-0.24797563290585112 0.20176292928071593 0.74850484624004165
0.57033734056954144 -0.38232668788289192 0.65001544823819835
0.29688835036402228 0.020436071946704715 0.33851460497804275
0.20405867320175686 0.14583972880648588 0.62537394506016852
0.44560003277691029 -0.33321597854649898 0.68050604535500625
0.14880318853046681 0.62848181248524426 0.18811973100546542
-0.63673677490128533 -0.54812307152642958 -0.1609861100576726
-0.23845040005877483 0.19712804987052035 0.74780056053032062
0.0039293379513791749 0.65396666745412357 0.67920609640350316
0.68307739009066781 -0.34190221175017088 0.57647957273126682
-0.29927360397516911 0.12025016748914741 0.7569884283378121
-0.1786478285294737 0.29194030122731629 0.73639554618820435
-0.64182940399709487 -0.84717941423690934 -0.37830837978800691
-0.42777583789524365 -0.037047761525097478 0.75058353554804125
0.33409690611974785 0.3011032266739555 0.031817089747807614
-0.61740598341760045 -0.85084871653437588 -0.40808760013605916
-0.1066534559768082 0.19213793123839107 0.74939852572376431
-0.08932280443864915 0.30262190487194029 0.7793497695800049
0.10294935733720312 0.051166298465032511 0.68053998049248143
-0.65947728216588919 -0.80430695908366534 -0.37638238111967759
0.29404486422847231 0.93583206275538267 -0.35999468856155126
0.34321078173669584 -0.28092811228057712 0.69230216402639755
0.52858035742882792 -0.30134390012849011 0.59187826100212781
-0.082099139786014685 0.40441441366261799 0.72124057485092141
-0.63784004856052245 -0.53857365892650311 -0.175364135511483
0.32403402731562103 0.11177695112800201 0.28492787540593856
-0.17207189308684834 -0.22059299031496593 0.70428403867558576
-0.093158865047950012 0.45790061828336892 0.6245085860026629
-0.10612461648547411 0.58980437017672926 0.55495327999122779
-0.082243480129176927 0.2649287990120639 0.78271187175193901
-0.15491433929746456 -0.20322058979220703 0.70424518723754659
-0.1202463183128476 -0.10679564088889215 0.72749562601629414
0.5994649805350879 -0.31607912209889122 0.58428829195026699
0.36857612995611078 -0.24114424199272344 0.62345772555791168
-0.60949625714754019 -0.78522533413860174 -0.40886215268405746
0.51639602513675431 -0.3166502057415137 0.62260727565989926
-0.6216244903788235 -0.74055835991831387 -0.34662182552970755
0.34047113698304177 0.22488118935194734 0.10782146161030237
-0.13077783611477356 0.23495710145696513 0.74345621313094856
0.29035295288669705 0.60313139174079211 -0.10732324560369211
-0.26410325078508978 -0.10851355109597716 0.72763348710911613
0.3390404193387786 1.1107032986266336 -0.44661364105017665
0.31554162384287388 0.57257130697133363 -0.15612211939573406
-0.0046796424199586628 -0.23387115398105873 0.64816283824443532
0.32173578746644882 0.07472451801039881 0.32187612875197846
-0.20241179933759224 0.26293145174528743 0.72794780734550901
0.32126123116062821 0.42563612767082759 -0.051092704826412927
-0.2471761024803556 -0.055772979459534966 0.73814283484372734
-0.18801808560426436 0.13834015133004041 0.74341912479642414
0.50825807124776889 -0.29491558161431497 0.59812662324824073
-0.07013941177149885 0.46905322389628523 0.7106695622868866
-0.519432711817434 -0.1599394304119155 0.71156953873184392
-0.49507211628125614 -0.56367609323554646 0.18184895313856675
-0.10237379032640948 0.24058360116718092 0.74037218476803357
-0.0044591699752065672 0.6896169782871846 0.52921445811439671
0.31638480792630297 0.76781358891514628 -0.30263598034129746
-0.28683522875113887 -0.26097011523006586 0.66801073671084854
-0.22533308975139077 0.21697190493456908 0.74665096283673726
-0.15953208355621706 -0.13181658786960959 0.72436353164011891
-0.641122480285512 -0.80924189014726622 -0.37055525928376687
-0.68526707297337808 -0.60683468961271547 -0.109894117383873
0.32036805853312611 0.066536028422561344 0.20230244903318262
-0.64918897601179015 -0.29783577704020026 0.59102085025710149
-0.62759447344108721 -0.23372123440485915 0.64147950071385251
-0.079964389254360224 0.14694035360162694 0.74938550843798879
-0.68520011643406153 -0.3184031588781 0.43699457251570184
-0.65201516426886297 -0.3185179344255884 0.13848047203688285
-0.29885160983758219 0.10912058982871109 0.74331473030738948
-0.19948969420772134 0.2601837785358958 0.73854085498382505
-0.48024229824975717 -0.1544852828475225 0.71084477939085122
0.32440993459074718 1.0963812293184141 -0.43561840007183772
-0.46989019639959562 -0.14131300962328286 0.72544762110114025
-0.14496526696250323 0.45190317645581324 0.72139756946131461
-0.036579907126778388 -0.10109150204702022 0.73536773605981498
-0.65550527280639148 -0.67465516296038963 -0.24299617023724185
-0.65519796888169113 -0.83365802062933625 -0.32944640777604883
0.64205839435367129 -0.34177639955054406 0.58464549523819409
-0.064638847451631731 0.34953983400438471 0.77700543938961975
-0.53355697545091307 -0.15195344319665516 0.71973127409353221
-0.050094767120743455 0.53270111611042381 0.68690428881073018
-0.66144107309989852 -0.45442309176912765 -0.3173098950685711
0.28201627426949294 -0.22390587973031906 0.68413251633375527
-0.64647086969769774 -0.40850722323628208 0.29796728721313848
-0.37855994577581287 -0.002690427046797339 0.74207949732270162
0.13850207359447575 -0.2024010810846999 0.69261723948815268
0.33964673560420344 0.25885484505361589 0.067072098641166811
-0.73429570743158035 -0.62204601279860494 -0.3302951775775842
-0.10207929350244171 0.33478195539458877 0.72996615431839018
-0.64805786327779336 -0.70221315586738076 -0.28094689839136322
0.72555015147207902 -0.36037686065457475 0.5679877529580506
-0.73916407871798739 -0.51916400912821548 -0.36081546895997541
-0.034953106985180504 0.57590793997840173 0.70068542509956044
0.28478485703458478 0.68449735884348328 -0.19653224034412098
-0.62134229360491666 -0.67784826628120065 -0.30993979622846801
-0.22828832370921681 0.24384714947082564 0.75904648940521824
-0.040300890200609452 0.5489068115331408 0.67545197988146022
-0.56135744528193054 0.10916510641149557 -0.52721629432039485
0.6497302221750797 -0.38318069171668068 0.60717010511812708
-0.28073775042875782 0.12409465536805442 0.74471162140655789
0.25660877971033091 0.4402620870062055 -0.32862147070912506
-0.040015333228029137 -0.21118522224992731 0.68143886598579106
-0.47278543216149349 -0.16178117392611835 0.68857178896442139
0.30895794310649638 1.0834351976583498 -0.41214850769935119
-0.68012160892276929 -0.63589958712408379 -0.14569422782196995
-0.49191889534647215 -0.19011709698524371 0.64935317112781732
-0.13996154062187438 0.25332759436419927 0.74085473369251709
-0.40061646090142911 -0.17534878426511291 0.69541132686574603
0.33079737554937161 0.22750454701619383 0.099965897393815339
-0.41589536506605018 -0.042203838578781294 0.75373979627950582
0.028177673568783479 -0.16481489980673913 0.71508591107769037
-0.1079245155162778 0.35772746950366141 0.73232471492578544
-0.10594245034921967 0.27541552550814696 0.73701404703307372
0.32799251300529964 0.47379671678366364 -0.11780297622220814
0.07866770893463304 0.37797858615523605 0.63731120342945857
-0.014286705864890115 0.12764318314231726 0.74883637158085659
0.13969189906468316 0.74987653026195744 0.064242353441724021
0.34800653627586264 0.35392978827601418 -0.042980113625501026
-0.67221865266268299 0.43120430184534264 -0.12450289460249397
0.10297319019660289 0.79903867355697678 0.13609668405511766
-0.38590897718648387 -0.020351045563199222 0.7323766060013206
0.307553481743434 0.92224100331983472 -0.35475712637227019
0.062619086328918883 -0.21357670014404739 0.68902852869106912
0.098199791893351707 0.14396289089161485 0.71962621954836514
-0.07741965548747487 0.41420548061663087 0.75484183201298904
0.0060842859074247968 -0.23094785179363608 0.66301320354693249
-0.079789934392871187 -0.15914916577949123 0.66481598083251159
-0.67569001396385042 -0.71455076476818036 -0.30925502674643246
0.32763245082867831 -0.055834963310669394 0.62034782659216425
0.024806288979402513 0.68151371205268596 0.47703552677999639
0.22287103186878721 0.26737422957178225 -0.21232394026611701
-0.63897669294516524 -0.7681876900593485 -0.33459670378853268
-0.42091422134671719 -0.035941505517564032 0.7391621411978071
-0.65327903359737949 -0.45565260689444287 -0.072083392194578266
-0.085742941689961771 0.65730484282076418 0.56371127665691656
-0.12194083040241788 0.61059246405959833 0.5647313819840587
0.025910498141963778 0.54060635260271095 0.60243183698143365
-0.35016000152445104 0.054201790585870491 0.75493173060982555
-0.12758102202301558 0.12817865037232234 0.74520209731531306
-0.19521118688479744 0.26860105835088355 0.73974849148187483
0.34712538702497309 0.26260349924309345 0.059975371329570315
-0.22686327075354029 -0.51982682684559833 0.27743888402506922
-0.23855941813885506 -0.12389935078599468 0.72498499946532302
0.29055632396313946 1.0175493766685531 -0.39243730062964399
0.055287906774398543 -0.16525814160606256 0.71583524200581783
-0.65598917949900049 -0.71075142815158632 -0.39212972293787862
-0.035922350834458383 0.21423676300777039 0.78554334094254408
-0.50169860105815856 -0.11877505413784295 0.72774467393785303
-0.30884651824703668 -0.17376815733249895 0.70454417964004135
-0.018044799020366931 0.18280199049477197 0.77982179611271629
0.26804152651086088 0.50268401305020838 -0.19189994399762078
0.28512811963042939 0.75073085118694749 -0.20975317723770104
-0.61536586713661423 -0.26047196021277585 0.68323559995070182
0.10044918205598263 -0.15376706004730423 0.72031028014297327
0.33404287678251787 0.49816466410424631 -0.16758878609198202
-0.083946783480388643 0.4460991368242313 0.71541677545269522
0.25387333595173445 -0.086854291000346251 0.65727021260932705
0.076417465522252481 0.6162603176206698 0.36416906084493839
0.65093113267569103 -0.41485229229953013 0.64375318189883313
-0.48761436398182711 -0.17878530468864984 0.67012607588974404
0.062060560851561863 0.80295072582815141 0.51199998160815685
-0.71540107502211514 -0.57420677099037665 -0.063588557579222993
-0.092313125184114275 -0.12121968410920481 0.72797355317349277
-0.72166011119736551 -0.67430401100689341 -0.33203239211797708
-0.40983476357712467 -0.062945507206659812 0.73704975201125045
-0.71762691853025551 -0.7086668935099194 -0.32525252907492952
0.71897363618507448 -0.36195936849187405 0.57197693542112216
-0.038210901483620718 -0.11921082469947919 0.73208216144434246
0.040049282892040683 0.41083000597762709 0.65227777493008876
-0.64408370912369195 -0.77881997604159281 -0.36658878802307182
-0.45695651405345572 -0.1319371301597867 0.72586637454782643
0.1744463895402335 1.096965193976736 -0.49087662614688554
0.33307848462529765 -0.25087871244481619 0.61917310101800149
-0.15645821382406266 0.01401871224333906 0.74424627289383682
-0.68001874056535128 -0.53131177210811931 -0.0059925965603202513
-0.033113891815629959 -0.23787057600305506 0.71808348103182684
-0.10982909444735922 -0.30845830208940939 0.67914968085506278
-0.15087384591158903 0.33763747301566216 0.72962660358543241
-0.6420757978701026 -0.70610991842403159 -0.29213725906257615
-0.026739420346940879 -0.11262930478942668 0.73406061968369318
0.35903713925981773 0.32959273380649279 -0.04473420562152608
-0.26801481969611451 0.14524769978680663 0.75966896942519435
0.20071332129070829 -0.19227232929336857 0.64443333501389333
-0.59827773429327724 0.20634207235624835 -0.49734549498157676
0.33791769926576709 0.19463898655447842 0.14820514118245143
-0.23106238262503664 -0.11287571733193502 0.72700891889791874
-0.11645589937191891 0.39421233793956212 0.7344647979887915
-0.62126660423193991 -0.85607287233250062 -0.40226066204173261
-0.35603665099795112 -0.070837350602676707 0.73542149999452588
0.32605649907331014 0.62840167834841765 -0.24582382989095741
0.22452428786377421 -0.25932512390961282 0.62455053951748507
-0.075696707003108488 0.17858558797417423 0.74303778598969838
-0.66572612612818638 0.32073379833326143 -0.40224511970195209
-0.22850873898651258 0.21436279034440897 0.74371277508988376
-0.64723904545303945 -0.00086958294218852927 -0.43616880631604449
0.058633652109172929 -0.20134597402298038 0.6791634858665736
0.0015142042900759822 0.17645898389820847 0.77507428367608622
-0.17831961917822303 0.31537082037628306 0.67920889752907598
0.057522984497554663 0.77393761489138946 0.45306769580676232
-0.64843982565688552 -0.26933857131594507 0.66607042720842591
-0.13896667311737865 0.35751944075469755 0.72640321296416577
-0.64491529721872842 -0.84251889200645458 -0.36878558848130938
0.37919730537230123 1.141049778640097 -0.46730726256399446
0.079268756195769452 0.15041465086783212 0.73325858106369068
-0.075559981520806119 0.16307536334821027 0.75207543483527761
-0.075207592262921175 -0.20036732025908144 0.69725205641510968
-0.28182937194795921 0.12975598178043324 0.76613926437771873
-0.62955122286959408 -0.63593519974819657 -0.25434960714431476
-0.085084562247461637 0.44367888717645254 0.72366384387796856
-0.11990072948345529 -0.14228772967824499 0.66391182093055612
0.2361923197534157 0.31208891707094821 -0.13856874786203033
0.33333959878225272 0.22911432102302776 0.37100174393439911
-0.090509441785372236 0.39703928818259193 0.72306021125816144
-0.37943872453804994 0.0055188513806712081 0.74371004391204698
-0.13980474179786362 -0.1243587567542459 0.72704159793410161
-0.68919570892980886 -0.74603287674631158 -0.39348547730228489
-0.6854699365009278 -0.61650863054707816 -0.33929507546246551
-0.31505655161217339 -0.15750858908062249 0.71095724931952109
0.31969241270993809 0.85732529788741196 -0.36144700614358083
0.58887218127020113 -0.30937586302583853 0.58731855393826216
0.71406920976314436 -0.35649565728197707 0.56988770541482436
-0.12944615109140312 0.58003439588865735 0.55844041368671515
-0.38908953172219451 -0.030740356073571284 0.73902814966881047
0.67770344305393149 -0.36184752776262963 0.58623066123964174
0.30898388549076272 -0.28163071043026289 0.68436034885500252
-0.62840842700333122 -0.85915449928074228 -0.39309935528606088
-0.40801592959801392 -0.058403412093161577 0.73820749505590122
-0.27934108068523056 -0.12563905272136999 -0.61543819636095343
0.85122157342291027 -0.46851160088591559 0.57973372470306872
-0.088070322152679792 -0.16995068639235456 0.70819776021653524
0.023278674190470694 0.18850525653708949 0.77119732516411865
0.033481402152851558 0.72217322277867879 0.44931894275164641
0.84709794891915846 -0.47923252260620952 0.57045073279914771
0.32287107009085858 0.33815070131488234 0.011874441588349605
0.45228773128345201 -0.28236061570568483 0.60381000073878521
0.21670345071154129 -0.096169019215067486 0.66526257864717042
-0.24783762985656566 -0.21191843730726756 0.69121492002596518
-0.36739865258455917 0.033903872940087787 0.75470285179545016
-0.053502936837747761 0.90344167164752065 0.10360599851822716
-0.0644623541710585 0.50389660286013793 0.65293794257157645
-0.70898868600227027 -0.53887000052093015 -0.036595526949724899
-0.50695862549076942 -0.15422992855752327 0.72395358764457374
-0.34735023022292766 0.052661744993522497 0.74922632341731976
0.65685784806344782 -0.33084193982241628 0.57855080878235654
0.38625007880762097 -0.27399010245951416 0.6457271015833026
-0.45194514576803346 -0.5586249266387 -0.49467736830506848
0.18217784103205803 0.36904946727572163 0.51800669188685866
-0.72660075381621514 0.0068823839682039534 -0.24083104972249814
0.28652303019450542 0.70482747238571442 -0.2071003007288823
0.29084483561075736 1.0617033989947515 -0.40544361372888371
0.67743295256411329 -0.35372135074611499 0.58244510802693794
-0.045850493873243359 0.5479874619041345 0.6811000054845664
0.69779963855590899 -0.36116571337699011 0.57885541643067295
0.78429979986584741 -0.47400658152719988 0.5930100175695201
-0.26356031323862661 -0.19422306794845756 0.66657720045236246
0.30984683186209505 0.34250766148107736 0.040507583522896518
-0.11027943756466563 0.17805242511701458 0.70652876321559788
0.26545974306390896 0.73771651038840425 -0.48210418543722966
0.12846525260327013 0.58617292836680335 0.29402191410787726
0.043248017060032007 -0.19819973868034957 0.69285519232032744
-0.54674015949067023 -0.17235286507124847 0.69884533451789688
-0.35985368981431531 -0.12520326714953711 0.72159080651552987
-0.26435715736488463 0.37602557103065326 0.58116748448433597
-0.10089547346852701 0.42515881393564658 0.71646071319163829
0.19419995583278959 -0.24546439826250399 0.70820548777272663
-0.47774531712769575 -0.1057921484086437 0.72714140611977474
0.27344121501772545 0.73112465684328853 -0.17002604305407409
-0.66901911766162936 -0.44880351850678579 -0.2486622240491414
0.023086131623683004 -0.17836685228316185 0.70675063541245242
-0.27912599867856969 0.096240097455156715 0.71364024781919699
-0.069051047051602588 -0.087256850357268156 0.73141487521585713
-0.093219696661694496 0.25695885712265998 0.7738909385090551
-0.37791574216257651 -0.0017338905993140585 0.76069527168344475
0.09360874985158707 -0.17198334676026406 0.71267415451870653
-0.18193118765773242 -0.18048968762334816 0.70011991152515973
-0.2118905953161665 0.19108715120996145 -0.62857959588757506
0.35556304854359799 -0.24696489215930528 0.62154213114839196
0.29566743532703743 0.43306243601438688 0.012830883283372785
0.54703219544047732 -0.30770695218756439 0.59439371961551313
-0.66149724733864934 -0.67056007188697819 -0.22651160068594844
-0.61931180451283474 -0.83782552103984287 -0.40424356923846139
-0.079487390581760575 0.47489037928158151 0.65990778945034911
-0.32291119877290209 0.064788805249886394 0.76072588085287096
-0.022350499358165798 0.69019096033665495 0.57738830030293764
0.30725391118226231 0.62462943286326222 -0.17458865643926735
-0.19723873579136431 0.2648802561629866 0.73629647320248548
-0.03745972492867744 0.3345678892846049 0.77106059605227095
0.33106439184043079 0.75195894333141133 -0.31893683572365017
0.013499073906775738 0.71527126342805936 0.66500207076159423
0.46521497092064706 -0.2836596898366297 0.60243224782475524
-0.207893682436741 -0.10674705621351066 0.72812529615612709
-0.083709620552483432 0.17962342562046718 0.74912568532149493
-0.21047347648485815 0.24155095997780407 0.74333629950568225
-0.44740204334980227 0.080112179486173218 0.58226437915601004
0.012056853773286358 0.28154617495095291 0.75574854956157189
-0.67224372119633191 -0.44622702159560923 -0.28468415287115789
-0.46035560113711549 -0.09192381070691269 0.73854167873072019
-0.05399994902942673 0.48359863045543428 0.70391023146666765
-0.4207492418747405 -0.054962918067515965 0.69055075101067276
-0.62421760939741544 -0.82601679298691533 -0.38510537793799449
-0.0063944549546106622 0.60914786498856621 0.61913350374923937
0.26063847226342363 -0.20997951045831353 0.68317247585022489
0.67583666407881804 -0.34157039315197846 0.57420220558120594
-0.34965097091430586 0.053910156889203975 0.75352486552913778
0.038874199742446658 0.13913948524540221 0.73349293621215761
-0.67609200879590325 -0.31090875669415219 0.019437681836116383
0.10649930994518808 0.30184438573759476 0.65775683418919861
0.010703494805845093 0.69793279427435984 0.62492252788913882
0.33565356931997581 0.2405394114866084 0.087306393871028121
-0.64801177958087752 -0.69844897899906755 -0.379554074580851
-0.43401836561973495 -0.059745582202141101 0.73491013679415262
0.76599026960473249 -0.41458296942042328 0.57565934948498931
0.78575629393757263 -0.38680145604393434 0.56128714344581754
0.27879296067558901 0.86451756602565588 -0.28399189026084315
0.1921819363743591 0.73765065231749105 -0.020628066238462139
0.13308109549528058 -0.24486071676428089 0.70661081499943457
-0.62034009750923591 -0.66597970034538978 -0.3061925574229214
0.0077709930015186224 0.39473302839933133 0.67943007516566212
-0.11181514487001054 -0.14675022790301462 0.71954134319804908
-0.42799713853108479 -0.051735376056405435 0.75168904845649864
-0.049814916323993597 0.44631508694072775 0.71477745178491858
-0.23993127003058401 0.39226833417438822 0.6634406336691292
-0.73433331808820501 0.024827213660687519 -0.093755604237276025
-0.080889536957874597 0.40291520429209626 0.74023536241165555
0.29753933795013854 0.41113732860669394 -0.0087823309827150808
0.27522353386011744 0.69605320204913035 -0.13992508329298303
0.29645662320791022 0.85111265410318637 -0.31410102389158467
0.29330508424494006 -0.032806898474325052 0.46427612790287398
0.19645772645874704 -0.10089301130607797 0.66714535901295058
-0.62124575425480799 -0.67147222287144981 -0.32060314496698972
0.29635084342861173 0.38323133162031731 0.026242233089197597
0.31791267746354279 0.31990644729339834 0.032672497966330205
0.30597942482970097 0.3220623663365334 0.068298621531941883
0.72757108016685645 -0.36214361008594853 0.56834228714672763
-0.19333651294275844 0.27833257986746318 0.73715226607733175
-0.062352082379604212 0.14753191159561929 0.75264457986598998
0.31919099091210601 0.73928976450866912 -0.31280406397357474
0.054873660286733461 0.38759438000601065 0.65249207410943022
-0.28813989594740264 0.13127142399946656 0.76326550757796774
0.40224643465199672 -0.26104262819895485 0.61309396709432606
-0.16460343641444153 0.24206919528133852 0.74205243170086899
-0.43267572763199169 -0.062529201758311004 0.74331240915174934
-0.17160681951488455 0.53719313499298682 0.61237863592763242
0.1598026734033029 -0.1423184962630053 0.46544716678219356
-0.32658441510892855 0.14562601246339213 0.74994594400831893
-0.036001671122188217 0.60000458027518011 0.67768270543096953
-0.39203434432611983 0.0060025550020128549 0.7543703382863205
-0.045392605052984258 0.53365806391082149 0.68213440796361091
-0.24692056072202506 0.18682778240788789 0.75763179283387005
-0.31495447436545509 0.087023587080796716 0.74393868099253568
-0.18483351647432111 0.20213680279353685 0.74318410290354819
0.29708735739514402 0.54387991894195942 -0.088557916505178191
0.5153072398007309 -0.28201757600579214 0.60111573535887164
0.63984120562771496 -0.32952349785644852 0.5786602357918893
0.43760661224059111 -0.29509062473410541 0.63810534084177206
0.3420395363711064 0.52040730807346591 -0.17307117624759005
-0.63324305846834061 -0.71445328232419225 -0.30699634448000346
-0.036943072274234101 0.52970339704693359 0.67229851983765698
-0.65139385476668021 -0.70574609689081136 -0.27131155498295811
-0.11606757228545783 0.39759522011571846 0.72902024102307461
0.35528768076023587 0.011254771019652665 0.54787072768142497
-0.016547870981336033 0.46097215864243424 0.68097750704260918
0.36123065607903371 0.10965754891061863 0.21601944595471512
0.29278982097763162 0.91718838123914992 -0.34631813977746795
-0.65361775193921323 -0.78011887033576777 -0.37830544553277079
-0.12342763632810749 0.38058104577751362 0.72547714353655923
-0.39143943548146476 -0.18636769637173511 0.68350746233739734
-0.22623328700083509 -0.15592359556398616 0.66642092395298791
0.2134292622484022 -0.25719183258512501 0.69340838989379883
0.02956043030734179 0.23537866404335706 0.75998429728312633
-0.12170602008501019 0.30726923026630004 0.73808332252094555
-0.5113745490307835 -0.65075003558670552 -0.27254074892224178
-0.054342673489146343 0.54157582414609085 0.62150146094266567
0.32093089346413617 0.80957215806216709 -0.31340617251382774
-0.40020804980095925 -0.18817464996409505 0.68628061793428863
-0.14961405796823346 0.30436160076299767 0.74004443957873711
-0.28570388578019212 0.12413516937674451 0.7369683589119167
-0.64887942236500162 -0.6654780670831606 -0.23469596688805083
-0.20180572686571452 -0.54905168012420091 0.020471862560426324
0.22778948517891651 -0.20330573541949759 0.6432218288345215
-0.21868745792721178 0.23366866437692568 0.73917187568573173
0.26097330721806 -0.2482628449846862 0.66685981598054411
-0.0031778659798789022 -0.16440647953265053 0.71411546370005352
-0.021612046096603443 -0.18507875610108293 0.70070254658908082
-0.63179923566582374 -0.83367532226051644 -0.38012899726171057
0.54699222257202518 -0.32532419177442939 0.61083120115646938
0.12053298354719466 -0.14086867763708888 0.71343569010298324
-0.061694852526381627 0.50762581786353689 0.70312023061655982
-0.64590427580063814 -0.50722415257428732 -0.037632404144792631
0.59945189000674426 -0.3184418284529591 0.58702326510874814
-0.24029081409770381 -0.36509922052673538 0.6187354216964307
0.34184539240148393 0.30990484762973125 0.0037910410177817155
-0.58718262503065954 -0.31720365421130481 0.5443733244644231
-0.62872845545046818 -0.63857071084780159 -0.3103255621646559
