# XYZ point cloud file
-0.37609819695289559 0.016766494001831944 0.76697700568801697
0.42072229305278697 -0.18553659319599447 0.72886661295851296
-0.056112475028271547 -0.080786450364421114 0.77566120212411027
-0.0003959408503995121 0.27153068520567913 0.7841123152590912
-0.051893123526678409 -0.099609602067637582 0.76714322360349074
0.35306460541822915 0.3405706161678097 0.13037453674044741
-0.099123001085217766 -0.19774797413603551 0.7327058901499055
0.44569128191726293 0.15152758403892364 -0.054131671794632297
0.36670638384358512 0.91268382708276441 -0.33984192285368131
0.16788798045124054 -0.35178313411122275 0.59385552822201726
0.37487750155638189 1.2205855743606193 -0.47868423740061594
0.38114631092678053 -0.31193983949152226 0.52067940854877615
0.17096030854605715 -0.33240252147518845 0.40951845416813093
0.18581891768785397 -0.044954277550441901 0.77740370207825982
-0.50602427013709672 -0.03608647119297359 0.73451487795167303
-0.73783902830709636 -0.96691189062326721 -0.42867981734628913
0.74114015999009553 -0.31887197310637561 0.6077923008845898
-0.60523540498224815 -0.23494707514342394 -0.53898661262815395
0.39201302363978563 1.1712123874978833 -0.44706976163553946
0.138934989307959 -0.10787280354809781 0.76024509246396921
0.38717343611891408 0.89637938454006694 -0.33719733139207442
0.35513120446156066 0.27207805809712227 0.3067243787396956
0.42968631716803429 -0.40595972404089409 0.72388286245289191
0.40479229848599729 0.65922108448176076 -0.25005190230456087
0.70703667730582254 -0.37599291871825002 0.5405177052137351
-0.13088453542104972 0.35036030551572495 0.77128056710288817
-0.58729416312358929 0.33715490527919556 0.49938069013977948
-0.64059110881534043 0.034341124325026229 0.73880392373024861
-0.051740956876027866 0.37728751975598485 0.78273220015776168
0.13622260426737398 0.7089880899524843 0.44504036608916153
0.37682673540770928 0.93655944349578135 -0.35132921963722907
0.26545277554637892 0.78111821690194994 -0.16556166056383148
-0.69937048601669005 -0.46462113070050393 0.33400586594291815
0.053001611090696343 0.55027206228037073 0.68982024616303672
0.20649849466130377 -0.018571807185981726 0.73309950485380249
0.46696367331784217 -0.17578436088067662 0.7524291085696615
-0.74002120141429995 -0.75487663681754746 -0.40610437106941077
-0.11893968162492996 -0.14783847569398745 0.74741601417332149
-0.28294016926717447 0.13522778800911084 0.77823879044262867
-0.17389916821258211 -0.15597476626134821 0.74721381962755462
0.23829390552314322 -0.10420488067807376 -0.31083280888319109
-0.031330188539968162 -0.35255249310965198 -0.48540243565133068
-0.62211467482328775 -0.60232323003538824 -0.28259743499502843
0.23898863995448139 1.0829272508067422 -0.36881926752984739
0.38505095381871435 1.0457746398072363 -0.39817902202553945
0.82629066610650526 -0.31343103920553261 0.62052664109068578
-0.13836279356338821 0.26183359652085869 0.77881705521325095
0.36177663944681271 0.047109840960558813 0.51414432996669479
-0.32558519170516309 0.59726495855929507 0.66992473587308154
0.2511762745363626 -0.11089581592624853 0.76108110096657722
-0.32829013712900057 0.25476788541917195 0.76614994016732396
0.15989016103471698 0.25371185418114095 0.71738615379817139
0.28842701255679515 -0.37290496102884418 0.43067726908814263
-0.12117833831229063 0.36367827729575808 0.76512892908116203
-0.57720180564453649 -0.49824639865708775 0.22952562926397313
-0.37155000337752853 -0.0027176323602375874 0.77513021914345082
-0.39881166557889713 0.33429980850598184 0.77329708452179169
-0.15035454016821603 -0.43561551892199191 0.62030834189263295
0.37520303196439109 0.4980172294318681 -0.15797633183762372
0.14403456424385297 0.26210033180030834 0.72861939499504746
0.38077113244536775 0.20777112312865853 0.10582975453984744
-0.93963647733244082 0.09693594915080439 -0.09218859426215642
0.47721897818037817 -0.48173645433182699 0.68487992015090082
-0.3918137805941555 -0.0044637994121536906 0.76374263530037734
0.88704705776150661 -0.34721848834225 0.58630654706704921
0.78605807310593434 -0.32913989045622216 0.61610182173637518
-0.67415364427959901 -0.79905955105936144 -0.38219249715171699
-0.053511836233791854 0.76055761952935086 0.54828338417480271
0.066254863397105623 0.52647588350453134 0.65924093462951427
-0.31423249461255409 0.086587651285082501 0.77629554025473357
0.37861414030427021 0.44977243582201432 -0.14050195487017447
0.42425370713118582 0.23139644081085464 -0.070580869464878404
-0.53019506514410297 -0.68578003717368929 -0.2815559310701472
-0.46504782941728706 -0.14201836110365207 0.74335085445508753
0.10560423963111987 0.052632728804130835 0.78198579676607993
-0.16759648647374092 -0.10736277792355864 0.7688845160453921
0.1718747694064291 0.31330883255591147 0.6828370111657569
-0.77427774519679282 -0.7125055194579879 -0.41281746773103833
0.83310007701501831 -0.42005306336598736 0.56372476377368264
-0.59147599918467209 0.60687064929105539 0.12694655750495443
0.03328944620896479 0.70699688985598996 0.71666580414015524
0.42471378541593907 0.12905113396330492 0.024914131513115834
0.37325574873129241 0.2413322389779573 0.060309597418735095
-0.16552424138401989 -0.38712672345442556 0.55714670430733992
0.32747533339140134 0.81086753631449682 -0.29336693090701083
0.0082856074685970782 -0.4095325052429466 0.58771852920208545
-0.3148241125610145 0.3558780205734795 0.71417998961362095
0.30817687719484432 0.70173614123213213 -0.18143608374984943
-0.14097689395011059 0.48778084923756282 0.7479735251263504
-0.55293954850498173 -0.85942715230020639 -0.38234598249668217
-0.44305458503875528 -0.31601880772522151 0.70832474831996128
-0.11181048308874608 0.42426422844712519 0.75394818411352382
-0.20563097011391207 -0.19091041581871693 0.74393441517790215
-0.59628242774823104 -0.70804030245910887 -0.33743776476190313
-0.65919572098197055 -0.84339568276367416 -0.3882911138336631
0.21510349373810556 0.31434324199289065 0.65068594752236297
-0.093276691479950102 -0.094112906736661728 0.77370314332832235
-0.34236547456282906 -0.23953503128746334 0.74146072244838246
-0.43575411281661758 -0.2758162119349663 0.72867199221247025
-0.39748482204437252 -0.03471122819334127 0.76254065880201782
-0.30002041975539662 0.27959439339231906 0.75929513520048708
0.89470269725970653 -0.37750017702109773 0.60095007690008395
-0.022315075035123755 0.55279139899398544 0.72521484235408717
-0.87925390544480742 -0.54445444860352499 -0.41802336290822772
-0.025092256654478007 -0.17820425700173104 0.73707888144649658
-0.74413276069211687 -0.49946375170174662 -0.28504650268877807
-0.61538947552445666 -0.55553426108890491 -0.12894142804223474
0.095118395192354654 0.32039048028953232 0.75307611553856546
-0.52356392205152247 -0.17330686694612751 0.72484691684805558
-0.51927731232921692 -0.85243064368402521 -0.37997164284666418
-0.51621533741866976 -0.52460049560322375 0.2199740032508597
0.30328220932624461 0.30230578531754304 0.54259081220367111
0.18939394098369533 -0.30960326706965091 0.59253787495878263
-1.0102601314864685 -0.9642118057579836 -0.39683996456273452
-0.086013589346677577 0.2917937176597718 0.77580618945308366
0.3750472100682245 0.093367857164324164 0.49886279460779814
-0.45191815649020617 -0.65169389755476104 -0.30422770670280208
-0.59847436177333346 -0.63534729262374334 -0.31171130493817589
-0.69903621518012327 -0.50566117150001055 -0.20577334127716984
-0.27022876360837245 -0.30992257288393432 0.73816852783326947
-0.53416145275197913 0.036145225646766477 0.75506458149742883
-0.11841804388508237 0.48505837149863495 0.76127019365908488
0.37849870853219691 1.0973247538466264 -0.41769997069177833
0.15738802016316455 0.38830056924468792 0.6564629706828442
-0.47833155585216858 -0.14943263021881137 0.74484686609817707
-0.31642765064934508 0.16607283223586577 0.77000718574278082
-0.14088710521660985 0.44934099099710068 0.76451102890575662
-0.64875164492428539 -0.17895973985615576 0.67957523650843754
-0.31629402430182552 0.24545292889717985 0.75092316593102293
-0.24489734140887442 0.41270712306133284 0.75086162887781427
-0.27404293120572554 0.35408423648735798 0.75293791309372438
-0.4509427842825211 -0.13006434821719637 0.75466112210064296
0.15968174108447231 1.0580896091500094 -0.35856379018130013
-0.10554625302815168 0.086777555928001959 0.79107062355824986
-0.30909702344604639 -0.30286811186987705 0.7118822804984517
-0.68674589383785278 -0.7619417133200308 -0.38334667412044698
-0.035469298121984849 0.41756471887992319 0.77758151972211742
-0.17972848147767095 0.61846498212667811 0.59481597924626328
0.34038534021966349 1.1937456235794777 -0.46278411155684296
0.73743377933684684 -0.30241183695369855 0.57236782764546024
0.63224818265781835 -0.23094228809582518 0.71840640345433848
-0.093695788542511593 0.3471581508955417 0.77358156001585243
0.027438376847879198 -0.31206264016637775 -0.4884311243033288
0.10840568399286354 -0.35165581784514899 0.57987430058230593
0.23420017521551983 -0.30870324458367548 0.76698342095769512
-0.54950274155794787 -0.2210194188220278 0.71345677946360997
0.43663070057729136 0.48404893648235969 -0.20747731903900046
0.8846076775730225 -0.44866797786427881 0.59388008929523206
-0.25688868158939471 0.3234345988328613 0.76006011099091886
0.36458172311853154 0.17465601555631594 -0.16334320516028811
0.40089300385267812 -0.067460656682690967 0.071251903420955998
-0.13571331577836432 0.28556427857832745 0.77749442439313921
0.49538204791360485 -0.52022352943534855 0.66170771677763884
-0.7039219268012884 -0.28099470220808165 -0.46415927220133568
0.31392674171763524 -0.089153394650530515 -0.021719593488302991
0.81831172011238351 -0.49630647112607207 0.56341221833474275
-0.086873349499896335 0.50415463576379693 0.7466267719940447
-0.54728618025039744 -0.642566490228619 -0.25087121537816692
-0.30214159236647475 0.30293439310133508 0.74082174807250301
0.1306715460721648 0.1865671479646771 0.73875808049183855
0.40638813021745079 1.1089651706091015 -0.41686123641769868
-0.68512071855150847 -0.61010898982583228 -0.44942636948499981
-0.61067171260136632 -0.29021492510015889 0.67641759532285217
0.24116239430688324 -0.1432960038680946 0.75798938619621148
-0.035747909001571543 -0.069917889121079213 0.77571241503103838
-0.49447827473645001 -0.84366675987845419 -0.37563118798703243
0.37812539685208613 0.87038052723437787 -0.324337914453249
0.74088553250530254 -0.31467630397415292 0.53071645442802295
0.21190207429497931 0.25102910510458187 0.67216994546971065
0.59465673261149021 -0.42247511781805969 0.56131264928942759
0.11913329189192012 0.67577745339191253 0.60901734737872459
-0.23603503167364082 -0.32644294362715343 0.71032396263196418
-0.45675933643575561 -0.26537909581398722 0.72738015332680916
-0.10104355231464268 -0.19807834027865567 0.73462932490620902
-0.43295095105849057 -0.32476321906815286 0.70068721420687696
0.14427031922291533 0.43058872388436598 0.65154157972502302
0.21970530619978135 0.90447048621506632 -0.17958139279394736
0.39540924464911242 0.15435248981897587 0.49527512039643495
-0.33904644409819085 0.071076622496381248 0.77583818101455115
-0.45066920581364656 -0.072047748833703906 0.74870815932245538
-0.70163045315065276 -0.40569931264059633 0.55598564540812134
-0.49948749226420885 -0.7138240570957386 -0.22647468312224817
0.069470191262453795 0.68081533294282437 0.68432236562733539
-0.059639134409085415 0.53589405976245175 0.73703551009450319
-0.58636966180861627 0.28704541197623357 0.62456258783017482
0.45508997590502531 0.42541730680147438 -0.22099929761474613
0.12059480775381459 -0.073379187009297908 0.76988278809585164
-0.12613886634139959 -0.30681887356564275 0.67796784880365202
-0.19506582956787355 -0.16888182543209851 0.74427954815369901
0.37911002672959526 0.73269129560631541 -0.28567272332585425
-0.18549154537792845 0.18131604770387 0.78354175862471021
0.4709114483327248 -0.23575281487103794 0.65300169126701935
0.36941213756517577 0.8070443541388439 -0.29443417189206755
0.022166908347962533 -0.38131257406631036 0.53170567856038242
0.13725109497910637 0.50917190056117434 0.63066362276727794
0.33814049078091202 0.43327550096784506 0.017665057804173045
0.36284821982441962 1.2420975050815386 -0.48910045852368356
-0.46158025399936875 -0.31304537340287908 0.70457229160764645
-0.19947325819287798 -0.13957248763677299 0.75644100247316715
0.38590360456959871 0.17982084408107113 0.13710648138125769
-0.57637420810706175 -0.25609334660107308 0.69951610763078875
-0.015754837897528517 0.29038292149691003 0.78579759471401101
-0.37200061932595929 0.18557730400997308 0.75898305145594058
0.031796733003645272 -0.30810106707574647 0.76826915039225874
-0.09334735911982861 -0.40868383921999296 0.490944737653632
-0.38533361465081484 0.024822361690105765 0.77952319572106354
0.026104946356051428 0.768261777086785 -0.50871481599738821
-1.0043045795171492 -0.93614942920755162 -0.38411632261790452
-0.35079680570208893 0.40587138954941615 0.66063250291378672
-0.46951761759099497 -0.24672269010025261 0.72900547359622103
0.30839820614902891 -0.28491746702849241 0.75835115613837889
-0.20279111818700457 0.49151115830456504 0.7591981524916136
0.40071559045997951 0.70242973135078479 -0.2657554423905033
-0.93544007786677774 -0.64169582226690647 -0.411484093131401
0.63139764410934163 -0.28234547487162232 0.57293767354108316
0.42141569966398862 0.22606982153589428 -0.060048388628988647
-0.58961862338545501 -0.26416143734154574 0.69162435829919833
-0.24547742515630766 0.570991263701913 0.59242605756175148
0.38159730159682681 0.40815346987219669 -0.12547348819683002
0.15811588888842465 -0.16909053755667713 0.74613566975016021
0.41812728852576697 0.54208171049511833 -0.20931745388840461
0.41337835124109468 0.13786604118635992 0.019813022145781289
0.43060145621447532 0.18963556071468268 -0.043031635954417169
0.7904114302272589 -0.32486243958857841 0.58706130134393453
0.33607288566694038 1.0233404794916385 -0.38330662925833003
0.22035213596506864 0.81989462644098232 -0.082784728237400351
-0.15998418043323426 -0.3536658494245053 0.63521064795098403
0.23488622214331834 1.1168384859889073 -0.3852216157988444
0.87542338199961733 -0.32500235365242602 0.60881837543820061
-0.67419528471791423 0.14865691996888764 0.62250286082223383
-0.48377840831624042 0.23923365211275893 0.66151174618879782
-0.47196480869473767 0.13618193670613188 0.76806065422308922
0.069390145717381557 -0.035457514323276484 0.7851533220083553
-0.66390928276844718 -0.35845792707784341 0.60957766097991506
0.20486041587846771 -0.06944050229817833 0.76799282638466027
-0.16911430031117902 0.44837479781659795 0.75152855833348475
-0.1839052093041893 0.49781939584870472 0.71711014809810614
0.84564260350137843 -0.32559367555301932 0.57628604055492683
-0.39625479868383096 -0.29101918715667097 0.72533631381452901
0.6470692970202343 -0.41796656923759912 0.55463960124854017
0.4354203649413968 0.31563345180728142 -0.11700306914108793
-0.65184338989242008 -0.39583491910606128 0.6316942067486977
0.32342775679058633 -0.11884275797916288 0.76860030312169314
-0.73241933976212525 -0.96774350467953418 -0.43065515091023077
0.46273036374696375 -0.38941175724589883 0.72478625136736774
0.39506358213089499 0.12633560067095218 0.060269894278146552
-0.72884556172456127 0.21131305607474005 0.3482130935605765
-0.20172597675828696 -0.57251291972235308 -0.25536900480266489
-0.70743575213833321 -0.45975073894774177 -0.4002804117148635
0.065424992833193585 0.87533626108383267 0.1631887091015547
0.36464975811228939 1.0387660581441676 -0.39410115716686889
-0.44695967763214561 0.46666541919631399 0.52183797208885441
-0.54504577631347972 -0.85420157314265133 -0.38296438704206892
0.38350580502793363 1.0922074405895419 -0.41649023113926198
-0.51974676423338373 0.40746315461200489 0.51010451269307566
0.37226460661026373 1.0008903663642688 -0.36532608518738563
-0.32122366216474774 0.051394359001001533 0.7764222704132715
-0.43033318107312368 0.14101529305904137 0.75568886068248098
-0.10877584010833274 0.44048344392102123 0.75582286778991392
0.21340601685344396 0.61171294609773241 0.49684810785060218
0.041498492503475148 -0.30238664160005868 0.75524831993408625
0.4065832529379918 -0.29157063387337345 0.55380252736684121
0.064788578787068118 0.85543691076430406 0.55202735465915875
0.6668766066641858 -0.25383793311067393 0.60087256623614405
-0.15532783909867121 -0.13903440268285294 0.75281099350843927
0.1387221882179368 -0.059323633964439182 0.78086335090477288
-0.30435590157056325 0.17192953010468059 0.78193688846792497
-0.46015697603004124 -0.60299505708270651 -0.37756801269943807
-0.6238640239814881 -0.64800388937868547 -0.33312156536786297
-0.040995502397123573 0.58867561077364527 0.72133524681423822
-0.15828477248365402 -0.18611220378502225 0.73410590807844223
-0.60684573901921723 -0.35086850061516017 0.68001122242530698
0.20691973951053999 1.0901563472770377 -0.38448235925425145
0.43841598511057356 0.34184179019726635 -0.13940398027677681
-0.51147937929246279 -0.87949676325866122 -0.41989087424706373
0.21178657816847135 -0.29921742813005281 0.29341363955687427
0.73417454572905072 -0.29421265105413141 0.53191645248183572
0.31464197707755659 1.1381539545217301 -0.42622332128595453
0.35320521349417078 0.47928929958794875 -0.28916487933805257
0.071533172741322204 -0.029144714526243121 0.78551448800767343
0.0253798401611256 0.62328773028959006 0.69899839053235979
0.35478163927120931 1.251329320119634 -0.49561047311170192
-0.14364782232604156 -0.39974801896551071 0.52473249726570592
0.21333371826335679 0.087385497538623014 0.74708912321052345
-0.15158111206138614 0.48073870595435686 0.76193386503692295
-0.36962323782531925 -0.38103712847034643 -0.53850878449618378
0.4187766611822461 0.12948262614973771 0.025066524241397659
-0.40634564775427506 -0.065409192466987065 0.7595759310118213
0.37186071427440481 0.44015741940613395 -0.12104800633009916
0.0034262160698439459 -0.084747265606296196 0.76821794736955695
0.060759777603585974 0.30743942181812756 0.76980590694967077
0.65008954982681999 -0.26896140942566404 0.56723225244463615
-0.26353036519045503 0.30430546107009349 0.76182371053427289
0.26172300925904857 1.0175348989643709 -0.3579717876998938
-0.27889390779172629 -0.31477880283231841 0.73021967523953313
0.35480231055155009 0.75335865642839828 -0.25953149118597807
-0.098422854096494206 0.67241244231817099 0.63767655384847188
0.06343106012401023 0.25866810373522497 0.76837953740998
0.19227067675094034 0.2603357297945621 0.68954218518234422
-0.60239612288148603 -0.88846787853087861 -0.39850852488518029
-0.21505678632471259 0.63661608511636203 0.55028522673801117
-0.56332834601592996 0.29321996005684525 0.66339714903055569
0.38373834967871545 0.066244477202197061 0.62040949051537653
0.29766501268695933 0.0064068517285029714 0.68997995399061685
-0.78038513110090868 -0.07278088642372893 0.50868637486805834
-0.031441652581516877 -0.10797809512517276 0.76148221045308961
0.33807997538263201 0.87236231941178666 -0.30442003260217909
0.17476748398840414 -0.041580039721932138 0.75514100436649212
0.23966396140447443 0.63075896384096097 0.13813638889756064
-0.059233057686896018 0.54176890554852619 0.73655912279917946
0.42229886151326212 0.14987846150558326 0.0017962740336816552
-0.077480066807130044 -0.092158282854960305 0.77472179948990094
0.55000749512097258 -0.60239007525052202 0.60005849842653358
-0.88019462355426548 -0.81773902853931801 -0.40723087782478462
-0.44971648371649309 0.067608354709793872 0.74566461534472772
0.37230105012117676 1.0624071194844547 -0.41195281658324667
-0.51227991724523569 -0.59844553221114083 -0.038680597866019184
-0.87625057712526555 -0.59864096827147328 -0.44119859148496055
0.11124471805062797 0.4868728862537175 0.65613598136148621
0.16357027324950479 0.87019522854548548 0.022398967413620241
-0.69660155612627461 -0.53400310036112764 -0.26951637439647147
0.57339265314948662 -0.20952935302836551 0.71833203665857515
-0.2702776978457313 -0.57112180674918811 -0.31616557949599766
-0.43515785610986057 -0.12561485179965715 0.75171300683392417
0.42867025730191344 0.33421595375284774 -0.12289643329414446
0.016487849659963416 0.67400536335669514 0.7134015428173992
-0.61076416624539398 -0.75710379413482087 -0.35638377415256262
0.11324997067405107 -0.13518309809920126 0.75210191415587291
0.048117440875609319 0.83616599465252861 0.52980721580243895
0.43536271163430662 0.40014651905217846 -0.16589783055233909
-0.78388527689901411 0.038100234424552681 0.4117767162495527
-0.02796953247512235 0.45051671707266294 0.77098997526820234
0.22583531317027195 -0.37301111356226002 0.45710122754603422
-0.2107695016958715 0.5553982214034292 0.65847316273841372
0.57974070428088353 -0.24534173420824246 0.62254714980383818
0.76230230214204653 -0.26453215215173387 0.65265843744387197
-0.49826184397276663 -0.17836425025397418 0.73298900515054832
-0.72088349402734941 0.042804029976057478 0.65621586199538395
0.17917855983042585 0.28379002399428899 0.69466737958775715
0.066965195732546334 0.40388695401018637 0.74349949265288506
0.16186602896300428 0.22891002409255634 0.72853949059009082
-0.14164452334948407 0.49163751228362784 0.7091817025610343
0.063072015697830608 0.78991177471915819 0.3056466863932209
0.208025109545936 0.380467893175922 0.55687137737972181
0.0085470706236456806 0.80860487856749863 0.58379871232954361
-0.65310900961747809 -0.52531137972663444 0.10515125889236066
-0.089130804093425553 -0.12380734824754569 0.75650459613289911
-0.94577063870723155 -0.77655669793715099 -0.39504564890084648
0.59222214854415967 -0.28173587025935731 0.58153963983723012
0.44656377061293817 0.0049873284938382056 0.00095072144699948069
0.35544429540460243 1.1882582441769358 -0.46017926695980904
-0.12941894292147182 -0.30247536716781198 0.76235334394008092
0.39138788782513423 0.83952514627364039 -0.31630711085680296
-0.17990803602546102 0.86152533735735304 0.21120268256350716
0.58906887897424909 -0.2284773935866049 0.67314070482020572
-0.6889240985220173 -0.3867369394365987 0.55741784829549612
0.21900052885461818 -0.19458168895561556 0.72568621658443866
0.20276210204614054 0.91844483521416542 -0.40130850954818342
-0.51233520077170525 -0.19819020554967537 0.72778646937188451
-0.5538822835359416 -0.89771745230032352 -0.41386297291321483
0.66112214976649142 -0.64827263067223129 0.57517579993012458
0.366945214818303 1.1945231065229702 -0.46281234197076415
0.44045386000978759 0.74585642721057255 -0.31129682737593711
0.16489662074072342 -0.37523198764868582 0.47094006842203817
-0.10719730390993121 0.44162829032152473 0.75348241451563691
-0.71456208151567946 -0.5280651521057198 -0.28053095850604226
-0.92788372619038384 -0.6577398129340315 -0.39688772438476771
0.4160112620689258 1.1395965479603358 -0.43490706376140764
-0.096748610891324915 -0.31958767664356458 0.71983745871067217
-0.13334228307602913 0.60091251288248415 0.75364560729232544
-0.018630377137888843 0.58002425583095629 0.71981323298146904
-0.11130488910815117 0.32005543414250681 0.7679918380868429
0.42007291196923013 0.60812148701529267 -0.24159372220834285
0.37114928483032372 0.54777357091892576 -0.1760171819583185
-0.61378185995379697 -0.61420394198984596 -0.2940041658599144
0.19931547792283766 -0.10323068884038022 0.77066641286163562
-0.53857236438260259 -0.66137822479793407 -0.28191155132954826
0.62930216875750844 -0.26165206220941428 0.5972338017723976
-0.31399712092172294 0.17980195656961584 0.78101102255073407
-0.54384876662784976 -0.19019554324479415 0.71283576974542928
-0.59003763544089738 -0.92291449566573114 -0.42678665189217035
-0.12430230446200241 0.54149155969702356 0.72835483201090323
0.60393653100015854 -0.25869670390813226 0.58342696922723181
0.53467435837185562 -0.34297665048339354 0.5008129565099253
0.33906669012247193 -0.055907692289970612 -0.012241419647921248
-0.16255153764589991 0.41446837471064768 0.76734836145013663
-0.13960614196431997 0.53534843578541569 0.75851736986733265
-0.4686702899668802 -0.15500211756880233 0.74288822467671434
0.53342296853274362 -0.54965982512773337 0.64750964636882546
-0.49683878109738622 0.020204477414965893 0.74229070730313396
0.36384586172394329 0.99936592501139287 -0.37720715533092353
0.3297982548183569 -0.36479730379072706 0.43018021732715972
0.37919087869270385 0.49747078384319643 -0.1637510298224214
-0.095993485956768154 -0.19607743468048611 0.73159581685535713
0.65823296394100694 -0.28630873255112377 0.52264856163906093
0.022541971381400572 0.2467527388596551 0.77236114347488094
-0.17252237740249043 -0.19105907340430761 0.73383312003429602
0.62294889733237468 -0.60934476396476711 0.60633960761785044
-0.45101620945526832 -0.24660460485581837 0.73425733523193104
0.28966758326229325 -0.38742688960287452 0.66008184682984217
0.019387075812026922 0.69309272909058706 0.72517971224739775
0.26430204750397479 0.46298286616277196 0.48114491924540925
0.40149541423571655 0.60511365675504791 -0.22391113460246537
-0.35027889899277653 0.11891124479201309 0.76591021227295819
0.35466068100618209 -0.093187327576391255 0.071712088775283789
-0.66709345026037603 -0.41783871177900878 0.61211575585669387
-0.5256289577179909 -0.67359806707871073 -0.12733104970286302
-0.22736830322799761 0.54166349464273011 0.63241487368079952
0.43632605230849286 0.27890845067303616 -0.094721123256409356
0.067357031214836383 0.77321660112253277 0.57806167947377407
-0.21029507312872653 -0.18088748452032277 0.74464101845039465
-0.2071238680826184 0.35416102211714673 0.7696805719373474
-0.42426595182213944 -0.096268397116929805 0.76115684501186465
-0.44053558840767337 -0.10676544392158505 0.75094196660623247
-0.39647035049585089 -0.59339479544904705 0.095414252117988596
0.21485071866000638 1.0739606224403211 -0.32319810366075252
-0.77450900366296072 -0.58236760024628431 -0.34468780431591384
0.8888827418097307 -0.36499828491962916 0.61018384059989228
0.81141471129707554 -0.43900210937437478 0.56154357924710974
-0.60474517252040716 -0.53605157354600408 -0.42037438485813361
-0.63228693943218772 -0.89476401980249953 -0.44420101230634312
0.11703258950522977 1.0252889680541202 -0.35421386881205663
0.27587877012776474 0.49108453449366962 0.38460896612404682
-0.10228830136747291 0.69834003475405737 0.58501089907337533
0.4326286642176207 0.47471477675429519 -0.19898197188816802
-0.70898591259200572 -0.37226361779164208 0.47985879280969757
0.0019639375368036838 0.45736720681111009 0.76240312901696417
-0.77146906440076357 -0.95492225477572745 -0.4156999161859658
-0.57952038262897432 -0.25576610531135913 0.69454838056326729
-0.093773593059221838 0.52424352682769815 0.75693842043426596
-0.41483816489717995 -0.02945996132609352 0.75861319935971494
0.30217896279991407 0.46362768877055061 0.18119696678330843
0.89471503896021076 -0.35910439733843447 0.59688106010855013
0.32121910131641584 1.1392803642585108 -0.42940735210299152
0.069579492886440164 0.60817603380772667 0.68290019569663585
0.80180027125424047 -0.40937187556650301 0.55772536037129683
0.77299239348924687 -0.32188409374403193 0.62511035060677433
0.23397977140302118 0.67221459093245883 0.081196604860377164
-0.5420063323588149 -0.48244531124523604 0.36056304734093558
-0.51755317966328995 -0.64700012489588232 -0.069474207743985161
-0.10378202668779579 0.50755807289067079 0.75198373334936086
-0.034999195792945414 0.58051511040810766 0.7222462658463602
0.20517468125106397 1.1304723516888231 -0.35755364897575781
-0.56404919639138029 -0.079899408201999478 0.72488287037425092
-0.47521413905864662 0.15019734545859009 0.77706938597820496
0.11016055658948076 0.3397312822186116 0.73062777021190017
-0.7548184369158637 -0.75566090171247779 -0.41653314694966426
-0.43328976019488508 -0.066346015028123873 0.76558403297435618
-0.11092220545693365 0.52093696251688115 0.71181538870738859
-0.673446925417438 -0.91536157139502805 -0.40729688594888636
0.012710832592876642 0.39533208410124132 0.77190021526767172
0.62803866425868549 -0.53577189923775848 0.64376141125748187
-0.53906707797561104 -0.16296212017886091 0.7206841387188927
0.68969353327664606 -0.3404203674674271 0.6959367592162109
-0.72396566093623527 0.13468889088101044 0.47283516174448526
0.056125160733163426 -0.11312664384839266 0.75759736054465687
0.071812768334108767 0.27008500024059146 0.77031089284880361
-0.53245304108003744 -0.52974888931319342 0.14261979968552296
-0.61388812382657321 -0.55619414834853131 0.012393934372502802
-0.2982726623631784 0.2411218279340801 0.76336054205457948
-0.57439142770948681 0.13454619347315955 0.75391146886412752
0.49811124813712127 -0.44638879777353679 0.59530740848905772
0.29132615522928518 -0.19141756262510867 0.16128477029132249
-0.66875808265218861 -0.70182027491479104 -0.36977842370712288
-0.077828155239959784 0.62862317088885078 0.64372590678451314
-0.43695250201268721 0.16461810036720514 0.75444117517451481
0.5730219930950966 -0.24976373083507042 0.72994034172304811
0.28425867297540464 0.35128183194337481 0.53317142215377289
0.3757873080713221 1.0308040987642428 -0.39206820062280023
0.35624373784926888 -0.18561981034683939 0.75418549373225696
0.62035208872248049 -0.26131807927750828 0.57648700248945794
0.5498702114770353 -0.21665161780568454 0.6944055964593171
-0.80970889577511329 -0.37507589979968081 -0.25966314517235212
-0.64128425420829593 -0.62137787657694155 -0.31968906911868
-0.66975149076954565 -0.36240119844497443 0.59798902640620399
-0.80851354997226821 0.45579041770705686 -0.17486481665798825
-0.28458070010097991 0.34459233301742032 0.75325213175175598
0.15692429310830391 0.36921937077773848 0.66288969492785776
0.1054818948919376 -0.36181034266857637 0.5339048893364815
0.14778752490585134 0.89243793238178348 0.021819504160633496
-0.89466069326950848 -0.69169079906330833 -0.39606676508415894
0.39077347144974972 0.21414015056879165 -0.12909858269376251
0.19481212987077257 -0.035990981090797902 0.73867375083427067
-0.50594748810958201 -0.04376212268171642 0.72646025202892162
-0.56083394738238823 -0.23304014091985081 0.70656388038344176
0.42299653948658111 0.20373271693646977 -0.051422256293985669
0.25727629240537198 -0.24315633076671972 0.7580992987633941
0.3701099517661568 1.06692585897488 -0.40701035918244344
-0.23455575421498409 -0.16284749491049055 0.75460121692809778
0.12898245295709287 -0.16228632872483217 0.75027313975073007
0.86215810146525484 -0.33226583873501525 0.58492934075728797
-0.33013681834062325 0.013735685998213398 0.77519738247771386
-0.087573814763416635 0.75765263747864608 0.45654391990465593
-0.85502279143657134 -0.93058173615328776 -0.40892798129852537
-0.6351514280560977 -0.38442066529944441 0.65757842081653184
-0.59877627927475263 -0.85002784398372633 -0.38582513343461144
0.13108942284253544 0.50227076884378263 0.6384167083179686
-0.29555957085176843 -0.31700835910153913 0.70116469330542674
-0.41516339266559754 -0.064736477325759267 0.75791771787339002
0.46063482427755176 -0.34007847614539699 0.45534857705425835
-0.65193814357126101 -0.2752384982817393 -0.5017881223258378
-0.14017203128453204 0.46598735992262874 0.75856050368084826
-0.50941849633143432 -0.71138020876366781 -0.21136696584142101
-0.056959137017045691 -0.25453000270255899 0.70663940585393048
-0.76664948115026554 -0.79091341925822078 -0.41865756373111118
0.064009154528898549 -0.4624325934287512 -0.11683651144018725
0.22206556090863216 -0.35761698135339515 0.60558773133855093
0.15884153168541815 0.42551311818548854 0.60471300195712452
0.60835018441134281 -0.26519853092975865 0.58389001791775719
-0.11401152551696114 0.44041019251418945 0.75832536956169871
-0.42595686785843867 -0.034227873802112896 0.76842396254286172
0.076918349908495998 0.26578649855027336 0.76813516195346798
-0.55142247128305044 -0.22101405554228393 0.70969817396440149
-0.76500785351892908 -0.01563422897726241 0.56618123792153963
0.27325383519238144 0.536005074427365 0.17864398194641939
-0.31930066461816242 -0.61553942518377625 -0.12608449425102108
-0.030107284378136256 0.64277507549738289 0.64289055648134941
-0.15515238299303391 -0.30962264565286191 0.75591723931757571
-0.91746234009518846 -0.19690819598959308 -0.14101175168788371
-0.28427897571605598 0.24682094444548142 0.76643351096417689
-0.19451976673660809 -0.36755285948907712 0.61384084215509493
0.24887556975929925 0.96909971892746327 -0.30624857089564372
0.28579261299887015 -0.13477563178397034 -0.029701627290165789
0.38163906894230237 1.0128237536614897 -0.38406060058051672
0.7650088514736062 -0.31546892232909229 0.62820319037646533
0.56078018671158958 -0.31674716318305229 0.47886517538768897
0.38263898909031369 -0.035866960617546795 0.18952150025201853
-0.065059483862452083 -0.19082536121635485 0.73525875118330131
0.2612183696035153 -0.10058823974271291 0.63383089416406335
0.21147186799199647 1.0338769200526468 -0.38838736157761211
0.049874212439021903 0.29609844899336579 0.77446731936125079
0.038511090595640951 1.0066777214952953 -0.3532138369197515
0.16464291262334996 0.38437959070298433 0.65555613715961059
-0.48575633052237421 0.022256057648174732 0.73437932181370691
-0.24272594295668193 0.92263822979344923 -0.065795304282628253
0.13851435511325505 0.47689844843839779 0.64233490443742891
0.18831673108640601 -0.057983637450295333 0.74998780230535322
0.10692253794577056 -0.049627175080605213 0.78230521398835773
0.39276539624586526 1.0387516586434824 -0.39285072515438557
-0.80966156382613974 -0.63123422101583593 -0.38138449132725505
0.018090412771716302 -0.29824646326214577 0.7710771679807138
0.87246072625279325 -0.46947124671065055 0.60145343892827796
0.20048523749883529 -0.33842365455069157 0.75532515946573131
-0.55063196328981157 -0.11783834855016195 0.72017866776194417
-0.7970373268897557 -0.79226206297485824 -0.46255025938322625
0.49168608123099133 -0.27467907879703901 0.56548022382619356
-0.53453582091918861 -0.079578018918315507 0.72821091913182379
-0.52749402451745553 -0.5757640358374907 -0.40641642349658014
0.67120308279918461 -0.2845318278599116 0.56766080315356782
-0.52704512001616877 0.030216223576122303 0.74636213232722159
-0.83290106798981167 -0.94643243113447628 -0.42012586423908616
0.67398461205988625 -0.25539485900930359 0.59998207509085311
-0.58776035245956493 -0.5752438848722683 -0.047058774825653238
0.089477870653901448 0.78353881832851613 0.27381791229663244
-0.1283132765986057 0.82507124610789084 0.33376435553056316
0.37193557971984426 1.0918241586548714 -0.41702302015786508
0.45930406640257004 -0.18346666000432776 0.75094514662211354
-0.3450058678225929 0.094998758487481183 0.77176544113963885
0.16660666436207805 0.29950488257034991 0.69566451674102292
-0.02532377434181754 0.43048802191271918 0.77452011152567923
0.37610212423212452 0.85370412453611522 -0.31716982020661
-0.020209220027698649 0.56248363940211021 0.72566399233094891
-0.57792164954563852 -0.5828364778251931 -0.017749614646296763
-0.056535373486511276 -0.33536635399859449 0.66674315252793726
-0.52062519358504034 -0.26000972724382976 0.7181650326938751
0.72569609705020355 -0.29526390128540925 0.62452301487697759
-0.51994620574411954 -0.27165831148316855 0.70895053158849364
-0.58950311043739134 -0.25171012706985252 0.68256949889028729
-0.51966619469142161 -0.83546599077595296 -0.36320681455237835
-0.15206529859168327 -0.56651507992500783 0.32897023832125605
-0.75338327406568428 -0.79091733351208227 -0.40823799713624709
0.7524228932548418 -0.32289063102011184 0.59959876009762203
-0.075435694160425726 0.45734907830682303 0.75693334371233512
0.20209158289698936 -0.022563913811387337 -0.46117937808651988
0.158618406407804 0.2060336697818741 0.73632732120248612
-0.27068481453648374 -0.23231030265494113 0.73769455652564764
-0.45551405133502643 -0.71039567297187745 -0.1866341325059091
-0.16786207072619774 -0.16282282853407537 0.7439604354299858
-0.33057607701322667 0.24612020509699128 0.76044280159323208
-0.52685903766266584 -0.012722382170888835 0.73409523057994797
0.41727261928275894 0.22014516011413932 -0.047066353543872452
-0.56934693194366304 -0.30098483997957004 0.69364585765496267
-0.86755252703326846 -0.29286044446800474 -0.20712548794044983
-0.77738972027034237 -0.43587469820559832 -0.30886834101871941
-0.29924044146489592 0.25139550919980636 0.76064682463933764
-0.10791235179456393 0.29931103082200394 0.77274774124472412
0.39271838956441307 0.52043981055245148 -0.18349069379471494
0.21123516515763541 0.59464636404028859 0.52870775445752693
-0.5897370113593503 -0.26800396285029393 0.68775657730637096
-0.53854844908222099 -0.85570879871335492 -0.38915792807938576
-0.27120025394040503 0.40323744499801784 0.75821858113369522
0.062907383820039797 0.40031866195175425 0.74822930952235733
-0.15902195893341187 -0.40876002015840385 0.54107029676039664
0.16508278790509578 -0.07118857406620549 0.77631051736063039
-0.44674975050107157 0.084485031499335506 0.74940967734457686
0.030611238199927726 0.47897625040631908 0.73126506961235815
-0.4321822489331919 -0.755273487900741 -0.29106789739099792
0.071292552861073943 0.41016768024553585 0.73387857829183778
-0.50380726534537601 -0.20101858119627636 0.72975682894791127
0.14140400249759111 0.24856262754304481 0.72624113845774607
-0.41876073151947502 0.1218345970815804 0.76140969945604908
-0.66117545723116677 -0.52230764296872323 -0.12655710671003995
0.15889638984917909 0.13205439469160396 0.75371180099310053
0.12263425561942753 0.46992741106065239 0.65328050860737852
-0.82400562402421063 -0.48582089044230159 -0.33118482361661705
0.16155724233812663 0.34423434224399685 0.67193882769256819
0.40266954148504652 -0.012901393797395855 0.014198686117556036
0.091356276703475459 0.73762870512817535 0.52167201607153357
-0.30027387962676855 -0.39464964374643685 0.62648071062159438
-0.59668653369422842 0.34989338780795887 -0.59842074299949921
-0.8815252685030277 -1.0346899929404403 -0.44096751509550547
0.36058511554455208 1.1240476252417757 -0.42837039524128429
0.16687427181665271 -0.08509545710483124 0.76688458721973785
-0.60696919849659281 -0.26460190627956948 0.66673002649825452
-0.018084042684492374 -0.1413896622020836 0.7477523215800419
-0.60221859425021496 -0.88901726252438706 -0.40631298194809595
0.46241000378611474 -0.46164476498644191 0.62210677816060178
-0.53112609581468284 -0.14852145571977005 0.71902659542153025
0.50266602324913023 -0.20194249416843135 0.71414382868117832
-0.53315056956788531 -0.15888250694977302 0.71950545789858911
-0.31543766600500334 0.1723454776203539 0.77339853216381371
-0.5389601516880429 -0.1793870527884458 0.71889588063462817
0.25003852198042864 -0.011804273274229615 0.70064452262270027
0.046586496879005068 0.77932031101678589 0.5169820258781197
0.2526545009985206 0.53691377320070721 0.43960443480954414
0.29257688511497548 0.45185367508518937 0.32072730018791606
-0.17842600781223084 0.55193959217569244 0.67202664794237954
-0.68331971306482231 -0.43467524611357788 0.61638849573690901
-0.56140375078342686 -0.2980784144583275 0.70314279375777922
-0.52658359828155277 -0.10282622656820095 0.72919530504312835
0.18012837919942015 0.37811437585613206 0.64925654159681212
-0.85303806666535564 -0.91476645575939486 -0.41548491780303376
0.019961648428648004 0.26076229050446287 0.77904446460842003
0.18081327713618123 -0.33438551805250327 0.55299741935479396
0.39318764093221148 0.35465308153976771 -0.10836336691182069
-0.30963304363915611 0.37948632362149226 0.69955549601879152
0.36027294216681049 1.1041738227547526 -0.42003438377972024
0.40481072776559479 0.70871176257995749 -0.26785949409811494
-0.33930185286995851 -0.25402663724476682 0.73680658581712288
-0.055071558740877435 0.58378129481052099 0.72662962648572815
-0.29586157304582628 0.37179688506664377 0.76029158456013057
-0.37103057819140339 0.23875655231172388 0.75827171807304516
-0.60596606870744729 -0.6246632007132078 -0.30389144446537841
0.45470003229558031 0.25261102490469867 -0.14921193249571729
-0.19672819344146708 -0.47019912938224806 -0.42441499968103003
-0.74336513512794244 -0.21370037458000901 0.54808873453544305
-0.84740364463255879 -0.5830040290593832 -0.36980761743292678
-0.78723436459449481 -0.79870528431269161 -0.42812723432560151
-0.17875539700096255 0.49478086136628008 0.71941448681129838
-0.0054293977144013184 0.25356365374398848 0.77593997767511347
-0.26034450380335272 -0.58976364067375187 -0.26255749067523837
0.42379758393604483 0.28970862376593942 -0.13279575461098503
0.85966343246800037 -0.5058171311287154 0.57680645656755036
0.070804420273560709 0.74602595810301153 0.64259093652607913
-0.29860282183852771 -0.58877880024518525 -0.27996721558707272
0.88197564950279883 -0.33290028526384319 0.600875914510828
0.026116130471482535 0.83675479220112159 0.52099740577938203
-0.043862097488499785 0.55701569830637609 0.71528071163662332
-0.30755666505569579 0.17969984302795083 0.77038836388427168
0.17289786429032006 -0.038755279043602542 0.78151377154606239
-0.40210899362229924 0.19672301556467886 0.75669730948747915
0.76926791646522119 -0.29195899832882688 0.62900890659805753
0.18777518430150053 -0.098114756637905032 0.76603796381521727
-0.10873696380198083 0.49038843391234721 -0.66824977017705578
-0.32785475386016216 0.1040738297856727 0.77710745386406543
-0.75891999525490306 -0.45690252656814501 -0.23580426075377492
-0.58767612748134823 -0.62694419338001062 -0.40076600155041309
-0.53259166265982572 -0.66298565391380038 -0.12436603110696343
0.38569620599218091 0.93668567934219382 -0.352914714094128
0.37874121939732319 0.40235543248254402 -0.1158405498818329
-0.44713207363694707 -0.074543311557050629 0.75044781148365036
-0.016113679758827715 0.64590275133443775 0.7185953101409952
-0.82724518870098462 -0.13413954662762606 0.31280529874488616
0.043677133586481176 0.53188853464209984 0.69473753195816723
0.26423024934349115 -0.32713393043195182 0.76211857097051805
-0.50747354945862533 0.081009472141756689 0.76245093828061172
-0.24400799380729765 -0.37710277698054995 0.61571436203407892
0.29997624929170996 1.0496787560693068 -0.37246680397573684
0.39236819499258324 0.38636985254975542 -0.12859936933186411
-0.52869871960767778 -0.6251227715923946 -0.04130442796536471
0.43057913408746096 0.66494534788679971 -0.27550228771138841
0.2276350362322539 0.22785492273056462 0.68522617395351748
0.31147579931057301 0.82982260998237223 -0.25992189300451862
-0.14424603898562438 0.68443232808900056 0.64039221896386245
-0.54303153432976448 -0.65120231429936837 -0.28183885871977576
-0.4524908428512795 0.25770611450794334 0.77541498525614116
-0.094987984250529678 0.26143959472908662 0.77939934021617674
0.14549792427983022 -0.061570875986028284 0.77612143378836773
0.40259142390816649 0.48576141600893408 -0.2012398191135194
-0.042427534232719832 0.98595513627758447 -0.37463297933618467
-0.32813069048097177 -0.27827698724284033 0.72657782020162331
0.31683865698533253 0.93392129745676655 -0.32045553763351897
0.21866427680190981 -0.38858800628903367 0.41936358054825912
-0.4758699522720562 -0.2588167870413649 0.72734906655062526
-0.58584006956388235 -0.57660251524025696 -0.063946110191250405
0.86529854721063515 -0.49875188616708854 0.58350778905017631
-0.3167341956855978 0.17223446620459271 0.76948348820318468
-0.62125252603565517 -0.55045746322912947 0.047774003403088017
-0.70214026618185699 -0.38069082631497508 0.51068842880662579
0.79852424631716445 -0.32909795319114465 0.61408665026094589
0.42049494281863176 0.49579217842958556 -0.19004901745833003
-0.031232611287560275 0.665986417772924 0.6159467188691492
-0.43078186599268165 -0.11482290748600121 0.75621568230838143
0.11665076960250076 0.21809410826284648 0.74920913773740461
-0.16761841712584769 0.44180276033369204 0.75926257415824061
-0.85634875291326384 -0.48487327577101702 -0.37965507044289293
-0.37394743023749477 -0.60085624291836481 -0.12991367249027697
-0.42480627167984508 -0.091136209185094685 0.7627401028702856
-0.31239464953904061 0.13863382710399819 0.78404366369804812
-0.17432122940569883 0.60471799268102444 0.6163830094633358
-0.75029470121923847 -0.95474244109410833 -0.41814215167580659
-0.17382524834271962 0.4161750651097158 0.76254909083678246
-0.54830936242374761 -0.048547181489940527 0.69216556970121701
-0.066060505322269591 -0.41168393962777827 0.48493589317547869
-0.57375310487495801 -0.77961440083239175 -0.34910962863674833
-0.29353072284341231 -0.58468930809398501 0.31285924581849756
0.32644031357001246 0.85671665339442526 -0.30911303919270772
0.26234939790940714 0.61841786833025836 0.060414979663168111
0.30948346339283184 0.86943850334868777 -0.27992811209736246
0.18946518674529855 -0.11155890172408078 0.76709009592477484
0.18004608923800802 -0.041873828626105336 0.76540301080930051
-0.39515303240583322 0.23546208952154402 0.76325972322148417
0.48582886409761272 -0.52600750236036475 0.64625790893757173
0.38329328326049605 -0.060233089345587132 0.17412430944451351
0.24593589513541403 0.23510256378665417 0.63410685257398081
0.40823852166956698 -0.42257033860698456 0.71570056667885673
0.19138731942924636 0.70398159237303126 0.19945064383106281
-0.64994271176617957 -0.54083265626451826 -0.20320968167438025
-0.35170654694652903 0.21044015119764836 0.76551319235361248
-0.12286498024069559 0.68975612229554528 0.71280381536210591
0.7623704063473582 -0.35820894736162501 0.54291932955779654
-0.34049204277806666 0.082060218531374574 0.77449235046268328
-0.27907708468788606 0.30934229746956632 0.76030710049250061
-0.7627394547878632 -0.96257210222455392 -0.42640862482102282
-0.44439078197842719 -0.13909723966848375 0.74981500182026917
0.43326752031333093 0.29457607018615484 -0.10474020244198989
-0.59309896079031832 -0.91986007307194839 -0.42374537940714863
-0.11222406904700932 0.2625864518679073 0.77990253136832965
-0.047702267846968738 0.36428550305526386 0.78383697893929405
0.10135504170378695 0.15596088491456683 0.73421539039831596
-0.81858715368205015 -0.9222341175731037 -0.42388703878274203
0.36806869018993993 1.0321329179656455 -0.39227072625841686
0.33802341037132777 -0.31021598780251836 0.75512792101041271
0.70116961211719797 -0.27677981146920061 0.5443489811188702
-0.083842333278166592 0.47140959913411606 0.7488278647207558
-0.6749663369657446 -0.52850299344656193 -0.22508890634548973
0.39168932179066829 0.047828030410485667 0.16350605243698446
-0.18747416406207762 -0.32343033900847118 0.74381173338405571
-0.22865475837417648 0.52070388489257979 0.65504819799098435
-0.30504804692444232 0.6393979533997225 0.54369039868112257
-0.038668957924528513 0.3301591549295857 0.78586005692887095
-0.17659723249879633 -0.30228073300320801 0.75703977103360121
-0.095347289334430485 -0.07995099700520214 0.77875822652487248
0.75481867340223374 -0.29135032487074497 0.54066880193163869
0.51044054857088739 -0.33269185863728623 0.46994202865801937
-0.47324389312295168 -0.79209787865888082 -0.36270455294253967
0.62093004723023881 -0.22482124976635021 0.69978833016375053
-0.59408175523752416 -0.75072610123543093 -0.34761778779783548
0.43191811320472517 0.19474001511360939 -0.036815210113376295
-0.1518318266408798 0.29681834985348843 0.7755432560054869
0.3344852287934188 0.61387632387334712 -0.16209321375002617
-0.24688971951717065 -0.14036863417192436 0.75995025324710408
0.22382261783922619 1.1466266962061873 -0.40014318640952062
0.40867913441516812 0.61437758749872451 -0.23335666370173769
0.11927687571392198 -0.30667833464519845 0.6187484868372024
0.38844106248421895 0.0060739766658457484 0.19914474829622009
-0.32156295038403826 0.2849228436328044 0.74643216626314057
0.4202237401002904 0.4362682208116091 -0.162851765360708
-0.24818732238949792 -0.063176606051360551 0.77618251462170118
-0.2248185068552182 0.17989835013636934 0.7813544611454839
0.62584797909467937 -0.28474658479677828 0.59355863165366796
-0.067632700571127913 0.52998388871334967 0.7399170519089191
-0.54751455272606009 -0.30073975663175645 0.70558937487937534
-0.30445086541675259 -0.60884125165641478 0.18240872767665905
-0.11338164355244373 0.31353438326220839 0.77115427399498238
0.077431719948890532 0.75069551330314077 0.5701616091031676
0.40112052598216152 0.87563134575351498 -0.32980389843735303
-0.2736894319699843 -0.38530243198551872 0.67850419266045137
-0.32031465103955092 0.22200588744870231 0.76749433080272311
-0.10126367616694765 -0.13504024251861324 0.75209783432293076
-0.74339197087183173 -0.89020700861019009 -0.40587014403171739
-0.53788055607554019 -0.6485895528231147 -0.11255619348224233
