# XYZ point cloud file
0.6086720573580725 -0.32713806376915677 0.61560913249752947
0.029053822359824455 0.63334316412368707 0.61880527721310408
-0.2292595983389365 -0.22366193192303996 0.72389645423455118
-0.44813650409405614 -0.2064235691533014 0.72428701696227904
-0.14218183645932625 -0.21127266189996874 0.71308492376172516
-0.42175819587005403 -0.23288852273286409 0.70186403538394515
0.11004565050702997 0.39596024456388079 0.67759118835382726
0.23098405859176108 0.8820256436699303 -0.15662231360856715
0.39054977194864371 0.18114984902252473 0.53458166471741109
-0.34628557371933866 0.10784741892895511 0.76132788527527406
-0.44059633969237488 -0.03812322194764306 0.74473631694969011
-0.68664056953123875 -0.33319824761784744 0.58752158676361432
-0.59717666157702709 -0.7161786112696884 -0.23990991253517358
0.0051623237004227995 0.64672877087751957 0.67400173572257849
-0.061142795394086846 0.51240850806856209 0.72628463080225902
-0.46083934359721468 0.24912491904268386 0.66915974320047145
0.40045692918072362 0.38485142853761012 -0.1925717985559583
0.094877291934845343 -0.13490482494530198 0.73429853571022186
-0.17519531529058807 -0.28347364842121614 0.68436913157382584
-0.23402336448957617 -0.16601779552897966 0.72714153785607571
0.34273040331669336 0.71400237468202121 -0.27420865636119096
-0.17704205226944358 0.16728503114640958 0.77091502962733394
0.39787987233831412 -0.31130846130058387 0.6282145735938629
0.33294098437637487 0.78638228514655495 -0.28531124874442071
-0.049801454265187561 -0.29540208469967055 0.64281376600166951
0.083221030116083394 0.47329783341935894 0.65756293266143384
0.3362511535278836 0.47681965850618013 0.041191612482254669
0.30900264798542931 1.1580892337485889 -0.44221790032866615
-0.45030267245278299 -0.23010805195700001 0.70684243336731001
-0.23104581879047204 -0.13872720645835201 0.73692049739149734
0.37581980532116077 0.24294161914838952 0.16747154114397844
-0.57350461469183589 -0.1937516394709462 0.70781073846055698
-0.028150903627077728 0.26124153139252293 0.78469048796700758
-0.31656499493657897 0.18066520003305442 0.75655441287328529
0.042553021401921409 -0.24780940898717674 0.7445426648476996
-0.12230838854655521 -0.21546409612536266 0.66820888145169999
-0.36754064170465828 0.045214772046200835 0.76496055405478014
0.22257687612303556 0.8468663943830208 -0.54704771450210288
-0.87534587717893686 -0.8339355812580953 -0.34300541032858689
-0.26644987514842811 0.38618341405392975 0.68404245841211164
-0.45934298649997363 -0.19222468628685263 0.72572951990935319
0.30897327025206689 -0.26149249239885464 0.71875578876831803
-0.12497639286135787 0.47286896853965921 0.74946403733346134
0.35121370007435804 0.68238629730527478 -0.25451137960070902
-0.85403813013521912 -0.57346569434269679 -0.38917215464399391
0.55747709452611094 -0.30850028345444613 0.60151929905043877
0.38826322468035013 0.25027647381617157 -0.022544289936503148
-0.58289281775730739 -0.20166754813424781 0.70199224584333297
-0.16589796035056636 0.5470416151027333 0.61190644672661421
0.35466959048929247 0.42468826661711745 -0.098788453383527042
0.12140106587420377 -0.22585902753907661 0.70308597077326418
0.37179301795247888 0.53411163924784333 -0.19217900267377352
0.38715631377124193 0.17934084330696365 0.060001131295845056
0.39949692241527313 0.21832416179528735 -0.0046810744916427893
0.74150217654493522 -0.35800243957957711 0.57974411739010678
0.31472013148805011 0.98166414389842238 -0.37386211371128653
0.22135748205207317 0.80330468151837309 -0.052898449251976842
-0.15662069437259496 -0.20714591530581217 0.70369366871113037
0.29240265498411233 1.0899701793044869 -0.39188855673807943
0.82779417871933081 -0.3955205821966068 0.56627921765107869
-0.5436565861641558 0.10642791196918289 0.66492032624897934
-0.38890190331686547 0.21323657128020912 0.69188891532417252
-0.378026744323261 0.10383236490045711 0.76878483283682009
0.058504436770031365 -0.086434459027671551 0.74955512813756098
-0.61785824046679405 -0.35569997144098053 0.62762009500372873
0.20893053439291842 -0.099761822088254348 0.72760188577939111
-0.14365011428231433 0.44637811476508027 0.73782504438722185
-0.13812959419332405 0.48768720896736717 0.71028563446078241
0.79032247764048402 -0.37287898605684333 0.56729383758701157
-0.4027551093249464 -0.23265010627847005 0.72331184471356114
0.65230116425528928 -0.33807376119887245 0.60434856329406994
0.40448232752989899 0.33079321156815311 -0.089938480911371244
-0.63422578650650685 -0.35363286060327148 0.64919118922440155
0.30711073139439982 -0.18823001771008663 0.7137580012888991
-0.6935571522473758 -0.92067682852271027 -0.41159067900863455
0.47412630482888174 -0.34445915944312944 0.68988620151061308
0.3725458585494037 0.17373816902001593 0.099750041498820607
-0.62069627590890697 0.19166314530967377 0.43884016245070256
-0.25907597460152409 -0.63071741845385709 -0.24554546792093745
-0.67996340645643372 -0.45934125911800194 -0.36894363288243248
0.084412146564488033 0.82830419882738227 0.16941962119480714
0.31363355587712327 0.98555430959988399 -0.37600948018943647
-0.34053265796708665 0.44077561731284298 0.5797331850281644
-0.62280423986307731 -0.85051236443455647 -0.37766783221739253
0.31085905733224539 1.0250101399753451 -0.38724494224438288
-0.40885757382471155 0.38018080857180614 0.57479898836021981
0.31132301310897414 0.95443665791457555 -0.33654056705618096
-0.32000804407194661 0.066801932908235884 0.76429186627638046
-0.35754253575448836 0.12352515428260169 0.75700727966335979
-0.1019650603894009 0.42126022578184319 0.74690515461480977
0.10102141163337697 0.58045884154917893 0.54396235043277308
0.047518636783271617 -0.25488059321614998 0.73431576440174773
0.30986704438961876 -0.30899026042919431 0.61255030350405137
0.088692443302052837 0.82099639500465749 0.52043102090061488
0.58162769437189987 -0.33258936159390906 0.59386291372212119
-0.19170475414347909 -0.14660560349458507 0.73242494382207646
0.1252536765264386 -0.11842395859451571 0.74015391930538144
-0.28779639707170812 0.19160225586653645 0.76648780825397278
-0.50068105587990175 -0.63124163338488692 -0.38920931026726535
-0.63375631708099256 -0.65383682054342529 -0.32576642187810556
-0.043989275204425304 0.56359003853376954 0.70780424256164931
-0.20352124526487669 -0.1891627961847302 0.71752500974974875
-0.61762712694488453 -0.27042085156241846 0.69332537489306656
0.36440478916789942 1.1444975986058026 -0.45272351097447938
0.39866213683974649 0.34602892813483876 -0.11081763457309535
-0.56069585954711165 -0.87778169505448922 -0.44237395264097579
0.1918148132095574 -0.25868129623434299 0.36431071319366026
0.64960442828827447 -0.32066784554386807 0.58370665301232316
0.29362336536746447 1.0813207001467582 -0.39522853241112621
0.33519470844971799 0.47617073504786234 -0.24393781918905688
0.061257946891700943 -0.080435427905563017 0.75059447859371708
-0.010036015958315492 0.58968938220610134 0.69170206368218423
0.30334387622179371 1.1671907090546636 -0.43526917119357478
-0.16020763506318575 -0.20860121831986156 0.67671208796504079
0.21872497463305951 0.040692784305793595 0.73242971071598806
-0.1054689070808541 0.47754668922686072 0.74404902029551145
-0.36441075032968229 -0.43603414610696234 -0.52196261317229187
0.39342072168268771 0.17350442444231362 0.064850205594968457
-0.42632812665006359 -0.014473791914090484 0.74903134089508061
0.34965033202355933 0.4596965267240698 -0.098018612589394039
-0.025227562855363095 -0.12666943798053509 0.73813400216932479
0.042616847076674791 0.27209954841140771 0.77776550105928433
0.56020101155106317 -0.32077152207172333 0.59305587985201091
-0.23402719739910971 0.31257270279188987 0.75188808795941675
0.29867213504425827 0.99730756634352602 -0.36128175646857841
-0.26892651209494378 -0.22430946532867324 0.72917753191400525
0.33114779952439033 0.74502035715200066 -0.25044710394465319
-0.046696210107564973 0.64563404463005902 0.6294192762370594
0.055001491466830643 0.21935731440892781 0.77132552958122957
0.18550456891334433 0.22524494997273337 0.70571530791160164
-0.64462770523918067 -0.87472986262902896 -0.38911754694980516
-0.13176266077076981 0.60898259347459671 0.57019337176426887
-0.43581949961787991 0.25305391681874312 0.69918707697413662
0.38753053016137606 0.063471886558094326 0.63084157794091666
0.30491506167006088 -0.009272330249778804 0.67387977258715992
-0.66074392489629119 -0.1128192798893668 0.55970028491653601
-0.064105227762692341 -0.14260082036553356 0.73324426024478573
0.31714074293033701 0.85317160739635156 -0.29489200899193868
0.18262916468551005 -0.066222520333226953 0.72177656377349209
0.22314394279937133 0.62660210402348682 0.17974254854444816
-0.060534686527158321 0.51881109532441094 0.72511960340508086
0.39516953539360333 0.18916302200923951 0.041125687795265264
-0.098061597066662287 -0.1191732984279632 0.7446920887004147
0.62859356245431675 -0.46955116395561802 0.62320862435391966
-0.79138279093004371 -0.75316836488843908 -0.38725230505938235
-0.39189215957575207 0.061438818197199652 0.74730791516942485
0.3202724040618401 1.0033781728891178 -0.39641319017989041
-0.60751739161749541 -0.57740539739118368 -0.054718377670894824
-0.80630993466883183 -0.54512818827709619 -0.42384982115438241
0.071760577518534152 0.44932773846242036 0.67733194638087202
0.15217889712706167 0.82870264804420657 0.048279823203598582
-0.68666564437049971 -0.53688747183894137 -0.23858377933852992
0.53513245931577147 -0.29969845314806776 0.65180492853672245
-0.33170004225880589 -0.62375720895019704 -0.32796510674381452
-0.45883484456511692 -0.068433693176871202 0.74210238766092562
0.39014698377649903 0.34529769701650181 -0.093026358304213019
-0.0032753632273108124 0.65116436184178106 0.69010419095504982
-0.62731489421563325 -0.75705100067368569 -0.35949628760555008
0.077011452277980008 -0.19365744442904287 0.71397880783009793
0.057547978777126474 0.79499550518285034 0.50456950318779814
0.39579978228038204 0.39679717064443665 -0.14255297235891007
-0.67015767541501958 0.010067784879717934 0.48534964633619992
-0.048780422538860613 0.42794464338822458 0.76757782433076116
0.1920059806792247 -0.19232746032221648 0.65942464732815864
-0.14069648272048774 0.53624906842070885 0.66528433652568086
0.49825071431168699 -0.32378917274287566 0.6081177168625933
0.70694014975709574 -0.35786201801249007 0.59671603999084954
-0.50909931688276533 -0.12124488611258144 0.73099204793931172
-0.58244218768357214 -0.0075855351580287333 0.68685813186316658
0.16763961664422489 0.24832829386921418 0.7130782909968989
0.037762261528085261 0.36969494694003657 0.75610184551648718
0.15811501424054075 0.1880620469330232 0.73649671983888432
-0.11175543512327923 0.46633499822451618 0.70421789837936721
0.064497536301256986 0.73944197518479982 0.31620566776806491
0.1925261379779748 0.35717087656597357 0.58761025608701267
0.054525628871894938 0.77780890080723175 0.56153278209408786
-0.68228066857589376 -0.50640974688345253 0.13425340297611221
-0.12451114251398432 -0.14611192053018485 0.73212887730047438
-0.84739995665560741 -0.69917841838101147 -0.37026673034608137
0.52210024600022353 -0.30213054926422878 0.60853295381468353
0.42062954297582511 0.031720399528499144 0.057694571031758457
0.29985470674503301 1.1168667087051851 -0.40552594407810183
-0.11807463732537915 -0.23734893167435445 0.74308790989023699
0.33400419584893193 0.8039977187461318 -0.30501870126429331
-0.072313115745540557 0.84743927673563135 0.25135744770288859
0.52722586210712286 -0.32067679215402833 0.62459826825187426
-0.64222329098038244 -0.38534426403826494 0.58261716538430353
0.17285027615938264 -0.25577335630183029 0.68458440133212761
0.35135096549895373 0.97966142519979194 -0.44169610437494811
-0.52184383629311348 -0.14026093391796479 0.72701257072499725
-0.60362264984761005 -0.88721600229623832 -0.41971764284396329
0.74003438515271491 -0.52389659113582709 0.58857090656601141
0.30378652456185762 1.1212518231565483 -0.4010636275252164
0.35804527425461874 0.68239265291841456 -0.29686925814919363
0.14244916809368258 -0.18276841677067779 0.66678251383217635
-0.099687246008043573 0.42113233738843903 0.74506712260980912
-0.69851351601019118 -0.52892287884483835 -0.24764223865071777
-0.8475482455971548 -0.59465989717631018 -0.3723920854199001
0.31805077370942225 1.0578627101489442 -0.39145122417211731
-0.086531084370739642 -0.22165686727143452 0.72918224709084001
-0.047267068507716559 0.57923379230671834 0.73844180066793363
-0.03332233682194996 0.55080632445794286 0.71057960191618896
-0.102245549264254 0.29513055040021641 0.76109376203549139
0.36661497284387767 0.58811396808273741 -0.22690418094270726
0.34703037419927796 0.55705745904478476 -0.15906806409737229
-0.63142414458199525 -0.62219856157433817 -0.28326625269322747
0.17777881713170901 -0.16990231075260809 0.72371122998474657
-0.58998041490066377 -0.6720590294838189 -0.28864225087199102
0.54848930270045648 -0.32138615420831407 0.60035792532568877
-0.28684449567224934 0.19256585952160421 0.76712294675660786
-0.52232275055492039 -0.16053004427217665 0.71602571383926783
-0.6229138397889038 -0.90428990978374024 -0.42479550466722671
-0.093339416082452331 0.53091874362969804 0.71363215705881355
0.51127425730187404 -0.32391653041497648 0.59751465737455689
0.49028865230929464 -0.25392893597414812 0.6235140792352718
0.3074725263538074 -0.041701306302762475 0.069594601015381841
-0.14995229477448735 0.41615939271908253 0.75188025565032834
-0.074707784694919788 0.52305312418248917 0.7415533458880299
-0.48508928187332145 -0.098709375059801374 0.73677516822810674
0.58908103085675134 -0.44469899858557405 0.64791056728628416
-0.42570257580289628 0.0026468969986854773 0.745200619761615
0.31663759509735367 0.95232933940289399 -0.36251298525585085
0.24562365701256184 -0.24606177406112373 0.63274334229028906
0.35209636426239399 0.50774032181383077 -0.14319924421662833
-0.14035900781391519 -0.21087953742260623 0.71105389321717816
0.56168303055333135 -0.30987138915843992 0.59100393810531138
0.020296230829116801 0.20827219302609734 0.76975646610148019
-0.2169093784561249 -0.19080364556903362 0.71787292498743582
0.69041921146713758 -0.49496274249651151 0.61180741477401135
-0.45020545132598366 -0.19461165322621099 0.7298974748030016
0.32091383215069108 -0.2738415684168185 0.68933644340923816
0.026662847540727341 0.68257410330113899 0.69182291667827567
0.19314203544413777 0.4535752442749299 0.54037568183853235
0.35961720326621727 0.59813340848343444 -0.20968431915035346
-0.34017351295479958 0.14273089891584334 0.75747693752713019
0.32508980589904724 -0.065367202490307363 0.14428253801231961
-0.64891789579348469 -0.37431242606536586 0.63311768454249506
-0.62648337698638024 -0.66419043177836556 -0.12911070800920577
-0.15944132637927932 0.51896550233892746 0.64325686346414823
0.40639111630155167 0.30036530137923378 -0.065118051435076652
0.027642186090420573 0.72826340457792682 0.56153418870864158
-0.24568846161068647 -0.17479599051874928 0.72730608416298814
-0.19107009301517053 0.36260477515150669 0.75511317015218182
-0.43664190781422896 -0.049371324075154988 0.74869387963467027
-0.45224343267322542 -0.059217843976952622 0.74457787193083114
-0.48685627780063001 -0.58238749415644442 0.062506874007137725
0.25231223827832494 1.0391237416904229 -0.31588529710284163
-0.73822904319368554 -0.5688726539975022 -0.31657293787751151
0.85848134098714746 -0.417121852961996 0.56328919006253564
0.80868972402594874 -0.4112786796579524 0.56682521817871434
-0.59733839692111346 -0.54943439844539377 -0.40693494223960514
-0.61211105697237223 -0.8735741810262434 -0.45167362265200595
0.31652295082905191 1.1517164196155871 -0.46312864874039761
0.21387350040093134 0.48845555072614744 0.44622229256521528
-0.046701294028855145 0.66479196072044289 0.58220562528372177
0.38714666539174925 0.45968298040717848 -0.17948378868305603
-0.66041791535661609 -0.37368056465256316 0.51520076349088395
-0.024893872548607199 0.43019265934540307 0.76358013473209585
-0.73974420433957455 -0.90755676772600058 -0.37866960079734291
-0.55301149882940948 -0.23138886244332291 0.70006318166885606
-0.082506420189925045 0.52049784922226827 0.73669046492417944
-0.41524210767077019 0.0065051421536104215 0.75155656343085742
0.29498705330178243 0.49104115070430865 0.22289649446241278
0.8578721343546496 -0.41180124072424107 0.55917521126790826
0.29358819896829491 1.0812945490263601 -0.39441774073287839
0.010666464423039645 0.57131793887930549 0.68702648917259346
0.78684862084395024 -0.38785289808734724 0.57131029215154028
0.73359460146036493 -0.36523420673728069 0.59010410291313997
0.22306376918762894 0.66665958151253335 0.11956183867662595
-0.59270957335008312 -0.40927393554015623 0.35104495063668573
-0.62915334748567631 -0.62200497798231602 -0.078360855397455964
-0.093823934892529159 0.49721799069487638 0.73626225501965425
-0.042001613171330554 0.55383983321791241 0.71057016646328641
0.27401971798769686 1.1076296833838839 -0.37040309520149073
-0.48534148330441162 -0.10550934723605643 0.72932090802487171
-0.37487832121653142 0.11398605755947067 0.77633675079779696
0.089934837468729434 0.30267708646100999 0.74622486448610115
-0.70490115195407199 -0.72672555845176134 -0.40734892103770548
-0.42243412755003273 -0.038263582314282729 0.75386584392078415
-0.089130763609917452 0.49467508952350059 0.70451073791139063
-0.68537144950887985 -0.8891463487941289 -0.38508894331146948
-0.011840690049607527 0.3667764064869683 0.77628869273888146
0.67019341068372318 -0.45273034265736989 0.62865893502889403
-0.50206766196638419 -0.1517873846902642 0.72201875936364246
0.68596052776657113 -0.35348725280667992 0.63824808264399913
-0.60686471093702998 0.1043032289353345 0.54238250702085189
0.021401707583050544 -0.16389082999198124 0.72473631567297669
0.058450087152412511 0.2320836386963343 0.77623125754109701
-0.60755459597338834 -0.4868691907100402 0.13048034955346743
-0.66170983796911287 -0.54183072452751979 0.030872255901906343
-0.27304757176404326 0.25391947137240223 0.75453810196764426
-0.44834700914684156 0.086164339271041612 0.76314905449167902
0.53522463345693605 -0.33087213395046966 0.63883300589292702
0.26651989618927985 -0.15733643269594211 0.23717849225239362
-0.65865506599730317 -0.69744781026781411 -0.36303734965788337
-0.050230048358146817 0.59302375199840718 0.63748621656135995
-0.3551914857322469 0.1414112109109471 0.75764175289507385
0.56443025016852633 -0.28057990599329941 0.67091037355959848
0.24369309014602658 0.34572832957275068 0.58468206950801793
0.31492339412827519 0.97465781648000771 -0.37263052536432184
0.35348125675004471 -0.19644253672572987 0.70799557711000283
0.52686401887165468 -0.32386707590535657 0.59514218990773315
0.49573708821408391 -0.3091813923430955 0.63867333062051301
-0.76811959847549005 -0.36710509904402855 -0.20181350293734646
-0.64647473154044199 -0.62656564248504232 -0.30683229310051274
-0.65401562642020128 -0.28205225825547231 0.62254816066631236
-0.76149913894433041 0.49668302087900251 -0.059545260179930892
-0.22353874754550151 0.33553396244196065 0.74949705122589894
0.13589215097677254 0.33493835645554171 0.68650039426424314
0.10304046216046964 -0.18158000605919433 0.67921244283980808
0.14219388557359292 0.84798718086043934 0.042712909985731073
-0.81757302230824358 -0.63609881728023066 -0.37338778754873303
0.35305038469856953 0.21913154989986339 -0.072845729206981957
0.20295729718458233 -0.055416837577283218 0.70974654790847502
-0.45456326859759422 -0.043912238089600208 0.73077828762916752
-0.5388742580788497 -0.20482893169857341 0.70978016873402883
0.38999979444380273 0.22886979934854423 -0.012140481674146386
0.25694262674309476 -0.22563347977861881 0.7208476203292502
0.31230633115101281 1.007612786478683 -0.38533123429973948
-0.26206651982922158 -0.154473423606035 0.73592970695758186
0.094261541136650306 -0.21602372714183105 0.70836942674904879
0.8116027078103778 -0.38435291480945999 0.5647787831303277
-0.33346712904645415 0.032652867432522825 0.76253023461805203
-0.026319976810771806 0.71712693930007099 0.46126992061410732
-0.7673673337384912 -0.86286095441947541 -0.38414650904091907
-0.6362580793019541 -0.31493480635662685 0.67367818980525751
-0.62169006949310202 -0.84157855920191427 -0.39165764450331864
0.080819185695306661 0.46602278301933531 0.6639055620407035
-0.32361624344643403 -0.26548505006416789 0.70607298719203371
-0.43073930395917603 -0.016002844897649027 0.74864707136690534
0.38346913155973317 -0.24740248122568254 0.62532839286833797
-0.6209034115598584 -0.28370604313865577 -0.46633069214902179
-0.12325581208225334 0.46425695348706419 0.74203782954869357
-0.60709478525861371 -0.71255056037071007 -0.22002543566641997
-0.10387759358415405 -0.26053264705862844 0.69315910915943935
-0.71047239160903608 -0.75570753254965339 -0.40935581698189161
0.043539381483507 -0.4965324222720362 0.0070683652333762836
0.23808390672079949 -0.21831060856965401 0.68297539255651429
0.1357496449953377 0.39245305377817985 0.63156571974184494
0.52317408721025527 -0.31707518627237086 0.60049870526106197
-0.10728219190248911 0.42354952104206056 0.74844418611514651
-0.40710511909203539 -0.012892345254968518 0.75707515772142209
0.064675491367051752 0.22705866490357351 0.77393099259697795
-0.53918389657501109 -0.18056705425816943 0.71323622507027018
-0.63563292761826773 -0.059757322893908338 0.6112858254762612
0.25912643186596185 0.54790599661797401 0.22273691015894492
-0.40953566713591272 -0.64214176662735767 -0.15740137494866602
-0.02395647189611072 0.60336376046467599 0.63601955426416712
-0.14363386840693249 -0.2419646899218435 0.7388023551486036
-0.85222044958117493 -0.18105334326374845 -0.056332265207931442
-0.2659105353759994 0.26051336374142231 0.75642797774809623
-0.19506905450306422 -0.21046064485762095 0.69707072948673954
0.27755377646161072 0.94996168596074426 -0.30152344063796477
0.25795231146186381 -0.12689937384171657 0.068266642906472441
0.31600549492008412 0.95695542631429653 -0.36441282694861066
0.72388504665873032 -0.36173139273709332 0.59217401639473222
0.47184327088219358 -0.27505730221837688 0.60876756999626691
0.36242789152997545 0.023071427685678714 0.23580925520353446
-0.10712347072082806 -0.2117959983434119 0.71142007600269785
0.26104620532073941 -0.076649534431673771 0.62937315893661427
0.35999303706866925 1.0856747648075391 -0.44445543763806583
0.03346365986612776 0.26102333568314151 0.78041065690935607
0.19560647597122127 1.1361433737641384 -0.4357421363681997
0.13692259906292481 0.35148115655038836 0.68241562433242731
-0.4239051756890273 0.013188899536899612 0.73887307034983873
-0.14737036701110284 0.95387666986803055 -0.010464511918462094
0.092406650546942526 0.44172087324369613 0.66912745792125161
0.19522026943698245 -0.077418304572432817 0.71712195747674912
0.093736483454746722 -0.10552617986272139 0.74420308443863981
0.3150849790968433 0.97512370426292883 -0.36756459910378148
-0.75896946962826561 -0.60407069071993469 -0.35831953073416933
0.026521183549787608 -0.2483261519650739 0.74494462054376953
0.88073606385907044 -0.46612673272364447 0.56044874009865975
0.21354018323975743 -0.2797616879944762 0.73005734973039527
-0.49053259426899398 -0.12809790146584454 0.72367813665441449
-0.71522516858247442 -0.74099578352682016 -0.45529512360023716
0.39504269912493517 -0.31383949250134613 0.60619041140183771
-0.47191344832133453 -0.091596888951846367 0.73115174155501705
-0.54300812651784724 -0.59824488364244388 -0.40545540147828518
0.59606002310977124 -0.31532100844135513 0.59527232796287954
-0.4375112614244987 -0.0010331833080794439 0.75009581215877397
-0.74821224467663505 -0.88026636967638794 -0.39726006118094936
0.58957344051665883 -0.33286211164690904 0.59318362303775585
-0.64482419309709549 -0.56541806058345223 -0.035932995467277351
0.082330716576915819 0.73458242915908656 0.28938325543144572
-0.035199868012565361 0.7959181497232457 0.35354423661554968
0.31009594619225123 1.0283748970731246 -0.39103378883921103
0.45155400219519704 -0.2217776015524926 0.69500072732003737
-0.34342249775018274 0.12584710171848634 0.75998968554037383
0.15393630053318086 0.26355154676585002 0.71407749821202238
-0.046453023510702796 0.40748888017042084 0.77241106137860793
0.3302786646146707 0.8238926667241131 -0.30691688215562074
-0.035450066791538504 0.53348179021229392 0.71782629846017354
-0.64601853347008387 -0.56490952529365401 -0.010541137290321245
-0.047090606700232351 -0.20811472355505956 0.71257918481655036
-0.53864974210774008 -0.19136209618356226 0.72074640744026741
0.67539411511070768 -0.34392453062137029 0.59741902799505686
-0.50676591824115835 -0.20744205024416118 0.71171317093147035
-0.56902986100926611 -0.21393278134517502 0.6928042284848388
-0.60438382982581906 -0.83560915521899926 -0.36774885934635826
-0.17137405544253603 -0.55054313096415797 0.38064547510346358
-0.70480429954183954 -0.76007906534316749 -0.3991656033073081
0.708286249558157 -0.34971232270283181 0.58912074178162577
-0.077441975092903181 0.43515679256518069 0.74932582001001791
0.21610645827827391 -0.046669081871808515 -0.31898363322455126
0.15769353865416669 0.1634422763603034 0.73998327506399697
-0.29749960070567338 -0.20896756096073688 0.72448160139680073
-0.59675709601149052 -0.69745814410619467 -0.20442047467183144
-0.20860534229915184 -0.16583188010764616 0.72586078852722569
-0.27749734439961138 0.2425256282281385 0.75618401835459625
-0.45027306117852994 -0.034860199090340771 0.73870633720291412
0.38601197559491673 0.24812608850858098 -0.010017549925969149
-0.56082301861704931 -0.22858972801497046 0.70282022864692362
-0.81381811245484847 -0.28025174745929426 -0.13554145492699909
-0.74235167751053766 -0.42906707896326424 -0.26278792014878327
-0.26960310167816459 0.26183321299587092 0.75281713422275853
-0.10058940028664187 0.27441903202230122 0.76534221758249554
0.3590712362770212 0.52478003509349946 -0.16437991238711547
0.097396901238425482 0.56457426498649887 0.57512409058232983
-0.55978512914268386 -0.24726892677712087 0.69433542522864045
-0.62146492095837402 -0.85205614583987543 -0.38277110896399336
-0.19370139923103835 0.38446370388275675 0.75423175384817487
0.033836204695655958 0.36662722479832155 0.76018841418780347
-0.1958449733508362 -0.2593899235725754 0.66617560786490415
0.14754994852967873 -0.13506261362710248 0.7346335564281814
-0.38372047311782786 0.073990546319278039 0.75074282060994335
0.0026714649348971164 0.44498791493642642 0.73731501824619894
-0.55058491400072995 -0.76191702793263971 -0.32519871378285359
0.043223906464303852 0.37491680284889028 0.74710680223753734
-0.51911650365968853 -0.13954423551577655 0.72833766691528101
0.13865593739401971 0.20782421630012138 0.7338462714388525
-0.3554956074406217 0.11053484423093174 0.75949096416913342
-0.67207539945971284 -0.52669612834599988 -0.095545659529946647
0.16346395603525754 0.085044892992389265 0.74366865838432794
0.084191798158468778 0.4332938005562319 0.67650258617525516
-0.77924750330616988 -0.46817203800901197 -0.29021738940892483
0.14429062177589458 0.30972743619684806 0.69398988798501904
0.36918818757148664 0.0095474473167556084 0.079634181801008452
0.03476279096240642 0.68679627225168005 0.52478496589634904
-0.32512083448481888 -0.28083800954993166 0.68455644164709373
-0.57266873574426924 0.37098958036791885 -0.5672932528268646
-0.77469045129114633 -0.94601282343140003 -0.39841420836985719
0.30387989793722614 1.0601003844123795 -0.39416365865519509
0.14048977434448065 -0.15314324499568954 0.72768039237664883
-0.58262377371769603 -0.22838867373881833 0.68042644355431747
-0.058337877318564435 -0.17688098412069664 0.72039414102803168
-0.65204918382275601 -0.87518306573784699 -0.39056825018445807
0.50828458998964843 -0.34595470451075983 0.65148943433827533
-0.50008204348898033 -0.12966566457055428 0.72159845022961999
0.4562430115811319 -0.29266691158521141 0.65442096262780769
-0.50311093226703107 -0.13952887381087642 0.7215151400135742
-0.29989383039847795 0.19307448867814081 0.76123972905831749
-0.51016820442491273 -0.15953923811572857 0.72025019617643959
0.25785278983740811 -0.024521082016349283 0.68107298902032198
0.02747718903952201 0.72948869782512205 0.50700718154137547
0.16490852418604929 0.52152609447993648 0.49948209132440446
0.26049454163321828 0.46249851318080815 0.37552814154357428
-0.12504552620826015 0.531061575183152 0.67126495214716453
-0.68174385833110929 -0.34755148581639794 0.64390180126683561
-0.57659191003284693 -0.22308117729532384 0.71024230751486606
-0.47564291232779166 -0.10490048575787903 0.73055037332903439
0.14953336251438643 0.34724525929403427 0.67899024350210446
-0.76291914286516871 -0.84713483498758357 -0.39373246951920926
0.011446533881414034 0.2250438221277733 0.77863371513425861
0.095367441739311332 -0.30468877855936505 0.63102681696052221
0.36296844746795287 0.37261361495398759 -0.078068290066999779
-0.24482038819768803 0.36925209296875394 0.70941619514373144
0.30600336280801521 1.0429243890177009 -0.39136563428528426
0.35130057817041216 0.67910160186524848 -0.25724645445074579
-0.35494539047017692 -0.21490490384387684 0.72757137971110275
-0.051795597474522559 0.56255767469076723 0.71111251485847848
-0.21686697373747954 0.35202333858638291 0.75755409749988889
-0.29871070367474317 0.22243656804401013 0.75839220254033535
-0.62533291534427704 -0.63309713086298913 -0.29570727165025446
0.41845914934244899 0.23633244656017993 -0.11026064482347486
-0.22364145241183842 -0.53879438138989677 -0.39792138670777533
-0.64119162317889966 -0.25593777476705704 0.58144502894861105
-0.79215660940512933 -0.5516478794644275 -0.34025924133070085
-0.72093706808996494 -0.75632143903839388 -0.41802848538458726
-0.13758722901627873 0.48392696419459291 0.71175524392213596
-0.0071038919553085833 0.21768349511060237 0.77197688268054154
-0.33012937341326776 -0.63998446968138545 -0.27717588638519075
0.38081348288655192 0.29308883859004808 -0.092024848411012883
0.87871564547604475 -0.47878033592198932 0.55290566372030803
0.02099802737627865 0.70888734088753935 0.62225023746217545
-0.36914100953303297 -0.6330651453216749 -0.3000253431133757
0.83518301820965957 -0.3978107790983163 0.56325356397657789
0.055075264886252029 0.79750758071486771 0.49897671654835474
-0.04603470534237708 0.52678352104592108 0.70744449153493782
-0.29685173469153003 0.19645421239139971 0.76059614449873703
0.17302168216943969 -0.088413527143540449 0.74018245907214197
-0.32742556748525864 0.17855976273231633 0.7580965161922375
0.71695045546601133 -0.35799973868737922 0.59025642731720307
0.16180179142907822 -0.16754329246908384 0.72304736700421124
0.031424973063341355 0.4930277763769908 -0.63921672597528456
-0.32934350977183247 0.13640725496690109 0.76260765033377709
-0.73091020964803555 -0.45576374033874245 -0.18895600149895664
-0.59231043722913412 -0.63887781449069969 -0.39882592727128419
-0.62614209236995677 -0.65502156766866015 -0.12663732291659713
0.32262097279656743 0.88977406415432547 -0.33778146136206466
0.35344713253561721 0.42126802450423639 -0.089383757665421726
-0.4419431302139607 -0.037838078106725348 0.74578920393199954
-0.019305378538773788 0.62574460736095716 0.69654480426363463
-0.72817439037387111 -0.15842512124477182 0.38500372761901502
0.012019677699925069 0.49411242144511114 0.70179591711736666
0.27128177749032112 -0.28624241159863928 0.72695460308559134
-0.41188472426107303 0.046388554931606762 0.76381534406671481
-0.24904340844089679 -0.22584406464760498 0.69413783618553104
0.29229492008056557 1.0104832461998861 -0.35357400707010456
0.3611829005854883 0.40036143983855155 -0.099622407962474568
-0.63145138178240678 -0.5983909540746577 -0.050183456275421534
0.36392286817302555 0.62260401760284978 -0.2615359779229216
0.22121120151843199 0.19517923174936769 0.70237722684930048
0.30667449427027638 0.82267120418073958 -0.24954387285161772
-0.054996498701637364 0.65870435437815367 0.64478315706228351
-0.59121519822869573 -0.66210629514115205 -0.28672735717962716
-0.33969581447256658 0.21798370825902147 0.7782946898339711
-0.090548889198441174 0.23524252540475032 0.77109577535772011
0.12668354686424643 -0.12447941009618901 0.73771861415452378
0.36236262854172985 0.48217366156725916 -0.17520156349907268
0.10006469998603862 1.1235313595220635 -0.44745940273493012
-0.34704052308597477 -0.23453284718555167 0.72099859935011512
0.30390354470895886 0.91095967155423807 -0.30741737589457152
0.14381641615918594 -0.23570851272518567 0.6424112672693969
-0.48035604651798325 -0.20137422024826535 0.72617189478056066
-0.64170064520697601 -0.56915678999245323 -0.053183318077911323
0.88203793241086559 -0.47784247270394609 0.55423359467184818
-0.30581845056898516 0.19259105852376557 0.7594629956498018
-0.66810361614614422 -0.5309578733563427 0.06790701892841966
-0.65442883567943966 -0.38053365622911883 0.54224495888002
0.75818995338028561 -0.37223539136562955 0.58270484652186427
0.37642247157508635 0.49277781531395703 -0.17059190292106408
-0.019834512939779003 0.62447111913640896 0.60967364717535588
-0.4494297029956611 -0.062141475161658022 0.74498870735150113
0.11602476650557625 0.17480868886085688 0.75035749508145777
-0.13929028288778156 0.4443617670018547 0.74294948734247779
-0.80412431939973494 -0.45501587493640372 -0.34373341005305846
-0.4636791404612417 -0.61579066371846025 -0.15990233864563308
-0.4331392179964384 -0.047594921474120255 0.75002998260279519
-0.30208551688239105 0.16274621997445138 0.76734134280452437
-0.11123514112381994 0.57665877923884246 0.62181026360636338
-0.70947194595696317 -0.9077249272797836 -0.39650510096396374
-0.15540743370823851 0.41819468820947137 0.7476517218797758
-0.48365649679248612 -0.057410828656946578 0.70631356607002616
-0.10815593320602168 -0.23589513541867291 0.66054197520725833
-0.61029174253157592 -0.78180562570485002 -0.35766790158125517
-0.33139077728119659 -0.56669214614080232 0.32660111539932046
0.31869519638998511 0.84003483247307642 -0.30383692911696336
0.25768886531097568 0.62871772840611584 0.097208611421603308
0.3037598040314835 0.85717597183240102 -0.26871414314792297
0.16472460076195528 -0.17812712601398317 0.7208295756776204
0.18651560533871558 -0.073667338569936902 0.72854153497963914
-0.31111126064505967 0.21138208390121171 0.76417063599536394
0.54376404434493675 -0.41423966773924015 0.65516552079452151
0.36110401800619663 -0.0050349421586837195 0.22504054892133318
0.24453049928175252 0.21091973486472071 0.65258215969165967
0.43319848383928772 -0.35378808183638455 0.69456070246389068
0.16068852815203361 0.67485921729799614 0.23730232226463066
-0.66051519405232284 -0.54676421106886863 -0.17687428150572515
-0.29630416402377691 0.2049965062682233 0.76074628581476134
-0.021879273869206628 0.66236103318307649 0.7044493788817574
0.72292424780937314 -0.34143759185566047 0.58240840556766971
-0.34426457051728043 0.11640648518881669 0.76102312070512212
-0.23351537257449628 0.30965238222681002 0.75279210696081211
-0.70790979365779982 -0.91021479151691764 -0.40698891112296032
-0.46671130904446745 -0.081898200893947504 0.74057343445327906
0.39717489787264704 0.30993980992625936 -0.073288560902160071
-0.62237552091537829 -0.90151864595617948 -0.42314291965459283
-0.1070841366342119 0.23903813518997907 0.77105995549489403
-0.062366358993352744 0.34254121718566743 0.7806405188229073
0.11606478392891395 0.11590696962989711 0.72300403304816641
-0.73679219011711261 -0.86079477786039504 -0.40581724022251109
0.3148603156322789 0.9786534675185603 -0.37462213368580244
0.34025403323928805 -0.28191878620625488 0.7155264077382224
0.60709843439365585 -0.32335308008966201 0.58523863454029712
-0.080945570759784147 0.44856397574173279 0.74068907180897625
-0.67467287544005572 -0.53364553239466694 -0.19447518150799858
0.37433556730082351 0.10945437282208559 0.20249072458399375
-0.17621925729824905 -0.25204669911358835 0.73009073034552863
-0.16449428131313493 0.50096825943418999 0.66298201787518174
-0.19677882534735502 0.61061337071158306 0.58459194467079367
-0.052495091352751544 0.30584733479872739 0.78366346462316461
-0.16478853026384854 -0.23024407017902604 0.74112290676431591
-0.11208772284444191 -0.10448900360745839 0.74920797632046376
0.67085813019560359 -0.32857425290118769 0.58027017881323228
0.43710888012555849 -0.25352017857250075 0.62069005856636084
-0.54870573647007248 -0.8024271781267025 -0.39143732344543203
0.57515035466585229 -0.31855703374005451 0.63527475642605857
-0.61907389915691091 -0.75324673338328729 -0.35246894683969821
0.40349301695994289 0.2282017283036879 -0.00083463790336146815
-0.14337521467052605 0.28030333342161384 0.76641681837938425
0.32625807442266463 0.62854583922153751 -0.14877421243764921
-0.2721168578553308 -0.13109987228396847 0.7414433107371412
0.32457927390447061 1.145555994443745 -0.43226661494072971
0.36192448803681021 0.60233592070805742 -0.21944748889398902
0.04560851253869147 -0.30521986592913919 0.64700495330497088
0.37127920030570039 0.069645845365233328 0.23946233787364335
-0.26632556992726109 0.28042392965297225 0.74574241239819106
0.3794470082989605 0.44032108243795065 -0.13960534454004758
-0.26239475312615346 -0.058831527295406971 0.7568210542964815
-0.21577489926543247 0.17378144789137906 0.76940613083356002
0.56274626863224197 -0.309268072402892 0.60690624759654321
-0.06700968390663764 0.508178243405915 0.72849679471693385
-0.56094628356237664 -0.2264862577048401 0.71256485653625123
-0.36245370123031684 -0.60936769879168651 0.1822122034295468
-0.1056819935862503 0.2897422555694753 0.76385702815687306
0.024606931125491727 0.70333474680763963 0.56202735394565551
0.33100686798960233 0.82713503056168136 -0.31569331366716824
-0.26890125715829871 -0.30861454261374632 0.6756530941217278
-0.28035872609255907 0.22689068091089482 0.75935525145228766
-0.13913662744788735 -0.15407398745680467 0.72916130388594258
-0.69925110695660742 -0.85204845135283858 -0.39495685848240569
-0.6266758020766332 -0.63990729231096566 -0.11493413593221291
0.40296951949789594 0.040769492558116127 0.052219508079339505
-0.68527668122441199 -0.37156038434789274 0.56670747589564208
-0.66951946262002249 -0.30814705351634686 0.63543627825632232
-0.072837705834367217 0.19507659954127021 0.77175271246873756
-0.701754664229993 -0.37749277251970348 0.4281475865786124
-0.7879544424748044 -0.30278627606753439 0.10536700593442028
-0.36234111851295836 0.11011500374907612 0.75285063226292337
-0.25730124973056245 0.27499638061559217 0.754363598438891
-0.5201265896416376 -0.21206632968196182 0.72018366223745822
0.31363702022814266 1.1323059976891034 -0.42275558805234326
-0.51834745301449825 -0.18241873007854004 0.71279266208682479
-0.20240529464986778 0.4672296353366967 0.74855970951348016
-0.0083522026505411517 -0.089615975189882846 0.74937462715841185
-0.59037672925356866 -0.69690354177196134 -0.23628907423585233
-0.73292102011883031 -0.90164864100019848 -0.37601118312892901
0.695076515204754 -0.35080436627682943 0.59214233812818984
-0.023418437075391374 0.3869995172247549 0.77437906042041771
-0.57765196975327626 -0.21940178652438647 0.70827897565960019
-0.039466279040558661 0.56667753213485561 0.70554475067350442
-0.72624322102130634 -0.43754747032396679 -0.34666902789604315
0.28151913027315478 -0.20574789376371072 0.71639416614703855
-0.69667136064605906 -0.43562133498531352 0.2673838076274393
-0.42631049628859952 -0.020613490096490494 0.74984659668291354
0.17923386413422931 -0.19847906160774542 0.71379580914596552
0.40279001313294405 0.26596733843785714 -0.041160591923731005
-0.84217994067400248 -0.65444993936133056 -0.37303374499876973
-0.10950544019810149 0.3817275937077298 0.75206687105733749
-0.58142137942836847 -0.72433386040760972 -0.27305898770064374
0.77820333398933794 -0.36691689434231201 0.56883067269062915
-0.83017160231189457 -0.53353372591537163 -0.4017527292509282
-0.032170988484843122 0.60215783483064378 0.71300725179542024
0.33229198707566532 0.68697494565759953 -0.26036709608850472
-0.59458331662764152 -0.68245774800984194 -0.30694857419703503
-0.28663672543893171 0.25437091540460877 0.77741062855048249
-0.00089771225280266265 0.57436353808565954 0.68840249236875817
-0.56786754547778884 0.15860886190669099 -0.56977095856992932
0.62808988027967172 -0.40336271501397647 0.61802603775984455
-0.33087580939189287 0.13655500045199709 0.76086654283650379
0.29175417664232484 0.38384932727261045 -0.42723433571259051
-0.0085206183280655823 -0.24885297545171881 0.69500609585153406
-0.51943187611764596 -0.20545662865040626 0.71199262248280881
0.2828932903723782 1.1184029165491101 -0.38057942283493595
-0.62049317553027095 -0.6695148612854549 -0.15351134302443725
-0.51996427648797994 -0.23849848917205207 0.67794314872989148
-0.15821288276952306 0.29737229249465535 0.76393130774774676
-0.43119096615858199 -0.22261482060562443 0.72363230496213227
0.39871029911496247 0.22522240897820822 -0.015593566508851353
-0.45660010345963364 -0.083091359286548538 0.7447996177244951
0.072558847035460394 -0.1693059588737853 0.72249129074300455
-0.11816774704903832 0.40164672617715169 0.75209513463191247
-0.11189928724532638 0.32391875494511169 0.76011304828569326
0.37907464699980409 0.50362118313761428 -0.1956682297877741
0.1382210688375598 0.41534916784712195 0.64520976063086177
0.010909828642648112 0.17947159825456538 0.76790176204295069
0.13389588876203184 0.79230193071811073 0.12318180382803945
0.3975425624293365 0.38605511115201097 -0.13090148382860356
-0.80446113807862929 0.44313796990760146 -0.16267902947724799
0.068754839337291429 0.82936301026739656 0.20402092232709634
-0.44876009984185483 -0.035153629037074197 0.73300375517793448
0.30889925793825679 0.97792468399942223 -0.35244832496198697
0.060700083312873021 -0.23447264714421578 0.7267461070450052
0.14455239696026778 0.20144084139922214 0.73536321400045512
-0.05035795184377756 0.45085972610350566 0.75920305768424701
0.048178574309202915 -0.28132541227502017 0.67125607891464067
-0.025517200514628358 -0.21549798347054505 0.6591681347858227
-0.56705107712924807 -0.75473993692169827 -0.30141801781288358
0.34992309818693945 0.0069741296601826264 0.6560852337171923
-0.0067162233733935039 0.71380330177297147 0.52671566399524217
0.27797065860653802 0.19743813548323885 -0.34007552807712216
-0.58677640315399771 -0.80361479661692314 -0.34232704310334583
-0.47035010499419716 -0.067644974859266682 0.74088030662238058
-0.7368426464352229 -0.44594358252482635 -0.10230455486378887
-0.16192256395513738 0.66885675176385995 0.59338677089716452
-0.20880922043470207 0.6259566246268502 0.59371626422160606
0.095360887063005162 0.5473843542307506 0.60133831814190675
-0.39330745028635938 0.037201097890424251 0.75499589665141631
-0.1368626441359968 0.17139145685428403 0.77156650525008619
-0.25311439506076638 0.28301885558624917 0.75620283199552318
0.40638053929036655 0.27541703905108506 -0.043865237744080687
-0.10615430760076627 -0.59374274743083078 0.17820763337568479
-0.23327331272909957 -0.15337996478405103 0.73147103150298953
0.30699153214810337 1.0577355907499602 -0.40129565070130191
0.10219116078619045 -0.16525775791582831 0.72371902815926692
-0.71400473135813947 -0.73290646347471267 -0.41506313363406733
0.0080663011366626236 0.2571669714853364 0.78377022911911887
-0.54705236179030603 -0.17743634203363889 0.71986791921200854
-0.31978948627609971 -0.22294322880147988 0.72276871122473008
0.026290835628208775 0.22781646992979177 0.78067151339987628
0.32510898990703296 0.44664441023430612 -0.30626318345127856
0.30999556020753971 0.78719544252721008 -0.23056339722103836
-0.64634046898792619 -0.34934607676957619 0.65484686688944826
0.14767928876916281 -0.14003237716883632 0.73230052535435508
0.37579761952346402 0.54321481449485987 -0.23180161704091695
-0.094123687798386868 0.48583257339496555 0.73449110457186784
0.2677349200266752 -0.029538710523436151 0.69997321093678266
0.10808397998820229 0.6464535253285657 0.40341707839026775
0.62325846473961832 -0.44852300838604187 0.64083437169710411
-0.52740974930541729 -0.2260615268494206 0.69594594862458869
0.075516443466686844 0.80194062401930566 0.54360595543454604
-0.63543065323402459 -0.61820840352173612 -0.064363622694450839
-0.069562945131065979 -0.12519636172542903 0.74016737969169277
-0.82946841164150342 -0.71597587921374384 -0.37392214777638166
-0.46681476918015008 -0.085133525362076412 0.73331709373214071
-0.83038276724237292 -0.75895317906478166 -0.36839851488408826
0.76069884968871682 -0.36820115051078695 0.57792877169749213
-0.0049634831011692304 -0.1162173815565879 0.74127907702148299
0.096078912486150525 0.4470621565502757 0.66228524522109211
-0.70106083431423727 -0.8115311444880593 -0.38971208999485896
-0.50941693198730498 -0.16557431264144462 0.71515299326295434
0.17741434338026174 1.111607699915794 -0.49704399220998852
0.41416238294371932 -0.28784285126346987 0.60675845082124136
-0.16570383686568269 0.040537047582361652 0.76998519778952623
-0.64916623873680557 -0.56005349594625642 -0.013501960660164514
-0.034995947646991432 -0.26495944557321138 0.73165497748943764
-0.070469964392698259 -0.37083091449812144 0.63074918227031418
-0.20220536118243615 0.3605978188983201 0.74736648791867033
-0.57964808729057715 -0.72554430445956442 -0.28351054012818544
0.006540591185068334 -0.10507147448108256 0.74462558840114301
0.40140022450307011 0.37103620891473632 -0.12839846771301566
-0.31771203578096241 0.14350464854797629 0.76696061755262068
0.2315151339057353 -0.19556555801778686 0.66777960624699251
-0.61753837721261107 0.25024227335514126 -0.54451292517513039
0.4006514945796642 0.19379379437264888 0.040436286176209535
-0.23237060561114653 -0.13280797189169746 0.74050152389314672
-0.15182217265539411 0.42052824526409793 0.74878360534941901
-0.6441479614110257 -0.91138722577904652 -0.42180055386414317
-0.38462632885873349 -0.096972720989283445 0.74544172949383292
0.35457041004666934 0.6838246662738392 -0.28228960345464138
0.29398072047048784 -0.31155569196845434 0.6213213179675261
-0.070069425017711851 0.22942730409718237 0.76715231910419845
-0.72062133810546314 0.35046210902375385 -0.45315669368872236
-0.28748257051886661 0.22459142431365109 0.75771768559908281
-0.69047450238697294 0.036680008507183004 -0.48080443747926616
0.060685546752043518 -0.22169365096011617 0.71685113177831106
0.048788627758090009 0.22291291635009713 0.77660978607490438
-0.25632913821960912 0.35052831714988919 0.70959116555264856
0.047370806549622557 0.78649433251316658 0.49757760293025655
-0.67872998337841128 -0.36533864732208521 0.63966009807406188
-0.19219982386902856 0.37878334773646571 0.74528435832040429
-0.69406012829405839 -0.91563067298365741 -0.41150399978115537
0.35950018788088656 1.1657066442498163 -0.45489354108300972
0.12707249199766224 0.20557555020335272 0.74557239612110759
-0.065051469450445598 0.21152028086383368 0.77225397251933181
-0.080178752753649274 -0.22727122592382543 0.73696889290715006
-0.32319605668795148 0.12110247848496414 0.76804242049057336
-0.60017331983785915 -0.64138021045839899 -0.25199028257923217
-0.11977937527330518 0.46953810354226277 0.73970105361780369
-0.084362156390171264 -0.18360436428072191 0.67789653666320238
0.30144779542369804 0.24176574258724415 -0.27535607332053047
0.35438402067506658 0.29216107062829977 0.39740222350403975
-0.095297913143874702 0.44094193428539086 0.74302203584617299
-0.42795928570871666 -0.013228308856310989 0.74958896547973097
-0.11978341565058326 -0.13906378466062108 0.73492287081236984
-0.76901217344086525 -0.81187364938758844 -0.42688124391250781
-0.76500979740099062 -0.62544667962906697 -0.37093071921981213
-0.33003911344142045 -0.19974248331402578 0.72930532864776865
0.34243729533980805 0.82949465385260979 -0.41686405569882723
0.656363992032023 -0.31827070023887671 0.58502491827888825
0.76551567622762873 -0.36298835319296074 0.57191149426744481
-0.22285249245152272 0.59950970482469934 0.58713945647951427
-0.4483491743375323 -0.047859260113018109 0.7382763715775269
0.67968222225913033 -0.36648306337393244 0.59950920764278814
0.30074867855966114 -0.2992125603360698 0.71078507784626055
-0.6701694140616965 -0.92082755700460517 -0.41807496026878788
-0.47160117578012262 -0.072566841304926299 0.73669552420951678
-0.22539770460334907 -0.065241799814277357 -0.63073473655770584
0.82359973991005064 -0.49817118462461352 0.57473561323406397
-0.055746190432610865 -0.19674528637034783 0.71348082852608297
