# XYZ point cloud file
0.54143960618893061 -0.062493065370897938 0.58145360875916685
0.27459238810496345 -0.21846282089116897 0.30511601978831138
0.16280402316289155 -0.075924095628643329 0.78965568965889688
-0.54095720099059008 -0.069050045630131507 0.73129430886813651
-0.68820911794604456 -0.98720872480859256 -0.43978477208096223
0.7329677830740593 -0.32094333084894444 0.62270703406965744
-0.66070359687027391 -0.25069398326630421 -0.54681165470478144
0.42894048647077199 1.2362065116720231 -0.49203897627396209
0.13981183615666737 -0.11235818015266474 0.77981756320353135
0.39485270980474496 0.97320334111874018 -0.38004398502089565
0.3372373309264276 0.34157609099226249 0.28183160908896809
0.35823267368701295 -0.45584994754381114 0.6621189677055348
0.39965127215782559 0.75423443971628501 -0.29305384597820705
0.84303754516665208 -0.3724446936568313 0.45338455775693731
-0.10225797520109836 0.34311897664594682 0.76945730964412817
-0.61664788897112999 0.30803175455118215 0.43321433784809571
-0.70282116472132827 0.03741404053929287 0.73807136805968554
-0.041658467788607823 0.39751529509968009 0.78519208414893527
0.16385250969619847 0.78615920170076237 0.42354012435815802
0.36235258390674119 1.0010125930487419 -0.38702349366701672
0.23976396076976414 0.79220588050214502 -0.18703893801054239
-0.65744371492456821 -0.5388353833313122 0.33665482428468607
0.06311854890077484 0.62548444972687278 0.68381404570768023
0.19202284234188483 -0.030595625954319416 0.74117616393398489
0.34300316422780952 -0.21519018889078012 0.79304138254879941
-0.75179070046652186 -0.80761307384473646 -0.41428098791938872
-0.050529724170303325 -0.13939674129988688 0.76100934954527411
-0.21729394382811051 0.081941260144331451 0.76711743138003996
-0.096229276728280411 -0.15110367899923638 0.75959391689795197
0.27799078669640664 -0.015890114461122096 -0.41421342036147912
0.017573860674087172 -0.25780964477799628 -0.54563739403225231
-0.59786979174675992 -0.62763783945795559 -0.2864084269492686
0.14574818909837006 1.016018756401202 -0.30252475831396985
0.38213593738793605 1.1101671438091074 -0.42969027670939752
0.74431956825708312 -0.32698777769832787 0.68652756726389264
-0.093297642051282992 0.24603347857243207 0.77359881907017325
0.32857028966265034 0.10786143421826466 0.52050017217523337
-0.43807533259369791 0.58230916975998426 0.68046264674906709
0.21270646407623417 -0.1404127981637231 0.76954003344834998
-0.38379757953754279 0.20029179606543579 0.76856459773124897
0.15771280147450284 0.28555358639931683 0.71193259787513163
0.57301119763098995 -0.13446293504215134 0.34799262690953503
-0.091436827860093217 0.36147420900984883 0.76271100585341856
-0.40888004861315608 -0.55508649996045101 0.19129206490481643
-0.37403324895814194 -0.062196359863481376 0.79709209490389199
-0.49332185780851034 0.31177456600556575 0.78722212369090272
0.024160850579647786 -0.43895494443219008 0.43665308859580687
0.36210780125334452 0.57313263063102227 -0.20311074023680398
0.14396608446801906 0.29433206802612233 0.72254723709413149
0.37940190911749028 0.31558243288673538 0.069422374076092197
-0.93738117924021225 0.044687345170840942 -0.15073325028937212
0.41840041868817934 -0.53398125622675252 0.59906322347994845
-0.33341367689428125 -0.070849110166443019 0.759154849975193
0.83829493997416193 -0.35799506283615301 0.64812085377359274
0.73470213146219976 -0.346681721963499 0.65268898105913919
-0.66077128859014778 -0.83160881101766293 -0.38170494663804799
-0.099218666270502354 0.78292773930239079 0.53672312696773261
0.087091521114899706 0.59796978972038772 0.65069708431266893
-0.24379477292293927 0.02840230723456294 0.76496781439800188
0.36927194567444133 0.53110896766079918 -0.18767800473511898
0.42326142144858636 0.37246671878467197 -0.11696326564585302
-0.47664748638288046 -0.6797695244706059 -0.26259951369960355
-0.39735941697628618 -0.19618741024951691 0.74561028525843298
0.10454063036974048 0.034468805560635474 0.78669130447727742
-0.096864092824802128 -0.12457366060279185 0.77375004587528906
0.17591754871671128 0.36101736143676533 0.67204500358940589
-0.79566233332426606 -0.7749895729149312 -0.4213539225006997
0.84391589806486422 -0.45357847558764774 0.56200815336869248
-0.60483166691449242 0.61308618214647925 0.057284896833124321
-0.068585957392201635 0.7405836020325296 0.73511749215391831
0.42292622807828195 0.28251294589010456 -0.014569057284423259
0.37622976000687913 0.34488808233320611 0.018883584059593339
-0.016986632063378693 -0.33706139785794065 0.45032198656560496
0.28250559816275711 0.82402096998923469 -0.30741047714014158
0.14248256967019302 -0.36469791069435686 0.44231087471454522
-0.34666221237952755 0.29893557401066406 0.6933107256102673
0.28301034478823794 0.73087528207833685 -0.2116261419742127
-0.17361250561671682 0.45748351951959876 0.75394571699121116
-0.47182480304967811 -0.8295636432395419 -0.3292394362657397
-0.34764893918401185 -0.41319205250133173 0.66088135471134279
-0.093477311190298451 0.42888402337285925 0.75327181355996942
-0.12321609184397175 -0.18540816979651709 0.75823005772050678
-0.57187674238768693 -0.72217964624584674 -0.3298534104907016
-0.63325375814754636 -0.86651573992693365 -0.38390124044885243
0.2152472052855785 0.36714563434038183 0.63403792377719892
-0.037920754641532994 -0.11090938984835219 0.77988663276570414
-0.25011789307060894 -0.25968256470077833 0.74785195500827228
-0.34250104078481058 -0.3366885198565619 0.71658531708949447
-0.32697914651706128 -0.09730124351493652 0.75693822373376207
-0.33863254865866566 0.21650234022636727 0.75725310340443386
0.78534232117442571 -0.41516836028141313 0.67851649547559134
-0.029892582463418194 0.6002882805765104 0.72810506499315863
-0.90982174732715571 -0.62961619834519933 -0.41718295898175217
0.028735102615826236 -0.15507634099062173 0.76011736038084265
-0.74644973890539745 -0.5550355362832029 -0.3073714039917026
-0.56624065526970924 -0.58747556412320989 -0.12940627946063721
0.10161478297590065 0.36274028325134822 0.74540259495455974
-0.52340743462448813 -0.21048203941069765 0.73432017194251031
-0.44051845076860729 -0.81558917370834649 -0.32769655888131699
-0.29572084804678411 -0.543947871732539 0.15283827835759656
0.29628173367703425 0.35777406623862618 0.50933673063661367
0.295408243746067 -0.12577105564663427 0.65564437556864608
-0.98937463953728155 -1.0574793840930852 -0.43288455675527793
-0.050604545248205568 0.29146909798998166 0.77252269339117952
0.33292728590018328 0.15241774308914557 0.50317289770778473
-0.37347210326778679 -0.61182060860424059 -0.29524880386126995
-0.57364831032219143 -0.65212712993931632 -0.3112265510714578
-0.68216162842219319 -0.55366844673569204 -0.22602255334139443
-0.17981993719232037 -0.4265709933050541 0.63048427148075037
-0.5964036023512449 0.025201290309087909 0.7580855365954946
-0.15464598974745059 0.46140984688690168 0.77304653561824921
0.3690246488641975 1.1573693482155178 -0.44589503229239469
0.17260575013310131 0.45015464394491289 0.64133630329158642
-0.4714115329811932 -0.19019307322370693 0.76334875276827674
-0.27955882900934625 0.098681842579607881 0.76187045530968689
-0.16592632681732766 0.41940379585600596 0.77353916677330403
-0.69769074040118539 -0.16866342835087522 0.68404086170034617
-0.30252880839384488 0.17710974100973953 0.73625250977801926
-0.31974391827782256 0.36103114138693915 0.75696614229740078
-0.33247597977785404 0.297576256095609 0.75345096111272625
-0.44700940358330854 -0.1712936242641625 0.77920386551515364
0.049996775090086487 0.88757923227740321 -0.29614751450731003
-0.054316694251099307 0.05966342054002638 0.78650255367769262
-0.21834822183453184 -0.28735794415616844 0.72949378648334751
-0.68309782557168575 -0.80050526138668943 -0.38607357323119618
-0.031852140942447704 0.44843105775861858 0.78095821641523067
-0.17995424924421854 0.61237020752741422 0.57039068562319173
0.2589898849920047 1.2264233946952601 -0.4545295174095596
0.79683697015045141 -0.251053797724893 0.58539492655542524
0.47449766637586777 -0.2726185341505527 0.78448846562126739
-0.067186617345271316 0.3513893696085546 0.77253160881685723
0.068127432449045955 -0.22181942160185741 -0.55911437502065819
0.27707780864284359 -0.37492813082634768 0.3757452154844354
0.2138654574717691 -0.37008556434089357 0.69714197200158878
-0.47623023191215452 -0.2793274649916937 0.7087532820250928
0.45946375454130362 0.62572854400143996 -0.24452385428680934
0.74876235598077301 -0.50211230027872489 0.67319970939904472
-0.2837513029011518 0.25896110481012813 0.75938013780777425
0.37910917369961794 0.27165163208964316 -0.23810409842304026
0.41976484392836255 0.10455071459624321 0.013132967923647598
-0.094910375029428451 0.27245274289802524 0.77320675074292389
0.44967967908047513 -0.5732128128753331 0.56414530900840276
-0.74323693050183337 -0.31643248293394421 -0.47864818093702022
0.36524640110874884 0.041771966548147077 -0.11528939093573953
0.78995882272320728 -0.5503502278368515 0.56867434882663481
-0.095905901597006959 0.5164886808895659 0.75123622156728054
-0.49330384349269707 -0.64493801843720888 -0.23895676094202223
-0.31469187949804223 0.23803767947558274 0.72658119549299371
0.13248121613943908 0.19808878025173016 0.73941469625735801
0.49014429621848876 1.1797508030556898 -0.47307094087512436
-0.71963918994033804 -0.64905143462313397 -0.45469631225700802
-0.55860568423631207 -0.34120704925811829 0.67662164326378615
0.21411420697231165 -0.15493382816018908 0.78710428169091706
0.005694644222757006 -0.085165043685599073 0.78223346732795385
-0.41685069486305082 -0.80163755597870079 -0.32433354792331348
0.35976046272018891 0.93660696376808517 -0.36132227924619631
0.87576911597884077 -0.22656582138935377 0.5197062686964049
0.20339079690413087 0.28879137470964622 0.66560974501581338
0.72849059728463317 -0.47530633135474787 0.39985913011896557
0.12997514637999075 0.77381053623014395 0.59114935084751918
-0.15120210614631446 -0.41311567477956501 0.61168772866398324
-0.3611291414129596 -0.33638426202875138 0.71126633388632499
-0.032144789836593191 -0.17455218075049928 0.75644759432704234
-0.32674610352177069 -0.4445353623547188 0.62060081542307088
0.16413719706218899 0.49953356973130525 0.63505734848692086
0.18771399436782588 0.89072035502891111 -0.17821040556785217
0.34222528560272281 0.20360958213039737 0.4808309832530977
-0.3257037654146302 0.0019449954738135489 0.78634581911371981
-0.36553770736529145 -0.14262359352161358 0.73200260090210278
-0.65905954487948293 -0.46972847517611527 0.55819356813456622
-0.4284852043008982 -0.695206349634514 -0.17434599479763957
0.040310826937655975 0.76804577266263863 0.68168364587316699
-0.071966044151139386 0.56296317587726818 0.7418318616174524
-0.6400917408045359 0.2633140552210218 0.58628400320794327
0.52195512983426795 0.60068460846441241 -0.24123911994706226
0.12111162995111613 -0.085208957764866256 0.78342036900997503
-0.038340012774057186 -0.22499029449917529 0.71683059801348126
-0.11344146172356773 -0.16257476969243889 0.75753269132336598
0.34481059385031188 0.78458121984024132 -0.31628965219013239
-0.12614657906843263 0.14932163914597396 0.77531604867432335
0.47490552733015079 -0.15868793360768407 0.71524442669761301
0.3361506370616496 0.86227745319305882 -0.32710181985159714
0.1775502280006549 -0.14134720048116733 0.58274114694776191
0.16293798643465607 0.59114405981268447 0.61059890995760302
0.33257192929545454 0.50324782637961363 -0.022009762423866874
0.26799173801416742 1.2755920038431015 -0.45460381464007682
-0.36363682291855071 -0.41385907307088843 0.65809637093325613
-0.12059585080558577 -0.14685791923606928 0.7648197222437183
0.3817908208317391 0.29021618071978139 0.10409373866192517
-0.51311849315359837 -0.30890377050499573 0.69896506348491272
0.0016473754016885778 0.30619611710696049 0.78373072324531723
-0.41432052155769838 0.13058488056530138 0.75510311983437362
0.073022855146149368 -0.40864311585677271 0.64666724675504694
0.093923694474028707 -0.24477426019970494 0.42664282520365049
-0.41355331053708255 -0.026979921362219272 0.79923312251583667
-0.038046653001472031 0.69944321100762608 -0.56627510366132672
-0.98353714916720669 -1.0357963871391824 -0.4150976612805346
-0.38569907118591118 0.3592082027708754 0.6254164034577947
-0.37196880197180349 -0.31861422293390707 0.7137390108468491
0.25824693220039308 -0.32569142714495669 0.72538830080232763
-0.31127223840027796 0.44886611744332328 0.78264362458019221
0.39542645311000513 0.79260924143427758 -0.30840816403358318
-0.95687051505173315 -0.73875436915394133 -0.40903096772516623
0.71375471817418656 -0.18760423739022514 0.59220568972915277
0.42044658548979896 0.36544705280024914 -0.1065337620077953
-0.524428607509833 -0.32083918090034658 0.68835579710196626
-0.24765362929937851 0.54772498699226091 0.55665177143585964
0.3753437131973385 0.49532103094748692 -0.17434420947248608
0.16402012210514272 -0.16234072521350384 0.77491979916070175
0.4177499552854016 0.65562673257890225 -0.25241331157337132
0.41535349170439417 0.28106769114788932 -0.025203244094734067
0.43022624348419924 0.34382869993557819 -0.084702474530733873
0.79958896392770384 -0.31540734286484451 0.60852523756054389
0.26001436256936472 1.0341974414120827 -0.37258631661836983
0.20962319248017991 0.82605012113063481 -0.098624134085874005
-0.046210406659383807 -0.38956537144200354 0.50810377453301037
0.12968353267265798 1.0338134831686219 -0.30041388770657385
0.78555189971646655 -0.34025262102205289 0.68742777038844238
-0.71957356497011915 0.12571863209434042 0.58232188805004625
-0.52128984193495853 0.19662158458728918 0.62081328768997679
-0.54089698448896684 0.11445827123514007 0.77194700410344552
0.079732062890684574 -0.059020881842258177 0.79309822231029159
-0.69716757690216014 -0.34645450779379416 0.63147200684288407
0.1800287366613702 -0.10000724309193032 0.77731193254859221
-0.19371033923619052 0.40860503413667359 0.75464954816803953
-0.2147441758988009 0.45888960433096049 0.71071642647734024
0.8507117406575162 -0.30882913699063863 0.61725061838568251
-0.30499982543199167 -0.32221005003262171 0.72599514204941684
0.77411308356570885 -0.45922822048980905 0.42109394069233907
0.45282312695945848 0.48039702177577226 -0.14844156173403622
-0.66307145900498199 -0.38968759283448762 0.66331882328517011
0.25603672243281039 -0.15007864327631637 0.79815925969384605
-0.68379626330631282 -0.98633230365302893 -0.44203926476341415
0.36783706048817066 -0.42876493177529085 0.69288091904038929
0.40197830180774474 0.25731381309883261 0.014102953441901711
-0.73835609591945683 0.17471393106744237 0.26481247049574108
-0.031449060086494285 -0.43240968242477962 -0.31163817379370684
-0.73100522139063884 -0.50214179059445918 -0.41625021241808602
0.067577940863557728 0.88657974875703616 0.16364635682373407
0.31811500829135042 1.0837865010421694 -0.40852661404579305
-0.47658298921726328 0.43898011409349635 0.46208075015715266
-0.45782366657970641 -0.81756695386460976 -0.32094668030842566
0.37875963377999966 1.1542185339160866 -0.44516721784482183
-0.55114231807375802 0.38010890767048977 0.44718056971859355
0.44426282802917427 1.0744352020318999 -0.43243360493161376
-0.24609466828388804 -0.0059143716813672143 0.7658429722389144
-0.4835531369230921 0.10115694702873057 0.75165640199795547
-0.098349615368988452 0.44520665293546813 0.75700178078472113
0.26218013846545318 0.70156840892159522 0.44922414119619791
0.093017697631864849 -0.36255237948743968 0.65254325714634165
0.52911423091185839 -0.081279328291369524 0.61998977318496706
-0.054892677739076134 0.88572997431268163 0.55062332154259863
0.68878597070550995 -0.15881181493820051 0.6691554717351087
-0.082330409224852019 -0.13860552632848666 0.763447606451507
0.1295123636664357 -0.082805941657646542 0.79430551142918393
-0.33020671165289173 0.10381321195734472 0.79479490890456006
-0.41648050562639582 -0.56841084183455859 -0.37895149267925943
-0.60941071170477557 -0.67193044018689996 -0.33460169056942068
-0.067298704539808796 0.62249206832868254 0.72710801190344299
-0.078930824743963512 -0.16542502533165759 0.7523111217358025
-0.54988036163680931 -0.37271818104970578 0.70040159078140363
0.096031517412072276 0.9383643555319594 -0.29087473895710403
0.44860230008892188 0.49644131134247971 -0.17581514647111618
-0.45763207955869234 -0.84324099254779838 -0.39941928832475249
0.30926301541539658 -0.16519130341500698 0.19019047079524487
0.86058245937419997 -0.17137648071815192 0.55322394636979055
0.21799705740673403 1.1448319752923055 -0.40367760848030798
0.34030303614109414 0.51706628607277594 -0.34086526674429685
0.08097029693911395 -0.052651404595987827 0.79308439306119993
0.007411941399340094 0.69319158750672472 0.69982708215689016
0.26073462713540607 1.2873365227687827 -0.46895556127225024
0.021307548554176492 -0.29735655541242956 0.43826209391668369
0.18433880756049348 0.084285311486382852 0.75512238305684054
-0.23904078418908625 0.42796078989131781 0.78352930144943045
-0.38821737317513794 -0.34003829582985468 -0.5508747053138725
0.41904722536673944 0.2778425993480127 -0.017438452777204461
-0.36585940481558055 -0.1241302150994299 0.77088731308632319
0.36432798268334921 0.51995169377440931 -0.16790508844853047
0.03765194311060327 -0.092648622265912195 0.77802462557841867
0.069077717238911873 0.34136967331919621 0.7644847112646902
0.72874635277469224 -0.138549368242046 0.620114856790698
-0.28112302129713385 0.23872331731613738 0.76003060143241896
0.18297167971805095 0.97005860480614814 -0.31570430432833874
-0.19145402197617045 -0.42306717943620065 0.63175524128530558
0.31996819267851606 0.79986117380491351 -0.29184434361724243
-0.14798877417024414 0.6713629576361555 0.63028459849924445
0.073284352450400547 0.28011384561164121 0.76402845250415474
0.18685333442519436 0.29783150378913348 0.68241727053862
-0.52364772243122104 -0.87149172737940361 -0.36045328010236988
-0.22393514300634365 0.62489362810386595 0.51531127308836489
-0.62588623764516171 0.27237771518570142 0.63639256819470091
0.31249812028036672 0.094026326115020709 0.63131411987516728
0.25518367450817436 0.014904713580996543 0.70587578310532262
-0.80586682466918091 -0.1060993349003212 0.45677422996792671
0.013943769832792441 -0.11025838603118387 0.77281506136886691
0.2902359470371465 0.90479440860046623 -0.32745852744263981
0.16575804463775512 -0.065824488502485679 0.76048372236669248
0.25614442001247539 0.67353001307316873 0.10156371102977779
-0.074296166020275223 0.56830690464823874 0.74179938063091555
0.42202127300117809 0.29954722678429135 -0.040895772067037761
-0.025779538962865445 -0.10928154985758809 0.78127496867874058
0.54431371256123384 -0.65732436415509454 0.49146635726700438
-0.89071286320396048 -0.9002089718915407 -0.4222973641076635
-0.48454545350878675 0.021148709152788214 0.73793088181553657
0.30970003838735494 1.0986288830188684 -0.4089231907970694
-0.38129380329520757 -0.59822350184236051 -0.026355451581899558
-0.90966554282251622 -0.68130977517828217 -0.43517312655588114
0.13357387035000556 0.5618770763183889 0.6420255327841291
0.16544995501548954 0.87637476770685652 0.020433354938667492
-0.68786166113388703 -0.57939877916244242 -0.28654656928192601
0.45510964736655524 -0.23388712788185728 0.77895885269681919
-0.13625137790916853 -0.45768516088252298 -0.34386824599666177
-0.40209698688195772 -0.17420985016115775 0.77161694571855577
0.42673872718827965 0.47081949095476006 -0.16615561079376917
-0.049022829729636896 0.72253728110631954 0.72402054238838431
-0.58708150642206647 -0.77325950222976658 -0.34731990485828446
0.12663429508202739 -0.13040690842029079 0.77486434120793746
-0.033965607009321275 0.87784525360007493 0.52353066990657027
0.46556734711221281 0.5592962680227842 -0.1978114034526719
-0.79952577879899422 -0.0065903119863168769 0.33855016570923979
-0.028677067457124394 0.48791198363629817 0.77495537467945752
0.49437989649001679 -0.22010709423306807 0.31144943582184803
-0.24826937154554685 0.52160324189626373 0.63819331676375413
0.59326159533722489 -0.15338882614747007 0.69012239047387958
0.65732579171918815 -0.26950035105878811 0.73167410032368085
-0.44736927339579324 -0.2281278547643435 0.74027461539550643
-0.76725900321362417 0.030744104324458732 0.62958652261406556
0.17778488899384115 0.32561745105927287 0.68543599716574821
0.07832539582571485 0.46062468737767404 0.73681877552420083
0.15594092527990711 0.25477841002193458 0.7243665397864385
-0.12276774012383385 0.4916081177693421 0.70208189349517447
0.082864775405454338 0.8308146757625039 0.29905255877331571
0.22282676991591188 0.4403193292538532 0.53951342860896911
-0.09963626493731681 0.82395631052806451 0.58389716964706651
-0.61176431550957489 -0.57678710233674479 0.11795652596884665
-0.0295061439294102 -0.12310179903087715 0.76765935516146122
-0.95559758892086677 -0.87552938341512032 -0.40610126421112014
0.67120270359487222 -0.19281413674292835 0.59526904836593264
0.45340830198669835 0.20844987594632158 -0.030784021269115946
0.30881885189963754 1.2365855562358874 -0.47465576549617694
-0.049746968015995208 -0.41063303147338814 0.63762666003689805
0.39774181536034803 0.9213994050705665 -0.35973947665044648
-0.22566963594059075 0.86864972656809059 0.16424416502511008
0.5314541545079976 -0.20281930801034775 0.73847096544641744
-0.71994362193063921 -0.38105893668182844 0.57542435711643236
0.22197825479588573 -0.17004334250767883 0.763453868971669
0.13963197234781433 0.81126642001115101 -0.38003661015983381
-0.46698114760107501 -0.24427502503088938 0.73731937329885611
-0.48238600137550947 -0.86796415450748299 -0.3832043207033009
0.58048836226606682 -0.67611714176528892 0.5715450626159928
0.34657426869016206 1.2506412771024813 -0.4900310312367715
0.55003169199251545 0.86920884648927199 -0.35050089770183313
0.41944535746350198 -0.25515184072726171 0.30512813222512714
-0.095057098414088159 0.44778226372305241 0.75413223241429961
-0.71098537510605553 -0.57747424220881527 -0.29906279269267388
-0.9472439823703489 -0.7556910529339369 -0.40009175356253124
0.47813686861451288 1.2104801671578969 -0.47803047417554811
-0.019007325141757292 -0.41730657533645399 0.5847213690428763
-0.27544027495221712 0.5659444194286003 0.79510761021401422
-0.034630778370285498 0.62870596942587298 0.72366989477941246
-0.073073244897045697 0.31715929157012468 0.76396746356797784
0.43121943527413009 0.72235197832504383 -0.28377745030588208
0.35410383429893955 0.61665124374446378 -0.21898789289051823
-0.58950063875663261 -0.63653304689712442 -0.29626079486390733
0.17642809047953278 -0.12261408546475749 0.79224152241510115
-0.48824318689712243 -0.65880639405657782 -0.26945974771774139
0.66976612810884717 -0.16592276258100469 0.64989894171423046
-0.34969909354578022 0.1152796537493801 0.79275361046601489
-0.54370701040289759 -0.22631048179343161 0.71908508263478055
-0.51746585522126054 -0.89901854674178949 -0.40419273418671331
-0.16630096638073155 0.51849049631956134 0.73265144493295509
0.66443022512115135 -0.12271784589121637 0.65113270217750818
0.76133134184567552 -0.25159863034473418 0.38448806822564308
0.38066149192820831 0.079748726666331038 -0.097880132218906013
-0.17823891561698701 0.37805625366391737 0.77400197907918056
-0.25482229571636594 0.48970151392332717 0.78842713615405557
-0.43208546920433832 -0.2022531253110138 0.75809451799795369
0.46991199590195265 -0.59038022270555501 0.57466563148158478
-0.54258990604634505 -0.0097232849448296577 0.73820198617566035
0.31789338890554575 1.0440183153535116 -0.3943554131923861
0.60112944793732481 -0.065350771410997766 0.416094826068798
0.36570701802813232 0.57451423097220555 -0.20909950820566259
-0.026516770495504716 -0.16862593128998782 0.75418704013839388
0.80414853974798461 -0.11092552010019574 0.55972284536997918
0.041983283839471142 0.25878171494786173 0.76907817363980957
-0.091023401055423392 -0.17099190367871131 0.75203629745999123
0.53169608610977548 -0.63584491336277438 0.58736412850804776
-0.35458287875491123 -0.2977953842527814 0.729448495570443
0.37355000453831622 -0.48917775472428815 0.44622852415519709
-0.095248467006399551 0.7044568552139161 0.75004081918430643
0.29719538140651025 0.5347051539364216 0.42778308124494746
0.38839203148080514 0.69646327434474387 -0.26710178156803632
-0.31312870482790345 0.047478843699039208 0.75690091992677111
0.39324660991631788 0.058791785142616959 -0.0041251107006594623
-0.67941448050311237 -0.41018634602633597 0.64521946921183115
-0.46164547912297849 -0.66619009065659895 -0.063592368258220233
-0.22101749690989436 0.51799801200340667 0.60420500125056975
0.44544130117085956 0.44225005637365911 -0.12795439566319722
0.027113265309395729 0.84458832179119625 0.57207780071193248
-0.1269595197629485 -0.17635238610420423 0.75803974277312669
-0.21970962538327399 0.29994109734186836 0.77414983063614784
-0.41730537435364568 -0.14422561052542093 0.78536714875329139
-0.36818397847255824 -0.16446700974388007 0.74939080216044118
-0.12899806691252991 -0.51438627829070072 0.012338431734393085
0.13247352975571403 1.0088538953424049 -0.26285677767904581
-0.78752438613026499 -0.6469045127762616 -0.35902798643155709
0.76566875719854011 -0.4029993227325761 0.69289627573193613
0.83167798838397289 -0.47966165414753448 0.5431959749127806
-0.61800750445687669 -0.5518523284785033 -0.42999737815498928
-0.62068784922150755 -0.90008396224928156 -0.45157223723495488
0.022347105528684352 0.86765060407415717 -0.32546497623101889
0.30652923354213613 0.55600316117319437 0.32687906657351018
-0.13168796630139923 0.7088705483604123 0.5708847417027485
0.47603189712890526 0.62706340800389881 -0.23192223359609354
-0.72746859424105992 -0.39640749341092629 0.47661108955643883
0.004292081630580924 0.50719177338225307 0.76349844701948832
-0.69332695643666398 -0.97753108656728216 -0.41355230891174655
-0.59332536565204919 -0.27087204048650193 0.71061839727265408
-0.14357734646125664 0.50705842100046361 0.7717880783367832
-0.34636288902129309 -0.096546600629261015 0.74933942638297779
0.30442108740012941 0.52049167396986462 0.14042212080757999
0.80738225993630408 -0.38556791390249856 0.67059460944214422
0.23203572069816403 1.1556416001461685 -0.41715414817680951
0.070230789461106724 0.69510261593378431 0.6757869446096425
0.85093122305178781 -0.43572381274100636 0.52887369285186203
0.71166084671634167 -0.34090958021538142 0.66467793427452015
0.24600565435140709 0.70730341174194677 0.048194059516755594
-0.32748284209154122 -0.54339510379050893 0.26529341455339406
-0.4285765490950979 -0.64344633975723298 -0.016022978250148867
-0.12967923377524926 0.50126446560479643 0.76002129281380348
-0.055668169276572144 0.61950213339257942 0.72724128372862751
0.09422073252294183 1.0172630411202164 -0.25786834285570803
-0.61254260283419626 -0.090005619542306903 0.72630194492888478
-0.54996742094630235 0.13308362766851545 0.78556301797909356
0.11921497165573669 0.38770901458064344 0.72178808410745043
-0.77175561379841184 -0.81153390384501378 -0.4255422433169489
-0.44942679551428455 -0.11009092224677097 0.78614541049266506
-0.10414614675715939 0.53092009022798337 0.70890615736828799
-0.59348465250712223 -0.91504480012428502 -0.38277784757315003
0.020583261946143239 0.43850051594753836 0.77065163970525852
0.49923787632499739 -0.56319307011717967 0.64495878104653315
-0.56130201930017165 -0.18748041372422009 0.72957247697901551
0.48746909059022414 -0.38399391739233124 0.76529026890354146
-0.74640854556702152 0.097113606622638571 0.40296654151561739
0.081475652012500177 -0.11185504436445726 0.77373162654868199
0.078609099314206787 0.29629360222144996 0.7650677012169016
-0.34591505168226888 -0.55225996875957151 0.10673527220068824
-0.55568300847949104 -0.59585224945772985 0.028106713261534466
-0.30195520900741712 0.17180307347593882 0.75854831190872574
-0.64495868425083813 0.12822098131509918 0.75389288746293559
0.60357909970596779 -0.53114080166215416 0.39934987295692892
0.35837820749229365 -0.046987964293009554 0.07226918226256096
-0.66694763742747654 -0.73752132661478953 -0.37277215795240659
-0.082411006786372809 0.65547587630468485 0.63827662533182838
-0.49632118671215153 0.12896367363712002 0.75003294344833904
0.40870717965944436 -0.29017913195576739 0.78189650669095023
0.29069793761559026 0.41258310823749866 0.49442005004280176
0.34967981270304449 1.0871003199150167 -0.41625759714175103
0.27898191507827619 -0.21541098532721747 0.76744370632764358
0.68784085774214532 -0.12239784686995137 0.64220358595417348
0.47808226374078799 -0.20691728557478939 0.75583406007920928
-0.81758784643039917 -0.43981252781959945 -0.29467689071167236
-0.62864908207986048 -0.65103444323293758 -0.32454659645423001
-0.59395978268327099 -0.45055731733506876 0.58550741338924439
-0.80105403855306889 0.44897839135474849 -0.22053739565252073
-0.34428747380957248 0.28918615661253977 0.75337390053467246
0.17007375373137279 0.42688411148289163 0.64957578601166066
0.30877124591859229 -0.33406718561104398 0.33843482319897333
0.1462868809094573 0.89278281199142384 0.025907489441476361
-0.91386283668126467 -0.78318907424809758 -0.40349359337029078
0.39766348937693863 0.32412541872660228 -0.19378282039778316
0.18410967378551391 -0.052163626895250559 0.74426652741417421
-0.52999184509269526 -0.084847008434840276 0.71862623984312535
-0.56991336273574689 -0.25451430687812504 0.72170296577553117
0.42284163637937411 0.34727475404675801 -0.097721677670580043
0.22547499645537528 -0.27895959387491587 0.72976187395752312
0.32958770006985816 1.1160840139959944 -0.42207158960660429
-0.15067905472767507 -0.17250238934357753 0.76311146090601589
0.14027796996347774 -0.15808093949728175 0.77633755069788446
0.83679905043683789 -0.33001944897007007 0.63689085656708855
-0.25148996520945843 -0.04195320577349726 0.76626185439983985
-0.092411353910705429 0.78067784747618063 0.43734299408218291
-0.83940960553411159 -0.99580632985757589 -0.43281908952407999
-0.61270502084525447 -0.39297354319155886 0.68613819421680589
-0.55665195233827802 -0.85142780979236932 -0.36918852800761481
0.15564417884809245 0.58261487740060858 0.61995617437734296
-0.20407663430708567 -0.28734655840302636 0.72285103123117622
-0.36947525829648953 -0.12525855670868435 0.76458055668233627
0.72277599573740758 -0.1144950242147722 0.40764292328941787
-0.69891859859730943 -0.30028039712232102 -0.51244667548143763
-0.17016152985621602 0.43497077929013983 0.76698512343429925
-0.44282783480210242 -0.69539871581279655 -0.15292663098290937
0.012865705564450991 -0.20040973506360871 0.73999400847088559
-0.78067510253960748 -0.84779910645530698 -0.42935548074744201
0.19805242236088105 -0.31416029429993486 -0.25016932920279089
0.37141461785034835 -0.42104707269797004 0.38125811508418916
0.18085233937262046 0.49034117576137248 0.58871668753966588
0.67189715420124685 -0.1470667168539137 0.63546473064258358
-0.10667991426043955 0.4415674816971773 0.7602521969847551
-0.4482128425005385 -0.079753046076106671 0.78574469539556446
0.083324963267415342 0.29146224235661577 0.76289469229931228
-0.54080192663607818 -0.25666800616015095 0.71936386778138939
-0.7975585458319614 -0.041245934395721662 0.52109216857706997
0.28451014451087531 0.58725409606932288 0.13686506164687007
-0.1023784788935842 -0.49736955044688891 -0.17157641386104805
-0.036222123415967644 0.68943762535167252 0.64043365145777642
-0.065061686147089404 -0.41794139297352473 0.62430452109715295
-0.9216891384532957 -0.27135869039514127 -0.19452669321408145
-0.27280620402689237 0.18041432888203524 0.76103726363778179
-0.075030173462835137 -0.37704470481731533 0.50387924415146212
0.18656591064593897 0.93597498302805349 -0.28292278407180582
0.34789986470558176 -0.0057998767325173617 -0.13161596823731836
0.37511057136514836 1.0771629956009789 -0.4171774726298132
0.70324587195352706 -0.33231110283613674 0.66896777670553398
0.78516688449826688 -0.10308460527634011 0.46913643596085919
0.39908200332642707 0.10706563668689029 0.14528729680262575
-0.0027873592028129224 -0.16661036049963585 0.75799155124544093
0.2619334851329711 -0.070133135015481685 0.62472682953018843
0.12226600463927184 0.90509527453598082 -0.32146832255677715
0.059145664769800987 0.32548961288598832 0.76979579999316616
-0.049287639268555949 0.88045047764721573 -0.3544177931164576
0.17889005606437536 0.44657457008627688 0.63942363200983099
-0.51997716734723554 -0.018362682368147532 0.72468628349697894
-0.29423763079407195 0.92787612729458857 -0.1103390133979989
0.16201782665640962 0.55404281931536303 0.62370893440436248
0.17702769005896357 -0.080866135886701329 0.7540154864379236
0.10698638907126679 -0.072297260705841637 0.79323744776555261
0.42588113970293051 1.1110347965546481 -0.43632561308914664
-0.82980032506472412 -0.70442940759834372 -0.39185388180883618
0.065093136913048966 -0.38222452689306508 0.66340133277944879
0.70124006286806662 -0.52510132572599844 0.6925432681566086
0.20696678610480035 -0.42752364358866402 0.63537286239770552
-0.58845023746326319 -0.13537885389064286 0.72332466196194645
-0.83162437830985247 -0.84856951125089175 -0.47258535132332025
0.59220918842154902 -0.092040778802410017 0.63210228353136433
-0.57389255172097364 -0.1015317724269984 0.72893658253945048
-0.51694853039943922 -0.56687099167855948 -0.41178635885027171
0.75287021870497028 -0.1920695058462627 0.58965461246235762
-0.58421641873553654 0.013470628431093701 0.74516626653208462
-0.81686420481018018 -1.0020624232030073 -0.44542118340492109
0.69582292843801952 -0.16308598825100873 0.66671250516124658
-0.52029924725452759 -0.60430786538449865 -0.030956273274124868
0.1129532306317742 0.82428185986393743 0.26624051329058984
-0.15932339980435017 0.83428355602568516 0.2981677800260023
0.33725018886603664 1.1437165920167729 -0.43371803038587764
0.33740417901444175 -0.22057235446565215 0.78826310386131215
-0.32441538693035454 0.023844758564997237 0.77336310301527433
0.16892926109775885 0.34354763399017685 0.68617538529645827
-0.023053352469162292 0.46676462488413506 0.77762508897277272
0.35110550226711723 0.91631710035579061 -0.35209371533307987
-0.031948516418765394 0.61065399550956556 0.72924806422475896
-0.50182393074695142 -0.61041242201051205 0.0047345706612667016
0.046657514531347033 -0.40712115419979256 0.50852758009835686
-0.43828101171493472 -0.29323519590875358 0.72827848467136036
0.69468501503908442 -0.29119723248636475 0.65905638667731736
-0.42218369193702188 -0.35194706489669159 0.69091767080919197
-0.57842150056862351 -0.28836417919342772 0.68605693241838139
-0.44034307688643537 -0.79958381823107061 -0.30293786160690428
0.087200065882967692 -0.44794561292097157 0.13769690943644219
-0.76183895482454389 -0.84526849539911275 -0.41782721798890865
0.75455958321745698 -0.3217101389322643 0.61208876858266592
-0.069987468841702594 0.47647292450818668 0.75983383241894131
0.21334767279530809 0.030692592108103156 -0.55073601137751282
0.15139495953681603 0.22560943370403663 0.73399949110928553
-0.1817620951669312 -0.23032253449683893 0.75179563186742193
-0.36574672626001359 -0.66892806781554626 -0.10486797731956976
-0.090125835363210172 -0.15395066179902273 0.7577416804996151
-0.37568244099000481 0.18749508716343133 0.75844212673507627
-0.57401589715925638 -0.035399118772772908 0.730053142347586
0.41652624588932952 0.35673766087504077 -0.093832798776942283
-0.47811780280900962 -0.36659265677392927 0.68662522903464307
-0.87453808195878935 -0.36482344575460068 -0.25141429359745349
-0.78882501503124303 -0.49571120418086423 -0.33513010539607313
-0.30859013936964175 0.18262185703883205 0.75513229629601852
-0.068932588016053842 0.29480499545030625 0.76873562234979786
0.37727619487236552 0.60553210383634593 -0.22822525459266263
0.25958934025237568 0.68767152852833391 0.48185318751397777
-0.60780214143363764 -0.27808826558391786 0.70504033947569411
-0.44702819403215699 -0.81361483126543277 -0.32340231796683727
-0.35807413384463871 0.35836656349617257 0.76864914095987302
0.073590373409814447 0.45577142727515962 0.74201751330464916
-0.014839310422786411 -0.2507265223745474 0.53592738203790891
0.14923701162800285 -0.092050783606957509 0.79234887538405641
-0.48833148977533369 0.041347987151899801 0.74332790872794874
0.04054610303447248 0.53975318085457147 0.72818697151485523
-0.34034011009776322 -0.70367279155058782 -0.23988570902200568
0.084324911285534654 0.46821835485500785 0.7266616852173069
-0.44868791297798793 -0.24569239903282192 0.74011083400662159
0.14236454585730485 0.2766120937877119 0.72206875819922889
-0.46765754520097857 0.078448769444550592 0.76062798845229551
-0.62732513479413399 -0.56579765959722117 -0.13778042226071818
0.14723175857878346 0.13353825486778703 0.7568081165008067
0.14492735525271883 0.54348122442200975 0.63804897914960046
-0.84143262391322082 -0.55877609848818466 -0.35121786747298489
0.17115394959287755 0.39727555071360143 0.6600121523273117
0.41985898950240141 0.15027611649446015 -0.04759575153938389
0.094918480382801818 0.81704526006184608 0.509182846131357
-0.19884566123113245 -0.32469977053540333 0.63504220059112004
-0.63913435038255351 0.34944569909307965 -0.594710160981748
-0.84178128693423204 -1.0768529289810669 -0.48384063596698557
0.32152783172834631 1.1730582264360692 -0.44580926122801845
0.15471196208466154 -0.097258230759710074 0.78441029212943203
-0.59584651000741928 -0.30278690305184242 0.66700217435157683
0.029768699361198969 -0.12986465494754285 0.76490739083287007
-0.51209730580897883 -0.86413097006619921 -0.35984400490211566
0.53285136509100539 -0.55427273395551424 0.43070112947062533
-0.54081847582955334 -0.18537557612060596 0.721740423989786
0.42391102204970821 -0.20487555162796056 0.76996104523884501
-0.54434572220313271 -0.19272986593523456 0.72483379778717705
-0.32236880134567514 0.10143553031908947 0.77674934344264202
-0.55306290452037388 -0.20716180419127816 0.72883525205947564
0.22776109661259625 -0.0090423877549810072 0.71075737814311157
0.023715424375126304 0.84104772482519508 0.50949620109897964
0.29663221815252427 0.61192068123386179 0.38212855069040419
0.30606962275422234 0.51097680027225323 0.27167213273604407
-0.18887145910886716 0.53192257552765909 0.65677308667804724
-0.64531606935688046 -0.45525427255378403 0.64198532402816255
-0.49023217845953582 -0.32796156465535464 0.71735173665749841
-0.55888708285218058 -0.1284681226205926 0.73282334169896757
0.19287948724667103 0.44096548573480732 0.63087216326669271
-0.84730231619390928 -0.98078525155245977 -0.43905402829353246
0.035964195071301219 0.27642035492767292 0.77555969495876642
0.31859976800097911 -0.10632192213737568 0.61610607024947472
0.38899991344648299 0.45536168930616583 -0.15842961710468639
-0.32968719302067484 0.32355340214827488 0.67336755860448605
0.31533839103833827 1.1505303798123023 -0.43419429275499599
0.48500116064739984 0.82694431461769113 -0.31589168199681161
-0.24768277581642906 -0.26973028938007815 0.74472588804203532
-0.087478680232578654 0.60638964096922621 0.73373524657380784
-0.3789627378583873 0.32782097092182916 0.76858928376516644
-0.43107935976766498 0.19268565887551148 0.75606616900121892
-0.58158298738005243 -0.64415375704324873 -0.30482020316799474
0.49897295634235661 0.45237760963640028 -0.16410781485417036
-0.11523791277063822 -0.36703187973996698 -0.4590615978594359
-0.77583628479966649 -0.22660091583087549 0.52411446409793783
-0.86841630467938913 -0.66456409165922814 -0.38129186902325252
-0.80570542247930632 -0.8590440474137786 -0.44005683611885615
-0.20014086455518054 0.46068796667238132 0.71308953255422836
0.018733777882374625 0.26264973040295558 0.7727380465093292
-0.095871554469717069 -0.46342238945304892 -0.29931908117485184
0.42059279391428106 0.41733236461747225 -0.18384212450400916
0.74503400408539733 -0.56056029691704623 0.64115235096271306
0.018885716590176571 0.8227655341798723 0.64068272711759633
-0.15098200497452297 -0.47975654930653588 -0.30523826271103438
0.80488056748555437 -0.34669110556328064 0.67494538186791608
-0.059034981569340061 0.86860723978506371 0.51343873125449058
-0.049150798217368674 0.5953607276147288 0.7173005226828213
-0.26925036624751897 0.11427009105788777 0.76177246655129593
0.15229660162506775 -0.069154206964913811 0.79418668227541289
-0.4598235112801774 0.1542082078584297 0.75293965891844294
0.70697634995511294 -0.29289256256811314 0.68529711255346548
0.17023938304777175 -0.11139684089579305 0.78674173452724627
-0.19684823442506771 0.4719428578480489 -0.72100146457223424
-0.32103440447920661 0.033661507513226496 0.78623306361697587
-0.75697970495991029 -0.51574308774238098 -0.26465384214541299
-0.58817963420294461 -0.63757433816365428 -0.40459761881502976
-0.46683969255806801 -0.66157619800854306 -0.070818098317646516
0.39360968477869562 1.0102717583727099 -0.39449989375902739
0.37341775736481964 0.48908989914853152 -0.16458234193198074
-0.36629273824382835 -0.14255661022580046 0.73699728032676859
-0.077404026488295585 0.67633601696093137 0.73005671412737527
-0.83544880683017197 -0.190811929784374 0.24389709578745311
0.055657714216692966 0.60185973778170165 0.6896262653587355
0.23772973635561812 -0.39265473711009946 0.6854015237586859
-0.57281375611503904 0.065364366984056232 0.7658408882262755
-0.13222086108709163 -0.37098861078733947 0.53771323785806757
0.21755340387954902 1.0485084745468498 -0.36024003243574043
0.38610276939994037 0.48208100915961438 -0.17828756965996551
-0.43055290616538855 -0.63056538963639319 -0.0021253652510289101
0.49234545886413628 0.79211295968322304 -0.31461912998087893
0.21093156353461495 0.26180914747314432 0.67845500548029847
0.26734114581857682 0.85031088868511517 -0.28193336456430274
-0.25187964724094059 0.66159244670070927 0.64143057314011642
-0.49423738951761464 -0.65033523648581593 -0.27183386140309906
-0.53841010952699264 0.23978869719601015 0.78545419218340484
-0.055570125428175743 0.25511617302840506 0.77536852443460802
0.13551338528949941 -0.080271771267298675 0.78991699128759141
0.38807179469975495 0.57338277032342688 -0.24785133939656045
-0.11017383159158811 0.89249563295832246 -0.3973179645590994
-0.23741787025340955 -0.28206523319434673 0.73830963912323
0.25859625153502463 0.95264980929781018 -0.33513619652933535
0.49055207287290159 -0.079889881653222972 0.39867667598408651
-0.37940707598508538 -0.30084045454110608 0.72790903550371056
-0.51889552072181289 -0.60406286275783749 -0.049429498678511763
0.73038321902117787 -0.55366082702380481 0.65850520542821656
-0.29000849407245255 0.10277441338255056 0.76333390266912104
-0.56404444905095374 -0.59391248491180271 0.064887956871459096
-0.72566767488876849 -0.39352712716543436 0.51595133392897807
0.7442037030755273 -0.34564325691721365 0.65560703758886518
0.41900725393465166 0.61392570422975723 -0.2332240622773103
-0.036923037100422107 0.71194447186225318 0.61181193240792275
-0.41262351903031913 -0.16248174790123393 0.77956532346313523
0.11890126268917811 0.23557364667428971 0.74659216543142026
-0.21464399835872428 0.39094446891783408 0.76943104241470905
-0.88265471696163544 -0.56438203386345265 -0.39048463131296463
-0.18009538336157505 -0.51647603911384188 -0.15904138612327334
-0.42340372776016011 -0.13819885611631477 0.7871404718114654
-0.3352952487945231 0.071108489142527986 0.80033948062383331
-0.17617472833018155 0.59730057498890154 0.5949833608855819
-0.70093564597523894 -0.98223361551053401 -0.42714615440325154
-0.19333762542754585 0.37384035515854386 0.76778240661820263
-0.57092681302350456 -0.089356420226042843 0.67102448643651158
0.12240102238530426 -0.20422065920876875 0.45769380137731286
-0.535444656291169 -0.78173954734546669 -0.32968364633114877
-0.0096794816573577691 -0.48840540433678115 0.12766887839913066
0.27477178534681457 0.86759191984545936 -0.31813448313354087
0.2673662165756383 0.65782245350744262 0.022605040216450156
0.25975748858104453 0.88680543979881321 -0.29856211116311826
0.17205911224021975 -0.12675081795402932 0.7894156734047284
0.16462089880877784 -0.069493731337228581 0.77375828474120745
-0.46479342065055107 0.19858030088418666 0.76446029730733756
0.47461968540486055 -0.59325822474716716 0.51600334661139335
0.40275551826975686 0.090329326252430064 0.12530530048367439
0.23239384325449919 0.27461258572518688 0.62889838321403868
0.36172937659088689 -0.48582701361005931 0.62099855053037345
0.21831588700658244 0.74876285212781823 0.17231782354566327
-0.62031374283449736 -0.5773729412030697 -0.21449498820966717
-0.40054090082304583 0.15583336225557254 0.76609387317043698
-0.27795621084607092 0.66585100462030233 0.75414080523494675
0.8733701017679607 -0.33816954809784505 0.49926820841009523
-0.32412128851257194 0.011973370030456731 0.78130687539534449
-0.32252917342867704 0.24684866981146314 0.76081776240722121
-0.72676255893270536 -0.99402648052043041 -0.44376582482451354
-0.41517988163036534 -0.18492618090919866 0.77146691634897735
0.43413921814493506 0.44263288842363835 -0.14518875459653291
-0.52525535850455185 -0.89964103794733319 -0.40342014063034082
-0.07093710553530741 0.2527341181673961 0.77561156296408562
-0.035868303326282103 0.38420272228600894 0.78556504850903863
0.1165865773332655 0.15825649475954862 0.7366718634128997
-0.81255459135918784 -0.97781212193975975 -0.44686408837120428
0.32511292792163715 1.0795567640997348 -0.40845364152812014
0.27911203876024615 -0.35372271368051855 0.71790786407544793
0.80601304371998594 -0.13309832047182724 0.59324410383636739
-0.078318473969119395 0.48823769010735418 0.75096264698436066
-0.6548630565756639 -0.57016917238390796 -0.24087655642010386
0.39817323352427536 0.18066479485420928 0.1256817475763059
-0.081852890598526074 -0.43036332104298225 0.60069973492725204
-0.22863673822345731 0.49101759154257785 0.6294991695835499
-0.37688186965330317 0.62415533904131637 0.51228910786063153
-0.02297882916681715 0.34767218788450194 0.78584708072905229
-0.093327764490027221 -0.41755126118918895 0.63538301561471933
-0.040848091599031022 -0.10194775779471854 0.7830442313675281
0.86097137343386976 -0.18033489729219099 0.57068006559287454
0.75919666248395856 -0.14102346755734985 0.41399063410643855
-0.41213928729673199 -0.75453213262333385 -0.33258692199241913
0.50825656306901124 -0.23998377910265134 0.76634053545737402
-0.56571990347522672 -0.76199890114224722 -0.33561777154850503
0.43087331991179667 0.35107824340738603 -0.075682382327015851
-0.11157224416967892 0.28020793940616429 0.77104029448459599
0.31549374407586583 0.6609960187317796 -0.19958495673131704
-0.1625962630223512 -0.15735234395413755 0.76544014872727217
0.098284891029422283 1.0156417143499965 -0.28310725116809632
0.40363001551213529 0.71446585146251351 -0.276656519347382
0.213009773038209 -0.15097362453387575 0.67746384688112204
0.39696619359088459 0.14092961633725309 0.16231592441395915
-0.36006158368309116 0.22454344103766921 0.73732885771131151
0.41499311274812101 0.55546334318188428 -0.20713451718945031
-0.16783071409784611 -0.097815768865791242 0.77392505333096828
-0.16347796412176763 0.1397689937852391 0.77189487654219135
0.68184660770273808 -0.22461230900401574 0.60367067871852598
-0.080740619741561659 0.5522306439876985 0.74501138313256554
-0.46174565312071536 -0.33046111174792903 0.71668655653659386
-0.014332615165315588 -0.48746516703463527 0.032158381750142961
-0.075702946202881094 0.30923273491155356 0.76736659846726241
0.058239209120671376 0.82980582030035421 0.56148046988346234
0.47203264178529736 0.96931221764830866 -0.38247824255611462
-0.11008955902875073 -0.46886598604127983 0.49927765301630966
-0.35567833616923394 0.15815387087216415 0.76877901550632899
-0.037748839890895169 -0.13049751044990998 0.76444021967508213
-0.72450486058700037 -0.93217671542761238 -0.4156032180127216
-0.46851959884308769 -0.65213424825702759 -0.067482496563305183
0.44224730748530305 0.20394623358983921 -0.051779760119427642
-0.69310285644408509 -0.46333681304568941 0.54549788021041934
-0.62445399562193415 -0.44944884414148234 0.61294389647366998
-0.037232626431318749 0.21657989087361784 0.77708053499616092
-0.6412734222287213 -0.53015262888376569 0.38899434954965528
-0.85317911276064251 -0.37014824521636491 -0.024835655357094311
-0.46459136640135057 0.071184576467985039 0.74606480046942991
-0.35331777435376921 0.21700034442169702 0.75819129549326192
-0.41638087494004594 -0.31226448955071895 0.72321277268718731
0.10778191487672473 1.0302904349478581 -0.29029484528160987
-0.58930259038135091 -0.20375314493471208 0.71911168893468513
