# XYZ point cloud file
0.99481630710502733 0.34653082817976877 -0.2781701481086607
0.29609656901548265 -0.027506300425935049 0.45964467823088651
1.2403979693337566 0.3100663609194374 -0.36567718895093115
0.86081694084584548 0.089222724588633007 -0.35750117059818276
-0.32100271217011977 0.61977270939324303 0.53199399984953821
0.45085727313540325 0.53402308402380072 0.52409535505994054
0.69431679865509022 -0.088113439881820188 -0.38684103981794671
0.7987025520989568 -0.026048359855932013 -0.21563858082459308
-0.89661350700270193 0.14498717813851281 -0.41738449062174166
0.26062905457833141 -0.55566720454651275 0.907894420399459
-0.7014353448239925 0.038874270083196549 -0.049479896294761794
0.46868783673384318 -0.62358707646205502 0.65474088946713938
-0.035719078664242065 0.61582487958700538 0.59705752653001731
-0.036766499349163873 0.73501137596578303 0.41641342790264613
1.27419604537487 0.2633416993239206 -0.37854810016185869
0.1391341300617599 -0.45176654751793865 0.9252937207394325
-0.18394279081729659 0.24623027116705654 0.69509502583342453
0.53396270006531887 0.35731236251447918 0.57492188862206461
-0.76050220565659954 0.041176208565394834 -0.29753247525417237
-0.11817252619324847 0.45257432602537229 0.61591577651785379
0.46437655635808017 0.5353218063350611 0.5782193784755485
-0.1253668071955687 -0.32610737730330897 0.76895693987502955
-1.0661048790247527 0.033448736967723214 -0.61103353596155685
-0.17322223008159998 0.68000226389094154 0.33930771802080262
0.45531006988666878 0.4498491741638877 0.60161248733855199
0.24792421179055824 0.078391859268633901 0.59613822202650901
-0.97793475778697836 0.030868026529203618 -0.60340603538990933
-0.92958245098212089 0.14853765074177305 -0.4568768524381337
-0.41105544777149206 -0.16725462432285498 -0.0085666986729178163
0.33444939121054906 0.64269980395724113 0.58039687747761803
0.44123013120930121 0.36903215495833486 -0.62848540429885436
-0.60056827054280593 0.46706739480404424 0.47576411099701943
0.87556527917587612 -0.1521613452645223 -0.14650813938442742
0.23232695439790918 0.68387670168709258 0.5118770091650191
0.17084641440323711 0.63036709181815942 0.62024455937524881
0.66406722673565621 -0.043778341680354327 0.044778141082516321
0.14741899884820153 -0.57528336868454666 0.91979257845474383
0.17529625539671612 -0.37990289900729035 0.91041356877215129
-0.22448461102692274 0.53317170304971739 0.58432431836801335
-0.22210714018180866 0.52216820651776175 0.53772492547729378
-0.27310830481274406 0.33748579733011264 0.62672007247245887
0.17586429740938891 -0.52343259201154835 0.88446712083151979
1.2770916990720149 0.17257598714246436 -0.43083911971986133
0.27001168595146474 0.58706447363229719 0.65515528318488414
0.8150582477925008 -0.025365191017377331 -0.23208751938777272
0.14136622014329614 -0.48024372460376297 0.8905528630907531
-0.11795039054604262 0.66771961762679322 0.50890363440981368
-0.023431087619426361 0.2611426893173272 0.69548333880370805
-0.23696684018933611 0.40992418272544473 0.63222090873020687
-0.26979578571910467 0.36742316671049213 0.64544860882934074
-0.38875293644674169 0.57458252304165347 0.5719478175661159
-0.43305794716352475 0.41092706402635892 0.61511435768091438
0.067087561126740525 0.8792622539807593 0.53794784846935695
0.033972233413108732 0.40582385993166614 0.63837433853502557
0.17988097466210418 -0.10447783156335921 -0.75596383195148054
0.395663126777273 -0.61735254216888968 0.81975369667690767
0.76573660016845446 0.36563984609438682 0.060945894914647525
1.0846661854511814 0.36007265914615783 -0.35876906440806966
-0.3080804709359084 0.56210694137842987 0.55455803593473973
-0.16824367452227795 0.40465379316617867 0.55475241257064134
0.10017760115264851 0.65769745086400011 0.58140138287346321
0.92070785525756005 -0.088289052175289928 -0.24526807697105202
-0.24565072487676654 0.68367049700482463 0.5558961534860174
0.30951407856449409 -0.10452032576362802 0.66856474043387415
0.29853100716577696 -0.084996806884141574 0.62687412101508677
-1.0391680523308202 0.18586951203186519 -0.5899379158122624
0.41738070169838792 0.57684067368550673 0.56565016596477324
1.2240538750303429 0.14457844079762339 -0.34209822070670359
0.22820120010983969 -0.54460183984802946 0.89572755857557063
0.28784004250947737 -0.65914034279640576 0.8324236486712655
-0.86078158399366922 0.19625167900941287 -0.46528768546460686
0.43477255243224544 -0.56173177655120865 0.61291978660183588
1.0367482521430542 0.13514734938342654 -0.41783963881812891
-1.0895838694811615 -0.082187719108028023 -0.55523723515747481
0.05544371121057301 0.47179245240156176 0.62641352220325786
0.45721423516938486 -0.60960224892861659 0.77481809124184498
-0.85616361213181369 -0.097344517350490101 -0.27679616178274014
0.16212835973919182 -0.51903289781109452 0.57550493573261008
0.38558096559545119 -0.29737047636659231 -0.22618336345267043
0.16500341807354113 0.07974803843191447 0.7792152730111539
-0.041321960753457176 -0.508504087060341 0.87421737943911904
0.18348176203581756 0.61765060619838108 0.64609523009483194
0.35556985682110653 0.38344656169875657 0.64294438505215634
-0.33237503585312345 0.55029987512627798 0.59373841487940826
0.0044512714409856713 -0.1973132419396304 0.8547128882579571
0.15240806975607457 0.39042518020635786 0.65800880830025932
-0.99740489435188007 0.13522179215129571 -0.6413703567784399
0.68833660396170382 0.27019075297997475 -0.47238554578290248
1.1427892764467558 0.22881674145373943 -0.37414137109054391
-0.92672628729038431 0.17885348272542023 -0.44369068919487109
-0.78596833790711562 0.47878957077205708 0.20853974486695481
0.41545200267535831 0.54392644821652514 0.56550008373064387
0.25928187589691198 -0.013954539692069279 0.64217641988544383
0.98648806616792184 0.14502232266094195 -0.32148814557934191
0.60666521871240953 0.033441485316840769 0.20370169985562026
0.16574918026279528 -0.60368578986642607 0.63368515728392971
-1.0005779909201848 -0.12356865876641665 -0.37201032105930132
0.44487265666825904 0.49649598292452435 0.58233911687923268
0.21151420603565629 -0.28441515915609639 0.87416936419248614
-0.54278332007973074 0.66065619332772396 0.060005951301597804
-0.45329722003029715 0.34761661587714388 0.59128073120796198
-0.17466840330716371 0.66142706158931031 0.36417386603752533
-1.108249324571168 0.050030553667697486 -0.71306757750537209
0.091241046708933737 0.14670362963895922 0.80252044599035433
1.1103767166093097 0.35798061558920047 -0.32020131299430687
-0.38883066320805648 0.57082554852238587 0.57817257303379854
-0.71945243549878279 0.47766021110564383 0.41693509686482866
-1.1633274312465103 0.01257161215301883 -0.71909429598595498
0.56434424738621303 0.68380188524724606 0.5424818157430229
0.17986995019750474 0.12370073979621932 0.72525355052232499
0.29748080895605655 -0.39563303081464563 0.88373045050600663
0.28640101176391841 -0.35909682486191041 0.87610983031671541
-0.036025252174007871 -0.3626820107576969 0.094173528490555825
-0.72110828467389299 0.60115101186682862 0.32695645789811945
0.056418147965328291 -0.30894789922065735 0.38109596180235439
1.2371803338893113 0.13947970313960045 -0.44183665760385527
0.90555830283069838 0.11735081656630664 -0.28863051668850837
1.0457459944168908 0.037368509560893326 -0.33105158287314485
-0.35377968156757111 0.40432864731777141 0.65533607485515954
0.16543054946420721 0.50037775008874696 0.67237222452516399
-0.46350954742798578 -0.16006845873230979 -0.097549763881395357
-0.47409746332071245 0.61655349423783434 0.48581300657867565
0.67481018373167112 -0.17295713433611137 -0.17032302329350646
0.82291565425571456 0.052615244472874689 -0.25419579937102288
-0.78809057993172038 0.13541953559884767 -0.26496967194434351
-0.05115364070820716 0.10541232638812081 0.76989411451689538
0.14527148508151866 0.051191076720134454 0.80184119335959281
-0.32297774496317411 0.58620414033640866 0.52467943108909409
1.2784739963404723 0.24841639052803899 -0.39554870587112667
0.2029235846158981 0.66593533383253245 0.57675168927278353
0.099308101579638652 0.62495750852495879 0.58449113871022629
-0.26958162514731621 -0.31967026172077784 -0.19327496014340273
0.57210573461679903 0.42224891981192014 0.55666656756068633
0.094690942783003162 -0.36264433921149175 0.91105203719705674
0.20787838372027245 -0.40857228253785216 0.91266590724730889
0.19703325926936355 0.81489749913775356 0.56352089678739681
0.97034088103552785 0.26778136199818237 -0.37472567430236658
1.0323297670581266 0.153861548721971 -0.3358904722370184
0.19579963103788156 -0.059047029703935827 0.79413732113233859
-1.1532474392263103 0.092037980013813581 -0.65441364774820698
0.20326919010864453 0.06495076777081632 0.7207462834581202
-0.47285112279871955 0.37175108997746431 0.56718316262831081
0.54587356212905513 0.0061422910718715862 0.22734675511328639
-0.78355758478609472 0.50910953298042827 0.23728030170215142
0.0032923112165432755 0.042440692508348921 0.80496781704093401
1.1242354281809166 -0.12165502063425881 -0.38228712225456984
1.0678850236985626 0.17233104528477483 -0.35207057048484636
1.156991791588025 0.13960231922840194 -0.37252647028291008
0.38700535209118625 0.31245191468469313 0.59589568522360814
-0.11984291149748794 0.084820587093500599 0.68409202366893762
-0.93636270419029133 0.040434251942400135 -0.56790662269632453
0.20489976282312661 -0.34411468524705979 0.071428636179657445
-0.28415594645076903 -0.093605447542989495 -0.74374937394316731
0.49469027899876972 0.72382711823699664 0.52685936336965078
-0.47101879882239128 0.61132678691924225 0.49290563734029291
-0.17127308681441322 0.21037096229720831 0.70119677793765156
0.95076403414050459 -0.086751430866715218 -0.26083784295383694
0.87660038231955673 -0.096506802998515884 -0.24217332885198051
0.93016068596018009 0.33176505614068263 -0.26007703628222778
-0.81372112882802261 -0.057097169274178849 -0.3198309681871514
0.36315039725269926 0.51180547793754849 0.63807832308467827
0.53373531140020791 0.052030506940849985 0.29579605782699936
-0.37759449622444041 -0.24759018738340099 -0.28088620555019617
-1.0288557070634448 -0.1154799372972457 -0.43509881850169929
0.15911124995318504 0.11665965178533222 0.7758216885113578
-0.50934489406366668 0.48086659427339384 0.53684196659269023
0.2601540911700071 0.4142368687508986 0.66987444374858285
-0.0034111930051143879 -0.33551847122058032 -0.58111847290166896
1.1022481662071049 0.13838170901029967 -0.34707816737588804
0.1342052072923523 0.02573656979560246 0.79433174679398988
-0.81338942745934206 -0.021612895541823551 -0.34862537819636152
0.038763215342327406 0.062054372808436842 0.82497195149966807
1.1623559962469585 -0.026646810916013397 -0.37272591834135582
1.2351292231993716 0.26478351011748957 -0.33251619266042542
-0.37759551413378434 0.61262689238290591 0.5165760769258938
-0.78939104457406417 0.0066343403442070681 -0.35745106736871435
0.32067603531913003 0.33252057570242854 0.64900761002511498
0.25077641881310431 0.79502003863903425 -0.29473538785504161
0.8701081915725859 -0.06211862110788946 -0.26900114208419801
0.23536432392491147 0.45346373066791745 0.69160065945840632
0.978857322439457 -0.092077201921001883 -0.24895051960806303
-0.51722124825757509 0.22250195798776762 -0.79279480425591498
-0.33943234275590095 0.62789777484194831 0.52329589289240275
-0.086730407451784064 -0.4077104454537186 0.6221300737939881
0.25447528845918477 -0.45981749335163213 0.85593475509970496
-0.35555633997303637 0.45733230197233254 0.64784457737138634
0.042691342518681008 0.014818302180779952 0.80403081850704972
-0.85062269815673908 0.074646265956779256 -0.40211227973896779
0.071919146045538618 0.72669153917089613 0.55860775683417341
-0.79381272080853327 -0.067242326637253935 -0.29289951030289618
-0.31681564346335023 0.45090249586561537 0.65528675464913277
0.24968975455600884 -0.39052511798408052 0.5283513797846382
-0.6728588981089203 0.60683095814323007 0.25352145000773429
-0.87704125766779084 -0.051895507711641198 -0.35677427723190736
0.10568136405480688 0.62073014596833787 0.58179698050389206
0.70881560943445088 0.50446037063335503 0.068023781547976725
0.34659974285908968 0.52095704131297227 0.65599936222065303
1.2496984844691919 0.2128590544838862 -0.43537875245854529
-0.49488627799804474 0.58448103139863683 0.46627908745227042
-0.3937959154179187 0.37724209712286205 0.62386673892811295
0.06772226844689877 -0.5833313353741425 0.65345302739570243
0.23431771474973617 -0.56457386026763068 0.91256071952157836
0.50391233038202721 0.34667493564252094 -0.59705928473730729
0.7832778600173973 -0.01566031278790847 -0.20880134388577343
-0.25941004713547056 0.54404411683061937 0.5747629344067251
0.62573647270120736 0.65196825619411847 0.47471454222414255
0.23797764574288127 -0.54482534467933119 0.89357125116998048
0.24544326249512549 -0.62939477361616891 0.64604319014133793
0.16681575408018467 0.4182755675689811 0.66102928476676759
-0.30887220543521421 0.57343056463994824 0.5406287461742485
0.20175317436377194 0.65764936563090615 0.57605047485408445
0.5715263216054427 -0.17647322803927512 -0.34920230524998708
-0.73316369499577716 0.031533230084909825 -0.23968791477275886
0.26849387208968123 0.65679268921108358 0.58355952142777667
-0.24058490231503926 -0.097302616893252925 0.37853973816477904
0.25351543539578092 -0.66065513671220844 0.84289050551875455
0.10866525470176258 0.75015628808966905 0.37893732507374533
-0.44225866349984599 0.43302256098449998 0.61694258466347218
0.31755232158670577 0.10249857428816567 0.57401350483133928
-0.11014885792341911 0.37360357840295721 0.64229032043986756
0.25581133962064184 -0.1059853280522205 0.78246755155134284
0.099030935735022307 -0.1875622640246517 0.85984900443292833
0.86914088615970408 0.26515482423970615 -0.31135520748475454
0.014158794783381001 0.16387867068659201 0.77459003812309568
0.60716813860160368 0.45308746948495582 0.53806466582668033
-0.35943355449168513 0.12640881943812232 0.5629455977742106
0.023609372191449651 0.15799911873645467 0.75153302535266508
-0.057280993138808078 0.67051179858363996 0.40571706439568445
0.0466435858471419 0.81476984568859701 -0.34597913503438349
-0.027766593908551851 -0.35214474188142697 0.54571267105369792
0.17465524720481174 0.42570850774138647 0.6464457955776437
-0.97804100402762151 -0.00023980985646332442 -0.47568019552721896
-0.051741078272217855 -0.47185387107223642 0.86804949474983939
-0.34722573359962139 0.60865628988389231 0.52775126681874074
-0.096122039748642418 -0.24992987156110047 0.48702863922126749
-1.1699139578006275 -0.0065489233469242514 -0.59303062237089854
-0.8124373752522609 -0.066924326360904285 -0.31092361850382311
-0.78848618117966307 0.18448737942404225 -0.51877122480550764
0.27879268560433257 0.051964124528813826 0.51609827034750566
-0.02198005482788945 -0.34085477503339234 0.19747134127763921
-0.40628386174006526 0.26874892863953592 0.55899920230316891
0.19891538275079812 -0.53515613337415724 0.91138273008674187
-0.022061371801035623 0.12180679742598466 0.81442459665485867
0.065791771489295936 -0.6702135889195362 0.82166444030779484
-0.82999300718254831 -0.090836809402973007 -0.18540310300186391
-0.091807460046345213 -0.12130757856457564 0.78088920269215389
-0.79695880404732788 -0.0019980994542745378 -0.35632694639649021
0.39526713229429289 -0.40117732755397872 0.81494885180841159
-0.64695789919234858 -0.072356622484517796 -0.080008928077226926
0.14404632773345671 -0.35732840437403679 0.90775400672248097
-1.1792112765348062 -0.067767567802073714 -0.60736245716286064
-0.26512345685385919 0.36194195773736437 0.6447362470391429
-0.30561014834004396 0.57734681617309658 0.54456208985038934
0.25648892844273208 0.6397473831986118 0.59406777918264897
-0.13800253560321174 -0.10034553530455792 0.7111314289289572
-0.44168895339696501 0.69922418800139274 0.47263586645825129
0.27964462243344856 -0.67963538377348076 0.79345775561320764
0.063962481853141462 0.55396230338866737 0.61213380125775707
0.088208386743009015 -0.018159141276556934 0.80160186825865498
-1.0554685174219904 -0.11465820795829185 -0.49901045287888657
-0.48516163498524145 0.48784997619309411 0.57245234935085065
0.044629771571552013 0.0043484735283412235 0.80091515406592872
0.12653335011089384 0.65069548996570692 0.57897673776078573
0.22891672253695994 0.63661084485041552 0.62271302085607516
-0.20131337334616184 -0.098375654222114139 -0.7757079416986894
0.91705408720288739 0.16582876797487067 -0.27658722903685629
0.052365034680527778 0.74963606267003868 0.56032823452659564
-0.0052487369188676247 -0.14670260021561488 0.83774163278909608
-1.0446563133843636 0.1246805354572964 -0.57580448355597813
-0.50886548333015647 0.58937837995988884 0.48954879175396115
0.15887337847656147 0.37852833420865117 0.62259357881317179
0.28433951074511343 0.33891960649396946 0.65448976255290869
0.58378612933005281 0.49720232037448531 0.54894817549918429
0.21336499165101364 0.621524741281545 0.64388439092048166
0.61751483330504531 -0.096336250533006762 -0.44879077284507396
1.0717552434125479 0.28561227162702396 -0.32035519280684799
-0.56815333427169135 0.50392486629225752 0.46224711435299337
-0.51046247254846699 0.6340690951803154 0.45889475356496678
0.10622547398259075 -0.015922211035552358 0.7993900474838247
0.37933462233869886 0.60004684535896757 0.56303858020612108
-0.087403825107739141 0.062378331939593412 0.73598989718915409
0.33679825472933267 -0.67831136049045115 0.74091106700704668
0.08394602488194014 -0.56301772315310172 0.9186530632440375
-0.45335343569897502 0.80458743735935379 0.45083928231119064
-0.05383583668769587 0.45141811965573853 0.62175289499751063
0.44308952731145901 0.56868841025386541 0.49275741047872312
1.1923559226685954 0.014488924316253815 -0.33433993723410804
-0.10240174581747929 0.076034586507605528 0.71320856012441425
-0.7131587417067724 -0.099752828306353347 -0.085531857479279161
0.22425071620072146 0.084317797284307883 0.63417128010410728
-0.94383782498015112 -0.12498789265801102 -0.37987186789173588
-0.76423418299760426 -0.066027676454051942 -0.24092685257415791
0.0022076725765578509 0.79836224933209987 0.39052521691441999
0.36203438306552282 0.62426951715018353 0.57386227117702049
0.10498866096102377 0.86918886896657366 0.54164899548023548
0.85543521510853049 0.052119090803433021 -0.28237255257495164
-1.0936479947998303 -0.059270513376499245 -0.57346824764222326
-0.52034591912419392 0.65175362440752727 0.45601985781619714
0.1438976269509542 0.42047895889276665 0.65724076200144665
-0.23778444482652583 0.36942808748061262 0.64354223221002371
0.67451686217097961 0.52408165104920723 0.36944362208903492
-0.36438366506178665 -0.062104527802714582 0.25493920028723238
1.0194281308022823 0.16501315808744055 -0.33648023460340948
0.35581884010513187 -0.63528446749406076 0.63476733919051842
0.45635375905298137 0.68030640898305217 0.10232102170319823
-0.47693446916094517 0.58795686132763336 0.49346128509634912
-1.1610645933153885 0.086605424866307512 -0.67279788973521626
-1.0158933082447295 -0.097063155309661475 -0.47803195703158607
0.13996790418745109 0.14908082804779443 0.74382581570596429
-0.39976100524575919 -0.13925462992622695 0.076941532151509229
0.89356701975314046 0.10203537749825831 -0.28612342108673605
-0.80212853548169649 -0.13253791400497539 -0.31767954468597459
0.90522287054744099 0.03344645616547437 -0.29220565954887689
-0.41515418052162634 0.80805657851201174 -0.19888392945717204
-0.38350020974462407 0.72047494050454608 -0.53421860714906444
0.17142601354413189 -0.42880541316171339 0.9095865628547477
0.077025253765198087 0.53663527565336722 0.61930741271112577
-0.31642363735762613 0.7399146596910362 0.36291464369081794
-0.52613381429083006 0.50060613675728671 0.50794788842436134
0.98911429279490903 0.066885687969224339 -0.3141377274292827
-0.69396605548574009 0.22353763371316804 -0.6863776888586921
-0.30367699647505031 -0.28473420732994192 -0.44234746973549832
0.15131603791947201 0.12622972514373076 0.74994338633271962
-0.78099282790511859 0.39839503049538738 0.087741745228490764
0.32048834001907878 0.43507399911350264 0.66737273322441748
-0.48134262469359257 0.35878866035818247 0.57467740011390767
0.89982152555427763 0.31619751504584803 -0.26556782457700034
0.044024145935923187 0.14278437075865247 0.75855090211736442
0.18586507850136647 0.40350992374069738 0.66503269017716526
0.11021140680013719 0.66690789003546147 0.57901550426765169
0.4407325210035733 0.56950595150892891 0.57230698749655229
0.3141823166421891 0.59415645235947112 0.62490397197638803
0.1857239837275273 -0.58509552738695048 0.9127460487575938
0.28327204303102427 -0.51412310007102668 0.87112852097979232
0.13707611086063087 -0.46780246663391178 0.88933952112089898
0.28998915786378898 -0.24744123223154624 0.83066708693369851
0.72216960156922427 0.26681748237459724 -0.43297689558534636
-0.095047777560403723 -0.27380007737750933 0.81298676665624825
-0.24637304110720715 0.12400849648342627 0.61639031112829379
0.92976098109034089 0.27329038869973488 -0.24046142786010005
0.75644545331321034 0.20563450848639508 -0.39791637232108101
-0.59164681341326553 -0.027235977975185399 -0.57270133625877406
0.80460356957793788 0.27949761758345648 -0.20483086116994631
-0.80488432648242414 0.24340984997194326 -0.095503327992651599
0.74580502343604094 -0.063897064427203443 -0.133918753495883
-0.82442541220340759 0.3554247394072223 -0.14081977087412145
0.22413411730007615 -0.54301350721708985 0.88608146557601675
0.39119538413216404 0.74184148481203493 0.049668326605654123
-0.11991539859199385 0.018067761829708484 0.69183280227193933
0.066880269985913454 0.45235394596886325 0.6316980301543822
-0.34265199225789944 0.62064068414268636 0.52653930903976764
0.047411169889705285 -0.60959715649546009 0.68562196192430314
-1.1018427249187108 0.00032913380470755982 -0.68561718375480663
0.99876239099788711 0.31713616465087702 -0.27498447277756277
0.21629171859176299 -0.23778634147045219 0.85796968502994098
0.10516895516080149 0.15525392627175583 0.79611680176685962
-0.69477603043139435 0.18467311258953956 0.17977736952956391
0.86078564175986916 0.15026402362103264 -0.23169771287612928
0.76243345667954099 -0.092218739702995212 -0.12184022529140393
-0.062139309381830543 -0.42988975677952457 0.85922322951756414
0.06167241364810927 0.77653589117916066 -0.42962636570383594
-0.24020201906092042 0.45746972949122 0.59637838600222715
0.3407192647749917 0.5995992631450151 0.58877705473860065
0.43280811564484845 -0.64004434947095712 0.76750308928430311
-0.010432032471847652 0.064741180693923983 0.81418554326068016
-0.76421880136718823 -0.016571028698642909 -0.27967652628114514
0.27165613900414654 -0.39129790570239686 0.89268398184283182
0.14573879077475604 0.37362139253204107 0.66132914175200241
-0.99343045030519272 0.055080444342154422 -0.53185803542315746
0.28552602543570416 -0.2303777075448159 0.23724818109288659
-0.3042920801251805 0.51948542547802035 0.61333020211291789
0.44196122151501749 0.74537402856029189 0.52590565807284939
0.13514781139813969 0.079531434195364348 0.81664931283114583
0.13741106011601145 0.12661132276637987 0.80793141243321287
-1.0731215256903806 -0.11147317696976478 -0.44110247958173243
0.29957333617765425 0.65079247145956165 0.58370512805350394
0.2079192025271337 0.63866057040824353 0.61608137896584125
-0.30204795199315315 0.58142434097862949 0.54798146618935917
-0.20822915245822315 0.67371792403437247 0.55637935403131866
-0.18141488773679626 0.51676113075627228 0.48290458692407245
0.34721859845467984 0.68665219529973909 0.23878735068626611
-0.7930943959118677 0.031591062275801551 -0.36017595303146788
-0.69037925329534522 0.28979084600611493 0.41184821602915012
0.15828623179863843 0.26646677192376567 0.70738448177909952
0.26531516859135262 0.37130190344129721 0.65435116458545206
-0.51978710900060587 0.42332621891487454 0.5308993226855252
-0.54860094783046875 0.42833830375600312 0.50183617233215472
1.0819630867127739 0.10727207799070548 -0.33707732951949332
-1.0319529992866801 0.005948287306994704 -0.52726163105921131
0.22733622630570061 -0.60418889934313524 0.89624396482162361
-0.1042054949695741 0.50928890317432618 0.60838975414694563
0.033523107651090456 0.57584441034597411 0.60027855432606181
0.32860447781260271 0.51212715217445481 0.66908223810505607
0.38295453404205348 0.16748090463315535 -0.71850329425456394
0.42893174769442677 0.54469201508201559 0.56676224618293158
-0.10973367905598375 -0.10242454241345467 -0.79749631203166338
-0.23518492066581187 0.24180832680451614 0.67510026235218668
0.21694543962226698 0.68369654300826133 0.5801582822266651
-0.036726855128142333 0.075814206722056632 0.78975352296812407
-0.25920739045899532 0.38743011611787637 0.63895159046036909
0.27864635413902139 0.029203386227213191 0.50589213760767571
-0.77260592927565463 0.55001729432420454 0.34579404585412821
0.18137134609974082 0.48775684235794081 0.68242317683132914
0.49352371595085565 -0.1555496185248062 0.026258279028299469
-0.42277536988459996 0.51033730255001419 0.60325711635126211
0.88284774345986383 -0.057390977119566866 -0.27446097365915545
0.46451912786776006 0.44506195018343631 0.59920818279038368
-0.37158610686874294 0.30235678140921163 0.62217939096953501
-0.7339141803475604 -0.060452463102061316 -0.18104136784602787
0.26228560738405182 -0.49207584838029161 0.84829231547317718
0.15381920957697748 -0.48872542847794431 0.92713303000975866
0.30943006915047233 0.52883485349472936 0.66987470795953108
0.16148692256055996 -0.50671827996205687 0.8722610377422777
0.16605939643604994 -0.61598176848365593 0.897839705514901
0.52610941977202241 0.24092623893542475 0.55668892198203768
-1.0760329813433271 -0.087148608076685008 -0.49905559250748155
0.38321748669760547 -0.60160534929597009 0.83795988770963348
-0.42184193314418827 0.8250447392952367 0.35822812638913959
-0.47995988664366118 0.51954009876394913 0.56488538178686287
-0.32891347830925355 0.6067091914682452 0.53498469274009963
0.3337366841939855 0.30096012523235016 0.64486679201846808
-0.11165399602318526 -0.16993514787751973 0.77392462460960587
0.49444845049861108 0.66703657758045276 0.57037444637709012
0.2236765583953968 0.519953390613205 0.68594874985742482
1.1178090444139883 0.22421794792573113 -0.37671466669837628
1.0424752504167678 0.069382432256674953 -0.32894114583955947
-0.41143612793893247 0.40993673499343064 0.63390992728808193
0.40556427186027166 0.34992011507310128 0.62635475364602744
-0.73902104455088446 0.52050536813806314 0.40657179651710607
0.39733050491622013 0.60687691872814531 0.50748488238446665
0.014767048261206117 0.11466848553790587 0.82041905749497701
0.0012814866250123735 0.1654817130641173 0.78471063931379259
0.93667647244061403 -0.054652008366009142 -0.27623433338431091
0.32886639328182143 -0.049475209969361167 0.39101287837421594
0.55530363193283838 0.67955421175986386 0.44937633892839646
-0.13457967851968178 0.66724833201638845 0.36360447276311447
0.31063181997323763 0.45273675721144846 0.68305070547955715
-0.39564758727134697 0.67885700433892815 0.48709800774566236
0.093806196989322466 0.56580240487887856 0.59538495298399408
0.38863898804070551 0.60967366292539849 0.56970176494468738
0.2687929440742618 -0.19485366425208994 0.81977352913304991
0.54742032822485509 0.60919233117828986 0.1621305420326582
0.1377909674229012 -0.43584658339109739 0.92306275386000536
-0.58708807865817203 0.48108743510031671 0.47150166633240786
-0.31414368040808238 0.094781676266554982 0.51899530810050276
-0.20119135735162219 0.38656641176082873 0.63885714014828565
0.54847738450740513 -0.15541756210075608 -0.4392876117244926
0.17187730052504602 -0.49553392840943999 0.86863287576869386
0.04663530889260814 0.14519144190690803 0.77823717786469349
-0.59950458172158028 0.51044518882010159 0.46020275636111752
0.13776178626904834 0.55438367312218295 0.64600393767493181
-0.15286599451397587 0.55731562949222679 0.59357064062673892
-0.5546087618848512 0.21303647414093074 0.50647951355615728
0.25372955441330802 -0.2713257472608408 0.48210264668919489
-0.96723077857489947 -0.10426724956382527 -0.4265528867942745
-0.3875772596146807 0.79162501936485308 0.47791605296734829
0.16103353162190404 0.40944369974634132 0.66088340020054481
0.95783169063841322 0.26440375932847315 -0.26332221266410105
0.25517913996927222 -0.64795248041141029 0.85750742802297353
-0.37451078563645002 0.67599131707049143 0.49587677472410174
0.32092610699935165 0.54258848167773399 0.66050140062469076
1.1360051365542159 0.17235137459793748 -0.43834610418550302
0.14863758998212129 0.69394009752975583 0.46242758330626099
1.2261753379141584 -0.011729078475547716 -0.4238287831681129
-0.81559878379059958 -0.086438133600038825 -0.26394562793126131
-0.69434079339998478 0.50966037086694715 0.4247386068772725
0.42323126885442752 0.58109116922381387 0.56863115810666365
-0.45948863458547118 0.15766878978612686 0.53252901748682557
-0.62606175236756512 -0.024740324220100973 -0.53753061315342965
-0.46926663998676421 0.69288633593556748 0.09299813136545243
0.34172212065413854 0.65123952386176187 0.57430831839543206
-0.69849407793778751 0.35243435392240441 0.4269646479641116
0.13566482654596967 0.65739708626221915 0.57827680094100575
-0.8227742717256743 -0.082840451554110572 -0.28108059319131229
-1.1663812804849538 0.060531252104988553 -0.64187448142319692
1.0045076433607072 0.31924128550856468 -0.36245154417076098
-0.37733126873043243 0.62359867124669899 0.5146669529388701
0.77900777564830248 0.053097007097185234 -0.18804825736786324
0.25881100478110231 0.7352098997567631 0.19672856383798809
-0.47445396446331634 0.53370617667766362 0.56123549644637727
0.29511599830151081 -0.055904429653641508 0.43981869979938182
-0.35421832094600259 0.34998590275485419 0.62223418967492261
-0.55154997211023726 0.791223077211475 0.34383265224660775
0.2675295132645954 -0.059233244810635188 0.52188525474947234
0.80962733225950823 0.18334214423856476 -0.16468817402708424
-0.23048145881711246 0.18059962156757381 0.66310146006804338
-0.0031897923890227275 0.71228638430908475 0.31802664211724885
-0.42814756677918941 0.084760213203805002 0.3961298164866518
-0.80634312998855195 0.42644730415011711 0.27030669695129994
0.31312591057343653 0.44856888381668059 0.67889772275303262
-0.5148016081469331 0.38800938010633068 0.53200896928870378
0.85729690707876482 -0.038196718354557735 -0.27256575355658796
-0.57829437442090637 0.43710198539050715 0.4962931612228072
0.0037457950261488016 -0.6576601111520608 0.81845335466240687
-0.20996906637087864 0.65777603086389469 0.38489598629170807
-0.83870892131874841 -0.090578274595497721 -0.20678618896109668
0.43068607570898987 0.31038046002567432 0.5666308205486601
-0.68884024586840509 0.63209092984195658 0.33113735821434354
0.46773012459936103 0.52806318316527889 0.50196269523549386
-0.21254015741538401 0.42466736095408342 0.62920870974107057
1.0922263589147887 0.33944946352031558 -0.38528745481831184
-0.97058257844993445 -0.12454475502523321 -0.37701559957873165
1.267252393281888 0.27262220450217578 -0.36150537762537471
0.078802763950677424 0.85630409813649244 0.55291335746629855
0.44715469726223267 0.45348380316312431 0.60157616247844015
0.27298432059518252 0.74584509135082699 0.38538158889858476
-0.83771966927198527 0.14766298265930811 -0.50473445906298142
-0.41137277899556857 0.77420748067543776 0.30597649801928295
0.82396455882631514 0.088139172239808605 -0.22936162761068424
-0.08776224755467732 0.66002411133063621 0.3895271718461828
0.040206472187523712 -0.49697255965783738 0.60304615724936994
0.64404238397745406 -0.036225284203840857 -0.4744257685293265
-0.45110557029080578 0.72621302601233451 0.47192038484612375
-0.58974014468918723 0.52559069183286233 0.46122370332237494
-0.27829956233083264 0.37507108224008201 0.63904102418764097
0.56730637410175699 0.11618151306964197 0.3388651793512647
-0.012737147916553226 0.047831911350301848 0.79671682758296836
0.58777087381862536 0.60654289778482129 0.34971214754153124
-0.37306586533599573 0.28998560145089902 0.61983097800944087
-0.52101552891247449 0.28457395079556003 0.55207965955397587
-0.046138983415245249 0.087656344469432934 0.77686726758729563
-1.1626301276259126 -0.10104430584718749 -0.57526232691391588
-0.75363477736619888 -0.0087082705970984442 -0.27554041421666042
-0.88390751856307137 -0.10712912380654327 -0.30704057779759175
0.094561643769690118 0.5206602661767965 0.61917630121212675
-0.61879861557107185 0.42720500427104069 0.4764679709475681
0.15362444983795021 0.5180169409607327 0.66580718827072793
0.14495355159244117 -0.47025220688444014 0.92678077954278404
-0.92870139078578173 0.030435860205167309 -0.45418503730241166
-0.45696150412706737 0.6305829465196271 0.39838021674566626
-0.68454926563664653 0.50224490790453169 -0.63100345749853659
0.22840778811862528 0.29854594000887591 0.59903269407237225
0.91594892822185914 -0.064077284760453601 -0.27139638500082697
-0.71430426526057023 0.58814016094188393 0.27436172446710305
1.0431698471112925 0.26313794187886996 -0.31884665250743538
0.37304304121096399 -0.65649467890869317 0.65779009086412721
-0.009741610801238032 0.16799658817308627 0.78300768914327268
-0.052354917910290677 -0.03953187434553751 0.78583042981282247
-0.93589480312567774 -0.11944123257724337 -0.320772006498383
0.15249238007114396 -0.48989275933724752 0.91077987482061751
0.73089730507822992 -0.017305231989504399 -0.061518004837191498
0.1588172524937117 0.55721284772929414 0.6662834441464609
0.16607635562972112 -0.41222011630251787 0.91980555407699693
-0.32924922920969957 0.35673029741327156 0.62767696316069888
0.97806585416708725 0.17808496600460311 -0.32101212469658691
0.45613450397434629 0.59384045910170835 0.56304450361898173
-0.50494623467948907 0.62862857905801484 0.33137991039416903
0.88334854740730995 -0.026371001090864876 -0.28226697769010567
-0.43531638087237878 0.44116088652735064 0.62004235982300049
-0.038489898656676402 0.071380979872044392 0.78227615899513836
0.091035343112723766 0.55175680675370531 0.60461840503855058
-0.90972685130943054 0.09000373812851814 -0.46413359240763619
-0.059024632298865232 0.05578108245091018 0.7629866264089129
1.2469607621932499 0.2728466242023595 -0.33747450820738401
0.12348222161291078 -0.01021081697487336 0.79557161272882926
-0.017192784315115173 0.86466605845851019 0.53610430861988156
-0.75277523825773107 -0.00012218740474523315 -0.30671852365779273
0.03068311593386408 0.83246029296441826 0.059679867635386685
0.27337988645595646 -0.53261179879358522 0.88449633493160107
-0.71516403282783081 -0.035909566413447891 -0.18176280087645313
-0.023159923551652195 0.66151185507055033 0.58923955846433707
0.18171191574300938 -0.28370189558169701 0.36038615314402911
-0.79578492137305856 0.16091798383925671 -0.24581074336612385
0.010142124837840605 -0.30258713128836545 0.38415736761344288
-0.93223277996891873 0.12265638695913195 -0.47686602401052358
-0.299478154641585 0.45695220278530879 0.65224588058523647
0.94705659192229419 0.022596262436318071 -0.29857752891560363
0.61888202393536007 -0.014913683216992712 0.13197414515261219
-0.26955056039348246 0.61023882309485522 0.54776095644953138
-0.62899386083838893 -0.1335522814719714 -0.20703985617978748
-1.0108877784128691 -0.044121930820599342 -0.5877308197779394
1.1302210472232317 -0.049348331801052137 -0.36599956157488034
-0.6970867466452404 0.26836752822221532 0.36934358833908831
0.19845989387073715 0.37453309096948884 0.64152629352166368
0.42347574391142251 -0.035276280751832978 0.28949370888245252
-0.87856893994613738 0.024610058168781812 -0.41174010549544526
-0.81579884103212308 0.37425585128835559 -0.48469067784224595
0.26157311381927961 -0.68498923033656212 0.74311971190750992
-0.84561093460780423 -0.092021902147509493 -0.22719091112255274
-1.1517222339514865 -0.082623854743503422 -0.54027682193543747
0.24617899313220715 -0.55111859948545883 0.91042877067148886
0.1948403612401064 0.10753624041609111 0.70094056660998838
-0.16822734584341825 0.034364509148163247 0.55997879611395351
-0.24646840370458989 0.068735479890556839 0.52307355994415605
-0.087395505517655625 0.69505160015595457 0.55436939990587675
0.45177125572277399 -0.61961251444641219 0.63296440485073902
-0.40207911455573431 0.66440496220345491 0.28481305541797042
-0.29149538340608405 0.78035792722014374 -0.4315146228170974
0.92035935539789637 -0.094702429666825072 -0.17508044013932356
0.24879862199888247 -0.0018475074755137655 0.67282874768786449
-0.097696778710310017 -0.055846729174564125 0.75214417740086414
-0.11703630381840391 -0.41519906615754198 0.75764510804164331
0.59219620076550505 -0.14528302450585029 -0.057530954172092308
0.38912966965487961 0.5236195517435478 0.60745907583036551
-0.42263658074397625 -0.18560181226313066 -0.096861361288473447
-0.22230877620113842 0.55553917619960602 0.57542860948787133
-0.024571856645131174 0.070972599272420389 0.80740003617922707
0.86774223111573967 -0.097457384935384361 -0.21951756409832512
0.38839022165453896 0.64873313860900872 0.56107465122730549
0.89442643596507132 -0.089891781365802448 -0.17319745744961246
0.18806692207966647 0.14011411621936887 0.7021303009019757
0.55673941499467627 0.32242999517808002 -0.5691063951384443
0.27044109964371588 0.67000094465508653 0.5852385916972338
0.12553963841575788 0.42521997194951044 0.65081805414711358
-0.22318802243454083 0.3061706553937249 0.66250319898414478
-0.66558676697411023 0.44859438350436109 0.44575710946577196
0.14533150010730944 -0.41146596098746002 0.92215390670972663
0.060788622412419446 -0.64011903996377928 0.71348807820132532
0.14006500711231951 0.55599761212140431 0.65235863731636634
1.253081623583046 0.079002370341971329 -0.43602849841484748
-1.1557236584937365 0.062800922669167036 -0.62739168518992194
1.0346619415129243 0.20747949522838205 -0.35121226988625498
1.3001097435677433 0.1682383600556534 -0.4081591365040369
0.38685691666209365 0.77328177442139001 -0.081533557467910356
-0.53223983554356513 0.67170884246726192 0.45417222412346092
0.38197719325966606 -0.3208060180015555 0.77997032217801188
-0.20798391664374583 0.52094695020577131 0.52025932475286218
1.1194311159710377 0.18262482334064245 -0.3738903436180756
0.1483508282807966 -0.49304335572470137 0.89079978529452397
-0.6388735920225348 -0.10029901686614284 -0.083199240242287864
0.40424338356400913 -0.63203985836653764 0.80046115500494519
0.54256329664869174 0.19628478026235907 0.51728820365678985
0.27454169560935515 0.62253792233633565 0.61838617578795674
0.15796184146565251 0.66494598023366436 0.57578743381247133
0.1048462729734303 0.16680376146808173 0.73845261790520311
-0.77153285795369353 0.50112862106839051 0.20833709553182356
0.48068510114317986 -0.60326873746200471 0.67589517464488935
0.85056991639258506 0.16401207550446406 -0.22012452380533531
1.2828029448527714 0.22450776698392216 -0.40990666616250593
0.67774347420285785 0.53924241406859874 0.4025290033548421
-0.80338726756703682 0.45763669583448641 0.23905455534278541
-0.025384309793309967 0.72368080417098035 0.58004463235043513
-0.16750526251716824 -0.33726475417246249 -0.48050437194632245
0.78933345729842896 -0.077053272494751468 -0.17707205973763607
0.14646470602525952 0.13899622746008866 0.79093703078013533
0.86798235770977028 0.24691905250475443 -0.21147106444642016
0.39084875293844235 0.32605069419560495 0.62905469669346825
-0.4840763506074901 0.53642449897818967 0.54698287746407104
-0.24975234275216307 0.3552599844304134 0.62417891876987497
0.26138355069878205 0.48580276362727659 0.6915080448047819
0.33842081424350612 0.36661695386488846 0.65236857118823632
0.30388294429994112 -0.56794393223735407 0.89116036805285415
0.31575321705611348 -0.43396342329842508 0.88531906965305573
0.94345675578844856 0.13330381533068136 -0.30418711292025602
-0.71221042554187663 0.55059239897974166 -0.098846254672091405
-0.00016951890303529282 -0.56118902873877863 0.66317309497309385
-0.07450605014426559 0.51213812381894686 0.61161472028424946
0.26346641592057329 0.60997460910005197 0.64364801526311055
0.15787505121887735 0.10878820929721167 0.80385680344643262
0.37035802911507609 0.094832443181848358 0.51904964344856896
0.59375989632292248 0.66163046907067713 0.44949634334280741
0.61989147702116254 0.66122063253678354 0.49893781339433563
0.76637807847262174 0.3648655659600113 -0.23927439227172531
-0.10934943863983593 0.65393210737673924 0.38850332312448366
-0.48386169435172288 0.57649877513562409 0.49017251716719912
0.025645720055933019 -0.3721707489673296 0.086901873186119083
-0.63891243211783744 0.48102799718555866 0.44697971009608661
0.2369668546311603 0.69495537838735011 0.46233727819450365
-0.41765180274213254 0.3836891503462172 0.61362550095489521
-0.69455188572003124 0.59573586508380449 0.40595766169722847
-0.82360172256931152 0.17177018527864973 -0.33174016333670053
0.2651878376297101 -0.02452323746386087 0.61152344886874488
-0.55330255100404635 0.55874796014707062 0.47461855505933048
0.31794642433752784 -0.16340591191078335 0.75009950410222892
1.1230842300270161 -0.041948486802276808 -0.36697522184605269
0.43765213822641469 0.51381978525502348 0.57390374139106282
0.55622841162553804 0.66150915615758654 0.41852275827721819
0.32109306006962068 0.66150586059482297 0.49470226391405436
0.0017816909594112751 -0.30900110719980267 0.34292736658435796
-0.28398923111121999 0.57441724617822265 0.52173102966636264
-0.60301184378800432 0.48899041918895314 0.38366660566271271
0.11833382623631472 0.39217332865858534 0.59785945177763899
0.75755251513020339 0.052469522975734151 -0.10431598633643713
0.28181235699889751 -0.41754091842081653 0.89484769794734742
-0.57164428176903614 0.36503497145723562 0.5170458627199066
0.13505530042511316 -0.5073060502805733 0.93193990781977032
-0.4553441158181859 0.81486223313977479 0.31921395878036396
0.35315533633923213 0.67545087043239693 0.56137135120483261
-0.44120671392226862 0.53341053804988059 0.58254851066396451
0.93701863624996662 -0.090492482754375825 -0.20798299593383707
0.27132678118297893 0.6747789284057939 0.57939304521275048
0.60737298979074694 0.20855195144620886 -0.55830738632553434
-0.39274876604908071 0.6483560856695112 0.49478616268538289
-0.25598705453567083 0.66739555384610272 0.3449640778455576
0.81604576784956384 -0.16601339331213838 -0.13916582278346645
0.52489084480701909 0.42900736659296301 0.57530908072245701
0.46516132199037274 0.47147253058693117 0.5933721477202285
0.15297043162782931 -0.64528253799234525 0.87529226281012384
0.41025382561509138 0.72130757209840102 0.41596716077740137
0.91486879404222021 0.3041410438843819 -0.23218676973788632
0.101690998492725 0.17524755651606228 0.77220499152389532
-0.2336138354571351 -0.33225248184121892 -0.38304402933376647
-0.054969151782635173 0.54264971108714688 0.60891589057392626
0.48392995728162314 0.48594995967043042 0.51174129684065672
-0.52836203773943602 0.35262143428731729 0.5446594505934037
-0.84236199654241739 -0.083412546973863577 -0.2905138265502778
0.52031739721083037 0.091539301175910914 0.35798642293547367
0.82388683317863398 -6.7596388028334786e-05 -0.28057239095409958
0.095514155668514622 0.51764020676688594 0.6089438427976015
0.59738763235347747 0.62448650341253309 0.54228812438021556
-0.29214958310953465 0.50093913220767616 0.61720639031776603
0.19037186442900689 0.41108791025312197 0.66027820528787995
0.15551329526394353 0.057190245190844813 0.79309726993813356
-0.27831877851691456 0.072152578940312129 0.50720224175746687
-0.20802291882805957 0.55412267623279865 0.46138502981623652
-0.62302392686914487 0.029973922894696248 -0.61530335594490726
0.027469576486269798 -0.45071349553760998 0.58083067245487729
-0.48619555321014074 0.52076117323569715 0.55772625735996684
-0.47103057080236255 0.6481277464352857 0.23404787742799193
-0.79536702982006435 0.39884020578156498 -0.018202860380710284
-0.44615955654843198 0.36432453347234972 0.57779970059507679
0.18629207113985613 0.66659523386121933 0.57514034505743261
0.80645998179159717 -0.0095799799414275633 -0.26973637351576318
0.20523745129249349 -0.45762567250772967 0.54834598974728177
-0.61945040497117443 0.5121956931957472 0.44644201605598344
0.69975389602183036 0.49587574116750277 0.11366518238546064
-0.32338426591619207 0.43928643927388 0.65844010068784797
0.9003274498228504 -0.061413923538233828 -0.274822765082261
-0.74492144248487824 0.54474408900809923 0.39457185169215325
-0.94209377923813831 0.035782546025995288 -0.46866156457150687
-0.4817113323437372 0.79999906092412898 0.44081889489231063
-0.22877508800548263 0.44378848370376955 0.6155063087533188
-0.089610160859098009 -0.32613813042390882 -0.57041292155579182
0.6498129229494638 0.57087577774195841 0.37972182814066269
-0.12712854183437106 -0.36495001101304991 0.7432077338346641
1.1005798594904022 0.17242594734005046 -0.36146807064529085
1.1711323507419449 0.044870152327926238 -0.38020655183300178
-0.19456228246787299 0.51907657398678442 0.50183219524323874
0.50428607564524519 0.15814683005742314 0.50622502072156461
0.69885769285586186 0.36920033076758818 0.4063753221904749
0.93916707979559444 -0.17600407761987169 -0.29777207819394746
0.048736401375442107 0.39285376750844403 -0.81486405189367073
-0.48653799775080575 0.61369811383286521 0.41719853488032932
0.18100436541387177 -0.39577234331079447 0.91432355435626089
0.1070669977028369 0.40168680222729813 0.64990604960486031
-0.13083690243932722 -0.21221415878193106 0.53306712096428654
-0.66125536667317419 0.21895642926700187 0.30018021036012232
-0.19812491725924453 0.45616532680866273 0.57041846422294462
0.17550925180820531 0.65457774907425481 0.57753822965087398
-0.82941494949412942 0.29941692830821953 -0.19685719951671654
-0.016373431274573136 0.10839047046285355 0.82013984745306523
-0.34562459795505518 0.32685021284773974 0.6338712248183116
0.45693825177136782 -0.64384988205567861 0.73068825188253594
-0.047798885937948121 0.11469475444503141 0.7922924660195978
1.0705307761421419 0.23396476806446254 -0.42134696715534581
0.72502158072329559 0.092957780344600227 0.10948396942637295
1.292628139772106 0.21960464832936877 -0.37543129648404605
0.61010432118983315 0.14640913491723273 0.32204967882286351
-0.13054012595125286 0.65417733693927804 0.55656978640358545
-0.49923451221158732 0.62440478581353975 0.36049364232934167
0.849230878871996 0.13091004991189292 -0.23100776803118261
-0.28515536108963735 0.69318974232642416 0.54376063547080911
0.030918304590218604 -0.19338676529882681 0.85913856490265417
0.83883608261107012 -0.028592102372118955 -0.26648822899432556
0.095321582241395308 0.82782563542899013 0.55884316644129317
0.40080989673634848 -0.64965426798977699 0.64418578632125545
-0.73671124715288983 -0.15476782369968234 -0.18368258769866408
1.1642110928635443 0.19097252055821601 -0.39254040261410683
-0.44530341321674305 0.56992457331675039 0.54765622089914423
-0.64383527557862186 0.33786648588166157 -0.73400920191896812
0.4155988887630313 0.65659403908621439 0.27350577456785086
-0.6161622218258187 0.59810732400310362 0.43991043356038251
0.39099033517000992 0.37017897834942204 0.62019594586865168
-0.56138809572619497 -0.13827684898960646 -0.24674392609121298
0.32702213437089211 0.62602351462368189 0.56570811310445368
-0.0049864777909212066 -0.29566811036636276 -0.64386767166253023
0.79473601730188692 -0.083886020861063226 -0.16989003191921004
-0.29013298625644657 0.4027150459465072 0.64170573257808616
-0.81107093760846949 -0.081544289239210865 -0.18496150306303072
0.86211362941523895 0.18251959589475986 -0.22181452265825019
-0.96809450047280121 0.15708131174185391 -0.49754749234231177
0.74724377692909405 0.27534691317976145 -0.3897393895197121
-0.30626511634429576 0.11456124841931592 0.57735831715797925
-0.07456979423777188 0.19003133805636274 0.73980269034733226
0.2735260510866544 0.50336768873517057 0.68614423501382227
0.15087837286946248 0.11098203358861181 0.80915916963320189
0.2775351853663266 0.6241650271668262 0.60930846337927935
1.071027535789753 0.3589135321554533 -0.30814456876939289
-1.0311200725978842 -0.12443967496962749 -0.46954649594803932
0.15222283067565279 0.68891863347640792 0.48794157038250319
0.12702601126456514 0.45031681414341662 0.64673606680121853
0.24783602561623619 -0.20946531430660142 0.43389946932707613
0.10103115097060167 0.3645183317951588 0.56332000269810578
-0.56165776180046034 0.34138439075129501 0.45155349646515486
-0.89162319656623756 -0.034521873390350066 -0.38258075195174879
0.26626563793646252 -0.2033832603946002 0.47561385484031948
