# XYZ point cloud file
-0.61446409040995331 -0.06074064023020842 -0.30822961134206939
-0.082504163954361887 0.53370013129908256 0.6089314035068365
-0.51515337663477112 0.0072344926715246505 -0.62171815760158489
0.13450196220442523 0.40464015948479259 0.62951281287961014
0.039882696200603029 0.54130513665098179 0.59275883600515389
0.71877292491802081 0.10723563125809643 -0.050393147877125566
-0.31566585664058455 0.65452401908097846 0.54420488061862571
-0.5155877868174179 0.27896651858531407 0.37976215407941105
-0.70626868795046793 0.035884293263988676 -0.42363549131961986
0.099921459704894411 0.67290600742235307 0.59669566212159364
-0.57528168234479504 0.045510474611062612 -0.63290048245894637
0.20946978645350622 -0.26755749003658469 0.82268719235755605
0.7119080522298652 0.2219322508693824 -0.11295525218544866
0.23969845939130119 -0.46380578873658873 0.81928318369314268
0.12254224405060543 0.14855537802116858 0.74682140787449758
-0.029779565569131972 0.71000385635913066 0.4997949087751854
0.13907450917470821 0.11301784329677655 0.75394154054318951
-0.84345964211593794 -0.12893578101654612 -0.42503054235589266
-0.65585135535132433 0.43610709395484792 0.38263214993221273
0.18122680529752899 0.57417077168605446 0.55714847587635585
0.12513856964459369 0.33648112075686387 0.55382566414460666
0.86997341265627592 0.035053100865734654 -0.14664749262475163
-0.45597862131871958 0.47887111594277476 0.46787159631665165
0.1942988120405108 -0.46395745170652725 0.8299944375282865
-0.038409527667082166 0.36864083287813387 0.61075269541924482
0.38284703732907677 -0.5244644978313695 0.76710554566213207
-0.50485602262489615 -0.032206492343739068 -0.34792466266266864
-0.4549146446970852 -0.037650782179307063 -0.48263467212245359
0.2999316199486185 0.3056548136490651 -0.35627812033832984
0.34777092773580542 -0.48909531825425789 0.62525260117494552
0.22363366068569102 0.42379151504061929 0.65735168289631996
0.81223477789193455 0.18348568271758925 -0.21149069374844531
0.29840944537167413 -0.02093568867846396 0.41267786981242915
-0.4202064385907891 0.52936211168410763 0.49350236535212222
1.0389090171129163 0.1449647605148221 -0.32852335781888842
-0.18257574646228791 0.44272523849888801 0.58669315544776224
0.064998803706067143 -0.57998869158414612 0.74574024108536896
-0.69637153995793966 0.524795495362119 -0.16795232660971982
-0.88859082023371438 0.041088349834895288 -0.44081568029882467
0.88702173387834293 0.19428514957072807 -0.27962140382029133
0.17362800199644746 0.12455219291842434 0.70319321405061519
-1.0477070189527007 0.050596503609048771 -0.526917885147558
-0.99751685882206331 -0.12763488928800526 -0.57298968775278203
-1.0561850005353492 0.086635818639300144 -0.55450123111983329
0.068999572584181101 0.07297085427360761 0.74634632551944202
1.1069560168073946 0.18059226602128708 -0.35634147337938038
1.0968075609533048 0.11152696947026941 -0.42525062574647854
-0.53504734231464302 0.32716975730276343 0.41069017042987932
0.043236605941707862 0.47400382287157772 0.61520982950571146
-0.17359037437194835 0.080923820408612457 -0.76129247855427995
0.097041269986975376 -0.45866810931556889 0.82897525034075215
0.018869222400186403 -0.12055047338987146 0.35517042229186047
-0.40828190380618146 0.52324139578354134 0.53516431362470807
0.10870506759417409 0.65877187514691149 0.59632247803477356
-1.0380073244367058 -0.10190893397535428 -0.51467374972801438
0.0039556304777260687 0.53009080420903976 0.60241911550352434
1.2424697285257444 0.15531626962926759 -0.38179653465590158
0.21433521810534062 0.17788790343386363 0.6212770471322403
-1.1732337921444582 0.034157813363026479 -0.57013024567446446
-0.61337956953372197 -0.033978384327218558 -0.35153248216476618
-0.57352596538634515 0.58365729116432097 0.44106216835698242
1.0885167802313975 0.040212399453196879 -0.33767048243887454
0.21032815739211452 0.57371361270895338 0.58679835879923259
-0.14087848231994438 0.64786146499553432 0.5674835844912085
0.16503358618964503 0.16125071505317856 0.69116044386759223
-0.69175357490901779 0.014032934257433016 -0.3360907274573306
-0.73036610242020961 0.073033608635694414 -0.4449721596352324
-0.52940237419096514 -0.034334785138100399 -0.32664410513189757
-1.1098189277993145 0.032715792770278584 -0.51765562357472827
-0.87747902727484717 0.19335582474600299 -0.3545590928694673
-0.24622749059148341 0.30215890041856452 0.58679333402842471
0.22137132394861547 0.046135640762767105 0.6989445403823511
-0.24071403813332692 0.50730280990303278 0.56903595225528392
-0.65186950422954804 0.49630629372886315 0.13239641300422611
0.07183816821549005 0.41793584234657555 0.61988585528267315
0.86151286455579612 0.030027370584243762 -0.16836264592178618
0.75070236132302681 0.23904090190406135 -0.16525722810903876
0.83554755187643481 0.26983962375666559 -0.23119513380294032
0.30975896724583496 0.075832118084817379 0.43545796206898402
1.0977951920443436 0.25546762776807941 -0.35337537976932798
0.80231679124130106 0.10752281306971456 -0.31959753604272767
-0.27662808774853753 0.54800243327659204 0.56441049342062066
0.32592914117733773 0.49504584530490892 0.52882578071028996
0.70619797401003304 -0.0018368430188837603 -0.36068122967666416
0.78626021621024555 0.063366231983927657 -0.18887200793325465
-0.85384645055998587 0.14685638404547463 -0.34815627395504334
0.24903043609884201 -0.49069490689218709 0.85728090940268964
-0.57065809655443478 0.099889038129246988 -0.076369113699744862
0.45863701799130208 -0.46070958378395566 0.65534367172118857
-0.061400943353653314 0.54511658896629811 0.60713232059691169
-0.11423986562531441 0.62470133427603614 0.4827920609306704
1.1524429957746647 0.23264415370037606 -0.37282781100656814
0.16029055252601021 -0.40536886145716355 0.85035611180949933
-0.097945032028026735 0.24601997302029566 0.64167418878220306
0.43060162592203821 0.37457080822393785 0.56108417548765022
-0.67649305946513338 0.086445429917388683 -0.29381433218778463
-0.085836202968778474 0.42033405017449477 0.6011384275239009
0.33681162824085775 0.49929421005193242 0.57386220989808834
-0.017644429634997461 -0.26330281479932616 0.66672510219496062
-1.0421808850915972 0.020905556442856632 -0.54505040728913401
-0.21273227895812874 0.58651626345067376 0.4175399797162781
0.34798558217883691 0.43792610696879075 0.58855692300639639
0.24702256773023945 0.1440629745405444 0.5610540520384284
-0.95597361319657548 0.029417274947844296 -0.55106776442902694
-0.89614083996202321 0.14302891085929059 -0.37673264299802278
-0.2739446141455909 -0.043589486145098277 -0.076027137505973563
0.20886214748468512 0.57063111259373356 0.5875370750668456
0.25428311063410003 0.21183318205651624 -0.49614300627553654
-0.45724664772627133 0.43065223366973537 0.49771575502707188
0.89777201015412833 0.00039813307192071434 -0.12724145774496165
0.11525540770911247 0.59358631239653015 0.54006396666751399
0.089150771674501805 0.55898390608394521 0.62288590949351141
0.65913529681928673 0.078037577940725855 0.061671538501455236
0.16657540485468547 -0.52473833336174014 0.84904089192909626
0.18733178469183087 -0.32810316699850861 0.84052441162865532
-0.18115989925667253 0.48181307516710992 0.58828911393257566
-0.18233505770777203 0.47561945588248911 0.54809503289515626
-0.17835171516097148 0.32478547510336142 0.59310271583979146
0.19203160782428419 -0.45860673234219274 0.81969107557344567
1.1924489711799511 0.17427051606260113 -0.42839457788193247
0.17503713882985883 0.53066175996275522 0.64513034691244964
0.80179049560042603 0.061903633002401426 -0.20525740778453616
0.16640615098924383 -0.42149940438023448 0.81874681593872167
-0.1436987876043696 0.58249072979242422 0.54702301103753548
0.016083081222872719 0.26536155865312816 0.64857572127726359
-0.16286932537833609 0.38290926213765064 0.60887753868133632
-0.17864881069949234 0.34686772223952644 0.61367982320685432
-0.30932986809700735 0.51203714158456815 0.59088783597520778
-0.30484224300791607 0.37960793779681379 0.59666550709238875
-0.066116882643086239 0.72866744216367896 0.59504250296727701
0.034897860540142656 0.38697715578232694 0.61499986372333204
0.18174946323425345 -0.068537187614331474 -0.72698452905396671
0.36427543922094352 -0.5107477477782989 0.80103353244770004
0.62998437696235998 0.33975582141169736 0.10333696531222558
0.91600779357169171 0.26637665430062984 -0.31988083237685294
-0.25108916481909782 0.50419047605063527 0.57118798736380128
-0.11865771764062238 0.38642907454095887 0.54290571760096418
0.027263144335503031 0.57687179502670349 0.59661106783929618
0.92576057250783772 0.028334509003690833 -0.22436737733865653
-0.23489011722691322 0.59444808126699278 0.5923100301259322
0.30757000369906207 -0.011197231219458148 0.62756376014950011
0.30222356170649711 0.010881982271314428 0.58826216602034953
-1.0477239098210778 0.14750167990967467 -0.45339292753484972
0.28960807668969224 0.52613655772883772 0.56749572969785156
1.1467985932430071 0.16850857574753308 -0.33279394401722517
0.22783226498506515 -0.47850985438133287 0.83984285786504143
0.28165853391783646 -0.56627234705479634 0.79552875377762122
-0.84777332461300481 0.18268074676411872 -0.36728966413587938
0.44106073640311982 -0.39361025768819813 0.6046742489810637
0.95745726513984575 0.12986057377772298 -0.38922545230670247
-1.0229235135806702 -0.072982320024995051 -0.55126934108965642
0.0381574161967837 0.4385950350397787 0.61210976826185926
0.42072630767814656 -0.48340954586730733 0.76839218061709069
-0.73238308918562667 -0.033289433793049827 -0.32831442032630997
0.23045520191445057 -0.36732480147395585 0.52282874018589887
0.47801590967457175 -0.11973625602386329 -0.23200139889906546
0.17156780077097 0.11457601126134875 0.72024730963222516
0.037984812420683634 -0.46116174215396111 0.77273149330833624
0.10279107022894873 0.5502536810172165 0.64224503651697629
0.28153331516727065 0.38293484868321337 0.62017103123496908
-0.26094175912304352 0.49294923456991957 0.60192191563722108
0.067184403817582505 -0.15676315913086425 0.76741095694490813
0.12572518660888465 0.37812645163647041 0.63142624802646741
-1.0122686126971505 0.10444207278551376 -0.52792034156120982
0.55391260709178869 0.18284412050239918 -0.39222671311283985
1.0286299631279092 0.19783623922909932 -0.35172022782756796
-0.89682346392051249 0.16814595737111704 -0.35187489482020373
-0.65907658924857926 0.44284997463389475 0.29349159101591737
0.29590361355021011 0.50276234235064399 0.56487261598307925
0.26287887875359561 0.064545833456252311 0.60046102862653872
0.90530064190880255 0.15051870154241276 -0.28889250376437436
0.58035582856616652 0.13813858521601752 0.21435735152162194
0.22588309386794836 -0.46134863597386988 0.58055808505959872
-0.88334047931291537 -0.080915717064575121 -0.4191537969977136
0.33002834412892046 0.47075906225111575 0.5751335029804967
0.21635196497821585 -0.22446621168236813 0.80974528183385575
-0.55354712666889017 0.56651280249766622 0.21498762079187861
-0.3132446449186701 0.33024813667773034 0.56447435634070753
-0.20449955593957547 0.57504818248226175 0.43332147132372612
-1.1182974032950899 0.016553151999254112 -0.61357301614945192
0.11052449643496598 0.16194469250111543 0.73932783021438642
0.94470478363664401 0.2756137652689481 -0.28640896310453168
-0.30768366435534911 0.50883467509986868 0.59524732719095907
-0.55894947089372615 0.43880290256681631 0.45989197265242654
-1.1638408170830203 -0.021837860655670172 -0.62704160310751544
0.37963470402803745 0.6043240972752526 0.551097092903861
0.18155712257362533 0.16061333967255442 0.67454759386442709
0.27924664260076437 -0.32391509141847252 0.83361465375351129
0.27192559492522761 -0.28807010301825864 0.82348380361332585
0.096591678002925341 -0.1793033863223128 0.033338082706156236
-0.60758648003988236 0.53640001083675193 0.42248223549429043
0.15336906399579719 -0.15559926157534631 0.32565441921747129
1.1634375854416641 0.14860871995754643 -0.43546118834396652
0.83719586363567666 0.13744573534806626 -0.25300575107228407
1.0058505678966938 0.09379960237275653 -0.30983971316938619
-0.2428201086411006 0.37268180856047795 0.62835679735308503
0.11530801389483392 0.4618570093237131 0.65292855292624152
-0.33194713440464285 -0.041618867950701466 -0.16178813245848955
-0.39434250513074665 0.54656639047682232 0.53436845437282865
0.71396984628390259 -0.025172925155343862 -0.15416390065657204
0.78185242464274374 0.10392817895801088 -0.22079179739795718
-0.71325255005922883 0.16020426956920208 -0.22879021721232606
0.01293354005954872 0.12388358228583796 0.70017853132523555
0.15809768591333895 0.084933720361693332 0.73839229939551565
-0.27128129494311992 0.52328336445222678 0.55198933173764886
1.163009656796044 0.22192887733872124 -0.39097687297069972
0.10199244368388427 0.58399359059067213 0.59090734458759642
0.034969435975470198 0.55337433614427578 0.5950276954951339
-0.13064369023424072 -0.15590785244973726 -0.26723462818984933
0.44922961432648656 0.42351100768215799 0.54762657553830751
0.12997175079228029 -0.31907572132851225 0.82940722809662337
0.21047639828183651 -0.35331405476751954 0.84806759310311064
0.054808450941521647 0.68682708047227325 0.59868973256654145
0.8380988194942911 0.20573227487238566 -0.3281323516449679
0.94720603161060413 0.15547824654680353 -0.30647698498568787
0.2039247318747095 -0.004482312382602105 0.73319180619509638
-1.1522634984245328 0.053261643437843675 -0.53326770151046476
0.2054836688133912 0.11432960783366597 0.66982906082418192
-0.33399446353657103 0.3514849074142774 0.54885289387485825
0.53168622146420152 0.11757448263083736 0.23374335987581984
-0.65636008704758542 0.46610914030817452 0.32699169564131847
0.056214859976899345 0.066964644969328857 0.73114282081883608
1.1464218213066399 0.0051579966062829108 -0.37096415104738489
0.97533828675306866 0.16497318452019394 -0.32467109124317362
1.0792246523260096 0.15179105706194862 -0.35624992068434769
0.3204587762944755 0.33254497418433848 0.57627932006617699
-0.034956377182491116 0.11730119958450658 0.6179449732872605
-0.90885080149946074 0.045266218990151152 -0.52019649949498359
0.30984023449788367 -0.15174671029824838 0.041517828972408743
-0.28004367533424324 -0.052099784085070988 -0.7265466617205032
0.31135990509889888 0.62694273044761961 0.54505512861682726
-0.38960637231770867 0.54246543402218173 0.53871217947618022
-0.084541384797006125 0.2162402986681351 0.64332865870958822
0.95518641254807046 0.02883323691348294 -0.24062548677063433
0.88546261768687007 0.021401703430182772 -0.22076685933058293
0.77921109610546402 0.26258444416052629 -0.20786186618130231
-0.71026433474155581 0.0022891109801115306 -0.35113000424686314
0.2624193050539676 0.47909141970826519 0.62391097683959318
0.50715016978075811 0.15112529266520269 0.29892924163184076
-0.25574929942292701 -0.11044827264099943 -0.3464228869099526
-0.92696272392292312 -0.082294456109304415 -0.46915436298736779
0.16398884368808764 0.14569993995576769 0.71809291065628833
-0.38270449984335586 0.43972371296234947 0.5475069348259185
0.20240319781061966 0.40048186634624017 0.64426822219611024
0.10126472966628852 -0.18738871007913049 -0.62021527937425525
1.0237354354120489 0.15054558060028089 -0.32526411329401417
0.15257200431490181 0.063835557992638625 0.73016266916726524
-0.72364175212215187 0.028836862910197159 -0.36275798326040298
0.07933581862382022 0.082267658707124491 0.75239305455377059
1.1497152845043903 0.062905552883523397 -0.36207017585809109
1.1107924439846137 0.23680998417434074 -0.32110413640766278
-0.31819621798894293 0.54301625459851666 0.55308889058784116
-0.70956955627643703 0.052602526472221411 -0.35941569423642294
0.26325903728255795 0.34207770715314312 0.62223587247709733
-0.039383278169097258 0.53125997067604591 -0.084749402255438477
0.86801447521645825 0.037182193645189043 -0.24540751738633815
0.17646928141133 0.42833103382705473 0.66521530604930523
0.98422638398222539 0.029548528034398558 -0.22963464177180826
-0.63096274917677364 0.14926751206455169 -0.64569886001015497
-0.29319617194450465 0.55420917744466647 0.55984180810924455
0.024372323023694853 -0.29767028720993793 0.53003981673108513
0.25315578736490785 -0.3806029663338848 0.80369316088294673
-0.25338796572151512 0.4157731539587024 0.63106422349216351
0.086523924974595046 0.046072910246742316 0.7318404138669603
-0.79176670952093919 0.097063732808033043 -0.36878726213724822
-0.013987274650261727 0.62493007192650962 0.58858725815718693
-0.68407972842640707 -0.0022668710022473171 -0.33082615409890159
-0.22414206980338147 0.41100558540868337 0.63549465113200498
0.30153683096730177 -0.23519061327586122 0.48959777359001688
-0.58998520624946227 0.54059399510457062 0.36048566327010145
-0.77822145898769501 -0.0027905508854875194 -0.3813083306056777
0.040568035115756018 0.55038306663234349 0.59218398092955793
0.53228788407200889 0.42286708259832428 0.12717385576067386
0.24770181854805418 0.48513483888260067 0.63967761169297854
1.1467119977226716 0.19073099210204214 -0.42821200045477004
-0.40549471972992657 0.52306928010253406 0.51229556737694137
-0.27077400175232103 0.352891887756561 0.59727411505762862
0.14601510295257358 -0.45611047442958097 0.58159003239201423
0.22941304899238879 -0.50354558999220012 0.85742404962447438
0.32880613478805676 0.20351555214542461 -0.47782372486888103
0.76800301132944526 0.069998996211911857 -0.181120003518076
-0.20965984291697681 0.49009819927065812 0.58308086891968891
0.43691239829516393 0.57768356389318232 0.4897871907528637
0.23520015757319435 -0.4771238722504989 0.83950574382965637
0.2861958026534499 -0.48258149538600148 0.60765782349390962
0.13159662449969345 0.39990502998349986 0.63640531965836988
-0.25599204673922038 0.5132600233985849 0.56198599473590061
0.10319277188944087 0.57807937568544387 0.58943614131063216
0.61898345769907714 -0.051158538461477443 -0.33344745982299329
-0.63674391792095708 0.0847080597738612 -0.24672548244923143
0.15462995523069778 0.57906366843977031 0.59344706993073237
-0.11476995158905534 0.0013830771551419652 0.3108910276290352
0.25453233474034209 -0.57441137910812934 0.79894952031579758
-0.013108451710968527 0.62873167372028593 0.44957155581149255
-0.31460754540223201 0.39687475434709296 0.60268212288000522
0.30007862211355174 0.16907826028857409 0.54571835197372032
-0.064903998501990467 0.35714609557711952 0.61311228860345834
0.25277898966848322 -0.038066884485032704 0.72766683732601123
0.13398319848371643 -0.1414780185245097 0.78279368502000635
0.74341186806217352 0.21360585476337679 -0.25707771832713533
0.054247825865723631 0.17618606127681646 0.71174698550281246
0.47190917766811913 0.44668392932156209 0.53238651156175254
-0.22169467040939228 0.15667664229381639 0.50218508187343047
0.062059316871434733 0.17554549977068223 0.69148972933959474
-0.11237053563064947 0.58072907093189241 0.46363805003519398
-0.23717036081525922 0.54872878016432536 -0.098814890233410946
0.074400457371914475 -0.22587854424881604 0.46888965570811458
0.13599950725143028 0.40659809109259437 0.62477079632523491
-0.91285475983767639 0.018093716828723627 -0.45721475487549779
0.030991741739996304 -0.42427168347714495 0.7658945930301948
-0.29358136645457344 0.53981330882320955 0.55991394415395379
0.016151062529837223 -0.13153886863381148 0.41096241389175869
-1.125749122266464 -0.024402123972246059 -0.53090059314582705
-0.70520278812919523 -0.0049869147107146627 -0.34695753149864383
-0.79435914568464272 0.17001107686135608 -0.42158450688615678
0.28037135706363436 0.13233122033340439 0.4894051685410149
0.10195163907427818 -0.16757990457317828 0.13722984821651674
-0.27275070551992187 0.2716686047707495 0.521710946104879
0.20450893574519335 -0.47711088772155552 0.8491892425902734
0.031685514893360911 0.1314342489450917 0.74248206658783156
0.12077902481683567 -0.59441039643421245 0.74192771216938036
-0.69035666165565623 -0.021556748822628924 -0.24391810406444847
-0.001344226610916488 -0.077679637487829689 0.69254079237920718
-0.71442142862895175 0.045269038003725504 -0.36182012629178673
0.3639928863334585 -0.30024964314235913 0.78307790002122157
-0.5096828692176224 0.014533729421882802 -0.13593418386798062
0.16520328734144996 -0.30860137022450318 0.83323559166005001
-1.1262408773594093 -0.080052783410607731 -0.57210249247310285
-0.17456910604962961 0.34271285437480525 0.61226612435073058
-0.2539715049311686 0.51606693773435186 0.56581886356327482
0.15025503736665868 0.56709438150886382 0.60053919441676074
-0.034414819660863682 -0.047216285572697192 0.62552322744208144
-0.3944541340149631 0.6074234620026735 0.54076463097297245
0.28304735343097331 -0.57457606452375032 0.75778011824469282
0.026845221982022438 0.50075235302042787 0.60958713210945548
0.12185395690441647 0.021325181624201939 0.73194480642471005
-0.96885092499626224 -0.090530166128006684 -0.52207423482999127
-0.36096506925346372 0.44315588102667469 0.57778577869057568
0.088813039088550982 0.037810076113303115 0.72874666614031192
0.048533060027280528 0.57212650525625963 0.59306557592661957
0.13138656443085783 0.56496996307388403 0.62414261101192503
-0.20204841331266021 -0.061138162558638243 -0.75481675669988602
0.83029771422715393 0.16715825200809542 -0.23798544720579495
-0.034803142251493946 0.64104387662068563 0.59396392629161299
0.059419425079484278 -0.1073773499446109 0.75225597653443343
-1.0328435725222502 0.10079507394096199 -0.47264758597949141
-0.41264048262015707 0.52586047669718905 0.53323565961992903
0.13245448507218138 0.37126552552915726 0.60044027311394244
0.23413211841084758 0.34477815596328565 0.62671245453859581
0.44238555157026249 0.47698444851723609 0.5442852419849481
0.12414617597935662 0.55392863679854942 0.64019474949681043
0.63285207602867011 -0.01732547436304599 -0.42201874370196424
0.93474823497654702 0.23295303145299195 -0.28625279145446925
-0.44288220370717346 0.46093820085124082 0.49371898928072377
-0.43014250095538809 0.56015724974014613 0.51923032268397729
0.13493105869500144 0.025021657469241454 0.7314391047521267
0.25392497762007438 0.54103704025362309 0.56824537178177226
-0.0092821765774616649 0.09133984205943646 0.66449471082124589
0.33687760250632515 -0.55123213664772552 0.71837691034724549
0.12200697734480981 -0.51804737056012784 0.83634039127966409
-0.43912028995207841 0.68215702522702037 0.54935832823692066
-0.038418099471066114 0.42057837416555444 0.60583226083805086
0.31040542815182059 0.51677129006051437 0.50578272422020332
1.1639380070934808 0.0956441859310041 -0.32445820961914706
-0.021285351491905469 0.10602762116235698 0.64425819340445256
-0.56516757317250987 -0.014208665435593515 -0.15290578698601376
0.22538396527257654 0.14320770749073986 0.59411634142554592
-0.83205987643189194 -0.073722313848057386 -0.42960848160109144
-0.64631330677628296 0.0043196818821100713 -0.28345689016105369
-0.1083806600897631 0.66399159396068952 0.47220812061106021
0.23470986063185506 0.55811741797785741 0.57971907298093095
-0.033952324231132036 0.72192472865528845 0.59415575786296859
0.81294974486401039 0.099940184130755005 -0.24963338437658478
-1.0366665878692813 -0.055831065837325333 -0.55522859987847506
-0.44244495949323281 0.57326600141965867 0.52196006022730446
0.11409096024045629 0.40089915891930095 0.63322464783531029
-0.15619685720851217 0.34970954888062789 0.61249061361861612
0.51108647929744633 0.48229736632471332 0.3898593988845539
-0.22724784776130114 0.033480366450001409 0.19219279493639041
0.92988125213721951 0.1605498765461788 -0.30502564724129977
0.37493530556467436 -0.47583550129320118 0.61688552340267266
0.25476961663761222 0.53672054606675734 0.19802291075654366
-0.38837621657507226 0.52488078565308638 0.53416519728526235
-1.1644750833411486 0.045554361874719174 -0.54935874170916499
-0.92932840703061403 -0.067640851553854464 -0.49977131831832433
0.14825766019709474 0.17630766821097454 0.6900248258381354
-0.26068900809429352 -0.022139408607414035 0.01030501875958445
0.83135501826934366 0.12885871741090882 -0.25111246192992986
-0.68460632303022861 -0.057668550203114233 -0.37720593204569597
0.86814728460386659 0.089735497002038977 -0.26319065338493819
-0.57909398681707114 0.61720842605740389 0.057000603358164037
-0.62433852437659942 0.49687357499560314 -0.23432704702988683
0.18508372974887022 -0.37508722012591811 0.84024350777257706
0.040607051980158793 0.48801390156321656 0.61332221460292202
-0.33406076601791768 0.63204738796564275 0.45631495196284644
-0.40337144203320052 0.45667214995173566 0.52865155510047868
0.93809832612016986 0.10909183710628012 -0.28744713879296069
-0.76762509273147772 0.1728793624234779 -0.5478193949585799
-0.19438796184393903 -0.14608015839863708 -0.50171706429044993
0.1587341283728062 0.15722537438451401 0.69504115120642385
-0.66981937255946955 0.38007691017882128 0.1656206035602521
0.24450695924375176 0.41939755995776773 0.64377331292453222
-0.33722565242911662 0.33996019293741631 0.55281671637662744
0.75565154298281501 0.25185042845416306 -0.21136166376912646
0.078241646006802834 0.16297188348207303 0.69778059547117
0.1484589952651284 0.38916003069680216 0.63877641169931398
0.032216245848900149 0.58351398062726023 0.5955753528582528
0.30996214047202109 0.52221847331620785 0.57186913967838504
0.20638238476090254 0.53698236442334113 0.62006166568979149
0.19466054909866448 -0.52857599503974484 0.84960174055671267
0.27178438748923772 -0.43546777102158374 0.8247658032381735
0.16345460453790006 -0.40940194369511196 0.8167065808921482
0.27869173123550028 -0.17206644774040236 0.77794331249697468
0.59165250703188443 0.18871612684134575 -0.35850033355088229
0.00069094718005080491 -0.22409163802586662 0.71425331470864828
-0.13395039961804778 0.15340774037371774 0.55483098656912877
0.80275380540430807 0.23434004779375006 -0.1948926233205035
0.6526156576390999 0.16224050117159017 -0.33711950767813992
-0.56513052520719309 0.015218443058360398 -0.55860297653605118
0.68267078664565961 0.24155005767827031 -0.15000774246414617
-0.70654598856584927 0.25322699116440783 -0.042736528321370759
0.74702997001905569 0.04974337718745625 -0.11119355592556213
-0.75897420300570007 0.33541943146325237 -0.034795527626416467
0.22646196079460268 -0.4740681289407247 0.83002827224740039
0.16940817912089245 0.56549059944440139 0.17028890311797817
-0.029195594904479427 0.05972706505527059 0.61896862577450573
0.050519635221007109 0.4239360093504605 0.61444738700793911
-0.2932935638031916 0.54875403543691115 0.56114010523321389
0.12608509001124546 -0.49261257766021616 0.60854331241080295
-1.0913027047137638 -0.019669277624294601 -0.61840319885991435
0.85131330807539718 0.25465115012375739 -0.23118201057457166
0.22056029421725332 -0.17677925325954869 0.79449013602569907
0.11997671992175862 0.1710967539936159 0.73477089710592636
-0.54292039013364812 0.21566413828896636 0.16983718694556071
0.78316339258756329 0.16474832897215297 -0.1924278824786696
0.77094064831692577 0.0343339897364352 -0.10098868251265913
0.02401416108816945 -0.38180007100762858 0.75690348260813045
-0.22916841472475946 0.50738735395690659 -0.17854143911794873
-0.17667567524213879 0.42284812598740706 0.58616608198525633
0.22463923459674962 0.5406557919460433 0.59030370791954156
0.40379332573689319 -0.51337900130154845 0.75929001449282563
0.044492418622781194 0.083378353726292431 0.73965696832119954
-0.66401651124845928 0.041891624705878261 -0.29990905253969802
0.25904710150699739 -0.32484425422582386 0.83811909946903607
0.1236238198596481 0.36468657232972768 0.63279513997095527
-0.95531080229390253 0.055446289483460864 -0.47746969064081746
0.34948783573963815 -0.067234362981727136 0.21674857506194511
-0.23234086251653696 0.46842674709916321 0.61174734431749467
0.26285339226531068 0.63982298023673878 0.54896618228603533
0.14748177888276714 0.10559804782384097 0.75181740754527548
0.14546101830777558 0.14721151570583624 0.74576097371103089
-0.97069871877250247 -0.086633184218197767 -0.46796162306324174
0.18001393287896639 0.57557126329239683 0.59203682785319489
0.1147559627358482 0.56577265917474029 0.61950342163659722
-0.25184843627752063 0.51901542780553989 0.56924628032878277
-0.20520918303702984 0.58714769153865931 0.58925874949777346
-0.15748998439406181 0.47350791504241041 0.50153520958834585
0.17910922996428313 0.56588846832646533 0.31664129809092867
-0.71900796570713943 0.071627068296758578 -0.35186424364246294
-0.50891585168954723 0.28870841799523972 0.40145882389207876
0.14875154718971995 0.27717376280744488 0.66509899132923533
0.21412126759978733 0.36865464975532491 0.62829032183928646
-0.38131820359974233 0.39442741008324145 0.53014894276476365
-0.40788525556402067 0.39977244616413166 0.50776787431231318
1.0154328829469486 0.13381698753135385 -0.31508447208911194
-0.97902407857339879 0.011665174556282354 -0.49278736461546524
0.22679525474052764 -0.5382168056401313 0.84228971003272379
-0.087096304391087065 0.46433042665666946 0.60264487223651342
-0.0011833967853946969 0.51657113730264648 0.60302061091470649
0.23569671059425024 0.47766551779342636 0.65016474115046841
0.27275980751071804 0.086255727143532024 -0.62556592205207018
0.30640853262311973 0.50389527386754929 0.56569934127839239
-0.11314497415519142 -0.068699443908471602 -0.77355693531800895
-0.1352703107062585 0.24280575849873021 0.62220889975944083
0.10820829947014676 0.59691275836033753 0.59521734555863204
0.02544391776501409 0.095917411335474601 0.71677963720294002
-0.17465535255251607 0.36382229777919028 0.61119290985225172
0.28417286422371602 0.11541478912433023 0.47910825041966554
-0.63014407214892065 0.49641606198083754 0.42787123995671894
0.12975069928713812 0.45251756172450786 0.66016653246923929
0.53309922140568378 -0.0045337811455121724 0.032341379253572278
-0.31613309837807013 0.4598212199903855 0.60551974418942833
0.8788545224915153 0.03971101375016084 -0.25088228324831219
0.3563465782231674 0.43489583281801925 0.58618616996406581
-0.2449281073576377 0.29321491279344558 0.58276983205695176
-0.60786151273227673 0.014101062520932572 -0.22707533510073596
0.26036389915450975 -0.40862448975798005 0.79894431376274189
0.17043976428311214 -0.44077075714536385 0.85515949237350497
0.21765143642272422 0.48921165819697032 0.65216734617291694
0.18343897438872603 -0.43952933698525642 0.80542077059598904
0.18264357940866049 -0.55626889844981986 0.83277611182161049
0.44686677140770481 0.28821943715234077 0.54130900976333618
-0.99352243617057456 -0.070273071976825419 -0.50699546141834317
0.35125002411296058 -0.50210314222197994 0.81512309258007853
-0.44153423739442021 0.69216540762143508 0.48086873910145711
-0.36437473981427548 0.46866236970515951 0.57795908474522073
-0.27883176276196453 0.53820150541714118 0.564593340585412
0.27871803815920626 0.31880257258154376 0.61730611938320257
-0.013242198261428473 -0.12096594307592223 0.68131313724681297
0.32836310690105408 0.59250442718541496 0.57583363859767911
0.15495601157637273 0.47853250620736709 0.66555757498914914
1.0047512760176005 0.19236529258010915 -0.35138965178904935
0.99033332044522382 0.11147692049912972 -0.30580855023315645
-0.28694863843979668 0.37759226008906754 0.61202926822920944
0.3271302361788051 0.36090065928210202 0.60466539477895731
-0.58431096538453964 0.47242318573359698 0.4654925471190996
0.26451028253273934 0.54286929325383482 0.52274915781564957
0.058236103608548362 0.12660644055645376 0.74944658622403915
0.044718436452661381 0.17508461148478816 0.72015521411316485
0.93059977313471975 0.044011085926855653 -0.25418483125407554
0.34537193214414441 0.065126471801836283 0.3732726902768686
0.36955571621577654 0.59007199772968078 0.47495155207189232
-0.17593172798174672 0.578105631654668 0.4325453745205482
0.23345070478819152 0.43180931718473237 0.65809996040467156
-0.35276996412095185 0.59227746089187483 0.54463205622911892
0.045404611323263455 0.5102755011353155 0.59685932547842713
0.25903475694199818 0.54847081236376138 0.57428580075869606
0.26244428538190512 -0.12380415684854573 0.7642962198868205
0.36380762400351785 0.50272172054271635 0.23103927234342914
0.15956938273348631 -0.38929820722331976 0.84779006737451879
-0.45071133030978705 0.44225801887310046 0.49685471981674412
-0.1874160527567903 0.13872523539702786 0.46040271627421514
-0.13291994827098763 0.36489747925448435 0.61115421684657723
0.58762075217754672 -0.05118074798116945 -0.42047848841078039
0.19142477944233804 -0.42651464984717724 0.8034881771975726
0.079366837421036451 0.16191668377175739 0.71546659517881273
-0.46760154994273806 0.46546201112448915 0.49559992380361573
0.082935937887295696 0.50221236074048248 0.63649852018815178
-0.13358411192098751 0.50048950826347283 0.59827173949754431
-0.3824905806896588 0.22422530180194733 0.46336896182144094
0.30176015789205191 -0.12550425011256672 0.44623595553268802
-0.86908526563823607 -0.062671977746052487 -0.46120942233429929
-0.38145053338396129 0.67258297520600896 0.56183540588254277
0.12885291733051674 0.39291461813356587 0.63550935203308467
0.83246433910878581 0.22602695191128175 -0.2201685815602672
0.25320326101466317 -0.56643859550562348 0.81260370743374666
-0.33515247519795732 0.58999819492642747 0.5497343457308761
0.22349498098982046 0.49996821314743434 0.64525009765489494
1.0436929867691882 0.15436812102455189 -0.41818387721431316
0.043980959994071811 0.59724864715096393 0.50501729390260208
1.2120980162604709 0.070109826707267064 -0.4189717622351441
-0.69434301343419547 -0.018831186182954651 -0.31243833091840534
-0.54477135127780907 0.4643413390977309 0.47320403056648941
0.29326063729825425 0.52951200262571829 0.57014507316203855
-0.30248959288297095 0.18079306838439346 0.47681624765882213
-0.59073966439174164 0.020235479176055726 -0.52740404687340969
-0.49700122834150717 0.58815247157538963 0.24519579113237389
0.21208671677252122 0.57651177871635961 0.58317195555139112
-0.52060601127340822 0.33841555176354388 0.43191435960615399
0.053622448638075859 0.57701079471862537 0.59307148700881662
-0.70523571833354981 -0.017498295294031019 -0.32648981516436248
-1.152999633169582 0.027217170028315252 -0.53694070350012357
0.85170288125850857 0.23784897339253908 -0.31559631161945623
-0.32092605071424851 0.55121186690397761 0.55382590612256366
0.74070390155816246 0.11367042440801711 -0.15542736418390568
0.085194813514545498 0.59247187097208864 0.29596372747776367
-0.36379666279255463 0.48002853677335544 0.57768224898551523
0.31457512166141877 0.055216920745369213 0.41594584028458614
-0.2388033493816698 0.33247937905003888 0.59090712261537548
-0.53078024972135984 0.67174428961309662 0.47305685077726611
0.2855754011507009 0.043413445731997458 0.48960131511007221
0.72463500458941932 0.19426202957230188 -0.12283320295587141
-0.12580802723467477 0.19428743216534539 0.60406566287608721
-0.095949882658635244 0.60162169832961965 0.40027154616871741
-0.28483535903034285 0.13755999485939996 0.3429230697767699
-0.64923307208850123 0.40054646394506355 0.32937900044287749
0.23618842617957103 0.42890119750899425 0.65433761131051837
-0.37197730322058598 0.36630779431529636 0.52316264357877729
0.84725091171581735 0.049894289894643729 -0.24704076596547364
-0.4320025567423933 0.40622807243816261 0.50647853175979174
0.075945651496169053 -0.58692144476874919 0.7263513501588672
-0.22676576230297973 0.57400354829515843 0.45028924345160282
-0.70270733297012899 -0.022971464187553137 -0.26309908151834038
0.35674525437758231 0.33399477512479159 0.55129618207427977
-0.58997279492857857 0.55961175313653544 0.43172925155765063
0.34063593605578713 0.4901572368879934 0.50945905917014755
-0.1480321105132324 0.3954100475562734 0.60849070764172675
0.93105264216622419 0.2503510562300596 -0.34840926315254217
-0.85643917033322814 -0.077246905444608993 -0.42575431772634065
1.1413871201465573 0.23996381730853067 -0.354438169458406
-0.048139979456104487 0.71419044836839829 0.60241019079180269
0.34076669742000953 0.44014424573938671 0.58878784057861022
0.117059961754168 0.62365221614629407 0.4459350722336588
-0.82578942146433953 0.14244450266034225 -0.4238702633739122
-0.4278527962564469 0.65511017034277286 0.42730196038073998
0.77056013099200771 0.12858081510367381 -0.19377140163235951
-0.13467983926065885 0.57337836194527592 0.44996505546135523
0.12914646917049977 -0.36397049395100534 0.52930992451948711
0.63479517800999119 0.013128853384132277 -0.43953681459455174
-0.40914262416777469 0.62693701521198708 0.54713435504593089
-0.46327131215006212 0.47732414515045063 0.49964491208870387
-0.18643352784366396 0.35337163135036054 0.60936102733699515
0.51994094944686653 0.19910544586716705 0.34185145352995439
0.044599349868467364 0.072164740178180864 0.7229292230490072
0.41292122384588981 0.53024523322202177 0.38439112902524475
-0.24468637416746375 0.28334300736255091 0.5786374886334692
-0.35948964421520258 0.28008131824889326 0.51851262990618552
0.017952897730860284 0.10784793071725041 0.7054633700730536
-1.0943240440143134 -0.10332315369048661 -0.56484304043319866
-0.65504532634801238 0.049269253342786312 -0.29320849912028357
-0.76286514251441095 -0.046419248446210259 -0.35895379409063244
0.056952567121894004 0.47653356338797814 0.61127751629484472
-0.46361772615706776 0.39845488330987533 0.48934625134443555
0.10289369379760027 0.47498024806499206 0.64914482277069108
0.16423436322132501 -0.42336246230543773 0.85301309854028795
-0.86777069151064012 0.050276609734549949 -0.42860907725536534
-0.40128711555238161 0.55817259740288949 0.46647998739985053
-0.83709736441683691 0.36754564939597323 -0.37232165027926956
0.19929680861944976 0.31430698091824816 0.57524055270996999
0.9134752839092648 0.038121135415202456 -0.24917454708758258
-0.61196183745840482 0.52683943772132702 0.37539201832195579
0.915100554237259 0.2189460393703937 -0.28296092829072195
0.38333845088721152 -0.50147491656670962 0.64355557990536449
0.036624467085739187 0.17682196649456006 0.71829542704606353
0.022443889618719681 -0.0039196661396914134 0.70524814859633245
-0.81188966754835235 -0.064780754114674544 -0.37504422513010038
0.17165924678537914 -0.4365667649530689 0.83968249605151246
0.71719827937034231 0.086908568285721799 -0.03832220155839372
0.09863621189648808 0.50458038504510627 0.65319689286968108
0.17984989178913546 -0.36286121681543371 0.84860067640965986
-0.22130872028485793 0.33819071496149178 0.59669058725148583
0.88401932134303363 0.16822007184756393 -0.28503619494456078
0.31616366630883874 0.53943753280272833 0.56559867987288159
-0.45011568136601077 0.55678125716703719 0.41558031432372733
0.8684741703985327 0.056353980639329837 -0.25666808897471727
-0.31058221013938125 0.40329814753671367 0.60667221786845427
0.024670661636130853 0.093447133852467834 0.70970363987995189
0.046969427507218442 0.4997936994066563 0.60282418580486719
-0.86638824429010941 0.098151343725682016 -0.4114410459584954
0.011477638702453885 0.082488751464673271 0.69006836040682162
1.1199808267615547 0.24186746252121993 -0.32745969395516727
0.14736155892287506 0.031976744996005335 0.72949626380602384
-0.12430666399997936 0.71947568676772644 0.59633156890881356
-0.66291964462216302 0.054049982813365594 -0.31741984803727585
-0.15916611357313482 0.64145891133103694 0.22369226517516894
0.26227258470934078 -0.45886392840818413 0.83650193770030257
-0.59553608813944137 0.035526674992688356 -0.21877774393846594
-0.064048257220567839 0.57860377460460799 0.60697163194293258
0.25718774362886399 -0.12468410241782157 0.32186240183390646
-0.72059058358910055 0.18086031247821865 -0.2021599190210126
0.11396923950495907 -0.15367023068294472 0.32317594383002779
-0.89833754207272576 0.12048118389888862 -0.40526707128982131
-0.21323353099488962 0.41654111142670569 0.63363622538960662
0.91316533418259538 0.08469218029566683 -0.27239378745996268
0.6066152872978342 0.10171269014877904 0.14507785048192323
-0.23500361623290711 0.54064012556587726 0.57327762483561107
-0.50355086456530118 -0.035960841268068533 -0.26860884661153661
-0.96531237611975307 -0.033062792614716674 -0.57060626493921374
1.1250363823608343 0.048111860149107288 -0.35359096811544499
-0.51934461117792607 0.27391118586020902 0.358872139056159
0.16303900430146934 0.36877305050059372 0.61672738690263729
0.43018088169374591 0.083400906107788275 0.28494110878841439
-0.80894940116132874 0.054399667541094265 -0.39733123067019072
-0.86250587072390894 0.31059871586331034 -0.30387603014811382
0.27947852770274195 -0.56508991520855156 0.70630919571735662
-0.71302124930798949 -0.025655212085327506 -0.28195085280888565
-1.0773704009426341 -0.082327046315560759 -0.52804630106168071
0.23830013917889792 -0.48833962706915401 0.85697657486148293
0.19600734575524292 0.15171474171337218 0.65308674513946241
-0.067884010615689716 0.0914892021282947 0.49837442624989103
-0.13262919689489716 0.12043063676654375 0.46430521603083041
-0.12323042554590047 0.60237130134849881 0.58649519487134349
0.45064218660919841 -0.45231915787612142 0.63091029507995766
-0.39184458941856781 0.57916898090693469 0.3819858838044069
-0.53717550818029569 0.54430760109059717 -0.14201461246055325
0.92481515316082308 0.034562363039073007 -0.15461893671161286
0.25070384221641862 0.069372979112931832 0.62787173274563279
-0.0084508120711070944 -0.014150315967185856 0.66978066486140597
-0.0087775879984530736 -0.34286975292680566 0.65321585875983057
0.6246094046043621 0.00030307376316596191 -0.044204333890281333
0.28009514503739497 0.48846774173922269 0.59882239394212755
-0.29004504137788967 -0.059008455041093422 -0.16343670280096778
-0.18525742952282687 0.49913861157638606 0.58468195714747551
0.034132018504814399 0.0891346781130673 0.73302880892508593
0.87650793899613522 0.023582645275436187 -0.19814591893880595
0.2486628113256989 0.57528328511573268 0.57066293392534562
0.89813819793379968 0.036044560652464197 -0.15222768298962364
0.18715851992494692 0.1777054562413285 0.65512470726927574
0.39387884508979243 0.19426918545333915 -0.46171530489262635
0.15281528196229532 0.58851601674875087 0.59610902520547215
0.099495593114063641 0.40419111147101727 0.62810376325429207
-0.13541717182832769 0.29736870463527865 0.62004948636896318
-0.50766967101360261 0.41592061364227706 0.47182494803695019
0.16488223503566535 -0.3647624415742019 0.84767068562504788
0.13251599040057638 -0.52963115983756692 0.63772701289182232
0.084534355990530496 0.50336379308292312 0.64185639322728538
1.204793513722979 0.11992279444830967 -0.43276028396456856
-1.1387254181735944 0.032164584226187731 -0.52630076461623521
0.9278119875161146 0.18167448190595714 -0.31778288029160384
1.2186500524624904 0.17997886221337822 -0.40828377790853443
0.13087774038824329 0.55693378473334143 0.070084018984327479
-0.45680342715566324 0.58797260136698037 0.52633604581439375
0.35858015972937407 -0.21781528286376584 0.74424704641807371
-0.17372882604196627 0.47545466656450475 0.53330176695132347
1.0233031216689439 0.17074591430995034 -0.35126508798883682
0.17139753708866079 -0.43342592371272448 0.82035765322444032
-0.49833757940595458 -0.007384229755007965 -0.14661225594968375
0.37482272951054918 -0.51838467354443085 0.78514605965810769
0.47119096897758039 0.2567412674818943 0.50532988119719691
0.16920278402102662 0.5560038741453408 0.61815266020694626
0.068255544954136771 0.58260146747202302 0.59134806923235095
0.12070201117206125 0.1895482420956196 0.68444318341288379
-0.65263774803037367 0.4602914983796349 0.29939990360441815
0.4627000218293621 -0.44596936369290208 0.67644082068230238
0.76867409227165606 0.17433594438083921 -0.17949410864883819
1.1773506363954995 0.20696984826540987 -0.4067073956053151
0.51025306951424321 0.49654196529199357 0.4188778680388392
-0.66061735529048415 0.42574710623936052 0.31335346114081286
-0.082877826135041022 0.62319629674031618 0.60882693360003681
-0.051251799940538523 -0.18215593074611691 -0.53748730809260914
0.79344708153496468 0.037876107796681602 -0.15434394722859812
0.1517369974988656 0.16107051428189623 0.73163969285789898
0.75477543882412246 0.22327312552426348 -0.16462267358045901
0.31966565418274229 0.34193130329494026 0.60573798141450874
-0.37352216077690781 0.48286313559327976 0.56695556933513691
-0.16430373295558065 0.34001273429385392 0.59380424096521511
0.18990991193998885 0.45420276898315448 0.6674392967594811
0.27098214911502083 0.36891878435945191 0.6271794171363555
0.28299561188437505 -0.49334608507289435 0.84961669867695222
0.29260349340830705 -0.35938749693180294 0.83949086361133318
0.8677967520912081 0.14509000807517936 -0.26948108873992482
-0.70291269548332858 0.481146487542496 0.066340051203070072
0.091743602113735001 -0.44399171065554399 0.57874490500898546
-0.065847292211719921 0.46686699179200009 0.60540512297097882
0.16457332243344969 0.54707778714396449 0.63784608979411095
0.16216684731185649 0.13430827997976946 0.74269324364335731
0.34742595010473987 0.17006913759045572 0.49837417706399578
0.40657356718738136 0.57954413772857194 0.4714291527326524
0.43024138695920577 0.58661464575282474 0.51080436566315301
0.61131842902403388 0.28220926125204437 -0.16817202585353019
-0.14944290019304518 0.56956842225997595 0.44874487749050707
-0.39140569201753095 0.51631113450241006 0.52925077221181649
0.15337913082644017 -0.18302399456085205 0.033232064022895913
-0.49356552420892752 0.44226328063144882 0.47961351980216871
0.11174424820956119 0.59764478557108169 0.50173343062113895
-0.28996780670555022 0.35834959868281735 0.58999545200922732
-0.56794085660672411 0.53137546894736043 0.48206612551391603
-0.77038681529521458 0.18046982724832428 -0.26909602083685369
0.27148018062645685 0.060469679353035932 0.57266483786154621
-0.44099521932444807 0.50274012107876631 0.51653417890961739
0.3074044183650857 -0.076242183736041191 0.70428559848966887
1.1149693606663846 0.051216900776481333 -0.35401064556761819
0.32045849457206377 0.48256776886114694 0.56930717033867173
0.37398475848467128 0.57429704200729959 0.44800909671376665
0.18913210137550474 0.57794858285794382 0.52050403525268574
0.11042795348705436 -0.15436587287173786 0.28238316154903087
-0.24070764105725562 0.51476323948263314 0.54599196456997334
-0.48103088430719732 0.45206817954542244 0.42672775326122159
0.099120281965502155 0.38147327877670167 0.58024319738468111
0.7211138844643864 0.12518835637444914 -0.074873762209153316
0.26628537013708686 -0.34966197445235569 0.84265182003646943
-0.41239419694128854 0.34700053305154577 0.50691578113993274
0.15657520447757478 -0.4624300255716558 0.85690828261404661
-0.47179405750690329 0.68428436349986632 0.45156545167252637
0.21410170480568791 0.5929162589033814 0.57462673104469308
-0.33670792063626087 0.47896798580112154 0.59369665050820442
0.94106501085035421 0.033550980450218759 -0.18758297660931067
0.15194593094484554 0.59161834977554473 0.59187272652940426
0.49290679383054492 0.1334371196010895 -0.47820854167894189
-0.34144015439585662 0.56990543321000042 0.54394396720592719
-0.27070425160921652 0.58020586229085946 0.42274704269847185
0.84445235265149177 -0.01097366267402311 -0.12065968369501734
0.40876663553679549 0.42614492810910454 0.56446267826930263
0.35144998068899458 0.45401329462253837 0.58267577311698915
0.17639897327611387 -0.57924293112856096 0.8096916143086661
0.23683714898444208 0.61077396543196449 0.45996389749969102
0.77683060107605084 0.2525461478728821 -0.18271709761654242
0.11630877919683402 0.19132271676214074 0.71447912688454684
-0.10822617093976739 -0.17304415404515883 -0.44877028891685267
-0.058128165686541222 0.4902790331479514 0.60707988637370436
0.36392536464790393 0.46200991249372381 0.51424268458383127
-0.37475467852836764 0.33611140659493666 0.52666643265085511
-0.72518308509007645 -0.020713851269214434 -0.33525196969086268
0.48365848587925719 0.17957249084204707 0.35731079547087874
0.80135940947197148 0.069298648507609473 -0.25095725915186962
0.057836276790626751 0.47455451157118289 0.60249103137266924
0.42243949277796289 0.56548624237458056 0.5454297909676542
-0.21969680150532234 0.45401338025205762 0.611493150770823
0.15049082883007392 0.39540807984627047 0.63537961958062783
0.16565915460271508 0.092382638626857805 0.73140478051219682
-0.15825493006975366 0.12351113293952887 0.44859788539203049
-0.18820788976638803 0.50114737775233231 0.49118703200940517
-0.62159233786666201 0.049455602734845616 -0.57390462925363395
0.1199646799768741 -0.31729531484606577 0.50696580489180865
-0.37021176458862626 0.46997876458431898 0.5725743132472273
-0.45085733410140694 0.56732087777601081 0.34186696189425247
