# XYZ point cloud file
0.037160748939582433 0.43173319381515418 0.52284283113044738
-0.7326847762487243 0.50077025068206626 0.17664513441013208
-0.45547698988780816 0.54980074849105076 0.55536427854625581
0.33406641728656572 0.67852116941366869 0.56798415994049112
-0.052948342349268707 0.045698966275796615 0.74743141142796699
-0.10480412399979722 -0.0063618049756828388 0.69532469177656253
0.1278184895455321 0.82177525033041543 0.40779914562547459
0.45078049504044948 0.43785660274232707 0.59630696189434396
0.010761185216369373 0.35118470589382023 0.64118255657038992
1.2663152484572109 0.17234050272898593 -0.39894248375912555
0.88611961922800253 -0.038373979304806349 -0.26008181355318127
-0.64365277275270705 0.24332299252935108 0.39184739994969231
0.99314242437646749 -0.056658968034258628 -0.25010769167469027
0.13381585301689292 -0.44103335750923023 0.86032416962844671
0.32905742978771313 -0.42683830058407712 0.87034985488525063
0.68151945497935129 -0.028648007778562801 0.045929791406296605
0.75946127715692091 0.363123462797319 -0.063094072865533146
0.0139779571284393 -0.31345147715086563 -0.58951200787802982
-0.23429482867018869 0.43579628247181668 0.60182985309484627
1.0919199971967639 0.30090308138168953 -0.34348861685213539
0.99909123140135514 0.18284323574437256 -0.33306601260350854
0.080514411816592357 0.034938869303546283 0.80000747314656895
-0.63295654565404558 -0.063263246502561765 -0.42348327774934447
0.44031208216661621 -0.19979556071535332 0.032213370320596457
0.42060864069736503 0.50865361446660529 0.5783903658614693
-0.0251465303700531 0.071989291869522964 0.79662297369660529
0.27285727468731613 -0.04018141330091074 0.57069718448420037
0.21929996321497836 -0.41895699178511742 0.87329975591295339
1.2509634475940725 0.22712805257833102 -0.36423510079335264
0.35333810179877112 0.47870954092632101 0.6361031469005054
-0.38978082278326509 0.6030879220157026 0.51002122954140283
-0.85286757049875828 -0.02122155021911909 -0.40202176708406867
-0.2559801766286145 0.44127553198049974 0.6027430680092829
0.45180678209988279 -0.623407979952736 0.72104063531168938
1.0383734572307948 0.28304138855992189 -0.33268241204351545
-0.86930350160548731 0.089897862014838736 -0.43923368604299862
-0.77625679232263778 -0.067811401688082196 -0.33548039621726744
-0.32299057681964483 0.57443907994299359 0.51989624959594671
0.30781431740250031 -0.14818690946517898 0.33163997696964342
0.37167721845433732 -0.33267591655252426 -0.24409966978462272
0.039996656415049792 0.05098724090734974 0.80601834505024206
0.11014277553163021 0.67725748062562063 0.57020922831552667
0.99054964950852309 0.34901502186745237 -0.29121358606788306
0.95692770065957977 -0.085950443407792565 -0.15954708663979966
-0.28015685076656593 0.56592822273999677 0.55502919512764048
0.92255782863384139 0.040975822596686529 -0.28557113255956423
0.23525595722482295 0.4343199368789511 0.68155974930037155
0.47896690724835667 0.50897664199035919 0.57195018942922982
0.051693410340243773 0.54279401440976338 0.60927269504822235
-0.23975502658951964 0.42569008250801144 0.60029914162143472
0.27321195642431739 0.74639157958385982 0.41360257024859459
0.98007588468834106 -0.05660337503479107 -0.20628752162468977
0.65910090784364739 -0.089083164234676659 -0.44242674903047918
0.15904578606369402 0.50525640262802107 0.68238402560962141
0.095483764387879866 0.15496692030649162 0.78478510317173855
0.98944393207978143 0.36158955903144752 -0.29596491183657125
-0.45708934540793189 -0.11990623310259418 -0.48128360744344656
-0.76558312353832436 0.060856608360362441 -0.35430173803657405
0.26800542471041666 -0.029560567902842672 0.50972194449862984
-0.19371393202154197 0.47424018597841811 0.52520956799518448
-0.19783557370818183 0.79388453846725349 -0.044232224050343216
0.0083564573118413144 -0.1360853205822945 0.81328736915536215
0.21557067728031187 0.39762274762804428 0.65963427081072146
-0.12108168895106353 0.020346687312310929 0.65515618253965613
-0.56820457053823814 -0.068505860179015277 -0.47785307460264992
0.77878583245587896 0.21874396848365318 -0.011210556805642646
-0.28672717596405306 0.59361446551563679 0.43455587856282385
0.33266408818824189 -0.17607901549365845 -0.67416733624406611
0.41135163960863919 0.54036430589927376 0.57138507707072872
0.11981173475861073 0.6205128396624201 0.58562311676545198
0.52153025347326221 0.42681169161884336 0.56900630860077417
-0.50191040176703217 0.58094024444198045 0.43782226667565904
-0.023019443121780281 0.73640919442164743 0.57986422336604848
0.37809506159259976 -0.5929358409697606 0.82612123886287891
0.82955342480808447 0.036246976981814782 -0.26787326109864518
-0.83979339293383548 0.0024828595805783671 -0.40717415476529073
-0.05133822542288069 0.83531315586245525 0.44683623476332235
-0.093648745695420033 0.53179252665899412 0.60185703874156316
0.10211404181334105 0.66066476386412543 0.46538275861955603
-0.77536178663602406 0.54159671726654601 0.32557425559362008
0.14432628396423253 0.650305493755581 0.57762340678593205
-1.0226305051712368 -0.13175778744075195 -0.40865090158826023
-0.40734416960472331 0.56340426263047705 0.56907240433543826
-1.1071176477726046 -0.040681121066915127 -0.52421059329652975
-0.1533254186428028 0.6406214065265754 0.35940470313311934
0.44790555390590159 0.40841503457850536 0.59920509505872355
-0.076712022310522432 0.73890135964211667 0.54759591845601996
1.0519199940808182 -0.019337642765954177 -0.32109216574511823
-0.73512573856203023 -0.076440467664901868 -0.31203106000627345
0.20097352667157509 0.66942821551587373 0.5830827125042517
0.66271638821244716 0.079709366394917325 0.18496883060377556
-0.7289521943293904 -0.067990547214516139 -0.19620124599932431
-0.79678159683347527 0.51488834607140532 0.2953129789569271
0.19541783093741527 0.38724250111735081 0.66149005713320586
-0.50220973023471727 0.29129671059938467 0.5323097713475935
0.10274217535515051 0.1182683719186598 0.80400210446249609
-0.79111585864037703 0.12791828032583863 -0.49108007731934133
-0.646045900417763 0.21577868590554938 0.26480171067972869
0.17198328820960729 -0.47699356663845954 0.84322692041889136
0.02411259460928572 -0.55461241272182071 0.8520619197848438
-0.090972956140164651 0.02265136077437957 0.71192209973460097
0.035592211999722068 0.60061895953051236 0.59040766407774203
0.094806550001063083 0.63796591646347445 0.58290513243120179
0.067781238560645107 -0.46260304082815595 0.88771923780544038
-0.75560949177142245 0.02938560302389015 -0.37717424186214776
0.95620698784650715 0.35637400092149096 -0.29050121622309311
0.27763575629842974 0.63103092127270877 0.5628053884727735
-0.64954327416801894 0.45896028151259916 0.43706012631492941
0.42834944409126585 0.6849193605403302 -0.082356169578188698
0.0096646128554489508 -0.053577252491510907 0.78845764401230989
-0.12068815455900328 -0.15719691028565941 0.38735836313530791
-0.48050515374229663 0.51260467886210404 0.55871887827039712
0.13895999052584296 0.12002720728773908 0.76439809749048404
-0.2639293160517604 -0.23227466986770484 -0.52471811434072357
0.25082805201598379 -0.37749777299971538 0.50475809839909846
0.16869711672386556 -0.38089070799515468 0.89414686048262348
-0.23984269178818352 0.57027607922987666 0.4312814440088415
-0.86882904081626045 -0.10952002024727181 -0.34055040267792336
-1.0380593846500243 -0.078829520351176408 -0.51479690944029244
0.83683257108954923 0.031514644824488736 -0.27392719786248021
0.11936863022937105 -0.65257940071428366 0.75497075291503357
-0.64538975273498655 0.023835382754542667 -0.54964297218509817
-0.34028580791352558 0.77792535113250671 0.46144039413130855
-0.27922571025776755 0.6947514336281273 0.5473141391621863
0.22544026757807201 0.65498403009884398 0.5882044601628813
-0.82267447449397402 0.39051389982219897 -0.18362462968428783
-0.81218451543092307 0.2364994875915204 -0.29271656321462158
1.151426728480053 0.028408351009579613 -0.32133918412442952
-0.70147967200006356 -0.051998654022052282 -0.25864761817469706
0.50447114326338438 0.12732542595215912 0.406640277441352
-0.44594104359881204 0.79353638655345771 0.33438060548172333
0.97938836978599375 0.28718784787948182 -0.38824647546094759
0.17583727412078742 -0.50468352583114573 0.85908686173045412
0.43805775224400634 -0.084295264551382809 0.20789229554643596
-0.055970695906141454 0.15952044383485653 0.76193338732675331
0.18663008469668529 -0.3676180291274983 -0.44954089124505048
0.65251701207329349 0.49027820436998437 -0.25767805998707782
-0.075278425225028478 -0.46230391252673464 0.75550286401469746
0.195258212627345 0.45325455769141132 0.68521966427033787
1.1497206403994549 0.027533037930965287 -0.33181697109529873
0.59463316811331746 0.61135766955553239 0.41548470952954553
1.2260459526348315 0.27746248788744399 -0.35112987283290797
0.15298986442462059 -0.27154407941786601 0.86228857480470067
0.43084457959333022 0.52867144676502631 0.57972871074419485
1.0486930472301323 0.14573804835077042 -0.32976030238277776
-0.56564883271287236 -0.081456286979105674 -0.12341972285068215
0.1404968198351817 0.11290127500787128 0.74847287317957401
0.52618321552043046 0.66662170981720192 0.44859575128150686
-1.0617486598793877 -0.012924562842483001 -0.54838634513653961
-0.27390662645919095 0.70724098843879835 0.53637259403807169
-0.12330402146155395 0.085265549977528776 0.650997317265543
0.10819829154685978 0.62714772609436031 0.5661434746963403
-1.091483983913129 -0.15495533727605237 -0.49877627679114411
0.18611115450960769 0.56333237947688097 0.67160186007833778
0.088087615144003539 0.16767229437000986 0.72401214701689742
0.32521061876761559 -0.21242047982827716 0.21761541996999423
-0.11755906817901796 0.64594073233757632 0.55852904837195982
0.079611344999289013 0.85493690525203636 0.42299703394949217
-1.0976792657712466 0.077786614231841189 -0.57105595823025368
-0.82622445532883448 0.060299490875886264 -0.41542919794725819
0.25481944249045929 -0.29753889336517969 0.14782673518157008
-0.66977794930278467 0.46259711226228095 0.42990455804650241
-0.61251892327790625 0.57104580062929122 -0.52110210028840243
-1.0602632463768069 0.13964235799335489 -0.54349146261302428
0.27724546899616831 -0.36562808240174138 0.50746561648974531
0.78711946451126868 -0.051897957385562798 -0.14983823905941618
0.25858224027607246 0.59028479090462282 0.64948955967166766
0.10402592014832734 0.43597237912811004 0.64250557717541623
-0.61037521193193811 0.64179296308478051 0.44199895162345015
0.395652491885365 -0.52706294476818594 0.8454657130801233
-0.35256599014861578 0.10601000145238126 0.45380647991152356
-0.14504949260496947 -0.16419521945905891 0.62267528574690623
-0.89137647061857717 -0.031148108121838436 -0.51714330431827982
-0.91876436545028017 0.0021286883584862304 -0.45216865121563865
0.39450892761877476 -0.25237561779270012 -0.5657766434717546
0.1236444378070396 -0.59071746052004048 0.86927884723663595
-0.54616533028125369 -0.11823936696480131 -0.33723143030103353
0.47980615080731859 0.69721628973697058 0.47659990526473983
0.062285457694831958 0.70985956276414841 0.56267149436695085
0.23628180019871126 0.25621232493978408 0.67061064378114521
-0.1729452013040027 0.63128769925983441 0.41657907651646964
0.36925383585032034 -0.50909759154367662 0.86115546357384343
0.63061402401744493 0.42833531850975559 0.50166961430294954
-0.004196427976646433 -0.60971486570786215 0.78448128710034837
1.2295042148528808 0.063128936596569263 -0.34106484640344181
-0.13473949277319708 0.639882790653864 0.55678959073803647
-0.66165130964726604 0.27542547600256317 -0.68212201210794099
1.1907798930724347 0.33755764835565505 -0.39210979967080561
-0.34011644563546195 0.50698424797050012 0.61840531411282385
0.083829934303359721 -0.58358577275574075 0.64001519361950576
-0.032532839155282378 0.74643200087310724 0.41296839993141532
0.14585524747549972 0.48981897544965569 0.66533666456679486
-0.98451819711564159 -0.015913817021003807 -0.48482525090590745
0.21030249909845811 0.62113103164494576 0.63796940452940998
0.6299111873815475 -0.092925025701337427 0.0039590141520422506
0.80854926430683438 0.16160566892896988 -0.18261287635358814
0.28732406526311727 -0.46542715032539406 0.86971754238001653
-0.077119522143551666 0.15092540858159276 0.725371126895892
0.3056785674424205 0.47551707813784438 0.67843539536391484
-0.96987392770636749 -0.11665574660967948 -0.46012139445403344
-0.2456902051250025 0.53969019135446505 0.51184829177339397
-0.66349303396424775 -0.040769616793491448 -0.20828255473478796
0.89987592255858928 -0.063803819664754569 -0.19130986230620461
-0.1303011315280207 -0.19121449341201768 0.55269484931120516
0.56458865169422978 0.42091987604480563 -0.46715454545903956
0.13182360322266007 -0.27253489282927246 0.86371032410950566
1.0918469799895454 -0.025072808961696724 -0.28066995270402062
0.7201967585089446 0.40353479706693807 -0.23628801356416229
0.46648301231285183 0.65898899728296889 0.57299984306554963
0.69534785708022007 0.48656310961276938 -0.030489641716778149
1.1689845039038329 0.060013337072391204 -0.34418055382526047
-0.80725805051724997 0.060698708183285377 -0.40048037457993946
-0.21033908236421528 0.66029093474040057 0.55869941851797078
0.60678982285917504 0.2291150074592877 0.40472005760739593
0.14236286659305142 0.48439038155664582 0.65772972167631227
0.20455059156578947 0.65454962300605013 0.58350418072619936
0.57828843266791274 0.03019233593032733 -0.58904350479102874
0.37065516753754757 -0.6273129466440428 0.664512476021212
0.12289422475463896 0.41342793180413284 0.62079402022762054
0.08063924765509034 0.61561309236224315 0.58686802192685894
0.36933945482853714 -0.33870846032908064 0.81036179591994317
-0.20588398270082742 -0.089997067775925199 0.32509125853495835
0.14348733453272855 -0.28814955272149145 0.33752374232504323
-0.26258017133970313 0.515676445433363 0.56438906890205587
-0.5792828731771249 0.6713840322404262 0.44775889168673144
-0.62447330509234122 0.5553034943043913 0.43581102598577282
-0.33316770352222802 0.35108099398266712 0.6065474498202259
-0.23030036861109693 0.42259057738039885 0.61166610386228459
-0.69681977957082442 -0.072412474876388133 -0.15739783612098757
1.0630698149618096 0.13658866149304805 -0.33246051219261297
0.46603697896558582 0.48539108357866101 0.58209358547030687
0.28304577551857202 0.45550036376307124 0.68760259811564106
0.13060143617843378 0.41871852719270453 0.65321517507392057
-0.72744138139538217 -0.075338543308649419 -0.26621487695479296
0.83543054016144414 0.089226740445281116 -0.23784299096891326
-0.13332287039983726 0.63969593405662828 0.47937130616483348
-0.15357438101266885 0.12795557743407204 0.64131558967636249
0.14275820924465332 -0.28729508260527847 0.36694934694331938
-1.1254674763420551 0.073861105335644717 -0.66816837777685345
-0.087823720263962457 0.12510282242158666 0.72154439890770306
-0.74156257519960223 -0.075912463966861687 -0.18292240505754886
0.73196954189438523 -0.14421165973957784 -0.27143998536418001
1.0309034293305077 0.20184722822470391 -0.35209111123799763
-0.021642451142390495 -0.56410583855814667 0.80559794390827122
-0.53941601142204298 0.37589002557350137 0.51640629810472083
0.10297145440944044 -0.057476696627903445 0.79447115556124759
-0.15782308831919201 0.035964146024085042 0.51811737126763946
-0.37574233474662666 0.31879430829234623 0.6020511991323656
0.046292827505164613 -0.30138003853920203 0.23866756003431444
-0.52334858440671983 0.56314262162459494 0.48436225819808598
0.76098012533771131 0.35755200132260168 -0.10475374345915611
-0.01422144002541037 -0.2617026876698284 0.39319222651075947
0.86223922484931625 0.097474046831961259 -0.35143206270024363
-0.58082763359311773 0.36830464220031101 0.40341941880200505
0.161198675099675 -0.47534742054353413 0.84371178333085695
0.31323993957900731 0.4881139724453305 0.67318656695367096
0.15189183706511855 0.66256524990048993 0.57714077191360147
0.42913089450917585 -0.61236379680963804 0.64262947637058687
0.26376367723680261 -0.65323661322085402 0.78290109986206824
0.1483680294749683 0.49632633852662789 0.67624279521075126
-0.70848850183079337 0.063928351018054608 -0.259853996176036
-0.20101617155889961 -0.13038991721951043 0.2692610558486237
0.19924564669021061 -0.48114826772267816 0.84137248326125347
0.041970543232525692 0.041625743670456239 0.80354491529185923
-0.49539016255867407 0.33148598857101885 0.53944927674605436
0.21930057750675358 0.77386285915760711 0.41185162124260888
0.57940389300914008 0.49566018452197225 0.53920298516315235
0.14262183079752622 -0.5078232884116739 0.90336589772821041
-0.73319522569744322 -0.070981441558471192 -0.24036339955474206
-0.12504490845162275 0.62198838876037643 0.40167136649299318
0.14069167451679299 0.096590683486156292 0.79035932564652356
0.41081220822990572 0.11525152720514942 0.49951347154622106
1.1617082308337703 0.027280306713778346 -0.30687650315797832
-0.3353633690246145 -0.095984636104614718 0.10518643871519329
-0.6458306901645563 0.33294381691210717 0.44567565974089174
0.4221172069151029 0.39744085936375728 0.58365075506343089
-0.29481430854558788 0.13201816914282249 0.56035135438648576
-0.81231111375414411 0.10647230104071548 -0.36881071752868788
-0.35177962985256217 0.034363113090774444 -0.78086234845346958
0.036863578363637295 -0.53691797594836466 0.61330148269994034
-0.49279838383626284 0.43456720812198402 0.54761346153818247
-0.58436618287769315 0.26915505633862646 0.47529261800687461
0.74610788386269622 -0.002706593812725977 -0.058396954853721983
-0.45129775071944112 0.81468340356612334 0.38842093275821155
-0.41369568335886964 0.41005795413668222 0.62162683127760543
0.38610110414470777 -0.59952618743104702 0.62727812560983676
-0.31350438935916936 0.41737237692616458 0.64144410479462577
-0.059648878447740028 0.088919605971333748 0.75186530248983496
1.1217626901040241 0.36501814022689882 -0.39986472065034162
0.32524135190012249 0.56692606195929018 0.61090574818681009
-0.13372268065268278 -0.025101378651437911 0.63577375268110004
-0.87474374042958081 0.16447685820670044 -0.3972256893916053
-1.1362095619766883 -0.13317067388181481 -0.54869195297768103
0.029137576071216031 0.14714738751292233 0.77016685111663641
-0.9031779057287066 0.095117208517333518 -0.4674621834464916
0.10681125592117713 0.16719036290811096 0.75822615714256525
0.17666871579064525 0.45984859832260638 0.67616276352899085
0.32084481361838213 0.63925251693571794 0.57650405283033912
0.39107506440041551 0.59046470331676737 0.57124964159425629
0.13127081986787648 0.13298199297340374 0.74866599249393095
-0.24905998146042929 0.61677222213838645 0.55533318500200402
0.52500067885248392 0.58272991982801481 0.15877043887357001
-0.59132446111839476 0.70986007941792717 0.32593971291101731
-0.060948095406998082 0.63401488423954611 0.59514070263025509
0.63248365135837847 -0.0023351772326253295 0.13090577113883084
-0.0093868950302651299 0.15687800281525666 0.77753485606618256
0.80808141432861458 0.11939966769437649 -0.19490638726747989
0.30832393776008793 0.44921244575617447 0.67011136347675349
-0.75316301684767195 -0.076260061911675892 -0.32109866075573823
0.23791705290248588 -0.45890466651159345 0.83804087066653743
0.043614563584812416 0.73259903677937332 0.56572133280603332
-0.205692228871317 0.66801858949058535 0.54096568946128354
-0.014952341261170954 0.8795453515943672 0.49826563934464918
0.098433706505357321 0.14417168245267409 0.79224677267039567
0.32164675990113345 0.76046846176542915 0.47100280587625587
-0.023270577376584889 0.17108027156580807 0.7324157565919549
0.39650174655540216 -0.13691038808387024 0.19775307351170301
0.20754378646544547 -0.2983018138389244 0.43359351481617114
0.057957554483442753 0.17376052163581901 0.75366861911571448
-0.59535300083289089 0.51918266940344937 0.45008213689378485
-0.80032898167216837 0.28208058281493176 -0.48755697909357254
1.0907599686992622 0.14142764236052763 -0.34333841665468956
0.16687916077945664 -0.36686578792139346 -0.064607717783045526
-0.32585308646616484 0.50900744804467712 0.61756523511322658
-0.24348395063563544 0.12283627729722868 0.57805772837953961
0.50339715510672534 -0.24199741947096909 -0.31368822443640942
-0.50226612393180803 0.57686008319570825 0.49190520615321587
0.041811037457527345 0.85921090617137796 0.41979347738613981
0.66555979258885767 0.47405708828725046 0.15470189654476219
0.60342125296340887 0.26799082445357403 -0.52990709011606318
-1.0976473839239089 -0.15324405092746385 -0.52605998964544609
-0.55657226668246729 0.48954644058060082 0.45277057124255959
0.17094837036853305 -0.49927046589629442 0.8925038584531535
1.1076185842275388 0.24768302302022371 -0.38423682139360293
0.30142822075053477 0.45818449511192383 0.68001712701116146
-0.29004403546558644 0.55835138626724845 0.55008026238765417
0.33132941440563268 0.72203947314719286 0.41488301678513162
-0.1463516511872287 -0.037499148120966885 0.57284788185064928
0.82661363698108792 0.12890367359947685 -0.21367124292975292
0.36601147433104497 -0.46850927198122855 0.85911437842202387
-0.70556794556157554 -0.011941855041045391 -0.28894575896653629
0.054739448003273239 0.70194273596707801 -0.40329505663924614
-0.5924330224109684 0.48802187969850908 0.45782475361838904
0.79274697481894929 0.25351737466552571 -0.11395625864119019
-0.56470815999292645 0.41524057574168949 0.49230402505440995
-0.76759212171704316 0.24145108235353763 -0.012124978577301881
-0.4254894304177359 0.47920158412046199 0.60486570178762067
0.93171623536840231 0.080981953789659666 -0.29345237328357232
-0.56570039392222116 0.57135858566489173 0.32224399766168865
-0.55205783954175436 0.63956600000220021 0.45638519781441778
-0.84789054641739936 0.055958479985076193 -0.42909997613110651
-0.1639988876272005 -0.21155204258278804 -0.65599503881165067
0.25766798517954337 -0.23637071996862435 -0.66801565283920983
-0.62183998416674369 0.48921048672312584 0.44261037335810594
-0.21387426059219372 0.40050998711259633 0.6179520164113752
-0.72768291487289849 0.13314775820772384 -0.079768684311782856
-1.0466010333965801 0.11408438679891419 -0.54415411726343965
-0.71697260154684361 0.47173550149328392 0.41299776477867001
0.40334783850152256 0.45614208841574189 0.59335516487970041
0.048636758795153057 0.56083898298321411 0.60383750181778151
0.48753742245021803 0.66169329283617428 0.4162105765745987
-0.30271865414546761 0.10381067658146792 0.51293318534146026
0.084348975091214307 0.14635888334983393 0.79184565779473148
0.36524662626301962 -0.20869136351324591 0.6581754739481176
1.0061244612250013 0.0055629033667556893 -0.30108312943980575
1.0330814950414091 0.3014092461296195 -0.32161259899368977
-0.81411658333484871 0.16931170541858864 -0.35189381933288377
0.55399323664681965 0.45862061888139016 0.55318640975848155
-0.73023708318815395 0.35793099388863836 -0.6106059013665277
0.55036618924533309 0.53310725140834403 0.55124551954067025
-0.30252593955175699 0.46459618302458394 0.63618010333275032
-0.56427280740548591 0.55602770851226624 0.45605701702446799
-1.1055165377786045 -0.061924838440750696 -0.4959887636403657
0.27294834829742287 -0.20841365868588502 0.3376281282432485
0.22913561558816276 -0.59728298258988211 0.86562731325085451
0.1340145630492966 -0.45660604345830347 0.90372492467265531
0.041349452201178583 0.58938899962491875 0.51296473578124502
0.019169526305128137 -0.18526407373862819 0.8293185234340319
0.38324523775785257 0.0044856294303323718 0.37216525159533553
0.14702552007594827 -0.47643203023384179 0.84911940912085271
0.29800388803499489 0.53677766777762814 0.66337793866489569
-1.0636082733587249 -0.1174487889800474 -0.44220664776991159
-0.25393255726785569 0.58148105028278696 0.5536749429365293
0.075420887707803086 0.5104607877922539 0.61936311426331292
-0.9406319814205828 0.19053705921241304 -0.45199005222525557
-0.78703182634718871 0.29180084850294286 -0.54079749985769254
0.17882045033011229 -0.050479771815866936 0.78039071891543044
0.44693596733968555 0.15345047698926439 0.53482109811527101
-1.2063732486966861 -0.0095468023613684005 -0.61919740845607496
-0.20849453191167999 0.42598302830203394 0.60955706142038801
-0.64540427576158166 0.65639986557081664 0.37468840108167978
0.16561957926761206 0.52132346573476851 0.68082705620336892
-0.81633406748347292 0.19218392491260272 -0.39617518340722491
-0.37452190246968708 -0.17735947347107517 -0.32781874272225764
-0.29095942686464316 0.66516889003713842 0.54329626678946008
0.078077936291133909 -0.31404728304901663 0.43856118958348489
-0.85608951255696741 -0.10536760919456811 -0.29009852898787392
-0.98361877396170661 0.088046166811695747 -0.53516172893194058
0.58291740205976961 0.1794942746701288 0.37612960301126552
-0.87177788364318509 0.17730108245356813 -0.39388493249318435
0.9610446865857587 0.34555381587054512 -0.33410050701810556
0.38575672954031903 0.51116543254125568 0.59245880644292015
0.12624053645582922 0.70426277069133492 0.55994694282954782
0.96113122781447258 -0.14695550444115801 -0.24587373748976349
-0.12152986997286419 -0.28528996142662977 0.62626453004472538
-0.49932274787799846 0.55236119569079789 0.48591638718865449
1.1453259901042645 0.30538854773104762 -0.33818795355682019
-0.65089855516808948 0.49282433549725257 0.42925324343613669
0.85506874744808403 0.12816946453110645 -0.23894893386543181
0.03032583334013772 -0.2364799594736624 0.84494742991442484
0.35867266247600238 -0.64543202063975802 0.73147049622256333
-0.32815584885063087 0.34315751325414423 0.61592371304275062
0.11192817776105501 0.15406265291454513 0.77909414698799528
-0.80431352224223396 0.34225265447640629 -0.08968222977595719
0.12222467056781339 0.15095588766277923 0.73090165639911042
0.18702754152679857 -0.51056096814526708 0.85832175474696903
-0.57004811855169901 0.66650108897708471 -0.36939624290175344
-0.19022494426150871 -0.29638820108296637 -0.32739556221903587
0.16309961920161786 -0.12835353480681966 0.816221448553891
-0.34120360681247774 0.3995046864210291 0.63966842980543159
0.13164637786794131 -0.4289355518897785 0.8819019424125556
-0.31969353020123759 0.68298401132251008 0.53119733122853541
0.2793593674021646 0.15852156659310368 0.6222287806891007
0.56125966168355967 0.57702592428023181 0.54673208854244448
0.25809031833055451 0.37954796654340694 0.65471120411533379
0.23562002253659875 0.6222493781660503 0.60968292474786479
-0.15849268195105992 0.46907323740458629 0.5963353804549314
0.53062213062839048 0.38984419376861223 0.56694335327835521
-0.47109612069920637 0.60613220780891119 0.48625992715637611
-0.13115627756213932 -0.25228406925909952 0.65583019646157314
-1.1293306667285008 -0.069551111416728928 -0.49960964763621751
0.082521616960889332 0.50710817609751468 0.60459020078287251
0.11777393272234749 0.10448231455215895 0.8046257020153984
0.062479120521378828 0.64363809506885505 0.58091038070585865
0.10390080094059062 -0.29345657372374456 0.39375979705108577
0.57565733722085 0.65803322446563084 0.52052055156938026
0.25419283616885369 -0.65675036842082057 0.72956493682171963
0.019833780255014144 0.14991205473910507 0.76786561328080039
1.0242418944261658 0.37034799823055398 -0.31161295114997634
0.25671507813082384 -0.51145549087903297 0.85108011721106891
0.48798014635094988 0.6430820207055733 -0.14257219640588792
0.15002935622754077 0.79008130696555956 0.57129013314169574
-0.8203852450695881 -0.042433756179729554 -0.3724320248723485
-0.50690738271767533 0.78883427354578128 0.42629730988145464
0.038596013021638953 0.15929897045049746 0.73370918802794627
-1.1393438762632679 0.10929890041421519 -0.59047998462025131
0.67261845849105528 0.41388915331931975 -0.3530508200675202
0.21425659987991041 -0.35143048687886391 0.48109604161513975
1.1125069002523662 0.37966830806540963 -0.37770305927076775
-0.71382285228760711 -0.068584471348232534 -0.1758603524192095
-0.54710491951215756 0.57923009632318856 0.4557040319571688
-0.5895654835530606 0.46084704644705099 0.46743445495043678
-0.86600088352124249 0.10864637743167005 -0.41967441094948033
0.32883792389929978 -0.49483094267641281 0.56051461538147462
-0.81962736288987514 -0.052512932608304586 -0.3635419058374767
-0.82663280506468251 -0.094553248724757677 -0.27227576414469867
0.43671631749512141 0.64406573467600381 0.10099868516264365
0.17485884032759014 0.40802758845361498 0.65073622672198406
0.0049459947236845103 0.16512896012935574 0.7204321972787473
-0.8815864705197427 -0.18230998238851304 -0.36579185025583483
1.2154367578613559 0.27338996115761349 -0.34173057945295682
-0.064109993682995636 -0.32158008193446475 -0.50834683004274783
0.52279790824432659 -0.22107443915725145 -0.2243710613464569
0.076293711171850465 0.47633763282247465 0.62964006024350949
-0.6915721450952903 0.1622946934223346 0.077952277316705398
0.11808865726339857 0.42898982851761647 0.64836760278855143
0.022876758251189511 0.046856305554925815 0.80160009858906855
0.64551713026632651 0.50167469817437493 0.32914204173776929
0.23016692570192476 -0.36037138591464768 0.88294783246013164
-0.4883149640287674 0.49784135275797636 0.5565539163184523
-0.24226479709686632 0.41509806010697914 0.60556303980971915
-1.0395859399158369 -0.16405163533103218 -0.44510876807500743
0.42084310989770812 -0.63363835503619859 0.70654127235601072
-0.20829928777340312 0.38398377103473236 0.57912743498858577
0.45271729319512266 0.24600714586975991 0.58500003736302375
-0.42848882932923305 0.59439472468445864 0.49786695029144701
0.28442329355494977 -0.54955029172374958 0.88308222135672176
-0.209028365423781 0.66489878995822127 0.30855253426450302
0.023334199956412505 -0.2775774787545866 0.39221389240853899
-0.81129882304915402 0.49570455145309211 0.31824652185708313
-0.84844873220349326 0.022246561431354395 -0.42015972506475441
0.36176018185467429 -0.26659223002125987 0.042044150438354411
-0.60784968380938631 0.45911259697578333 0.46026056799409609
0.9167554397757236 0.21970737754110203 -0.26411876641513388
-0.14984753419464436 0.68843909971448258 0.2886424788377262
0.27462275485387444 -0.23159841326782571 0.82273375478913824
0.27211266520592847 -0.46995364262393535 0.8327389145895312
-0.062807577066410492 0.80849747077302581 0.53395791051367736
-0.24043399874773241 0.26510060323898221 0.54464606164578866
-0.93077169397194925 -0.11990725745677111 -0.35123424343397502
-0.37856055361477425 0.73466065390678081 0.50938020114416949
0.14644993272707962 -0.31644673219832187 0.43504401631448397
0.29725311849982483 -0.44654278893142024 0.88717456582829346
0.39938164596024128 0.63689096519177057 -0.33046970234539863
-1.1199409119520203 0.13342661330440464 -0.59451000032251544
-0.11357179785783922 -0.31501209312709788 0.71655593054271671
-0.14357067046645522 -0.051453200443420832 0.61129999169097538
-1.1068041939110089 0.045064549476954041 -0.57624726116297964
0.40050335185875197 -0.301673508004213 -0.14796514400194605
0.85958015473303773 -0.068343561790825014 -0.19007533091691009
-0.35794584924897199 0.49102581808151025 0.62354722597027923
0.60402156479382496 0.15295169943713138 0.32059885000239952
-0.34475418070142672 0.60275481108504259 0.5261069492703272
0.36027914927800264 -0.44549829823119591 0.85818252878382495
1.165543319743799 -0.032190335322542563 -0.3109085404127101
-0.4814931006343337 0.35352297320302983 0.5525579865000716
0.11420116475918984 0.07300470189100372 0.80135571449695009
-0.56601690082453304 0.42367473186758331 -0.68657149139428775
-0.90702970625193702 0.084958165540311215 -0.47420554473339616
-1.0344489589732766 -0.10292689502618158 -0.46757850502021503
-0.27399972279865059 0.51098986499039667 0.57155408465847124
0.56226988936092326 0.57941235937745939 0.11457877410732964
-0.10671071066738902 0.62790206323618092 0.42807443724371952
0.16008660662347829 0.47383016034031034 0.67129879930398939
-0.63279704906142431 0.5712178500892372 0.0097660204990308586
-0.59257650814732665 0.4746243524314997 0.46171191196658556
-0.5432373109610098 0.4030228700914994 0.50318264525714973
0.34414479119997399 0.35340021210276784 0.62692355525601062
-0.22928681236408588 0.69285761882040653 0.48066602951120529
0.10236403384173443 0.68640055596782923 0.56534647079473999
0.44958172504144978 -0.46269998381271904 0.6309531022816901
0.25431932881586361 -0.18285908248535199 -0.71035661875717304
-0.040898293285696496 0.068362969703247067 0.77693816719089792
-1.0721777225812508 -0.12663663382929102 -0.44836847825955006
0.32704059501928606 0.45391390762830375 0.65807229483082752
0.99481094771204748 -0.05526437508890869 -0.26173770009760533
0.20535561141458514 0.23667285855299414 -0.77750679522845534
-0.24518666635357178 0.32212363226705931 0.62845885101185672
-0.44571872390125833 0.71368746019751816 0.48184644149928113
-0.45129781837538596 0.81369818591854304 0.41762040785209331
0.71258959572325997 -0.1507009673699532 -0.16531556369321754
0.88286973292377446 0.047166249833787477 -0.28193255734314082
0.060159552484614132 0.54296610131139755 0.61079685963015695
-0.41715574002961908 0.6898081183498066 0.48620489326479444
-1.1584044264932389 -0.095838987766527162 -0.53172644228305499
0.68933037640524386 0.49030146170809452 0.017921076281705695
-0.39285698038129624 0.69435537961906202 -0.41430790283845909
-0.049638404240462286 -0.25811668176689617 0.45952536531172372
-1.170901176594711 0.053069730937546633 -0.58152485169385404
0.09788322275737471 -0.30802174884927414 0.23852188915068728
-0.93712608978413048 0.12285568759579124 -0.47505128337725422
0.89132546500536303 -0.022648830849153256 -0.26797009535320537
-0.82167213842267417 0.42628293362735581 -0.24266801491120304
0.24994402591105525 0.63951488925237265 0.58185460494079244
0.32743352581336937 -0.19625318976833972 0.75568080005426008
-0.37971797567540566 -0.13775291882005758 -0.57309576781860461
0.8318738755588817 0.007407753176648102 -0.34100166462965475
0.078469135272353885 0.40992615900711771 0.63532996283315368
-0.57439922626739071 0.46031346320912414 0.46574642301266422
0.17806194659566321 0.46860252301886685 0.68645249087368354
0.27600456605534163 0.56318719645910331 0.65912236624454845
0.099020864876868675 0.46859685835027209 0.6282762758294469
0.12690605323595472 -0.43701021860210509 0.90189704982261576
-0.58141844290792832 0.61527432542605731 0.4500886448576038
0.31773119566031038 -0.50936614947781444 0.88433477862669418
-0.066965205348359813 0.081650977342875963 0.73857477312771014
1.1270900823247372 -0.0029220435911896381 -0.29379397985885936
0.52802981980367525 0.64735240276634709 0.41705362258517376
-0.24848552594436146 0.53790117631040191 0.57003382518492174
0.51180340047533424 0.62201988248127327 0.56275910693394682
-0.57347499514977374 0.017883206246745109 -0.61813684416148895
-0.1283439712347918 -0.1817518465950746 0.31686035648084543
1.0899209741880045 0.31992312721350369 -0.33564084289390772
0.18897729954441278 -0.311052844961485 0.8717630948983186
0.10452163905544154 0.16923542364391608 0.72522751907810656
0.068692063296792227 0.17775408478967392 0.75131677239111072
-0.68257873986036177 0.3340446297094315 -0.66091721165690132
0.33372273821543397 0.38119695147008381 0.64219997741054735
-0.77272654778155125 0.38875475415992689 0.080437200781988238
-0.45288885188307226 0.13623096742326035 0.41074818450499162
0.81513126357532029 0.024744597734720486 -0.25773030738287295
0.29055615784478173 0.67697860666976861 0.56480732153031399
0.050789231392942558 0.17121526263094533 0.71949523986389696
-0.86359594970595266 0.062295923639023365 -0.43984166308925987
-0.95971846666509064 0.13165824063960319 -0.48603414199808981
0.099567664724249383 -0.34791867165117019 0.047789323867363454
-0.63818813770059135 0.0073449249880260803 -0.093941432187123475
0.27262453822519905 0.43974353308022418 0.68365199959861211
0.28166368357804861 -0.51611494355204501 0.88990502631051438
-1.1783294498165744 0.0019462455616266472 -0.66878526127767524
-0.92060950349252746 0.031768409904499473 -0.46623066992293127
0.78118459731105405 0.072449500086001706 -0.16184651802357086
-0.48781386791774972 0.24925677065375962 0.53250371866219837
0.49139469590224527 0.60123687372536483 0.30263695126856227
0.10290158972428776 0.40889139840694555 0.6423262926762745
-0.35406756986332999 0.63051550687720614 0.5110243156324894
-0.28905236870917861 0.71329321449661331 -0.39780170460443198
-0.00089234761948153718 0.79235212674562838 0.39594330859901294
-1.0786390500164673 -0.084124728811946214 -0.54037060741975784
-0.32047514259090981 0.52743133641002582 0.59742521434356854
-0.53108366542772467 0.77025205644706007 0.4201818408150606
0.39631819297531345 0.33875964388349811 0.61954693600114075
0.082065133674650514 0.47905749283166232 0.63044751650947539
0.32814065966080763 0.16881519171454196 0.60570340318811411
0.17431055643637938 -0.38084584815451694 -0.17519354326803604
-1.1976308578381691 -0.039590222299278943 -0.6359497065968025
-0.81718900344763457 0.37703870431493769 -0.40770997360806938
0.49102324511218498 0.61921059818109059 0.3440592920094665
0.16039585962630842 -0.6454286639252107 0.80746037055192854
-0.20021173714325169 -0.28643893479028404 -0.40628300332632561
0.89919368110875419 0.18382749567416168 -0.26124352351435887
-0.058531044463745907 0.69109153885416175 0.58634619167072977
1.2611024537795199 0.11514349245600952 -0.38166920863279863
-0.70859200552076018 -0.06345948388817424 -0.19971612823820761
-0.83815277754634421 -0.12113805003693023 -0.25005908867550541
-1.0842600816663182 0.15475079433393069 -0.57575136279707717
0.14480892078356966 -0.46214079466890351 0.84590664199910481
0.30226388091593792 -0.35291196637787814 -0.16060886414240239
0.13603754220590814 0.51033544263853026 0.66510306612208758
0.072425940997435934 0.15851191596348269 0.7825427798709903
-0.038057621543821085 0.82535964091692837 0.55053217689585132
0.14020726488830926 0.26517551235628556 0.69826530728347702
-0.39785469059217604 0.33576621755850244 0.5876540365588081
-0.3629941210016967 0.27498489320749853 0.55866121503168964
0.33959545861570506 -0.16170645100024938 0.68161651072438412
1.0534291716015605 -0.054310494435065859 -0.23326876245528805
0.40155097317397281 -0.62023239201988312 0.65270935706526734
0.51618627494327418 -0.21232995173431157 -0.46080170267876364
-0.5229129461879789 0.47045011862071351 0.50841520137367402
-0.48493523312896203 0.80924332816211464 0.37699947994295124
-0.37143007398279426 0.56071730034428402 0.5771766673137293
0.13969391167497403 -0.49028717592029536 0.55004536338958232
0.25550228478763604 0.43246505181350026 0.68045694482937646
-0.76248549151796707 0.27893243798588963 -0.58810680688371253
-0.45406798458015274 -0.088615352706819639 -0.57415262767732411
0.33883075504026827 0.44162097461756167 0.64932955140505921
0.84276356068649738 -0.0078921228154957834 -0.24245163592694574
0.41103860098510436 0.52279794249455747 0.57067082805918457
-0.30415243643521173 0.31936633420077276 0.60208145162561255
1.0946829790091452 0.37118774166918478 -0.33443331817429467
0.88510038834923899 0.14566653766927251 -0.26467973351920371
0.39224101368444853 0.43807051328738411 0.60210430822998617
-0.73276586925061604 0.54261985090855824 -0.29436621428373133
0.14051911551011598 0.07967437968243396 0.7855167532363807
-0.53360533083136374 0.38090870345041106 0.51919761430983469
-0.74293156378486813 0.56629583272485273 0.35812317443299646
-0.79336463589522443 -0.1104819871633822 -0.20930762985361673
0.27433234848099697 -0.56533530061302728 0.87797871922483006
0.10865444854797301 0.48857593073321381 0.62871786557782583
0.2786192957546163 -0.47761812350325783 0.84062726755877648
0.95723502207046041 0.17116771013799847 -0.31342364717557558
1.182356215962044 0.17039121297736215 -0.35824022960309554
0.3982261273678378 0.6389308293317032 0.31240850890028993
-0.84820341002529309 0.11271704819025063 -0.39757243206905057
0.36823540489088202 0.31145918688881713 0.59307055659997987
0.19507496135302205 0.61175540432565112 0.6471357633636492
1.1690053262259781 0.057207586404864452 -0.3546263318413958
-0.14983094065951352 0.63251619143655458 0.44863599704017831
-0.8012389398697346 0.22660365435068852 -0.20551906468448777
-0.3178830332062712 0.3209548275572266 0.61496435324387511
0.10758758541359814 0.058235956628446051 0.79953776635110874
-0.41718511422585181 0.39713581921218544 0.60866487315968776
0.237051863094075 -0.40419614116059827 0.88608564851186511
0.67903670976810337 0.48468283787365984 -0.18809301513776244
0.25252028451348618 -2.0670431711833359e-05 0.59395065699388194
-0.456743688063177 0.62455300049135398 0.34149789362212957
-0.80019430712756767 0.22537762686119489 -0.42220862194275544
0.13178889206087097 -0.5504786279005236 0.89084711832655916
-0.92233734195919226 -0.056869553523112626 -0.43902842837093203
0.57993615518505681 0.50394099831428418 -0.35400925872826905
0.85775582056547561 0.095616801794818462 -0.26111878871955163
0.27529758003447435 0.46614230082014974 0.68935674035903372
-0.39095879005597611 0.52567965175588061 0.60012712103803834
-0.35398845804775947 0.33594009778118206 0.60922429039814618
0.18917974580910135 -0.28542164204816034 0.29155481147889928
-0.23676251343304244 -0.024604688279266096 0.37135702258041858
0.25512370543433471 0.0036639550841307544 0.51850944466583204
1.1075645840368722 0.16696729773648356 -0.35690972105624441
0.23525910437195785 -0.31050245348706501 0.86596288701292012
-0.61213941002691286 -0.098084331213578069 -0.13405056695075857
-0.49844177594580641 -0.10814109284623041 -0.4527528333661559
0.46404066663796151 -0.44480334953041123 0.70444829029476752
0.30878973970941037 -0.36954704370198688 0.86377504525036031
0.64350152872674515 0.52641835314180685 0.4903622782129049
1.0025373299315783 0.11839462961202063 -0.3175211611687212
0.1932935940065188 0.22073376565338698 0.68957582456459088
1.1508077779217685 0.32161237727032199 -0.33685350851276663
0.26131078282842113 -0.48630155037205058 0.83554822119634853
0.0085234006886742986 -0.60255807313096477 0.81093442837433116
-0.92514622878282626 0.084521073518121215 -0.49048199164133521
0.38643056030779976 -0.4804168191853464 0.56572466416427769
-0.72104451139777792 -0.074987224378245121 -0.27673620260353093
-0.0018237961028382266 -0.093249262608528283 0.79800178647507591
0.66081897210519269 0.31064933674122208 0.38043901571086058
-0.48414733770706064 0.46330800259351457 0.566003844320357
-0.80388497975189832 0.1800048024073142 -0.33152090704956061
0.25919788291500367 0.04833192868748748 0.51091523756895008
-0.03105951469674828 -0.19453455187697966 0.81141213268546286
-0.58699457848028125 0.72075697494865465 0.3833126599879475
0.62737074010672478 -0.12751800237744859 -0.057641845992152607
-0.55045099163922284 0.55024772712067271 0.4718407740807633
0.65193920990155441 0.41204320474917133 0.47875934851269442
-0.46476958490416154 0.43259432971515743 0.58486399842086945
-0.42747140365076897 0.33991630145305085 0.58070087215348654
-0.066002392437650048 0.1261910616677907 0.74481444578759071
0.29287563548180895 0.58545919179094597 0.62743300229502141
0.18640456033772557 -0.44826604587882285 0.84806941455312268
0.65916208048389846 -0.1519593808977735 -0.32072624628654189
0.67743390204194931 -0.033845005765830272 -0.46713895831154995
-0.9694222641875947 -0.1172795378856254 -0.39839608363171708
0.21213696025661566 -0.55454227069363582 0.89177819173473605
0.9094843216055799 -0.060123592604349407 -0.16290354164399146
0.10296369078931011 -0.5264213148607948 0.89133453551933561
0.34768342102786143 0.23813916598010831 0.62713065596521211
-0.29572722719844569 0.25841814561804399 0.62307393586862636
-0.45626838760134625 0.68010635651475781 0.47411058282840601
-0.46882978106254258 0.48383698314224155 0.57806564778342251
0.53069061790491912 0.45948635323914966 0.56293964935666452
-0.787761174731056 0.46421007793320646 -0.131082779102484
-0.79522248427259923 0.049603851265680343 -0.4851884540837097
1.1338382930526416 0.20106652593523777 -0.38449522590835539
-0.81050844261474886 0.23812242325203636 -0.25282061987608673
-0.061068574000918918 0.063344090853264201 0.74262842675383967
1.1735997006730821 -0.0395382402392217 -0.33259243528799187
-0.74063660826190247 0.14388244795595817 -0.5494337208492337
0.070005154543798298 0.40451220129599252 0.55692493123229569
-0.34337527673696355 -0.17623959788048327 -0.54370471567359502
-0.29648387069046622 0.30091087740963496 0.58977063819638564
-0.69668778557450484 0.51052839110897252 0.14009461663391409
0.30639268581851109 0.31636357812222515 0.64297545792894484
-0.21181656072302513 0.27507229079613271 0.65516586399810883
-0.60277724103696251 0.22949851455357717 -0.71412416375621968
-0.1315328066604291 0.04648400884940207 0.61912933407078397
-0.063232730348505406 0.4425201294140173 0.61132627498780856
-0.14701775809106454 -0.055695363416262245 0.578784041086851
-0.6879140935736654 -0.13884447668768329 -0.28000306903686267
-0.76610273210287438 0.17217709112395885 -0.17580482774306727
-1.1257858722192329 -0.12456335149746506 -0.50519229708293212
-0.05543982510520884 0.75781062083820705 0.43479239133605985
-0.74284143919836465 0.19322054289597312 -0.0029993966849364284
-0.60168635527228131 0.402249501237123 0.47431881127310849
0.20756274065372393 -0.12981567989169229 0.80618414547302875
-0.91113907807754924 0.20256918237325472 -0.45006268412799333
-0.42558317999821105 0.34800010191590314 0.57314435163611099
0.29348115675886577 0.48509571978971677 0.68125051683410343
-0.44939768300068206 0.60343110562733904 0.49608913526840714
0.032144851606553004 -0.41579989211830715 0.54184670519003841
-0.3099089059730229 0.62513954772086922 0.52704935719642076
0.17617608628162085 -0.46182340428943741 0.84426519511562992
-0.64337445231340329 0.56786566421281925 0.19878893451446533
0.17059510477077544 -0.50084296452743238 0.89948611938578793
-1.1061009036587999 0.089346411494398481 -0.57018908316141603
0.14060763133924992 0.81488940361781448 0.5677427180730179
0.43058679341342865 0.42835278077288208 0.57358592578750134
0.83188304230020105 -0.045387079038804234 -0.19881361945082299
0.050000245811037569 -0.38500608211559317 0.51442839477969127
0.11610130418222742 0.56267557173144611 0.63069859961226316
-0.86028198915069654 0.19773061957324711 -0.41138854671041303
0.22447658813150229 0.66916878982969186 0.58080406255699657
0.065860471470604143 0.58897470039225142 0.55808372498793268
0.13656532146371303 -0.4259697583651591 0.87008326031245531
0.31459797009184376 -0.43664149929161433 0.87971627989308887
0.25012049411813564 0.0030373655661853904 0.54045990004243505
0.94785282750876698 0.23853304657451835 -0.28822151282878838
0.12808218136528282 0.52835095457204639 0.65861680989124727
-0.0414747925850949 -0.52653111041982337 0.64090799441986546
-0.46364885693418456 0.27674483110243697 0.55082015179589527
-0.91549678735193574 -0.035118187781189691 -0.43861019203839513
-0.027096775930845141 0.16811880676583479 0.76484942156689195
0.48250738849380159 -0.24695891665470948 -0.45435843280426891
0.032028843913701976 0.1445215414361013 0.7435121417458701
1.0241698425512018 0.14384203546613405 -0.32537826917106427
-0.093610075891222611 -0.31567889919389558 -0.049616046618906395
0.89664442470012595 0.29127199174362495 -0.23318522881163828
-0.20873187584953268 0.45538202327081134 0.60068513760720377
-0.70281998969983839 0.55511619328494977 0.42250105073788413
0.42327825287139564 0.60671361648712296 0.56047841239523422
1.1515971102633822 0.023494790203570926 -0.36793822730826564
-0.35887390441966449 0.61462782577922803 0.51830859281907671
0.0083757896348788385 0.42441731372727531 0.62069699547303658
0.86697540425486985 -0.072818564858214696 -0.23355622534007736
-0.80528444980180236 0.47148773024673207 0.34020821713255867
0.77765765437268231 0.088410236688216015 -0.13564730864804675
0.25108704657278968 0.49849309992333257 0.68828962116496761
0.12004617069500201 0.14590704192256732 0.7352299744633255
-0.043439595913025819 -0.45901436075216673 0.81830505786027841
-0.46169366009146984 0.34058505513518844 0.54646879912607993
-0.31486375826074475 0.48101134266989776 0.63098784099675687
0.63417017019228394 0.27811950385461559 0.42390388002858082
-0.066252386156998799 0.12925162608887519 0.75270152995538897
0.15328150704483168 0.6899561876226441 0.56494947054639466
-0.21114214865013192 0.55044201061760389 0.57108555570339314
1.0983747034763032 0.1046376222573675 -0.34745418047890864
-0.30691842063103003 0.43309266390929002 0.64318672256316134
0.18532737631276941 0.82405418959272292 0.53931534678649484
