# XYZ point cloud file
-0.21209311642786588 0.32154561998087727 0.6688678850567884
1.0113145318493793 0.093109059250219506 -0.3201573395294437
1.0433981590557311 -0.044348896982207009 -0.34154276994895261
-0.5956772212243262 0.23079128684084371 0.51581227227057447
-0.55906590612360496 0.36429698023064039 0.54311213188771479
0.10947360051712174 -0.40300979015408833 0.94268314245735052
-0.61493071037968328 0.46309329884518391 0.46852334811975016
0.51157509902337317 0.64085883015697509 0.21335209333375538
-0.72343430092208472 0.5253797671140108 -0.30412431444792798
0.050152258090541579 0.44005759204170403 0.52873755019900326
-0.74596673805676161 0.52324704459281279 0.12487383321886991
-0.48369502578994705 0.5729808142324464 0.54825281726206132
0.37126979842342323 0.69843408827066611 0.57349867036934965
-0.053169209929210481 0.037303442353532557 0.78734171719473789
-0.11756626575144757 -0.017240569965559338 0.74154399664762582
0.16894271834508423 0.87116472692445313 0.40285957483428003
0.49169837919966319 0.43021373918749117 0.59444125639169965
0.019887312251071876 0.35372814232856786 0.65632986986642994
1.3137956212311561 0.12425179437429068 -0.41196625675022114
0.87848446972111383 -0.075197869634246128 -0.28161648850460486
-0.69944046304047625 0.24558836686060492 0.41159454502201598
0.98259902480231709 -0.10698842189606927 -0.28094431535726327
0.14073784293862346 -0.4623933740612568 0.90623584151557868
0.36463984224616297 -0.4608012955452071 0.87802259080624312
0.67311010206035071 -0.06877410558176078 0.021334263334954251
0.82614895554053813 0.37348761812543607 -0.063160697338497496
-0.088234931092438629 -0.34582863742061032 -0.55671043544483201
-0.24512333797022734 0.44833502603904174 0.61417965749266834
1.1716258442866518 0.29340167684551632 -0.33489795407999479
1.0499307240240361 0.17072589662677085 -0.33473375503345482
0.09900705933128684 0.022847216130200021 0.82931428681506336
-0.68671378819836981 -0.080220032458465651 -0.406915839019935
0.38997978587996052 -0.24579909213250861 0.021910862974583445
0.46057085879771975 0.50920434947765703 0.57928313832247458
-0.017476691707924985 0.065583724769421314 0.83446522807098145
0.28085553298096322 -0.070994317994841571 0.57525324460791083
0.2418709857249528 -0.44470889057017571 0.90196243472356574
1.3109491532075284 0.18613157684088533 -0.37178535713235039
0.38914408003707912 0.47796724493393739 0.63893645669408849
-0.40632002666496803 0.62987244041239765 0.4966383848143856
-0.90500443864871194 -0.030197154998153453 -0.40126658140499849
-0.26881000603373906 0.45450416349746137 0.61468474027522557
0.45480398886916618 -0.67921221972241064 0.70542702813524105
1.1136376983683336 0.27955120290564373 -0.3253200341741711
-0.88001925747937015 0.091928654965753198 -0.4720949606246112
-0.84842130184732056 -0.084620071635562955 -0.31351079455855402
-0.33478382140559049 0.59822335016080741 0.51286309664668472
0.28254024916250664 -0.18915276980914175 0.33136218961139008
0.27413826889306847 -0.38182700812807147 -0.24075252031880456
0.055121059856519494 0.041527982157555821 0.83902173193718976
0.13138899762686584 0.70372685960833148 0.57243112762259329
1.0783056105566917 0.35644922318223626 -0.27936492167460303
0.9403332311896202 -0.14264802138715904 -0.19693224097572637
-0.2907614209103464 0.58848798156150428 0.5526211894552695
0.93547660769983043 0.013558514999257865 -0.30071629505715203
0.26350448911449398 0.43459879058448347 0.68879537262010437
0.52263165199934924 0.50666465950685979 0.57149206905300298
0.066197206922629093 0.55811240486808589 0.61538645832503125
-0.25126985754909192 0.43761554225963706 0.61342670972784052
0.319418084360656 0.78447605403280218 0.41491503842940114
0.9696535588040831 -0.10863241395759027 -0.23935691060195374
0.64029300990978566 -0.1070038202868937 -0.44645370531575423
0.18116283192671112 0.51335439206521749 0.69124434017496617
0.11645984960874323 0.14636779518616949 0.80798669186286354
1.0806245996317534 0.37113693251289526 -0.28252236527630314
-0.51578955245095059 -0.14058492785445109 -0.45710304303698868
-0.79521521574393184 0.054318580093514868 -0.36451246815841643
0.26999618094364308 -0.060231939417586089 0.51375012871666925
-0.19716693354017245 0.48885001723345867 0.52977230081107507
-0.09480157384284027 0.86775360862362194 -0.09871428051772746
0.013169577016277856 -0.14929868775445509 0.85994927745928518
0.24167137820570161 0.39655118024503522 0.667001995968862
-0.13697093402901039 0.0093044877736692122 0.69907429999825954
-0.6141951694850345 -0.084434241724158365 -0.46344381696086234
0.81655960148137652 0.20539381304180115 -0.023411052748713246
-0.28745104100312346 0.61976189712319019 0.42093972338180574
0.29502290682277099 -0.18610799188183513 -0.66069904845540162
0.4513027103409577 0.54440107398400972 0.57324561217998671
0.14061016037226537 0.64122018757039934 0.58934617560017744
0.56594784482626537 0.41514607216767163 0.56399972938608611
-0.52250506170437205 0.6069409881736092 0.41504195256995668
-0.012434390270758655 0.77034046941331646 0.57773882098273655
0.39766719413320217 -0.63472004871280285 0.8279651368105978
0.83971768471126396 0.014492014975905354 -0.28071257304541675
-0.88301981208961422 -0.0049915836760943133 -0.41217044463197272
-0.027439159275298053 0.8854448498146219 0.43308068724474369
-0.090658153228657667 0.54911629252570315 0.60780963944899291
0.1293867905121413 0.69004460869544859 0.46288463449039874
-0.81087897440579404 0.56819999557201384 0.27607852353537776
0.16746979861221334 0.6732886599447041 0.58099278008711863
-1.1148663819869515 -0.13800850269470644 -0.3922231211834406
-0.43142618380063524 0.58711447511181514 0.56355520873336218
-1.1515013324375509 -0.031957747275578985 -0.55693840897440205
-0.13430685058796499 0.67324951962917767 0.34267802045911466
0.4881922200104416 0.3985056374201188 0.5965626395025545
-0.067724638063902276 0.77487472288032255 0.54138119337006252
1.0512981235488867 -0.066184558810671756 -0.34696051366429748
-0.81049743125867835 -0.095576635925278541 -0.28501334251576882
0.22808701747277027 0.69235400073970643 0.58740195667298867
0.67481097186507455 0.045256988567532686 0.16227940326958024
-0.81247747983021412 -0.088574317749386733 -0.16138630768214757
-0.83223944187282051 0.5395727777442394 0.24560744733504691
0.22000001841196948 0.38623311683714112 0.66975022634591852
-0.54462577984485527 0.29744144758621904 0.55647798968040263
0.12555764462168995 0.10839462411117573 0.82841268340743923
-0.77675325563721564 0.13387639532288964 -0.53214429862861845
-0.69772523523856478 0.21366084997317181 0.27973986355701097
0.17805447774920502 -0.50232359966435047 0.88315439671024265
0.0021780583083685912 -0.57016757908705717 0.9290020892855142
-0.099247067976728331 0.013163997525047044 0.75541314555383376
0.049782620782858444 0.62133853251156923 0.59392933460766795
0.11399188802153226 0.66083915767049772 0.58596638741343465
0.067822210970181374 -0.47769681310779954 0.94922001710953241
-0.79116528422485821 0.020717478361607089 -0.38147293734812582
1.0458377605472142 0.36848881699208613 -0.27779484400276022
0.31048443213976284 0.64901328021070137 0.56690007982745216
-0.69140977752191013 0.47687633320800948 0.42275627495630808
0.54801110673169262 0.75208719719837047 -0.078996641778469545
0.0159753962685798 -0.065936395150629989 0.82927435827597851
-0.17503313243890517 -0.1861367902718436 0.43496390575407595
-0.51247064465965586 0.5333730453780241 0.55527343693689968
0.16189212665695685 0.10742550535069895 0.78414588469988633
-0.35048539998466133 -0.26098601058061699 -0.48825840853141012
0.21653919966975366 -0.42545256073409266 0.51773868751683683
0.19079801578710054 -0.40140761312976414 0.93130553482505718
-0.237500454266657 0.59419226806964587 0.42112308452917357
-0.95747877983237295 -0.12527968464054617 -0.31220037689554392
-1.0967508452525383 -0.07799348130851147 -0.52608158312266884
0.84613687179979458 0.0090177897703358489 -0.28700945466371097
0.082439743743567107 -0.68217436960628497 0.81622435704974761
-0.6512901474796422 0.020432380672563699 -0.56246100133353005
-0.34310263414870334 0.82207237083668483 0.4317195254200703
-0.28780066577740371 0.72840588596083045 0.53416192718587485
0.25397273361759076 0.67565978461361742 0.59292865576287834
-0.79702035999891585 0.41133856014730297 -0.25872464283532359
-0.80339292511109939 0.24501578795923851 -0.34225893258180307
1.1628451927007504 -0.025273147163746845 -0.34949334014303846
-0.77321960173868831 -0.071287520558016348 -0.2322973988835626
0.52503614244870711 0.097656119651827078 0.39208132676075858
-0.43744029694047093 0.84351636689050236 0.28369989455867017
1.0614801532037497 0.29541725265139451 -0.37542812257205282
0.18280359372039001 -0.52903252959076941 0.90052117900545126
0.41843513198542759 -0.12395130934108467 0.19579920818022956
-0.051948867891432826 0.15629484523435822 0.79581283697739025
0.067753016613306016 -0.41110986918019954 -0.42490159662355431
0.76835549520929103 0.53957269871255797 -0.24464857496487058
-0.11741165344175464 -0.48093366071937105 0.83907058061925621
0.22049974250673188 0.45637853225470582 0.69375840453641979
1.1610360544125369 -0.025224451773494305 -0.35904562349548419
0.65221019735386321 0.62178656548747346 0.41835031096486519
1.2979882659593631 0.24612701813067428 -0.35148964315010245
0.17489173848268713 -0.29213026862579561 0.89600953066422484
0.47183181878992286 0.53031282924336387 0.58103443419125078
1.0897807626638452 0.12254843093893131 -0.33731786739351088
-0.64749929847710064 -0.10685611581014287 -0.081673492509747092
0.16203209454567435 0.099513588828934019 0.76774163233781856
0.58112324628171486 0.68418871489448208 0.45391386374553466
-1.091514411133339 -0.0047778503508530967 -0.58548122039548378
-0.28082104784793849 0.74220488894737713 0.52179167173309704
-0.13575281717583998 0.076972809081988336 0.6899066433150578
0.12905795753219707 0.64935226939185253 0.56878724316185281
-1.1792857107874575 -0.15452347007991873 -0.49304254662533253
0.20988048193683007 0.57491980413550192 0.67926085270762737
0.10406323900236636 0.15850001031497452 0.74517901849698109
0.28094802678554842 -0.25847877643941719 0.21634359514200785
-0.11342237218398665 0.67354704554691591 0.55552852390080165
0.11694185527589163 0.90769670245230705 0.41598026832861734
-1.0907168260583564 0.096399926072058051 -0.64288971764485803
-0.84901249303094772 0.057444839250697433 -0.43498141026422044
0.18519548962681576 -0.34747583181862485 0.15653693890110087
-0.71288778151859589 0.481091524076527 0.41301679536775548
-0.44437200254239784 0.63755177251814765 -0.63612317238322991
-1.0374936171429816 0.15982645693059117 -0.62439727912630616
0.24722731184852265 -0.41438252577143442 0.51589513673803644
0.77388263942791546 -0.090228792490307574 -0.1732589516359373
0.28782992054663303 0.6019158318729656 0.65582954534853588
0.12164644048809414 0.44157888992087657 0.65214120493557104
-0.63982410731637884 0.67454201317194862 0.4033295303911828
0.42721495209598359 -0.56869603006437686 0.84181668814348587
-0.39365811005358964 0.096946663105049735 0.4947360020292253
-0.18149172620407761 -0.18300781935144017 0.68330168459328089
-0.93010339403524789 -0.03516335614598276 -0.52768607255941058
-0.95775816243592438 -0.00062713243461143264 -0.46738945938893739
0.32348749121331366 -0.27878017610372097 -0.55573162457673364
0.11621969901254658 -0.6105361319561472 0.92865787759907281
-0.62236553040855114 -0.14313168101282647 -0.30324222150645674
0.53170632134023421 0.71824744893316095 0.4829444706753443
0.08069528816245608 0.74056144448494243 0.56293395367152721
0.26277761618938023 0.2451107505416692 0.67810394794741313
-0.16164481271541931 0.66124519238342105 0.40338005903652796
0.40210309323722093 -0.54733591228801326 0.86289394944822284
0.68001029644529964 0.41278718521778912 0.49294343695309895
-0.048770242209439374 -0.62962262385550471 0.87026162735901158
1.2493109259393158 0.0031470003223932341 -0.37017742656142483
-0.1319465733178049 0.66718168718612669 0.55349664635117257
-0.547525849319765 0.3102324069830491 -0.76155952772736146
1.2807140180044341 0.32253412098405732 -0.379507423417762
-0.36114965296587265 0.52603457019553845 0.62432468397382035
0.029142529395622674 -0.62031789706278573 0.69883404318442821
-0.0062617763144228178 0.78826251941133374 0.40055402194825263
0.16695533200970658 0.49758012156306042 0.67397440749575033
-1.0257914842467102 -0.015404955874248838 -0.50480403174909272
0.23607998491975302 0.63743788071673446 0.64424634974542672
0.6065223646054605 -0.13515670642259758 -0.018363041337697172
0.84379055866248276 0.15188747245289158 -0.19098516432208168
0.31467933413096638 -0.4965409189636496 0.88686536693756457
-0.077659840310404959 0.14679651452778075 0.75966094667131134
0.33895811076734006 0.47557247064359975 0.6835778979445406
-1.0487953430213963 -0.12437680156074116 -0.44811463764878345
-0.25091383811543544 0.5600471627914092 0.50955774951397537
-0.73454584936346201 -0.060865229021743295 -0.18005764530573654
0.88635650193199034 -0.10992594016445301 -0.22028280993074922
-0.174928178774028 -0.21497000517380149 0.61101403332340976
0.69841278811549223 0.48043477471874807 -0.45369640221710172
0.15119570728605147 -0.2917744581922963 0.90100847410090701
1.089881690174594 -0.080754079924241662 -0.31352059437341007
0.81378674109198812 0.43598131333546153 -0.22672983095924959
0.51220912497956128 0.67050131555712422 0.57855889606709177
0.77937656590555537 0.51379989098807766 -0.024722052495258051
1.1884729020302869 0.0096923833217288369 -0.36798691295960229
-0.83159833269600369 0.056786596392623956 -0.41741888496374457
-0.2139890563300888 0.69008226795806427 0.55178096048902159
0.64041267465797702 0.20221485217198998 0.38784155683258614
0.16317494163354596 0.49200898924643033 0.6662149763536247
0.23178668996875196 0.67603226365595392 0.58784192854684481
0.60836470050967328 0.04120659836089513 -0.58149853183388522
0.35119958502261639 -0.68075924975168689 0.6655534002174055
0.14149665290988089 0.41713093717286798 0.62958051583581742
0.098463489004288363 0.63675762200019004 0.59033239987977915
0.40407589324885507 -0.37847909739862007 0.80746064523325423
-0.26213472592404052 -0.11551766274621511 0.3718891130744213
0.087923269448721086 -0.3321495513792041 0.36082044209615294
-0.27297716479073486 0.53412149213285609 0.56731481576972698
-0.6053502019088377 0.70651793395355633 0.40843178944382519
-0.65825087350599709 0.58051632313204848 0.40793214621386475
-0.35626963453182015 0.35980968307368499 0.62779122909697449
-0.24127329024429933 0.43428319768034807 0.62571967036364207
-0.78263123653539246 -0.094483469907630901 -0.11828803504671015
1.1019270251096769 0.11057500889555683 -0.34146100425656556
0.50851587755750316 0.481352196413942 0.58119669669291829
0.31495748097114884 0.45499306787694405 0.69350144644610889
0.15028232453934187 0.42220580340051406 0.66292217526101016
-0.80666996105438038 -0.095485788673372429 -0.23550528148053296
0.85725938456683881 0.072033191275679531 -0.24890661294747307
-0.12444061736234424 0.66870352865136606 0.47122291735528066
-0.16730209034016674 0.12211133820604281 0.6786109057148364
0.090799210765135641 -0.33056775620725642 0.3907204440101788
-1.0971043482546801 0.0993507884275453 -0.75469497333686864
-0.090568630398387029 0.12005561692884492 0.75813231061394859
-0.82912603002624685 -0.096753601939671086 -0.14533310175231673
0.6950194924381865 -0.18343158216374333 -0.29025466132052635
1.0875484543575995 0.19007972710107968 -0.3514510298666309
-0.059665156329154811 -0.58131454223427992 0.89114451951365581
-0.58026920320592978 0.38745913866832837 0.52643906553347897
0.12021899722623175 -0.073987773798479761 0.82456749489344894
-0.18470520952775793 0.021709795492821593 0.55755325334106232
-0.40453975626414973 0.32624023552753445 0.6269824365760357
-0.029860553697812264 -0.34536032148948026 0.27378328055640555
-0.55169223189620809 0.58784421504544659 0.46639787203864991
0.8304360920609728 0.37056620942523599 -0.10336903642921191
-0.073098925678596771 -0.29816701809867752 0.43685521184086795
0.89254010927388183 0.087767509367561614 -0.35568334191568152
-0.61902808140520804 0.37787366933743072 0.40475225892051991
0.16601829575016147 -0.49994082818458119 0.88571948019927538
0.34692016065902642 0.48885864299048198 0.6781357008859259
0.17570110172411901 0.6864643077232111 0.58052466527190871
0.41342296182528315 -0.67150457799013885 0.63031012692384225
0.25277929172331959 -0.68988477808392634 0.81223259329338804
0.16968120096642103 0.50427586233558053 0.6851710744088253
-0.74736265287426207 0.053773609920417575 -0.2598101866537057
-0.26595246262619376 -0.15952695639310743 0.31753145676625749
0.20832913283831722 -0.50842527032273599 0.87599120564371402
0.056837461883604945 0.031653305209540905 0.83667332267620154
-0.53492325621400028 0.34007859311435307 0.55842684221748495
0.26364521970933019 0.81621165359331571 0.41129476321870539
0.62873182300581831 0.48759946960614164 0.53551209112859421
0.15243082454649581 -0.52614761066892579 0.95365317120350923
-0.81390671624697219 -0.091087451754418902 -0.208580015983439
-0.10929057859280711 0.65137913408681514 0.38990981972892413
0.1657240095178647 0.083637811617456981 0.81139367474260382
0.43164521197838823 0.087621669621788634 0.49137442349383242
1.1727334604406545 -0.029194652195339676 -0.33728816749204826
-0.40949508546185065 -0.12413201737649038 0.15221448393936665
-0.69694082434236115 0.342179183794729 0.45360707240926956
0.46001988026722884 0.38866295768844439 0.58153832191421362
-0.32579406808379474 0.12669607056743626 0.60148993234145376
-0.82781395473937991 0.10554738109114004 -0.39435740096969418
-0.30302916441040928 0.048470537334953878 -0.79682669257907968
-0.022438301616329426 -0.5726392835171743 0.6767786022515434
-0.52769983364428796 0.44987953102742639 0.55302524098728512
-0.63540084864798629 0.27396394775992094 0.49796642807939318
0.74251160345190925 -0.037904184538641195 -0.081071832204367755
-0.45151778343845805 0.86543801059658287 0.3401537750315482
-0.44442762396927193 0.42400519931656144 0.63702849695890063
0.36363214460453364 -0.65620729125185906 0.62337553107259236
-0.33380668258933355 0.43047900890220903 0.65802079913396216
-0.058646387185371296 0.082597905846066189 0.78986564389201508
1.2211786013546622 0.36509048672417754 -0.38057554360677637
0.35955945750406215 0.5754144553927738 0.61526434144487929
-0.15560451504419959 -0.038472504223803661 0.68365699225439069
-0.86991306211837127 0.17177718191135605 -0.4455316857248155
-1.2083639092134657 -0.12619267375252452 -0.56106725351836539
0.042298774397055539 0.14055639826523225 0.79849923764750041
-0.90805512155518109 0.10002503380033168 -0.50773261134815906
0.1270030316255486 0.15798131911250923 0.77918519661149865
0.20031187141533913 0.46426665381325916 0.68484663840018367
0.35627572173601507 0.65569751197880155 0.58131383264912007
0.43060234863428803 0.59983279069645201 0.5747161944086101
0.1523917794698022 0.12092176130141374 0.76823075650555239
-0.25622593972736851 0.64321942349929495 0.54983010002623178
0.59620285176315058 0.6136614370887028 0.16090891461285839
-0.5982805115569203 0.75075553418992236 0.26938634580010046
-0.0545395917573952 0.65907857892311106 0.59628672982135456
0.62959085768298095 -0.040903022931753963 0.10791798318772106
0.00048113072144495561 0.15239740636435828 0.80874107159931263
0.83450303114822511 0.10502795724455938 -0.20549099562617279
0.34163686042150765 0.44748665626187312 0.67465967369013136
-0.82841237069875007 -0.094682250141657764 -0.29525648345541899
0.25342583998084578 -0.48891187423761739 0.86370651366028151
0.060534266627330524 0.76563167064337589 0.56519716760553473
-0.20739149026153925 0.69877555139974712 0.53251783048388468
0.0062732445347055688 0.93158490587619891 0.4891758400185382
0.12016274696036611 0.13519239992969867 0.81580867528765122
0.36634073385150501 0.79485026804168513 0.47585592168458568
-0.017339802539893867 0.16632698420321423 0.76199319585331793
0.36619855484746289 -0.17927827707143984 0.18910885905040686
0.16822260801649769 -0.34292427568215222 0.44975110393393258
0.073278404149785814 0.16674697830425833 0.77802222597537352
-0.62943555182988753 0.54103391836539494 0.43093449729315658
-0.73649102162809577 0.30492054479313158 -0.56642742832098092
1.1311401132750012 0.11328558646827225 -0.35238015837919612
0.059863420332602502 -0.41899888895508863 -0.042058955289980382
-0.34534569844253937 0.52798859764964168 0.6235243055199815
-0.26927773662831278 0.11664211852954764 0.61826834389967011
0.43409029143070121 -0.28156124838648466 -0.31895251010346648
-0.52878439082116202 0.60248803696734132 0.47405490016294571
0.077067448558233664 0.91300679874675494 0.41021605740843725
0.72913399808063417 0.48577717547704524 0.15388241386277413
0.70250644452284572 0.30895860695484245 -0.51760387514398509
-1.1806189954310859 -0.15139174878578499 -0.52452382004716602
-0.58838663011649039 0.50850375360255629 0.44053202150827264
0.18374519558744673 -0.52043390118579225 0.93589844377128584
1.1768906678754405 0.23427528319401514 -0.37895914302425915
0.33448839255382978 0.45717621025185307 0.68513941597253813
-0.30134522263651142 0.58041692788906807 0.54770489988131565
0.37975227399474321 0.75588168119169175 0.41774088117884345
-0.17530232271810497 -0.053661967769456531 0.62018435113390069
0.85642187276291981 0.11588928429564649 -0.22304467084474355
0.40110504921362278 -0.5064684542735336 0.86030039817825621
-0.76263311926745381 -0.027525705041110404 -0.27422204630132185
0.24376740885349157 0.79760514441510333 -0.43615113645752146
-0.6285568064364444 0.50742853723046588 0.44419058685856694
0.84288217304277868 0.25163617024206619 -0.11926036465221301
-0.60462001869149695 0.42937396726849864 0.49379172976371866
-0.79861685477436772 0.24279899997042098 -0.031726739358507672
-0.45527831029957788 0.49744564145098713 0.61075782718051208
0.95492646174894347 0.05878482239141225 -0.30500038467358559
-0.57873437329844357 0.59760644135118279 0.28650244281912141
-0.57756932897191327 0.67132598244311725 0.42416035251486672
-0.87062210578139876 0.053922398680192218 -0.45045669024303336
-0.22792543580469626 -0.23135248337862646 -0.62891777758622691
0.19540502791529946 -0.25469637342546858 -0.6502812893708847
-0.65951274542817018 0.50902352921660321 0.42570551948351909
-0.2238488639543128 0.41057785841257544 0.63408752337729002
-0.77131427576786571 0.12564363786531518 -0.079767957600038741
-1.0323990419336777 0.13119071150432959 -0.61565410794112729
-0.76280227202427575 0.49173723428983807 0.38947244153828464
0.44144776911633343 0.45265438198098873 0.59349841446082108
0.063144512834654165 0.57775256754144166 0.60919191637345271
0.54185579269797124 0.68314051746699489 0.42070612148669895
-0.33794160420670849 0.095622481653111047 0.55498407079087464
0.10467393334464603 0.13808425700932037 0.81651214876383538
0.38151500297751006 -0.25099631603471861 0.65299323012889099
1.0112288484792824 -0.03400512924882948 -0.32285530069918567
1.111931385269866 0.30008025679203731 -0.3130433339096812
-0.8137430489256996 0.17359355626049267 -0.39133706663582224
0.60088167710068774 0.44828454182214017 0.54842568771724753
-0.60752682758793419 0.39851699266440122 -0.70965490212770277
0.5990263904130515 0.52960923345916955 0.55012166138810059
-0.32088128293249696 0.4804326163431234 0.64792454152788537
-0.59409416336381859 0.58053318800524201 0.43412580835956938
-1.1622950519882398 -0.055600583909988455 -0.51907855040839301
0.23819067416157402 -0.25212173062880039 0.34216342346264206
0.23599711675694124 -0.62448873185974707 0.90192397573534455
0.1470651493136117 -0.47439593070043906 0.95230284101175933
0.059459702601566633 0.61115346120413183 0.5130402446750093
0.024526548223001043 -0.19911829286748817 0.87805592407063049
0.38350559525628292 -0.028448420068324598 0.36455275181970137
0.15073479663651668 -0.49968982722768107 0.89423907459215046
0.33029012985150352 0.54212997570405919 0.66905168245079549
-1.1471899560044587 -0.11905579990610149 -0.43782368749632505
-0.26183333546138599 0.60505689510360927 0.55063752724257053
0.091376284203363412 0.522557446384599 0.62667519784369574
-0.9187161524047287 0.20512868026288622 -0.52025092012046015
-0.70666862112172701 0.31901190703771154 -0.62562101352387112
0.20263017632007063 -0.071269735753654473 0.80061828081706832
0.474924031558837 0.12605859878321524 0.5248850750753058
-1.2195995334224818 0.013752685779411022 -0.68942893912550174
-0.21727817474943656 0.43754500640455363 0.62308423111478906
-0.66803253205361557 0.69145187984640377 0.32454447213539606
0.18812294059487833 0.53035607149959008 0.68936008910159874
-0.80089119921989571 0.20062161268166023 -0.44583817500023404
-0.46092269549981602 -0.20786824935279213 -0.28779014575113493
-0.3004451397432657 0.69631352841583727 0.53151007152765928
0.025879431091345495 -0.35426889946507512 0.4741134585607476
-0.94839383748489858 -0.12235368294619064 -0.25762579383149387
-0.97940049405001695 0.098984299619460314 -0.58965626815262606
0.61012067553038385 0.15086720953316735 0.35876927129962954
-0.86354224555035763 0.18559581626106314 -0.44483284777286958
1.0525965361650593 0.35923403482332672 -0.31942838123744766
0.4235656718448606 0.51305778832177529 0.59435865240961583
0.14953045170307178 0.73327739824033156 0.56183766640093635
0.92855863608977351 -0.20631059923240769 -0.28311557998893377
-0.16755957936132226 -0.30831023220693199 0.69506925802845121
-0.5257455190252216 0.57590103480623323 0.47085893938413825
1.2247553933011286 0.29006760167890033 -0.33159364182496942
-0.69005743520256857 0.51329314985815411 0.40865354562824496
0.88640399219566568 0.11483022687542643 -0.24764880045865079
0.036046809327757501 -0.25082445161059974 0.89576879572900125
0.35017517358567041 -0.69320031100426216 0.73742550941333462
-0.35117660623766511 0.35154383416595403 0.63855551639859431
0.13404067261164521 0.14454651496432525 0.80075785366835994
-0.80562156254543638 0.35481770139650903 -0.14224376443338915
0.14146048211331852 0.13973001657635797 0.7501376207514312
0.19488725222852921 -0.53572015577170173 0.89778059865312843
-0.42080397593715624 0.73674933912110485 -0.4805751182107838
-0.30415967230573671 -0.33659478859685765 -0.2803984332537599
0.18674564491813861 -0.14910747159380255 0.84170147667280126
-0.36475399178479151 0.41196380249335318 0.65792198363071286
0.14293125111658256 -0.44834195386866815 0.92831470757069656
-0.33046750398121993 0.71612794819667314 0.51564529663291747
0.30307940493243457 0.13948508558879191 0.62600025449264862
0.6118128170662942 0.57701086831444992 0.54757973988735698
0.28701223395288622 0.37556136753790259 0.66031689645293223
0.26397462078838885 0.63886328132984471 0.61501388664128376
-0.16162357276373029 0.48279213888815375 0.60568243451446335
0.57457752968114306 0.37464227995178723 0.56001862202653019
-0.49305391934519172 0.63395977005390969 0.46625707455911947
-0.17128995324035756 -0.27228314738843862 0.7241565111531445
-1.188170405938628 -0.061535458203796578 -0.52443105787446109
0.099201316592708366 0.51903643873260119 0.61126772595914769
0.14196852074886124 0.093381343258420069 0.82808866062655628
0.079378740227481259 0.66774566086714038 0.58328571016351916
0.051103401218369982 -0.33503514571412052 0.42358020087338399
0.63018420392057628 0.66637143395022536 0.52557114180936537
0.23040672450705024 -0.69718906970591765 0.75961367473926167
0.03193949018332809 0.14372868194243948 0.79672343160376702
1.1186867538457328 0.37806265467961109 -0.29648074931033719
0.27269722645652195 -0.54200030292000556 0.87588344088591752
0.61305911450981299 0.70866736164021948 -0.13555421035188786
0.1750558410834202 0.82614403337185061 0.57430193194498491
-0.88205836581159858 -0.055027084523593395 -0.3617415426416537
-0.51921670422479949 0.8358438768074139 0.37844303327606621
0.050407980955020193 0.1518539144260509 0.75933318871609945
-1.1166438171848778 0.13454404499390016 -0.68116380655298014
0.78526686103621213 0.45961192638433879 -0.33918288991491874
0.17592668512999943 -0.39735469559991388 0.49870956064051786
1.213763263191554 0.3812895088411612 -0.35822894638254166
-0.7982560845998723 -0.089818826340482882 -0.13912946948533733
-0.57419906190167325 0.60551528033704116 0.43171031460428555
-0.6277033901122131 0.47826094825337928 0.45887681517654677
-0.87412214794145271 0.11144005011112879 -0.4551119656707483
0.29856259831865373 -0.5489752832018916 0.56392278674944585
-0.8855957467441069 -0.066092454967141112 -0.3494763976665709
-0.91611553587980232 -0.11246006610577175 -0.23978862521077282
0.51936146076116962 0.6899098836644777 0.10224303866882289
0.19777796984023155 0.40930958995094113 0.65914014535942211
0.012787602328545589 0.15880965100565492 0.74776901407553886
-0.99084648311282209 -0.20097532065967627 -0.32158909362105526
1.286124065944227 0.2427479492490201 -0.3426682147549025
-0.17561183660139434 -0.35841336214255426 -0.46987234812807932
0.46084371008350011 -0.26282864706240483 -0.23409164710131458
0.092020097555428393 0.48573530996917325 0.63828252785829154
-0.74188340544938569 0.15559454518674776 0.086785029813770898
0.13680471792073412 0.43362614072128136 0.65803146678118196
0.035617507129563464 0.037812223274599877 0.83633253509473615
0.70155036713693697 0.50398990842703739 0.32653252432906932
0.25986240742029842 -0.3856515864232517 0.90749104740498421
-0.52133519565388475 0.51762822844374279 0.55448774494918585
-0.25439159147767398 0.42641420601881075 0.61994048689076031
-1.1376879294161686 -0.16970601702913823 -0.42507701477251247
0.41585918511424325 -0.68802511543995015 0.69773152454633758
-0.21748110369428097 0.39246299277145402 0.59424657603652076
0.48852347781310179 0.22399771497186483 0.57729197186355607
-0.44778951659761468 0.62079585652577185 0.48252143123302638
0.30703315882997373 -0.57943432662039007 0.90508248980276784
-0.18631022706172295 0.70170853958335866 0.28398895610113506
-0.034521993028981512 -0.31589815568338953 0.43200074094198282
-0.85321121187492466 0.51920079230202476 0.27274909842658079
-0.88360737428609681 0.017093334413816663 -0.43203372273465135
0.2951177042225801 -0.31631842141100042 0.039317217631485768
-0.64740753896352743 0.47660466036014415 0.45038123725309731
0.97180832907260495 0.2154928029004366 -0.26518566240400343
-0.11896261467348346 0.72907257142260273 0.26462466559863795
0.30681590636093503 -0.26155030176856187 0.83445733814446044
0.29014344241327095 -0.50282635028337075 0.85193460545945809
-0.050760783391194053 0.85172617689461028 0.52544800560991645
-0.2574588551127146 0.26592753261610347 0.56901280408858756
-1.0238385592202839 -0.13277624417513612 -0.32470542285390902
-0.39177783658874787 0.77346585674914392 0.48421292547752959
0.099689887059627225 -0.3594327545921534 0.46072290178777386
0.33058283958290957 -0.4769542933655635 0.90220962483018186
0.56067826757779571 0.71929847985478967 -0.32673648850212045
-1.0875892861387495 0.15962239661574174 -0.6894250964801163
-0.15048329250041448 -0.33307388339624 0.79070180998509443
-0.17053164777807517 -0.066683132624190344 0.66128499328043322
-1.1104246543841736 0.061965134826684309 -0.64038904979860378
0.31625217088069846 -0.35133893182912224 -0.15019247774032962
0.84416277876109636 -0.11167055534043202 -0.21679949706420265
-0.38128704419999515 0.50930294893356143 0.63105287389635922
0.62729077453464122 0.12294934727471385 0.30169597803514048
-0.35850367976121333 0.62906457139737926 0.51602312468649014
0.39611742148927931 -0.48291453689438535 0.85990338622550011
1.1621584612168379 -0.09703762746192357 -0.34871961883302971
-0.51889169537114377 0.36354797479472767 0.56956145972096639
0.13719942258147277 0.06076367714549713 0.82598467823676014
-0.39463069133887707 0.48160385018814145 -0.78275636179452368
-0.91411993317815465 0.08940649415851909 -0.512847248775679
-1.1089257444548561 -0.10528788782321663 -0.46657995816628217
-0.28592760094992542 0.52921784691386375 0.57517099045264075
0.6394645645236654 0.6121635386570472 0.11819045936291062
-0.091822466459328567 0.65705735109355801 0.41827632731618802
0.18236274864884372 0.47988564888757579 0.68006574139336484
-0.60008267504574597 0.60458753435516077 -0.061002326166833321
-0.62978401278934193 0.49304900192866108 0.45042263783310332
-0.58221075777013098 0.41617040569328512 0.50811728791474664
0.3776913257175103 0.34412404070059366 0.62792993580964662
-0.22685742662606145 0.72740493971727282 0.46531323930979429
0.12339906017796487 0.71405692794660824 0.56707813175482968
0.44884215199050281 -0.52101526488167971 0.61196669075430332
0.21603884628676262 -0.19180873694231981 -0.6941917618626956
-0.036644854794113613 0.061605580606101995 0.81560738575376934
-1.1579762080135367 -0.12784763989751524 -0.44304920313594787
0.36138435625609766 0.45194043202616374 0.66177602462724439
0.98458698395560873 -0.10475752090735413 -0.29169465193572508
0.33949022815428798 0.2926008179239572 -0.77993549957231112
-0.26036475932159497 0.32812034802970369 0.65252323684801361
-0.4621685634430257 0.75134541018381396 0.45151211422604565
-0.45638639713863682 0.86345349293502949 0.37201327311279275
0.67487694597284964 -0.19563170405925168 -0.18873984861231463
0.89685060101933711 0.023784570715129183 -0.29512731887887256
0.075276811929938958 0.55807534136927406 0.616960871982287
-0.43192558040367324 0.72488731939375017 0.46062058853595733
-1.2204599569213634 -0.085535665446399234 -0.5569307294244723
0.76840587758865109 0.51416299306975399 0.022180799491878567
-0.21625952163491746 0.77700528846598504 -0.5064120238264973
-0.10405299127607748 -0.29101004713595868 0.50963625653692723
-1.1703454921713927 0.075843997575154143 -0.6598640312593993
0.024565878905102423 -0.35366542571068549 0.26747290870550611
-0.93233442993182436 0.13195746198460534 -0.5271538614549871
0.88774022149985132 -0.057241381550385162 -0.2880180305694271
-0.77499143599428955 0.45364582962519617 -0.3319199094574925
0.2803105590240218 0.65831425047130443 0.58645322318458337
0.35624556649355732 -0.2319931867103675 0.7574368774224971
-0.43155242604061961 -0.15590351868217089 -0.5511537151688275
0.83755068281778744 -0.013314083780070041 -0.35148818488233768
0.093801369497159115 0.41453410939620206 0.64601168876094928
-0.61079178569682746 0.47742369913569105 0.45793430666645385
0.20192654269645871 0.47340645731105835 0.6953901349367082
0.30657244238398107 0.57165336279060086 0.66532520031798059
0.11644099186454504 0.47683843223927669 0.63667329699282327
0.14021971190833682 -0.45447751756459398 0.95053380168055313
-0.60994828872275164 0.64517584922515758 0.41820199463574781
0.34846965471874647 -0.54171685660455582 0.89749058468128418
-0.067960945862594713 0.074771003220983623 0.77708006713033217
1.1306785401864152 -0.059425255682409972 -0.32596482609960109
0.58382458163168316 0.66521362832474695 0.42140659033713401
-0.25753425048388578 0.55788632728000564 0.57173951917199961
0.56004591364738232 0.62819733399244426 0.56641960387825252
-0.56730295013783838 0.017352315834118004 -0.63171088308609624
-0.1923549234804014 -0.21378448742000966 0.36495170688228207
1.1736111356570609 0.3144759602223377 -0.32548900506506584
0.21459144607740832 -0.33381569551119461 0.90135703467607486
0.12211357088246011 0.1595080755943834 0.7451330641839693
0.084945614469877029 0.17044179037773111 0.774622473826442
-0.55321459006123064 0.37525649857286547 -0.75323681166052392
0.36755157529103855 0.3740771724150842 0.64433600273793701
-0.79026148693664311 0.40220937315585248 0.03773694363461555
-0.50088039505708792 0.12917104032752458 0.44873186181210833
0.82190908559647813 0.0017413496518263738 -0.27141083537608557
0.32488131686847588 0.69857153643812686 0.5697346616076846
0.063088045244450441 0.16353262961288451 0.74316084483890776
-0.8829935841121106 0.061746451909347577 -0.46512425153831227
-0.95035933244429316 0.14304862835384768 -0.54436187083268406
0.0010069384852187113 -0.39784874650762525 0.077146365649237936
-0.70441999910917907 -0.011004280135664901 -0.066758656413533402
0.30370759798447899 0.43871549409332977 0.68968930346223845
0.30808218821095501 -0.54527558018223277 0.91108090509218842
-1.176519267842437 0.025970867271535303 -0.74297241269833192
-0.94735982301155275 0.031951942372520747 -0.49105373682935261
0.79533041073687016 0.051315063839675767 -0.17642196240429753
-0.53140771834372025 0.25276334225028463 0.56275472946847227
0.54968766365771238 0.62440220913008204 0.30429598284138004
0.12020589229944534 0.41267024565391663 0.65263224313081736
-0.36678810293365061 0.65941924437694688 0.49676653921388692
-0.10905062455203129 0.80066296989588093 -0.47620828761374367
0.031608347469546771 0.84005928987362455 0.38321525455931127
-1.1351082360325595 -0.07967586016345507 -0.55800686399048338
-0.33812016660321653 0.54751899877158872 0.60037162331567906
-0.5452452317961658 0.81551129570702163 0.37131116708839063
0.43278561828338269 0.32588608420911136 0.61766139105059947
0.098249192386465012 0.48848864178073437 0.63896493667263865
0.35444724055731847 0.14808183649248319 0.60552270346206249
0.057605446323352183 -0.43281055771345023 -0.15198900140296256
-1.218405603101214 -0.018252168565785265 -0.69713386332009408
-0.74434301367287148 0.4069560721317147 -0.50259685602982263
0.54764634487638908 0.64129702151852452 0.34652335390949895
0.14056357180877832 -0.67295070355898667 0.86072604291796795
-0.30930200901479488 -0.32382448046332679 -0.36192451005777215
0.94544396978095602 0.17611189118546466 -0.2651994244478515
-0.051341021781727392 0.72124381680103622 0.58483418895290118
1.293975975103189 0.059457871707633281 -0.40333198778821622
-0.78934966813057628 -0.084251965176835641 -0.16604031170713718
-0.9381339557898869 -0.14034515077678011 -0.20941702455947464
-1.0487456331843532 0.17953284418265025 -0.66864538457847367
0.14892903943409586 -0.48546117951727252 0.89043834950515155
0.20005376832575017 -0.4048703153761648 -0.15204292789722018
0.15631005397993647 0.51988426222346851 0.67361619936860606
0.091004416497144192 0.15099804742296197 0.80742543397407385
-0.025621022191685938 0.86929626957671591 0.5439533076617642
0.16079774724790674 0.25870486440714346 0.712326262082839
-0.42803711698155489 0.3442025125718029 0.609768537316695
-0.39178154639086316 0.27856428639096409 0.58581159893202717
0.3600454284909933 -0.1996695669020232 0.68030162173312192
1.0444674842067245 -0.11254066961300202 -0.26994805657580656
0.38398413879385629 -0.67670742829898489 0.64664266833568185
0.45756973674158097 -0.24118475370593662 -0.46077858419795703
-0.55687789788448683 0.48811327956625816 0.50489005742566384
-0.48634601597588478 0.85980933962807549 0.32491302598063587
-0.39249282418177067 0.58382737946367702 0.57392318269546827
0.087773182066813504 -0.5341978295974511 0.58839629455167408
0.28523741535881086 0.43176619826134921 0.6869672038435759
-0.67391487575313214 0.30748807516072385 -0.67157728390024918
-0.49029805829710504 -0.10219558929250483 -0.56101570365451092
0.37372785907500194 0.43841910194181777 0.6522652858153859
0.84159388043138161 -0.03835766336101587 -0.26051555845994301
0.45063545908050884 0.52538367924368967 0.5720345473752948
-0.32526781451428555 0.32564227703738124 0.6260168360266718
1.19037584576588 0.3712282527404549 -0.31881166226651603
0.92234488542231485 0.1342425221218162 -0.27121296202481426
0.42950442235524733 0.43340393523438459 0.60230040057608081
-0.64157866449945544 0.58715415200090137 -0.40156971032249977
0.16476271353085714 0.065906304510973124 0.80684094091773151
-0.57370534618982205 0.39276403641829805 0.52886025690819416
-0.77810194736480653 0.59444269005210093 0.31074245515971821
-0.89141712603577794 -0.13136351876236518 -0.16660519153603914
0.29311577904505093 -0.59485973727688912 0.90282148620260649
0.12692936833774304 0.49800276979232616 0.63653866153800642
0.29835653194143852 -0.51040716721434387 0.85908281337415948
1.0040117794543741 0.16036476336750605 -0.31639238017523752
1.2295168078054894 0.13367376443994972 -0.36828976321369788
0.45406020938942326 0.66883017224995123 0.31328169146057805
-0.85832419918685154 0.11443936163061674 -0.43029737394745116
0.40095270835193908 0.29868955617070014 0.59171887277648505
0.21954431766833515 0.62750664625661701 0.65373863208332894
1.1879787699106128 0.007289273724534473 -0.37788895020983837
-0.13975001256245179 0.66169768709404786 0.43834537353838421
-0.80967034577293795 0.23106198988649806 -0.24300079671791952
-0.34054896779943356 0.32785575761460972 0.63974926481387051
0.12942776850373683 0.04569640621448956 0.82522941741697853
-0.44810167628904729 0.41006903604269307 0.62469450140469629
0.26528707248150774 -0.43009063471381315 0.91115877575589099
0.78321700715175879 0.52610321046374198 -0.1770605509271661
0.26400526268387026 -0.02729272486029366 0.60059668267050093
-0.45947482778638715 0.6554519524049951 0.30819795165413133
-0.76868684012587707 0.23819595633563329 -0.48104250571579676
0.1336919706602302 -0.5690657173390663 0.94607427615488282
-0.98310655330870489 -0.064145750575868687 -0.43732297369796092
0.71519795566631039 0.56581687275962778 -0.34050901869026884
0.88247846982167921 0.079321211815936321 -0.27100864696517668
0.30662526522807276 0.46668920153083837 0.69562863165621236
-0.41605069319363785 0.54658449713848034 0.60151458091707077
-0.37990284481132264 0.34418401561740675 0.63246396501575131
0.13221589188101213 -0.33155852190700896 0.30828844257964505
-0.28448220302750116 -0.044868706147225934 0.41582932100987691
0.25959207724455702 -0.024330707918277295 0.52353266255638964
1.1548392071534765 0.14096763413511471 -0.36290094786852745
0.26573284328453184 -0.33669788588619509 0.88734530054706751
-0.70079769848193862 -0.12379820235410532 -0.088660909647149566
-0.55794539165407286 -0.12883023065367105 -0.42873906026533604
0.48115062582310486 -0.50013856600207895 0.68332603649455237
0.3443566495465884 -0.40188001665800188 0.87360976815500591
0.69770640500722614 0.51966839663781728 0.48711489349497894
1.0363384435779066 0.095937471585981537 -0.3267616807273841
0.21699669848126923 0.20950960634029481 0.70075869482802755
1.2338846844870384 0.30729059636776057 -0.32871326231143971
0.27710982178822086 -0.5183010322767192 0.85770462764386979
-0.028557093011780665 -0.62077902750488068 0.89430497166401146
-0.92977835674979126 0.090382515530120555 -0.53254122147647642
0.36463905247718742 -0.53768808421989789 0.55817154999022733
-0.79881153172634178 -0.095092835636157336 -0.24689646069384175
0.0022555062177325169 -0.1057586708103051 0.84283843077121823
0.70235240632247553 0.28896877883354843 0.36557117123121552
-0.51833915897229943 0.48075590988751959 0.56924698716716904
-0.8035622742719859 0.18429534841647688 -0.37070100559854602
0.26654952469703375 0.02297827012781628 0.51493828543112929
-0.034978569605875975 -0.20736380781054553 0.86722249844898069
-0.60236932451661396 0.7617728757290807 0.33119436512092904
0.59490962808132863 -0.17056890957786552 -0.078784283862290305
-0.58076580299438874 0.57416044188611126 0.45291424832596672
0.7013652718022847 0.39476919450626191 0.46855966887155409
-0.49885430691842991 0.44803742414517522 0.5939920196885291
-0.46054397481715448 0.34891722208132525 0.60184374800350504
-0.064959666135816718 0.12131996201967854 0.78070430908155952
0.32485439475696687 0.59615670221752293 0.63280418189554721
0.19778998481208454 -0.47398607061321685 0.88368041044100609
0.61878525678118912 -0.18558290365844399 -0.33312140736532969
0.6769685715186311 -0.043240601398941481 -0.46832808226177969
-1.057016576699791 -0.12666791996045035 -0.38004001496364426
0.22573916367876379 -0.57842757194168426 0.92999087357886623
0.89730845301295137 -0.10857597720867784 -0.19410826883800736
0.10293709416292884 -0.54323499396211405 0.95081598599862316
0.37908506747148962 0.22076364906279178 0.62653211955446331
-0.31852343874731659 0.26166667079524997 0.65436544561939414
-0.4734885911890494 0.71467956435529523 0.44580774557074676
-0.50160273771550123 0.50265027671875862 0.58011052771867089
0.57635092320258963 0.45025656442070439 0.55898931226954085
-0.7550963316095185 0.49088878651457546 -0.21269513825710717
-0.80852122770347457 0.04785675892404595 -0.50661203918066589
1.1908027969661701 0.17782998577247278 -0.38574041088499023
-0.80841518998967565 0.24534008049810718 -0.29855072824880491
-0.061838046963369919 0.055707335491039567 0.78196200102882152
1.1682622622281018 -0.10501068118229617 -0.37023165410510384
-0.70735017162320624 0.15386767060577089 -0.59572656289215287
0.084204384156963741 0.40965338400231888 0.56468671127631787
-0.41111020140122356 -0.1992640679671478 -0.51447160883270193
-0.31742841830982904 0.3056984852283493 0.61471152359079184
-0.70010466015603257 0.53397968607718371 0.086393494443306018
0.33747899576410667 0.30607320374598523 0.64580367958906448
-0.22491652864654199 0.27841672154394548 0.68392695026160055
-0.49641896985729694 0.26089196218859523 -0.78040802612230653
-0.14917301298027752 0.035488761820497539 0.66025150660551279
-0.05889012241278202 0.45276416678716003 0.62243005546725794
-0.17724358483936697 -0.072393304249956048 0.62803405238488441
-0.78260880401835919 -0.16402789579859034 -0.23582266577928124
-0.79071549859071055 0.1702598109477742 -0.19531993737447895
-1.2023339476182002 -0.11950401684633194 -0.51381651617952295
-0.032893224415804667 0.79997689066356603 0.42211313265977246
-0.78297654714965148 0.19006240521566631 -0.0098157059735664021
-0.6450800883324721 0.41580213274571953 0.47485408965420284
0.23462117926849047 -0.15366527848270284 0.82530241995711506
-0.88486754564166326 0.21720286930316957 -0.51775706774280472
-0.45783744426824313 0.35726559016619985 0.5927707605192003
0.32588619676832487 0.48633325436130792 0.6869257501225392
-0.47032065925832356 0.63079961271782636 0.47845500869243107
-0.023428649932125012 -0.45325435139426451 0.59412816116396971
-0.32014454722681585 0.65309649247886559 0.51650456763238406
0.18434404526036907 -0.48726353807917722 0.88250721856563796
-0.64533951368674636 0.59588824231363668 0.14581176826916842
0.18445373935790599 -0.52137169872162614 0.94333329525586773
-1.0952544541589369 0.10946101022956944 -0.64674920485896115
0.1654371594903985 0.85379165758407849 0.57036902747156937
0.4694568767093088 0.42196063742457945 0.57188127053783688
0.82112970543085062 -0.082952229817502943 -0.22161552064331191
-0.0037394009884099688 -0.42368620009094959 0.56072125723036326
0.13509185974414351 0.57746438771064446 0.63718481488258316
-0.84184229694736601 0.20848694810556667 -0.46819100037492767
0.25336864419435834 0.69146598968281259 0.58534522649392429
0.083560343076401367 0.60898634680799058 0.56062866240078257
0.1467871081818295 -0.44663142393245381 0.91490901944556891
0.34945316959934836 -0.46887646585041831 0.89077254547218976
0.25626100442647726 -0.024595616828090083 0.54633679513315681
1.0092936406040049 0.23579188074576951 -0.28655685739146497
0.14769224403182157 0.53958108707102492 0.66671123411616406
-0.10499440881722144 -0.55634621010483554 0.71989767457829412
-0.50317928482891539 0.28189944667228173 0.57832483561129511
-0.96891454727543902 -0.041236042687312402 -0.44217432033300641
-0.019680673638957202 0.16434640650934873 0.79626234874342927
0.41198564562151851 -0.27980031521264404 -0.45292238706734222
0.04353532793913395 0.13692035470203368 0.77066736689350979
1.0646710341954311 0.12299649181215866 -0.33239952091901381
-0.20362393776014542 -0.36089961704635298 -0.0025718036699204916
0.96567634018349846 0.29594717656825131 -0.2298410699350697
-0.216764341082337 0.46888228661963938 0.6113447732775743
-0.74325216704603925 0.58166860494032946 0.38679345688545475
0.4654253949316054 0.61654383797819823 0.5640719397870253
1.1623453902013114 -0.027403348849375231 -0.39275083342680306
-0.37302808031681245 0.64211737610950692 0.50588023316698738
0.018271479173741056 0.43188064300583173 0.6319062500254411
0.85051901045864486 -0.11445302112530498 -0.25835296423498377
-0.85168154384644446 0.49296352907966989 0.30206063636925506
0.7943721618957289 0.067726626539643453 -0.15042217099212341
0.28037184549180338 0.5024015782954161 0.69538116636700353
0.13931374935795837 0.13462814118050548 0.75493068562932208
-0.070880586329534978 -0.473943920162329 0.89819607893425779
-0.49727536444529719 0.34933964088327851 0.56502602182939032
