# XYZ point cloud file
0.24011631847411452 0.4811798484710208 0.28953743093548173
-0.7680197173786798 0.409639709823856 -0.075083977143475478
0.014489399246371271 0.37416882987934885 0.53040764153709474
-0.62231132327867733 0.42917607800066604 0.24042950553876752
-0.35466636991677103 0.46476172997044191 0.57332232236525082
0.15948517043811911 0.55099469307283511 0.59907617351512166
0.028110009118995583 0.067170943121100418 0.67944518828276113
-0.0025584026108213254 0.028612236101416472 0.62207317307260268
-0.052495305793934799 0.64507400797298731 0.49169272924921026
0.31561337491251668 0.38075784792671818 0.59733025107891613
0.020140542328325128 0.31201509495726737 0.62236028047630654
1.1709637761938847 0.22657269851775558 -0.36326354038509689
0.84064719874023475 0.051317709039286508 -0.22024080320876255
-0.46340355043055836 0.22715127950127542 0.35996910823092776
0.95455572640948805 0.048692953238216818 -0.21716205998279992
0.20931840911289856 -0.33941213802753684 0.76082100067732883
0.35644695456868764 -0.31440340767207653 0.79099592269870966
0.64329599011941829 0.056753267421575715 0.064252174452821831
0.57473595957872825 0.30720286400283847 0.0079360670805161404
0.098014619897957178 -0.15332999108333747 -0.58527660403881565
-0.17039186836102888 0.37654779192787569 0.59439876507797951
0.92508897169722459 0.28143307931433187 -0.28255291216211231
0.86987104069878041 0.19512519644802345 -0.27259081212800446
0.12401221364355444 0.058708909401654727 0.73487831157002526
-0.55079625370656449 0.0035306030765423768 -0.42451763571895335
0.48307186100885952 -0.064032205951690541 0.027284110302777387
0.27351061379809527 0.43069416210127587 0.58860441662960983
0.043913722564475871 0.084503315742246773 0.72928756064764355
0.2892102921735954 0.025836606023676267 0.52804688598883287
0.27131287133605542 -0.3160247355294919 0.78343823056417639
1.131870054904085 0.2603028387678481 -0.32571918520790982
0.23288393716497188 0.40898160837257302 0.6363082123936542
-0.3280332947102379 0.50541265229010035 0.54503536507412675
-0.7614026971180925 0.017416262335143068 -0.40523228282696999
-0.18650236997112501 0.3806416331598092 0.59571582404340651
0.49574007558263855 -0.45012865519540435 0.65174530387661211
0.87343089640476945 0.26300730592235877 -0.26752534005818535
-0.81177674950813805 0.1004741010812033 -0.39958425366089761
-0.66379738146106471 -0.010314138324022615 -0.35992870762432955
-0.27281123771431048 0.48315933777261794 0.54758613496011221
0.34990917635263252 -0.03938013362181525 0.30060537164004747
0.46093341174014929 -0.15393577076473622 -0.24855885003729011
0.092736628534827059 0.069337239339689369 0.73959708399166613
0.0012525055048298039 0.55150495216771445 0.60535759942868439
0.79839473116887039 0.301476314173999 -0.21838251455848323
0.92615623804641167 0.029892298835924425 -0.13377750872279692
-0.23663823695874708 0.4759940440523095 0.57615871584527545
0.84658907534617334 0.1021936839519263 -0.23718214352646255
0.15985393896431338 0.37480836200553025 0.67135265018290868
0.31732810251086457 0.43196496517779026 0.5822103180069037
0.0018515928982921759 0.45495430356963212 0.6204991997776359
-0.17222511108475536 0.36889168089929913 0.59126107443809861
0.080168654074918799 0.590290348001971 0.48055830759605311
0.94010677998085523 0.049002752635320279 -0.17568393104213997
0.63528133454850655 0.0026479269350625501 -0.38836866035598588
0.089142092996997491 0.4268751661398783 0.67936680112115266
0.11699367006146194 0.15515034702181318 0.73263989906048743
0.79247806390891007 0.30915991927234238 -0.22155578907069395
-0.38517216562178602 -0.029723087943682239 -0.47727041595121289
-0.68600860980397882 0.089348741608904339 -0.33565105132276729
0.28634447275391084 0.037516152475230227 0.47288000501724381
-0.15782037888292716 0.40725543243961604 0.53501068623053527
-0.37073654838023673 0.60481360851700272 0.13635034165787041
0.092079357493130148 -0.084341064820423806 0.7272287028360882
0.15432810523489326 0.34766907007892828 0.64805952430533964
-0.017981971951593845 0.053131866126424801 0.5871400218148296
-0.50157632929293428 0.0018786071889265593 -0.46778732373871845
0.64700241152258986 0.21899023547927354 0.036869491073176275
-0.26440860340000116 0.49681262098398715 0.47905313949530492
0.33912846553618348 -0.065495385647885707 -0.61688319097641942
0.25750308427977536 0.45306895133609759 0.58579683662291027
0.025973017169802493 0.5107765786717553 0.61058279111892233
0.37262622995306793 0.37424949340316077 0.57190583124128236
-0.41336152440932539 0.49021068517286692 0.47939854307273733
-0.1074231908022712 0.59696653112962372 0.62427268195910879
0.41602653015918512 -0.44663911685021263 0.74677849854721967
0.75665299773522499 0.093885431535887798 -0.21680972801159865
-0.75545682315801832 0.037053744747242198 -0.40142907999626964
-0.17742936557951461 0.6626412287301453 0.53143401865325224
-0.095593217163681632 0.4481261462801962 0.6117295018794271
-0.0088953501828084036 0.53628103770664248 0.51531274658122206
-0.63090186530480352 0.45932689672077132 0.37894599205516788
0.03371057585071896 0.53186524098231391 0.6074957037637988
-0.90667737964707174 -0.094524679884087887 -0.44962193980599857
-0.32228675926727424 0.4748016466684305 0.58778024174666554
-1.0376643715630487 -0.032438882886736797 -0.51423695596313834
-0.19564726359655132 0.52567523516658132 0.42572859769505034
0.3211812538999213 0.35946610781800409 0.59728346097701746
-0.14824703443137266 0.59907693350887248 0.59871023144447166
1.0030256346242215 0.075455562952809974 -0.28361124609877386
-0.61847746620036226 -0.012856031363478904 -0.34002840964917802
0.068012037326088348 0.54531065965460945 0.61368559231713959
0.59089819752805028 0.13071259310736871 0.20038617202155284
-0.59065712292868144 -0.0057446798916081371 -0.23750714856170707
-0.64856482763263823 0.4383965956630092 0.34626987508387252
0.14247701904618759 0.33973626781043753 0.64831301402289454
-0.34349653569366623 0.26334573585952326 0.49956588934461454
0.12746323675578108 0.12508497466198382 0.74719019679414633
-0.76389972106049209 0.13184926554652532 -0.42691483035274308
-0.48141719883920003 0.21136856558385925 0.24117805870670617
0.24315094851932062 -0.36465412488992499 0.74628739172273739
0.13247447217263059 -0.44806094412684205 0.73235314310069854
0.0038339424040735315 0.050729325395711095 0.6416928512500174
-0.026175219048826748 0.49735349073841234 0.61240359860583726
0.0033804584368254398 0.52364824959408895 0.61086580691419368
0.15772751509921906 -0.36847605064604172 0.77855924819372335
-0.67538015730381451 0.065644135068538847 -0.36424761972050473
0.75971011419530599 0.30237697732676416 -0.21316112126576042
0.13280862240636804 0.5167354338649327 0.59052100995378809
-0.49533215874555325 0.39550974912931591 0.45085607444853881
0.1576338101169748 0.50551658338985139 0.056426819905848746
0.08484101569410063 -0.014087152360127142 0.71156439088499246
0.0054096738952170709 -0.062676978156066154 0.31817248623939642
-0.36369603196662353 0.43593767847075726 0.56856711165983187
0.15403857258005002 0.13072203272854072 0.71271964142963751
-0.18058940624005654 -0.1031573587772386 -0.529519612189987
0.33236739423210671 -0.22974579871615061 0.43766407761137593
0.22756966628704264 -0.29053593696899499 0.80053942473104667
-0.22557117022732709 0.47890925688085595 0.47189910264038204
-0.74482037614636087 -0.054205411330125963 -0.38127465053194504
-0.95893406399229986 -0.053973530683361415 -0.5213864905034753
0.76546647887857777 0.09109705664654133 -0.22321823533124102
0.223644848270319 -0.50893691384143525 0.64334468370454168
-0.61654471586437121 0.061174068065254009 -0.50407157654053103
-0.35349829005817457 0.63244975046027796 0.5400528082317434
-0.2720670383160706 0.57175616083577285 0.59376947842983918
0.089959937371513532 0.53494502148130885 0.61579953775395702
-0.76803038079755348 0.33704412735846467 -0.088794158486963704
-0.75273714780486967 0.21983653355355731 -0.22904010767818672
1.0911808351437091 0.11780690517267256 -0.28701272275831158
-0.58099838284820104 0.009515578724819812 -0.28508389883882546
0.44070826381274941 0.16019879005339627 0.40220552778103769
-0.45774604792546802 0.6426346212998737 0.44262784145140421
0.80826996923601402 0.25581465895404465 -0.31189331174120277
0.24627448507219696 -0.39116716197329071 0.76037526811027378
0.44636502006700152 0.01314557026713184 0.20049092021725856
0.010026631482441317 0.15608562530852513 0.7052860465284676
0.29213705446153559 -0.1826594939759176 -0.45612683604544629
0.41065817145332661 0.36898130721815753 -0.13787930455849612
0.058342212055301414 -0.35859546389077401 0.63483592609743567
0.12720303840880212 0.38843921788589914 0.67625504887947929
1.0900866546821828 0.11665982089322047 -0.2968707706170286
0.37247194609965606 0.49944059494126897 0.45407504446136421
1.0848480570036043 0.28893770132544749 -0.30783395317032591
0.20909922464183828 -0.19436368389769099 0.77531594969422424
0.27558810379468485 0.44527411960246793 0.59154019899563948
0.93646718764533499 0.17768647886410921 -0.27735093857801274
-0.42733194520762002 -0.0033421109125607168 -0.16568065275680993
0.15677743603465907 0.12641464395277796 0.69757532901410335
0.30177253662837428 0.53819583789880221 0.49049448915755739
-1.0054067229917081 -0.0043570189042793639 -0.5254937079930736
-0.2736882863909042 0.58070602918614833 0.58686662037910331
-0.028542954979553253 0.10468931636942981 0.59133733985242998
0.014544790001621344 0.51528884572853428 0.59507101943895224
-0.99430819680323324 -0.1258467467651978 -0.53271814736997936
0.092571486592673502 0.46991349532480076 0.67665525630700918
0.11059262926053626 0.16911604811880038 0.67819468023294127
0.38307365075899635 -0.08034621426091651 0.19013302994129871
-0.14654819722184598 0.5326227874162287 0.59299095121680634
-0.096813121800123136 0.67051534930970103 0.51090192064871665
-1.0680541027116111 0.062967116366876463 -0.50886370753574584
-0.75799200075354189 0.082364412924917862 -0.38886967995799931
0.34517214327608442 -0.14073686722652257 0.11131490253965348
-0.51256032012704766 0.39809794837603396 0.4456951129104888
-0.76559267378448614 0.43306592479253841 -0.29126782350205538
-1.0373586345552717 0.11669670474825494 -0.4644405886110059
0.35185530788694269 -0.2193217129024097 0.44347396029713387
0.74972545343409291 0.041023123080770496 -0.11746763281874384
0.13517372824021573 0.48963800353785891 0.66008749419683654
0.066378365664394146 0.37569298936223305 0.63596120172555348
-0.50700330649757341 0.536659486259907 0.49946109474483213
0.42123783947560056 -0.39138645652203424 0.76978221744621445
-0.21189052810898545 0.12808938451651086 0.40151734353410151
-0.014006328944279112 -0.092940044071067041 0.53281372661948811
-0.82623142076737333 0.0023097123683117476 -0.50574190575377198
-0.84224877896537376 0.027569345793038158 -0.4411301744433872
0.43903963415064895 -0.10754460709009761 -0.53122781852781142
0.20982215461305931 -0.47399692329200693 0.75886454842154594
-0.4395728315529035 -0.029892171404589662 -0.35962411397347788
0.25735900316797722 0.56053445132230961 0.51916322091070644
-0.042526476431810178 0.57553018633682029 0.60440460154021713
0.20055828053266964 0.24234878690264297 0.64397086847244578
-0.19814348857387076 0.5210822381567205 0.47142783833952784
0.39650959127283542 -0.38042205939030677 0.78288798124605186
0.45865267421193712 0.37737754010094643 0.51136198104530939
0.11928216070368175 -0.48834861252600958 0.6589475873097731
1.1654605549165231 0.15131240837169746 -0.30992064489673571
-0.15670388441564792 0.52850206508552522 0.59059937679012275
-0.75358070374927022 0.22417968255523743 -0.52411106790251383
1.0248885491750008 0.32058845322320761 -0.33917334007369138
-0.25705115489729635 0.43029867273279709 0.61998621986649838
0.20427213917217601 -0.43099454504973367 0.53281529805907069
-0.137858695936662 0.59797545489362092 0.48796899107663361
0.083254496236192299 0.41547331200546883 0.66269004678317345
-0.91081277846385711 0.0048494413953109328 -0.47501518201794563
0.092029644519963649 0.51181967010400509 0.65428132327972499
0.61830671012113847 0.012117897265349231 0.018950348763158154
0.69077346178599075 0.17496532978454921 -0.12396783301411413
0.32785286773098987 -0.35028027543939544 0.78457982942295756
-0.0039102422965179018 0.15163620568985919 0.66986023551586815
0.1997826620593143 0.40618709787062174 0.67300943767184951
-0.87004041211191341 -0.074529830986923173 -0.48803521723728627
-0.21135567131941962 0.45647993196709136 0.53451327453650432
-0.53839884175349961 0.0213947586417889 -0.23609671517380704
0.86285562508006197 0.038677859450040153 -0.15960622799530993
0.0014934957736319754 -0.10606548594737665 0.46568153693481074
0.33148824453986458 0.3077708556072018 -0.32377181764160828
0.19333192914250585 -0.19676762500228187 0.77474216856590572
1.0458701622700548 0.077830305368095376 -0.24841065817371971
0.51046384325512573 0.31864124562107404 -0.13621147697648761
0.2640477710728879 0.53898307072114793 0.59737390201215945
0.47276545865040842 0.38612270427399159 0.05476623558395155
1.0994723164086846 0.13951585513828796 -0.3079390410515267
-0.7364442624608607 0.084678107538643535 -0.37572509701809226
-0.21371836558818558 0.54499915382084729 0.59625216843769158
0.49645598614509656 0.2345445121203111 0.41000565660299937
0.081904577541255685 0.41149345033354345 0.65541262252111976
0.075044519460478742 0.53458807949787535 0.61212368449386456
0.49736822870806824 0.065580488076611432 -0.50065743444478672
0.43905944683021852 -0.45020354913745442 0.58780125672371586
0.084188573430930114 0.35938189557180833 0.61451319430118523
0.00034864603995521382 0.50767751080662893 0.61127073966538492
0.38609039471870898 -0.22923721836083094 0.74080454229734927
-0.074914354176141007 -0.0094667720972187175 0.26382964160646283
0.24237552573255516 -0.14921257451384748 0.27946845321695196
-0.21131129961316897 0.43800364254590668 0.57519694009471412
-0.4914228485917585 0.55881654526271474 0.51070929726050696
-0.4970509603453151 0.4706322389890053 0.47308910697901763
-0.2230205160809316 0.31031227620436364 0.58180283160234125
-0.16404631207832282 0.36615706277431836 0.60092474531051954
-0.55312662892681352 -0.006644002403997068 -0.20292075425044104
0.95530297030742461 0.17358241007362674 -0.28193316394777923
0.31420079794714373 0.41503539846261656 0.58906093958068184
0.18870116927156338 0.39106774003086919 0.67904122414144275
0.089348345326642264 0.36279715305159033 0.64363900644744299
-0.60194857634878973 -0.011082228283852566 -0.29988717969352097
0.74265035593666118 0.12847612204322989 -0.18357916740118696
-0.16474675808457462 0.52730694629831898 0.52535283043361702
-0.056931136339625599 0.13803640011018536 0.58636126613908357
0.2402093467869314 -0.15094930958309591 0.30688867110168949
-1.1268704665201401 0.051616974023225598 -0.5866344171421044
-0.0077712744464759342 0.1312767759317533 0.66273169466260939
-0.59828227373002352 -0.013452645456165493 -0.22898169670398483
0.73087049530849313 -0.02320929261643434 -0.23931484589562924
0.89615295283942464 0.20976347469354178 -0.29158341372646279
0.10149157237369234 -0.45277008144780617 0.68088390314151082
-0.38624996758728314 0.32992429072901763 0.50207911247405246
0.15283901840506067 -0.013573983236821359 0.72319437804320041
-0.049960102206611456 0.075730547998843697 0.46152786253331601
-0.24831786738261474 0.28450127644597362 0.57088610367981252
0.16712098793318003 -0.15572179637039241 0.17736003425944391
-0.41672068783155397 0.47628368268738819 0.51534372807522533
0.57580129315240702 0.30083785482036907 -0.029336010854068673
0.10693058000939859 -0.14006098054811156 0.31987056374469958
0.76300894291172361 0.12966835288214346 -0.28784292192968342
-0.43254687101827377 0.32765490040571665 0.4002774536348519
0.2346589723608328 -0.36416732850069039 0.74567511939639031
0.20193659037133083 0.41555482553637046 0.66964741743275791
0.035276900217385165 0.54061001204416981 0.60859751091301695
0.48937259676574596 -0.42990401504259512 0.57364603618341425
0.33584622436693012 -0.50143436580076861 0.6887668903526063
0.083757272737195743 0.42023930965889722 0.67295295039761638
-0.61176876723626061 0.097734891949340555 -0.25282338338324972
-0.066794422694247929 -0.036705518843478946 0.20714227715286715
0.26473318848666122 -0.365797605577451 0.74722098598871289
0.095478965925340692 0.062183295206713424 0.73654502607053429
-0.34372880461000721 0.2949552252237948 0.51418101030849206
0.031008754311142916 0.61005650063838979 0.4847688708159088
0.39860612322206246 0.42438329332827707 0.55064983048567795
0.21587170297995895 -0.40458138068093641 0.79920598438054591
-0.60281606010509692 -0.008240107161828214 -0.27675302194207474
-0.16389645512998191 0.51282293446611449 0.4572331650010838
0.15819574182812046 0.11043875067457087 0.7345528535716821
0.36665505534556725 0.14769786197701545 0.48246108658599651
1.102162522065274 0.11906003000180732 -0.274154792546833
-0.19540564714628783 -0.0075110402304506829 0.053338494940978753
-0.46967553018542496 0.29577147463750519 0.42845646820304284
0.30463914926054536 0.3508192863307979 0.58270766089059622
-0.16465841016969518 0.1429208792756958 0.50547232130797448
-0.74324471453081531 0.11996247609870186 -0.33465073845043436
-0.40928469879971258 0.05923693676560142 -0.67873618950199965
0.16523309682729231 -0.39028415041360504 0.50521473966967334
-0.35845901334383318 0.37553642282181132 0.54252483610004854
-0.40923886520558544 0.24588573174904826 0.44171326236056385
0.69402692781883968 0.073511886031757789 -0.028142645757845419
-0.45778269825951745 0.66004066620402524 0.4917496592804238
-0.28880928400195943 0.35433006940986672 0.60414896059590217
0.45500861615547111 -0.41959425533781175 0.55474473264042756
-0.21815045621091389 0.36038946406975253 0.62469648981448755
0.017484812322870746 0.10091061617541373 0.68790214650000592
0.93633159762995533 0.32590339241407518 -0.3352931370409758
0.18796054688281333 0.47224885495638463 0.62367494227222897
-0.021600022234725513 0.018325219930048695 0.5627869376461947
-0.82247752643576755 0.15812587672908784 -0.33955246473343648
-1.0566651966277578 -0.1151948888031277 -0.56582145611477785
0.071714187661803458 0.1481932271190837 0.71550149384794393
-0.85299472465076376 0.10045923370680149 -0.42137814422566638
0.12347067258876662 0.16690147411919137 0.71005934666998949
0.11239686268703902 0.39329328113348772 0.66891288722209818
0.16229478914675544 0.52319855147613115 0.60223208466815714
0.22796758402791423 0.48863689553960882 0.59109991825360042
0.14682655177354736 0.14171411861224628 0.69917204686567436
-0.22843456916244281 0.5134852206574797 0.5857524481441192
0.30758275975363125 0.4601960183878151 0.23750727190156734
-0.53672500925568667 0.58592607265804775 0.4191334778963075
-0.10101993876491255 0.52323898597755225 0.6217919456999933
0.5905005885727671 0.07390876254186815 0.14363996491800035
0.043108278997976451 0.15412485090705755 0.72145993869450942
0.7059154698239225 0.14792103440263565 -0.13988442822783703
0.20819093427073912 0.38683822764291842 0.66317507224807648
-0.63730868209836067 -0.014526911251152783 -0.34883309617046476
0.2932113917361 -0.34316118235844928 0.74932468755113635
-0.062231709868119656 0.59237069338170789 0.61061629009743967
-0.21496934664042677 0.55042067429691921 0.58262309247967448
-0.16116476675548308 0.69560800348024587 0.5793820238025208
0.12065139168468131 0.14622408430917005 0.73858389397962443
0.11663183172488806 0.6034743761838246 0.52798474555145014
0.031112118128829414 0.16837395213966388 0.681213509531581
0.42531297493960035 -0.024309799616878763 0.18388586423301639
0.29094101178095411 -0.16258471988659476 0.37356970793103278
0.087914419353884721 0.17103054286896607 0.70447910649475221
-0.46495303297236124 0.44283052822266711 0.47622824524346818
-0.81510432392879273 0.24254497965579452 -0.36932217941939399
0.98336696791070577 0.17972059200531892 -0.29426176791720948
0.28774774951480953 -0.18516831578746323 -0.10166228754533535
-0.2477549747918415 0.43188252949190609 0.61970590348805676
-0.12438942869986264 0.13611845450576193 0.52307175137383877
0.5507556475394475 -0.092436189830808868 -0.29391758858760625
-0.40366632127465318 0.4866005416437893 0.52471268646233493
-0.12548937607855826 0.67446084386432859 0.5103905963781743
0.46389613350031433 0.39091566717814918 0.21430005054592044
0.42593805101252918 0.21160193096043411 -0.40749876852771466
-1.0079567957291056 -0.1257075970961779 -0.55498551905607707
-0.42966962809067727 0.42035417284798771 0.47140393120506729
0.23822460593706807 -0.39268450633844232 0.79239685934837623
0.96256040743299054 0.24786999587417208 -0.32639632161692134
0.20109716248290654 0.39333902948885746 0.67270460378447139
-0.24217078506727407 0.47047634401741689 0.57047194816977553
0.13167760080288654 0.57294317417092955 0.47637873118633023
-0.029890285363326469 0.013951733928957322 0.50235979500908401
0.71957535133113604 0.15387713829250088 -0.15666993922602734
0.39056920037452358 -0.34550243989829488 0.78211048202029043
-0.59944157640045503 0.039825093776317086 -0.29968774591931641
-0.23029119512105711 0.49469476729945278 -0.18009604276011787
-0.45493539375582159 0.41860355310798736 0.47553872100709838
0.64387291888567488 0.23588527471254023 -0.051291887742050957
-0.41512180085618761 0.36126718249317336 0.48908663265833041
-0.64171870724428581 0.23095616368363037 0.0060068523243836935
-0.31210961560300804 0.40890091238168158 0.6023901158195184
0.84030986947408892 0.12735855331031481 -0.24084492974976834
-0.47917626609632163 0.48353620130733077 0.37984732597118798
-0.46140120639128707 0.53460769878710435 0.50964133530009104
-0.78093566016423333 0.0767899506476315 -0.40226249693398841
-0.11550148254701659 -0.091580854468586048 -0.63245674812305119
0.29228250833136349 -0.10314970038919835 -0.6262606805442229
-0.47958239893119875 0.41947052937549262 0.46280121342343794
-0.14766638400339255 0.34913784255336472 0.60323267918054857
-0.60212344309140486 0.15039700100502648 -0.081232317220497785
-1.0181482082883251 0.098181820915308915 -0.47524345868081103
-0.55333429505373211 0.40456201599836994 0.4339738552959459
0.27518820883809941 0.39291470597947936 0.59671147196875896
-0.0053838275906888389 0.46821046775382241 0.61829700000459575
0.27109938638924497 0.53184385902350406 0.46437947294166032
-0.16952126074682439 0.12403204906200137 0.45757164098744196
0.11038931334985694 0.14753801474723488 0.73779153185218294
0.38282946039601418 -0.10728892181711754 0.60281688883423334
0.94538747648128729 0.086910263398633114 -0.25989678238791797
0.86094236408918978 0.27460386806007819 -0.25519019977760138
-0.75512636051477067 0.1675524694189445 -0.29990278396937575
0.3891507298228824 0.39761887128504958 0.56027890139311198
-0.81986866107291123 0.28568357769163244 -0.43754436490085691
0.36517681385575068 0.45047368028198576 0.56493218542717394
-0.22038534704773627 0.39719408689888058 0.62837229622501134
-0.44941155088929902 0.47120631966912158 0.48978572924677022
-1.0239814012880943 -0.049242839780198888 -0.49840744566173228
0.33369642850410663 -0.084965914667561301 0.29787592348910946
0.29299106710911732 -0.46959237753551897 0.76776643550877977
0.20600393705986614 -0.36034829941957675 0.80167061347118573
-0.025430411440888923 0.48804654228282363 0.5450309529275188
0.10413327728512592 -0.12639575736415626 0.73898539695362198
0.37487864575198293 0.070962354880531597 0.35635521891718991
0.22321682647132973 -0.36716971047134372 0.74926028715058801
0.17815333294722271 0.45101218936936016 0.66605058195569933
-0.9580678447888078 -0.088930999844469144 -0.47313316940971312
-0.22269356102350374 0.48731326236853661 0.57790453490312121
0.02718677550135612 0.43101474026099484 0.62498585368784099
-0.90675082079408642 0.17044834859403923 -0.3745807971849428
-0.82407351924261163 0.24570783334037799 -0.40771431015513232
0.20808534881733914 -0.0031864152627231607 0.71552746538654965
0.38462387914413187 0.1754364874303059 0.51838088194125675
-1.1727566484250636 -0.023656334468678403 -0.5747294309357116
-0.1497940239986309 0.36888000331720755 0.60007628621639908
-0.55030928132652424 0.54766968698695084 0.44741036216209962
0.089601654785665008 0.43882475148182776 0.67986511006472949
-0.77572208382407137 0.18244729887365224 -0.32823400400440328
-0.26642897157467771 -0.063789233360213707 -0.35180678484324462
-0.27201369379881107 0.55008791256757894 0.58487671045431133
0.18779569398177579 -0.18114505890330423 0.36506801897256597
-0.72227988888844041 -0.04929611404733264 -0.33617824851493133
-0.94829811297970723 0.084654247134185956 -0.47900831410356981
0.49122152667132879 0.19891009405914445 0.38031533440669341
-0.82188282783495348 0.16809450915039953 -0.33233306066411494
0.76773974161995806 0.29356009613971651 -0.25456214283995582
0.24720184713722326 0.43227478815153009 0.60140454468182214
0.0032068086977388721 0.57034876512755994 0.60018034998167269
0.95553485346520395 -0.010693107766809096 -0.2199530033988561
0.016141075157363821 -0.19157689388512034 0.52451781718342416
-0.39669255067210774 0.46804372640596897 0.51408029528352162
0.98273830287415165 0.2930777148463114 -0.28394040087900713
-0.50440938141649405 0.42211408092432967 0.45238920055841603
0.74681886543920384 0.15379557706242386 -0.18122698255712427
0.11619774227844376 -0.17054786823728221 0.75055123082526876
0.41996781435656139 -0.47786205333052229 0.65056668589793065
-0.21727078210146333 0.30373074594541527 0.58892096275731776
0.12886654143655499 0.15534758661248504 0.72806829566344378
-0.71358494039911546 0.30487727875930848 -0.028263699393913488
0.13770850660858977 0.15661413502928767 0.68427992688401817
0.25542169034375206 -0.3952552340217893 0.76055170089648372
-0.71285890945698216 0.5095002680360865 -0.14299198884726733
-0.067259329895546671 -0.14239224742763412 -0.36187602771495914
0.20446181477681175 -0.070183394342331978 0.74224873336680353
-0.23426559220665327 0.3462539334958285 0.61950968710890464
0.20454986470258013 -0.33272956304597084 0.78210148805324819
-0.29849705764424428 0.56376678183274176 0.57846880053931826
0.25336461754144196 0.17218101092783522 0.59273573072627872
0.36079985640886791 0.48187773194602357 0.56448228011355528
0.18888811189377058 0.3348607123333725 0.64238740871098954
0.10804799952268773 0.51192023961494293 0.62996194413565632
-0.12566304965661423 0.40178391803497743 0.59636186590012819
0.38961016273625981 0.34801384765188181 0.56696609591147273
-0.38967470108689367 0.50864490252704353 0.52606860488005547
0.004600422549922073 -0.16869505805124821 0.55507694505107485
-1.0474048126332127 -0.059254671156062172 -0.50316358082710011
0.032166500353524141 0.42855792690119321 0.6118318712616192
0.14020229653722302 0.11468800079052251 0.74725309702721909
-0.020731467332966103 0.52814974651989921 0.61027259429537228
0.20807173808703283 -0.15960453159427995 0.32777288839387275
0.346930221744151 0.53838229561573492 0.54849344778790288
0.33631308045245911 -0.4958709740951982 0.63562579531878882
0.064753604387682961 0.15027193678102962 0.7132479968391453
0.82610940026834212 0.31834545949227527 -0.23948836758542635
0.31040484829800502 -0.38923774178114812 0.76119619239924541
0.2162461512379279 0.47292510426429735 -0.0044644637966151368
-0.0069652306036517841 0.63204381359548834 0.62067713550412507
-0.71901304198247129 0.0046646674639012203 -0.38573733192775
-0.48045436386882312 0.64424108133694646 0.51871324609295855
0.076756203057089772 0.16070154704978093 0.68394556052204136
-1.1229624365671396 0.082297107888228194 -0.509931578501715
0.45041377050227405 0.31475570606970116 -0.23362768804384365
0.30096997760853306 -0.20840315174948371 0.41411258271763274
0.92029895612401713 0.33481128275217309 -0.31224002760240854
-0.57276891253075746 -0.0049758505579565737 -0.21906605068527107
-0.44251793849211052 0.48890771986062526 0.49472512867207097
-0.44583194828287892 0.39726812345296036 0.47755855647983192
-0.80755214228315586 0.1157322753613792 -0.37705190065490918
0.40559088399060739 -0.32665315078151369 0.49013534470808989
-0.71413219337743272 -0.0030483347350047096 -0.38130606688852364
-0.69242299248412964 -0.036999844351049471 -0.31629059040885205
0.2065975319601932 0.49576594971881127 0.2019214032635544
0.12290488493543461 0.35516687362677735 0.64084832365828759
0.051989023905145954 0.16533416157923503 0.67095234203182086
-0.75012848154337664 -0.11584939850869569 -0.42530090437757057
1.0736820709341703 0.28454109426389174 -0.29779805263876091
0.0366123658123646 -0.1584760039758257 -0.51958060464568367
0.5633141250329311 -0.077086087010107968 -0.20808236995903562
0.036833110834113003 0.40575645950901601 0.62947719892858878
-0.54393242318091561 0.17307217697810201 0.06337456687688392
0.07804308641833746 0.37045695434071929 0.64043365023899523
0.081238390963023266 0.065796889814409634 0.73413540417944445
0.44587443436223018 0.42028324345563772 0.36773885579298959
0.27329157786912467 -0.26691460831770408 0.79684581488721706
-0.3664531174772318 0.4245081634057174 0.56359109891209291
-0.17135735832689347 0.36061317235294937 0.59406762793660006
-0.92719872104741119 -0.12477836060034495 -0.49090470458348595
0.47383461055009712 -0.4588338949336922 0.63389938398574408
-0.14353306206567079 0.33806462442173224 0.56653433775445861
0.3655655361842724 0.24190645551242793 0.57101470752136707
-0.35475916843648847 0.49936642639494161 0.53306561119991847
0.33046397527730942 -0.42588102186377108 0.79336818630046957
-0.25111949128346633 0.5428334401416689 0.38893493940193213
0.13992664156768114 -0.15065964844313129 0.32064127538617204
-0.65090155501841607 0.42274690593945186 0.36097512132850684
-0.771364157365513 0.051165121004357036 -0.4060803770635219
0.4326270031680492 -0.11215900256918358 0.024320778308955127
-0.46023171370208871 0.39579833611876014 0.4709281234675835
0.772118638285203 0.21391662000591005 -0.1985399193927066
-0.22037377316920204 0.55619175944762977 0.3771165273812036
0.29953922438315161 -0.14875800755187987 0.75017449289207949
0.32132480554163401 -0.34925813989352905 0.74719451519530211
-0.16362338418449618 0.64830998009738927 0.59855005271061079
-0.14675136533987881 0.2486598956513825 0.51556755780748875
-0.80512568352141012 -0.071000934531448484 -0.39567715457311803
-0.35788214186621631 0.60298946933513842 0.5717331771678168
0.2439947513429255 -0.17947996556748996 0.36787866301532635
0.33156473804166631 -0.33619178526941584 0.80323972386559506
0.11026680804624522 0.45171642841095483 -0.15656669117827532
-1.1111449344579589 0.10312245442407131 -0.50468826359114249
0.021057343338601694 -0.22856026899328458 0.60762118318843483
-0.02577208827119673 -0.00071416400790573487 0.53618401748763478
-1.0712098943064281 0.035609208855684693 -0.52514795341234777
0.47851604547857296 -0.13267123389687138 -0.15355826887997276
0.82525542137981356 0.03323833926905323 -0.15778319033019106
-0.26540471298971213 0.41780237932143433 0.62145508360486645
0.51720944174316474 0.18064699788832117 0.32849789873339863
-0.29434568604128153 0.5045278038991563 0.55848441799705129
0.38404919839779827 -0.32615993724102987 0.78153484383226735
1.1286992042717001 0.081984779488574966 -0.28210305896767257
-0.33552415886891024 0.31200340243594027 0.53057897646295582
0.14252865389820332 0.090018498701890937 0.74131050727564696
-0.72667605411748903 0.31928719458107574 -0.47296911149415838
-0.85617649104188409 0.092090629299368898 -0.43050275064880789
-0.93820798417319939 -0.072556785826475623 -0.4900499931801342
-0.21734975837551984 0.43439607618262577 0.58044904586482804
0.33560121156185707 0.4549015856272598 0.19794661512107986
-0.1493057081678788 0.51714926159846075 0.48028846113723189
0.097287961331253392 0.40362494081778688 0.66612271194694594
-0.6055136252875839 0.47672319325221879 0.123629236132064
-0.45169736060965443 0.40810188557971472 0.47578071220868179
-0.39555057087243989 0.35173480559447001 0.49617490391277397
0.25761852668883911 0.31728689102758761 0.61631105896691996
-0.24664184301679837 0.56816089509800372 0.53690650275090668
-0.0073459355641178337 0.55805374080516246 0.60265498055773747
0.49042262718420992 -0.30226494292419942 0.57067573099292812
0.2624242368176124 -0.071995495881582855 -0.65315321094243328
0.033449373919470171 0.08288786611908279 0.7098313971785849
-0.9666600312165452 -0.098125125805799018 -0.48121167145041477
0.22040463554358286 0.3905758505014425 0.65312247928692946
0.95604019595568435 0.049331630623664635 -0.22799322252673748
0.022535740451645192 0.17470523032960439 -0.61260056854587963
-0.15409398589647355 0.28804734273049548 0.59915740620075308
-0.40264129341033261 0.58860952983578874 0.54572873246122211
-0.45152163984919003 0.66039441334209026 0.51536362157622218
0.71471999584681778 -0.025557484455260238 -0.1420542679181177
0.80461986733328084 0.10330384338009324 -0.23101515241264253
0.0077414686918618747 0.45502009711589109 0.62185656045410564
-0.37479150060904043 0.5703980029133674 0.54354922361319591
-1.0810517489087701 -0.086595208604195645 -0.53768056090709282
0.46975154666181562 0.39211983984566501 0.09727468542450507
-0.59666017051433062 0.51348909798723064 -0.17319647246332492
0.075897642594330961 -0.14539089911142422 0.37858007087434242
-1.138368361781454 0.033938277367259823 -0.52276464913973308
0.21167178559275984 -0.15878567936146423 0.18114961601167007
-0.89394696019734243 0.11837400719801927 -0.41785178843664039
0.839850396151401 0.061159633453054418 -0.22608369548394319
-0.79531924896149975 0.36020859765941127 -0.12367785551916627
0.11157837461025383 0.52352170849145618 0.60814318142476831
0.34182186694352756 -0.10947517156628926 0.69267049531800495
-0.32665920124594433 -0.043035614375347114 -0.55558586023023637
0.76874909037797479 0.073039391301156498 -0.28742085480604984
0.054347600480207148 0.35640871954776354 0.62609129314911249
-0.43478895065546685 0.39716661846911744 0.47595684652064296
0.11150210197304591 0.39970883472540314 0.67888880882456015
0.15528470127327365 0.47009700153673917 0.66528757810308903
0.054468898323117465 0.40002060591163324 0.62753204292858034
0.19948649180030548 -0.34351885298981311 0.80034323164014087
-0.4774262514151299 0.51639733417909839 0.49910767200147566
0.35304487107711846 -0.38839543913852503 0.79992275333890572
0.013281700557534609 0.09608657601340527 0.6744492126961783
1.0755377575258491 0.095715640873686336 -0.26139910378099407
0.30766370620718969 0.52270104401165662 0.46186870145668607
-0.2062523132901809 0.45449793899797353 0.58414520018068394
0.30942955779683323 0.51318028815004757 0.5837452970844309
-0.56624041364589384 0.05599895017053641 -0.55906992886623952
0.0021878944831905389 -0.076585649055401814 0.24935042657031259
0.91589578682824191 0.29379466301989487 -0.27366079902224644
0.23888191819779347 -0.22646312186718337 0.78511112684323847
0.12201116473679516 0.17064653778477801 0.68015623872787534
0.094844049546613712 0.17457962842739677 0.70320609048531157
-0.78648453391116135 0.26503709572063916 -0.48578573419220533
0.2432087324421881 0.33735673509340253 0.6322935601539349
-0.65320166803952873 0.34311871415581985 0.12729953975044828
-0.2974689426481808 0.15045403938770502 0.36241084698656667
0.74724983206353612 0.086423201395041893 -0.20828818346122835
0.1282491948446095 0.54966628297932485 0.59732192625296932
0.083508294466315441 0.17125153258341985 0.67283608797494721
-0.80010102802321481 0.079903798625321348 -0.40939008489175971
-0.92081365575753427 0.12264284290835809 -0.42346165919186085
0.22418039345695989 -0.17771069581953242 -0.00073145909912702978
-0.50311761797403298 0.059641511348693679 -0.12276690440223681
0.18509358316942087 0.37927767729337569 0.67397996173012742
0.32489074306990501 -0.39801421721293928 0.80117079575160477
-1.1628807860431423 -0.012490677301831926 -0.61231399102337525
-0.85443048417960121 0.050115673142267503 -0.4426679786606012
0.69876930745565269 0.11881107075866609 -0.11434061099202303
-0.32675957821050061 0.23046449394530283 0.49189969048292248
0.28623130363365296 0.48280696429868791 0.36204486849655515
0.071911966032208285 0.35557547142798918 0.63250582143219636
-0.31030743384723136 0.5253944935367475 0.55127080316312427
-0.51527055305551073 0.52131677117148612 -0.1579317978044511
-0.13438758890466362 0.62799183330057973 0.48127334065379035
-1.0054027722647154 -0.064775924523057249 -0.54379603935822673
-0.25036252861115149 0.44647567620585654 0.60554004537525075
-0.49262238396597635 0.63109490279851066 0.51010831900361453
0.29987528658191931 0.30770164739378486 0.60894313908502984
0.04020781324275946 0.4077505885628312 0.6305806134939107
0.28809897603294476 0.18160761017214533 0.58033388667083219
0.29666805070182739 -0.19230774535018538 -0.20565610838169068
-1.1628739489192637 -0.048013834369285413 -0.60041185966081412
-0.83193228341930481 0.31483893591035489 -0.27163085715506796
0.28295334914587933 0.49782697687450667 0.39893532031102874
0.24934153584308952 -0.50824328755651427 0.70006778830699756
-0.08841184214779807 -0.13632698526874332 -0.43152887450603017
0.76840722877740464 0.1902886847663422 -0.19830768771091212
-0.11684233747073103 0.5648762149281894 0.62322028893154813
1.1845711092480835 0.18905377521798694 -0.34893893122268044
-0.57349971042271441 -0.00020389825419174501 -0.23797833627878562
-0.69424993531841661 -0.060282073072420839 -0.30534689926077335
-1.0752538409496477 0.12429608832741512 -0.48318663721653382
0.22082972808412568 -0.35439611992233438 0.74681250803893584
0.40476776704214107 -0.16978314774476297 -0.17835269117036673
0.071306376612829347 0.43065480696953773 0.66486483055804879
0.10022815021561227 0.15741607191078383 0.72992020753721731
-0.15053367927879169 0.66044538885058957 0.61423951197544935
0.12976107775214746 0.24624004080701262 0.66687527391726675
-0.26832150744452893 0.29813567507530608 0.56046290063982085
-0.23610926457756709 0.2530557446616456 0.5247506082292217
0.35324833247571902 -0.074003923537721339 0.62595430098262339
1.0148538604033166 0.056679581938783974 -0.20396341213630159
0.46573054562848515 -0.44007517187168271 0.58010326861120443
0.54609138968741433 -0.077151501169774261 -0.42467263048655568
-0.39258612118520397 0.40443758159201909 0.51557803201861685
-0.48211626985400335 0.6567975166552501 0.4823715362960086
-0.29568217746287018 0.4724471553646728 0.59417437833625342
0.25130702573669761 -0.33353858022789595 0.46061470645448183
0.1746431525764684 0.37368560909160153 0.67034357982949422
-0.81390667522417348 0.23349556718329237 -0.44962369469429553
-0.41135576485433695 -0.01143745095120452 -0.54768101600133456
0.23198927412608186 0.38173136444752775 0.64430641813958556
0.78665372573923587 0.068280868860353283 -0.19907411235170036
0.2622285081726401 0.44046558852804196 0.58344855201578905
-0.19734852434607042 0.2863855208733132 0.57326552387620344
0.90276875059822936 0.32805857433351038 -0.26976239805352237
0.76904039163196924 0.16533768447469022 -0.20455903332233749
0.27179275957178473 0.37976736029685149 0.60266832669802739
-0.77345448900043778 0.43889478997837916 -0.12460399564474678
0.16088062855021731 0.097556960726306 0.72863484177854221
-0.3824366830195689 0.33389302801290643 0.50569963153726882
-0.60438978361337292 0.47870968464963931 0.41246203428142802
-0.64568518977559752 -0.046633773506994769 -0.26457822021175015
0.32445357016170451 -0.43969013708642668 0.78657036613828035
0.056241794778130572 0.4147498707038173 0.63049820485058927
0.32600792509902971 -0.3566322732064211 0.75509034227634508
0.83111567607848258 0.18459978202346289 -0.25191790031337252
1.0738090191254348 0.21125358456346943 -0.31542839404673367
0.20122441352858589 0.50880693005207556 0.37834539246777721
-0.78573363788875961 0.121022971069282 -0.35717594610638542
0.28582711025699603 0.28743736369850825 0.58276814377525943
0.084501048759146935 0.50516825045768676 0.66118915844109094
1.1009841910673974 0.13740001594870582 -0.31804197229773107
-0.17801140338390936 0.52199461260340652 0.49837733730511447
-0.71640505772110008 0.21574580223685241 -0.16062880527652945
-0.20630519267109404 0.28665637098126229 0.58458490523402462
0.14005144874421913 0.0782632493703138 0.73799774951550856
-0.29036799707928984 0.3447694388228546 0.59014735188304046
0.28206333012652784 -0.30416558437878238 0.79824984352038242
0.44460341254878533 0.37184408031673843 -0.080420715202212278
0.2651058102059059 0.054038870238844822 0.55175622970208116
-0.4098687458545302 0.52161707497379761 0.40820179014362112
-0.77778507012684006 0.20615688633211399 -0.33745172220028297
0.21147104400664207 -0.44116687825140349 0.7832611194673007
-0.82991992175472074 -0.019351780059501278 -0.44988592566523061
0.32606248350868694 0.36796800833720972 -0.21329510655060746
0.7614739684472932 0.13264538770643314 -0.20521369472712708
0.18058166395668704 0.39883252939665947 0.68160599285723666
-0.29838870912290039 0.44515058799136736 0.60734130368957595
-0.23496129336808635 0.29798653012711696 0.5809599238724199
0.28180642832332309 -0.14212197932993084 0.24087774377916715
-0.10763898784671649 0.036678212393467205 0.31360470205152069
0.26950612420588504 0.061452775920268349 0.48334822128004551
0.99221856709230383 0.19758956981244913 -0.30666489389494705
0.27415874523242312 -0.22211405478433033 0.78372660708833908
-0.46775197849975148 -0.019717912995137338 -0.18292477745178148
-0.42086550117898786 -0.022288858106517956 -0.45263746269802901
0.48878061361592295 -0.29635999749424724 0.64326894115333511
0.33613111443786076 -0.26639405634378699 0.78527361086911407
0.44048451093112972 0.44649152624552824 0.50895751920053611
0.89837530454764813 0.15601156932075905 -0.26450037119124697
0.17650991719655224 0.2139877196312111 0.6563109281107693
0.98311570411533444 0.30469509692451685 -0.28243035758933405
0.31397334359488538 -0.36454595967766223 0.74796296220591152
0.12642834900822209 -0.48541646981123227 0.68683263272416384
-0.87803134712960818 0.089448989145773067 -0.44409552938671687
0.45037859167386624 -0.31215351462459412 0.50147866189676815
-0.59825864937123252 -0.010217881476597288 -0.3084269922966168
0.080697835598077972 -0.047959367110374962 0.71596923511949506
0.51809582826850131 0.29249747589578645 0.39479867137771651
-0.355301890515345 0.39736670843230998 0.5647197558660747
-0.74269775715116126 0.17689817560632048 -0.2794251846961997
0.26387305646721809 0.09507066870299144 0.48096235547741539
0.068893097708518508 -0.134823944002538 0.71697817542641706
-0.52456304057514158 0.59503862309058686 0.46927534662981585
0.62781057656650407 -0.011467001770682883 -0.041189324349935108
-0.43535609282451643 0.46658199310569565 0.50187155141564843
0.48073237489194709 0.36601578735236351 0.48955585749633551
-0.33329196106132347 0.37287601743514232 0.57527737523714029
-0.29101040016120794 0.30110403002223007 0.55425659296025098
0.0077335437872300128 0.13086131222934694 0.68530634435748083
0.1600648689377718 0.48583782512232493 0.64023565141515715
0.25146858809763994 -0.33952685423911488 0.75417716617015018
0.66389148745349957 -0.031933006550853238 -0.28546615917631096
0.62942276569398792 0.035694336078995414 -0.403076114055475
-0.85429958663019845 -0.074395509556340583 -0.43590801472675927
0.27360957689022836 -0.43783705145360352 0.7933455474239578
0.87033331807277392 0.042577743237608878 -0.13322967588561901
0.18791371115392966 -0.42244842474644695 0.78184095380520624
0.28697224944412947 0.23261670561064837 0.60613906147479502
-0.17980341528214966 0.23773443207812944 0.58229671159447016
-0.40139654548844739 0.5638166804845256 0.53198660850552548
-0.34689872923291926 0.41308636979559205 0.57958333695817688
0.37078145454554767 0.39775759696445845 0.56923044413890966
-0.7420017858914999 0.39370626032127082 -0.022065840458542318
-0.7455781715000811 0.073934514156914988 -0.44899993434569863
1.0090276894382064 0.22208633284231172 -0.3329548813991729
-0.74025953564544156 0.22253226080746422 -0.19590612304219301
0.019971256695968331 0.081375242377216717 0.67647016446861752
1.1413406809502729 0.077867931873196239 -0.30375317618146302
-0.73938968993294518 0.14248917269381078 -0.46722477336366602
0.046324876786562941 0.35375912710958235 0.55679157940663537
-0.27516722373427588 -0.067398993318885159 -0.5379292465765082
-0.18974796019017465 0.27287471287993686 0.55945071157689263
-0.60508362708296537 0.4365805896769665 0.21244154754001843
0.23856782067463847 0.28914294434066196 0.62655161670462012
-0.120877829859453 0.25053615869404039 0.61699073087563361
-0.69403213290558308 0.19114778960153014 -0.56542616279079605
-0.029615372611331597 0.076626105039090939 0.55672432981653319
-0.052751722810078616 0.38124927127268837 0.6069878670051736
-0.027989119969039411 -0.0010665993093006837 0.50540818782177444
-0.55577184661915413 -0.057218082901230566 -0.32684497658445782
-0.66597046666893789 0.17728224920482011 -0.15210524336135545
-1.0357541979198381 -0.10549763455143324 -0.52688578381721807
-0.15457271802326322 0.60771984694400261 0.50827845079809275
-0.60954143290919949 0.19522459626495969 0.00053063127462360526
-0.44303284002196586 0.35087155732371322 0.47009552473692784
0.23819819238775833 -0.067972539648258501 0.73586255144061041
-0.88183318764089291 0.18161894548455543 -0.36878325218673441
-0.2917887249733816 0.30790200030147452 0.54909664494767241
0.1886788211665783 0.41308548314933635 0.67641306366613829
-0.37207660822037869 0.50636170452891882 0.53364977965984639
0.15645131678146101 -0.27797009945908158 0.44756013709535514
-0.27608028182827571 0.52069478677536829 0.56352830342137572
0.24510712905538801 -0.35137256781114301 0.74863904897705003
-0.56409169613050625 0.47996718633382895 0.27678183201197515
0.23724807102027942 -0.39533304104434364 0.79901158577802989
-1.0787442809462973 0.071214267366948913 -0.50332950412593835
-0.022225895587744626 0.64978389703315576 0.62136886350464393
0.30283563821887327 0.37313366114682867 0.57673850604946353
0.79018436837051453 0.04581247805842803 -0.16272166901494367
0.16949026031241371 -0.2480388152558641 0.42649084452819402
0.042306130508590223 0.46923315638041035 0.64156986432557939
-0.82175686968750639 0.18324536131711056 -0.33922085267743884
0.084517373881072166 0.54490073157094299 0.61129538487143198
-0.0045050517570889848 0.48809597503804991 0.5831619752716235
0.20928204002078915 -0.32780034380476419 0.77144021780964289
0.3449846750459401 -0.32526129987171137 0.79819705257526974
0.26496416988309679 0.059606906388127684 0.50303634015821019
0.79591990571305915 0.22712585766881721 -0.22132432016068454
0.060954601399984765 0.4439971918600118 0.66138656401620077
0.098212037144773015 -0.39278604102189174 0.52293499245203767
-0.31079276439635284 0.25199036540408526 0.51447298240777506
-0.82764599856285614 -0.0011678787311793504 -0.44222363248947349
0.028992402714018178 0.16347046890552558 0.71026961630981822
0.52760693889732768 -0.099277586581711846 -0.42511657537734132
0.074410347947061167 0.14827942313477982 0.69101792433505049
0.91123567905641356 0.17385648949491345 -0.27127073893540321
0.045860108612626516 -0.15693385679588051 -0.10385939947737749
0.72547290175776991 0.25898456255947416 -0.16145948594936993
-0.15695458249484512 0.39146247851100696 0.5971076062530899
-0.55811038187318662 0.46986455354661427 0.46343938274455831
0.24673427229516104 0.50025699393485157 0.58284198296555711
1.095144215312301 0.11321093072290911 -0.33157654870076808
-0.3083412684091007 0.51361577103257039 0.55428061946637119
0.0015520358927827993 0.36743268607454349 0.61392472363030604
0.83457942727999113 0.029481397595887748 -0.19865896341200051
-0.63657656288593822 0.40347537315569942 0.37291705869802572
0.69012068320122411 0.12988798198945251 -0.088736609024437751
0.15533967302018123 0.42249014176011002 0.68392010191755748
0.13692836229057398 0.1523581729644001 0.6876398488108233
0.078286602875729139 -0.363381176387858 0.69926693075871826
-0.31971316973427738 0.3026495328593472 0.52304158530313005
-0.23280019821158271 0.40997356032902849 0.62654554474883917
0.50485241772772882 0.27003843903895169 0.43089096524623866
0.0071506625688953773 0.13260311357544327 0.69287007027253633
0.026930968749101392 0.55989415357794681 0.60193829468164506
-0.18354595272735286 0.46351233791386781 0.58748278172080037
1.0056729093442085 0.15745434038750261 -0.30170841415229877
