# XYZ point cloud file
-0.61585097848971415 0.23562542250282803 0.51770027588285128
-0.5782521642504399 0.37345474844195259 0.54076507917841621
0.11582688451242262 -0.39850693632123679 0.94993610958377683
-0.63654416676263459 0.47393147644148215 0.45978876095376275
0.51081690784951661 0.65100289837787173 0.21538114798703933
-0.70659188723109523 0.52273023130527996 -0.33223652473925913
0.054509909263760647 0.44091673183895175 0.53044085270151342
-0.75907280686992529 0.52678102005796568 0.10263081904101057
-0.50235165878205557 0.58804708797899963 0.54079522997897378
0.37994850509073608 0.7024541292815254 0.57571680528655111
-0.041157830264987538 0.043088303639606806 0.79276135564560768
-0.1096174513671766 -0.01204119311113061 0.74863676580979366
0.16324823261578914 0.88215920009422 0.40076160561784935
0.5112130943432085 0.42621775714448695 0.59436986779392953
0.028741997867482993 0.35636032185823296 0.65915546268312841
1.3423037934129622 0.082867228254244196 -0.41292910815899475
0.86511016370130811 -0.08037591626470153 -0.2892809505125884
-0.7241736202068374 0.24837139521806684 0.40948942188860915
0.97101174803862378 -0.12355918658416698 -0.29014903366319711
0.14441668956786557 -0.46163629824544472 0.91296559299080338
0.3780575324892741 -0.47844940465673247 0.8705186150400408
0.66428743369733567 -0.072315498792670851 0.01212908916600508
0.82726009714577842 0.38418464066008973 -0.06271685859493914
-0.10808342079670652 -0.34814051180777206 -0.55125724418754718
-0.24970887911582018 0.45490976093748969 0.61530026250437686
1.1960025302711781 0.28581013482116013 -0.33265995811062421
1.0568841265434035 0.16831446802205896 -0.33609865217588286
0.11928351646591295 0.025570171941781794 0.83132968735391266
-0.69591175440377206 -0.098702779770286853 -0.4069545457858359
0.37665601296545859 -0.24742965240430337 0.01584278919250881
0.47652272593985856 0.50783812940726669 0.5804425382239975
-0.0031442274814938997 0.072541409596604822 0.83943882242859935
0.29790704510905286 -0.077471849758767419 0.57049641911255122
0.25194585030389405 -0.45130894968185054 0.90176209115830286
1.3430709579047848 0.1501971322605673 -0.37160040138853212
0.40660798024316946 0.47662483983343584 0.64050775424769935
-0.42141092240760969 0.64130052059960008 0.48899852926516196
-0.92266629185232674 -0.041643498025924153 -0.40931182210904637
-0.27465642574984805 0.46178166339211124 0.61546668345086619
0.44430338592245278 -0.71408748449901793 0.69744345283158182
1.1315089481015832 0.27735053388011366 -0.32374600944983367
-0.88130975002799516 0.081245600581813626 -0.48953573405750905
-0.87098244656818657 -0.099223548221006652 -0.31352995311033283
-0.34645951822991883 0.60675154848673962 0.50822548662886557
0.28562912695685405 -0.19442451296879959 0.3263646041592585
0.24742413981590872 -0.3805442927795113 -0.24177310324748014
0.073399724345900808 0.04619962965476887 0.84231393147146516
0.13172208891547932 0.71046684710429098 0.57367438461234777
1.0964299691226405 0.36059105482919129 -0.27640753708431376
0.92676106407230918 -0.16033395374103421 -0.20798513916737615
-0.30091673619083537 0.59745861379467335 0.54968719230397767
0.92809256574825483 0.010146258574776468 -0.30638363705899074
0.27995190339076537 0.43507542328115001 0.6910807206428915
0.54056863682432166 0.50396242705777183 0.57220112644986987
0.069786508649976042 0.56281786029620662 0.61765322757660979
-0.25583750800255345 0.44399702332884416 0.61464348158914017
0.31860883955935826 0.79297168028001508 0.41566092333890392
0.9579521436835865 -0.12523383456677983 -0.24917700097753492
0.62345700080598299 -0.10005446016169017 -0.4507937596986773
0.19255014619092137 0.51676483383833194 0.69440595075080402
0.13675588854576581 0.14888960505337323 0.81012008567532146
1.0999051967023732 0.37593280244598226 -0.27910272301782602
-0.52244159813248991 -0.15750909909911748 -0.45391282805891997
-0.80134823782650244 0.037339999717229233 -0.37350390466410044
0.28400778419277195 -0.065905317504380889 0.50940161672407136
-0.20089814006353812 0.49185860117601976 0.52981577996465656
-0.089561326260250596 0.87831535361554813 -0.10668955578545791
0.026592171307473933 -0.14300390404098984 0.86575825591149735
0.25728793486963752 0.39677547855177053 0.66888740241871947
-0.13005130580302193 0.013051544222825839 0.705836223008661
-0.61884990493961922 -0.10281848877390587 -0.46367102663524573
0.81433474226866664 0.20878395079098944 -0.02730598278193952
-0.29687508669592866 0.62400985946991483 0.41579994622245486
0.28313859248145334 -0.17978468101735956 -0.66198405044375974
0.46588187178586438 0.54402992358035718 0.57477966928190671
0.14338700231390789 0.64655050515383294 0.59130111885754388
0.58653749297383584 0.40942986298492023 0.56293129155426769
-0.53970823109902355 0.61742222171071148 0.40322423157470944
-0.01817112855148828 0.78092408573123961 0.57641689333404678
0.3938431247073666 -0.6606424006144529 0.82278347947578956
0.82932513426010779 0.016755339178322615 -0.28603318217118989
-0.89638826597209409 -0.017535723798573599 -0.42157099314568125
-0.03725999315468087 0.89798815087641337 0.4273116280103757
-0.092148254905689342 0.55536638442717567 0.60906183016625981
0.12713159670538943 0.69555950614138951 0.4633805030928233
-0.83581902041336242 0.58764663547834495 0.25025975661948685
0.16996575759511323 0.67901139002206001 0.5828040460578281
-1.162810006757093 -0.13150960749433516 -0.39914321965355448
-0.44808629498770003 0.60146670317220163 0.55740558310365884
-1.1784169179922781 -0.016581898048205979 -0.58275948709574887
-0.14130715060290022 0.67601540289530959 0.33895027347985884
0.50826695848048153 0.39393217104653999 0.59601007224573799
-0.07571962119048159 0.78569088328525716 0.53863766382832701
1.0449590313611719 -0.085443499478044416 -0.35449203305400978
-0.83243397645213157 -0.1115185906359617 -0.28278800862201958
0.23232908519104711 0.69790012931530043 0.58942344737559615
0.674662763390252 0.04060179325472113 0.15391924212668062
-0.83850623769148669 -0.10390511660872903 -0.15643945491476252
-0.85676988133627141 0.55702251520461843 0.21963842955233481
0.23525345001142206 0.38671180133932381 0.67171170189285689
-0.5624846885059771 0.30481804371689414 0.55701279801032566
0.1470352537734918 0.11085030983256416 0.83026243594721283
-0.76608322837814313 0.12018840522577712 -0.54920531799911032
-0.71774689995460861 0.20779753154398684 0.27725227364299876
0.18020928294038185 -0.50524106290265891 0.8885768275964856
-0.013245635239533371 -0.55865395174815724 0.95113459377412823
-0.090013927606770849 0.018601327994378636 0.76181326218038059
0.050445520545425282 0.62722095329565519 0.5955212311021354
0.11530914025269645 0.66685615357402028 0.58760378228926768
0.065490576681190404 -0.47009041206336555 0.96204301352862931
-0.79870568822496679 0.0036792984845455123 -0.38879787491026008
1.0619527300608986 0.37579026260352322 -0.27455738792197781
0.31759680949773816 0.65280913750744674 0.56911470646307016
-0.71626073662613265 0.4899604622611875 0.40994112011689943
0.55022181734808129 0.77409799985043115 -0.073489846469906084
0.031168375112169855 -0.06080912120809856 0.83386251895401653
-0.17625441293992772 -0.18901639024166705 0.44442612839891726
-0.53205198449338198 0.54839778606530842 0.54837571261233276
0.18383627571368599 0.1076029449985505 0.78483087330752621
-0.36360770916944141 -0.27186223051434943 -0.48128623238532153
0.21777956927307329 -0.43415849085633518 0.51646196928714616
0.20179525265221976 -0.40289217414277978 0.93348051233389118
-0.24495082696192938 0.59677685964509308 0.41761634807790848
-0.99266401231199275 -0.13343146493395253 -0.31162403205394451
-1.1270060313353749 -0.070901623143320158 -0.54311275010839388
0.83568380535671238 0.010810526396427989 -0.29241959325250999
0.06062886691297642 -0.68088691531747614 0.83747509866935443
-0.64396785221399533 0.0031077293938643891 -0.57057321794777049
-0.35905426839912202 0.83848074693259989 0.41886555223782285
-0.30159838985381882 0.74233697867989079 0.52749746560988431
0.25971194612226256 0.6805401488206293 0.59517203723293122
-0.78989729048445412 0.40481198065621271 -0.28483050519413222
-0.79889101244227945 0.2317304375531517 -0.36172745370651338
1.1657304442731498 -0.055869174779910935 -0.35620548817360032
-0.79276290057434551 -0.08862065643062067 -0.22976357061368446
0.53635591141457795 0.091091970925468502 0.3853053526577801
-0.45119824037920075 0.85982592257342105 0.26441751105949063
1.0779317248295044 0.30011328005920923 -0.37263157481305509
0.18266812273101252 -0.53187508111228787 0.9069067154333017
0.41625998844324563 -0.12763181008255842 0.18863831830920663
-0.040297873647681115 0.16312753411718006 0.80078399147508872
0.039870248106348427 -0.41005007189264475 -0.42012444949225802
0.77542236763336625 0.56242222270503284 -0.23812552786614649
-0.1309864492954933 -0.46811352152671049 0.86255243687979988
0.23501297832625134 0.45811338771958177 0.69651048031229656
1.1638966731962048 -0.055337418803148353 -0.36558814447280152
0.66502197916869576 0.62377026128579161 0.4194548630677648
1.3328874249344977 0.21701825438936062 -0.34989197593579746
0.19168046023574803 -0.29297365010301135 0.89670716326399669
0.48793286141480507 0.52907698161402195 0.58236328066044774
1.0967033376957627 0.11305339271663328 -0.34004259180310736
-0.66591928713381066 -0.12417330676562521 -0.072942208969789313
0.18353086684067321 0.099283495916186126 0.76822620363952865
0.59231764199830472 0.68775944627876839 0.45555617413494875
-1.1080248983467218 0.0046371109268070754 -0.6109816643509367
-0.2945912453696824 0.75600469054265318 0.51475756224430302
-0.12868830620673855 0.080417971122148657 0.69570786978626042
0.13063258811245504 0.65475425874748794 0.57044124299353438
-1.2296204456353852 -0.1383295039103043 -0.50598832697396467
0.22020725586619427 0.57875974110068285 0.6824128304505841
0.12207254520109423 0.15984586773654108 0.74706830492637799
0.27648241487291259 -0.2627216606100955 0.21187017866538849
-0.11991579734729285 0.68201351260512411 0.55418131092297251
0.10990400213327511 0.92005609775278963 0.41230429190501194
-1.0900039411265343 0.11127551044654194 -0.67880972125104133
-0.85383286372306344 0.043809032612122323 -0.44790706702020611
0.17460421818504024 -0.35060612723241569 0.15602004989023399
-0.73876073218284866 0.49524666689669417 0.39896059658900462
-0.39055914379482104 0.64528450226379164 -0.65488773970456648
-1.0283299009622038 0.17023778333027195 -0.66048879969575225
0.2496397417446552 -0.42427962106418171 0.51293187871265111
0.75922609006584807 -0.092818761460925714 -0.1817254305930236
0.29943625853125688 0.60472307569861883 0.65874579556044033
0.13150656860720211 0.44416318752082873 0.65479786029901987
-0.66304668607132733 0.69571671150037773 0.38340044159772546
0.4317984997147235 -0.5957091230980307 0.83252934612196716
-0.39989134989295216 0.094258202395348434 0.5015131755716391
-0.18072494716584764 -0.17828043526240833 0.69530410472313076
-0.94263038047652614 -0.042688260284216462 -0.54043643646838913
-0.97248982237726622 -0.0073245243414099548 -0.48176774025615021
0.30149600092981821 -0.27375810707432535 -0.55733349706775037
0.10360983466434348 -0.60721222650837525 0.94453406742663848
-0.63688560090338697 -0.16122399699461454 -0.29700987637814968
0.54202937193225864 0.72246696781772179 0.48473959634360231
0.078308320870146275 0.74869837483061374 0.56317448802633141
0.28275812728359284 0.2428641847190196 0.67800747134622341
-0.16912996671544001 0.6651601954453632 0.39985727772032309
0.408522073892291 -0.57084713037003709 0.85480528861199101
0.70042686563470369 0.40547736897684494 0.49077667870947828
-0.073230449476410442 -0.6171940909365361 0.89929782628051314
1.2610408142563161 -0.038556093636575639 -0.37569876914445377
-0.13884469578034064 0.67567369480022244 0.5519381048446137
-0.50084966600822511 0.30466329205441056 -0.77995451331247256
1.3209737912988491 0.3023858674331823 -0.37515007753356056
-0.37370762401729252 0.53890261236161763 0.6223657297296219
0.01208984532213897 -0.61929934468076553 0.71805490325499921
-0.014066683806717606 0.79633509827936244 0.39738717902250364
0.17759339737910373 0.50075230310834229 0.67693490432457981
-1.0445349556711996 -0.015612413253845325 -0.52257468672528784
0.24428891243624129 0.64182288336805016 0.64703751416727595
0.59406152607541252 -0.13751034919567928 -0.027254714711322237
0.83867475834826699 0.15789407493361729 -0.19418813482667741
0.32326464578311231 -0.51024137709675088 0.8832712385614907
-0.067562255102442847 0.15255906518746798 0.76466628853096363
0.35703466193549005 0.47499832252665541 0.68575946180265479
-1.0851862942056503 -0.1239729112267387 -0.45558332617246755
-0.25842997744389429 0.56511266285997941 0.50743955404843444
-0.7526920393424863 -0.078967836727096952 -0.17647111174219798
0.87227719405069415 -0.1196629374249838 -0.22969343933451292
-0.1751115316094527 -0.21274429593207422 0.62291624577040938
0.71184791319879537 0.50639529044126697 -0.44522846334080057
0.16682761256650736 -0.29105181331284058 0.90294532385943915
1.0845926992036983 -0.10693821709056905 -0.32213552128482359
0.8178921556847758 0.4544850115997825 -0.22261119789618977
0.52774423032643014 0.67127249188537519 0.58066529823041435
0.78212031456023823 0.52848673350112207 -0.021911956107450337
1.1958314535832359 -0.021216207710832435 -0.37342433746023129
-0.83656414301491822 0.042010167442237289 -0.4291737671851692
-0.22426665906668397 0.7010402779282483 0.54816247247557115
0.65358209713223836 0.19481908898726807 0.38177578492742636
0.17354526422860772 0.49504441358084428 0.66908807847338903
0.23655119470043928 0.68117638029329441 0.58997307037426605
0.60436783045222775 0.054723744309093547 -0.58190236494208314
0.33765475938115586 -0.70506717395307739 0.6646038529972258
0.15189301706234026 0.41873843676048672 0.63187219587615306
0.10009272114259993 0.64242525038432952 0.59209412619395252
0.42326080312654391 -0.39840213671011249 0.79661204044130596
-0.2653850353751519 -0.12111014759212679 0.38136759014384403
0.08567687789558498 -0.33583986741105498 0.36347471764999106
-0.28095283731294174 0.54145484156584089 0.56601835914484244
-0.62763989541385889 0.72787832962918664 0.38880856199783764
-0.68146741124976806 0.59673688153348969 0.39153873896582247
-0.36447519387183114 0.36750915087388769 0.62965520685984089
-0.24533939342734179 0.44101660866585846 0.6272284574227811
-0.80823098718264141 -0.11016177077700284 -0.11156364564810417
1.1090612579579009 0.098975468378752041 -0.34446984209761311
0.52693521894504691 0.47824864386801558 0.58170208622650232
0.33309751887063932 0.45463148141193521 0.6957000565284952
0.1619977911671473 0.42425945464682435 0.66549091928470627
-0.83016801086278491 -0.11144726603707333 -0.23191198368302679
0.84963593227483081 0.075429092978739121 -0.25338261235740589
-0.13143437043921402 0.6745403082311423 0.46888405918788756
-0.16206470931528472 0.12571535999315486 0.68429783971527414
0.08978453854420998 -0.33436352599000507 0.39326682539429392
-1.0853524039419202 0.12130995157562818 -0.79577713453073784
-0.080943054174314355 0.1258508085922081 0.76347739532389802
-0.85761925379079962 -0.11115955417344203 -0.13960961024548624
0.67390893679762698 -0.18393814034160094 -0.2979708087573183
1.0986554506021005 0.18562937771066146 -0.35203825407773071
-0.079900044938971959 -0.56769988235707558 0.91794322726780742
-0.60067352758911063 0.39726665006361017 0.52251200053593916
0.14048597643228078 -0.072805497151174237 0.82572287743845774
-0.18098109488097336 0.020508661751303947 0.56380080850766401
-0.41500320113627431 0.33443750287686669 0.62919519056057371
-0.037567369417912388 -0.34810663567066769 0.28127108431971326
-0.57167134458537028 0.60179659685349485 0.45493776694156018
0.83148013527859099 0.38250900835715029 -0.10247202061431526
-0.075082183679853642 -0.30005012740227066 0.44559775604479235
0.8878035582249808 0.092609236224269864 -0.35852248450943591
-0.63767692678263899 0.3808514191333483 0.39848881680641401
0.16779757367240222 -0.50188164394230661 0.89188601308537008
0.3647091470530448 0.48834419180428945 0.68036126833451238
0.17811065948265181 0.69240817361663787 0.58228028181423408
0.40105203453344984 -0.70166944325813851 0.62463673666709996
0.23754039409789129 -0.70291575831853415 0.82036518958953497
0.18065301058133088 0.5076646596536758 0.68826066055434154
-0.75604509828043831 0.034758384365588313 -0.26493165723674927
-0.27120806569302403 -0.16568178156242119 0.32795697803113466
0.2113355260347376 -0.51387983134819493 0.87953844371236389
0.075147247970802411 0.036121240861364257 0.83988693290367511
-0.55259284192156954 0.3484828045333952 0.55762222282359808
0.26093323733035234 0.82553991037099372 0.41123492228199243
0.64911206430526391 0.48242316450455114 0.53510995835764774
0.15058106636517543 -0.52446944889386948 0.96285606135052637
-0.83856461853686071 -0.10672640078343143 -0.20468734823996471
-0.11555143944683799 0.65440593462715313 0.38740050509663249
0.18871590737780153 0.084053691248241691 0.81199024405993558
0.44746629799261051 0.080797673886678467 0.48563195322638464
1.1759383329067372 -0.06195206465894465 -0.34433366845956925
-0.41981062566175886 -0.13589774708716007 0.16293738470193286
-0.72289080069106859 0.35115727868504543 0.44743745139603686
0.4783407801247499 0.38496222468338992 0.58104113383354683
-0.32902701226633901 0.12873767276105852 0.60813534236568767
-0.83023528370238431 0.090805372076983915 -0.40828306086825439
-0.27701998054529398 0.039858997019782905 -0.80251914458805729
-0.037306779760983844 -0.56967422450985516 0.69645650713558149
-0.54644159600671394 0.46167265432266724 0.54851905506896159
-0.65813059068743307 0.28041244623321937 0.49710460284311164
0.73146866146339562 -0.039446105506133478 -0.089275309792007818
-0.46803762282209327 0.88593623730302973 0.31985139647003269
-0.45959882652841877 0.43725033348829889 0.63628391518570382
0.35198952966801045 -0.6809756552501387 0.62034978074549363
-0.34280765512319888 0.44138170516427166 0.65905750584198852
-0.046924719372031021 0.088838829738053349 0.79517038469415979
1.2580180930642619 0.35654160078514607 -0.3752227457515005
0.37244718388748588 0.57667653279458087 0.61761887469287124
-0.15017067623449343 -0.035008097088768508 0.691480198605122
-0.8661149883799375 0.16175468344828126 -0.46664942455062342
-1.2527611648617967 -0.10397038011069881 -0.58183734973266965
0.058941558145001238 0.14488217945920923 0.80188679925278628
-0.90767345787521592 0.092230324065829983 -0.52808051577306703
0.14690727468063258 0.15955439174234698 0.78095621695338302
0.21349773260959459 0.4664303848341298 0.68765661655442045
0.36557161524240556 0.65893884592966501 0.58363806380508798
0.44344162598639869 0.60090318692178357 0.57673372767727837
0.17337881751882911 0.12118230164285215 0.76911139248324467
-0.26663630955021311 0.65329464745253674 0.54635426309472646
0.59639148625329241 0.62518876416950775 0.16315820719297136
-0.61434687529027876 0.76793973492991263 0.24611777767400511
-0.058305434472973872 0.66741896166564452 0.59647611848816506
0.62496047680430955 -0.044907073119182073 0.098945918767652685
0.01507043094419025 0.1583532711935387 0.81299825883091703
0.82749420299208687 0.10981452055232666 -0.209597247701514
0.35998485808257108 0.44642634337573384 0.67644661664912409
-0.85112798152740865 -0.10998933361941887 -0.29367309107307804
0.26004270847321997 -0.49797720194849049 0.86356646142208549
0.05697561213251312 0.77476217995462093 0.56483432026368252
-0.21762326921599318 0.70914747615811713 0.5286048295001553
-0.003019134503194465 0.94623739817149577 0.48316925079427087
0.14091520324127593 0.13771265157561707 0.8178577728275469
0.36903439968441276 0.80262839829531707 0.47695631078693612
-0.0044171328744440075 0.17100579351524736 0.76604434554128265
0.36256777084543934 -0.18300789758533575 0.18270773546034835
0.17023697558534501 -0.34861391389442353 0.44931115974317226
0.090692417700436678 0.1698099080055151 0.78077576566634566
-0.65150328623501785 0.55441430192576391 0.41786143076063631
-0.70936340106790041 0.29624028873193886 -0.5905123771666565
1.1407773742944176 0.098653005867650023 -0.35515336702442646
0.038505488343494321 -0.41997420789400053 -0.03648850865646569
-0.3571149508008471 0.54031821431801319 0.62181686384716617
-0.26938411333665258 0.1187324149771225 0.62472998217183306
0.4094087663627004 -0.27842408000398322 -0.32332997940690511
-0.54816213107356226 0.61655037356722353 0.46299116534716322
0.069041624640965082 0.92572190047764735 0.40566377225602235
0.73270469530009841 0.49345928716117804 0.15439671631978946
0.71094855085601161 0.33034178592170527 -0.51244754701681661
-1.2284531921730153 -0.13425077989650536 -0.5392866273328254
-0.60801381613919681 0.51835533077806595 0.43046804749817369
0.18431168852468538 -0.52195136817397447 0.94238650775871013
1.199206418153012 0.22305992834206911 -0.37772068535731496
0.35290020632248442 0.45639947205907916 0.6871646631846291
-0.31164004026737935 0.58910535115036922 0.54467249172121512
0.3810637582487395 0.76363238690363389 0.41903382947243184
-0.17141261824881049 -0.052384340588087497 0.62817738819228541
0.85041394198250053 0.12068172615130202 -0.22678073155000433
0.41141691901603394 -0.52889239108945851 0.85131425809252148
-0.77686952396714481 -0.04575441502942823 -0.2752751389415744
0.26927700411594202 0.8218138769440575 -0.42949135835441865
-0.65065547465945883 0.51971302655948826 0.43277719696652639
0.84108309934466163 0.25939750964992569 -0.12096608493116801
-0.62606413126285609 0.43983485611090956 0.48710740517232587
-0.81159118371615691 0.23073227044703337 -0.044199372811144499
-0.47216191377002126 0.51207280538204003 0.60732605557739294
0.95052118389600793 0.056752890314159643 -0.30955327102248198
-0.59323728937449083 0.60348355127034026 0.27109950451119591
-0.59873801325687559 0.68934522315306523 0.40764359337558442
-0.8759878713403495 0.04169000507076781 -0.46444410611984299
-0.23509301635505331 -0.23880723805730142 -0.62586949372845435
0.17993406742241547 -0.25078310528762948 -0.6505408671904318
-0.68275306354788512 0.52206053541138431 0.4127486819807169
-0.22649396380225362 0.4168245177278429 0.63616096301752023
-0.7851285085966353 0.10917312426488657 -0.085652606234098094
-1.026918364781265 0.13935323047665449 -0.64902777177226412
-0.79097761372185715 0.50876193118994273 0.37224769959840476
0.45865632861946537 0.45035738652477697 0.59415316738307666
0.065891547031558417 0.58278989394320391 0.61129720612126714
0.54957299534383885 0.68831497049391821 0.42237562283093499
-0.34151766076064227 0.095314098580004725 0.56197772581995498
0.12468927051809509 0.1411415229649382 0.81889172627380802
0.40042855752851025 -0.26560798084670267 0.64333930395951811
1.0046961921730624 -0.046849581920312744 -0.32978156877811937
1.1305511170235931 0.29894674344701677 -0.31108324134841592
-0.81093718877745147 0.15942867504995029 -0.40852817998812085
0.62138869859969859 0.4426695823184108 0.54760944968542358
-0.55909665293033228 0.39632266806944827 -0.73274107811727518
0.6185560276529376 0.52587074704069714 0.55056483736578787
-0.33036365627033248 0.49182699381409734 0.64799321700157009
-0.6149479216695255 0.59436770367336322 0.42085755276273318
-1.1961304344912378 -0.04036776070433401 -0.54180399777690536
0.23977952365665978 -0.25752075652918727 0.33849925998844821
0.2281130559587794 -0.63244534258370599 0.90893776750806321
0.14975502453765621 -0.47223857951718884 0.95973501814277196
0.058847375796583279 0.61527229134754613 0.51402752995079304
0.037059445058131857 -0.1925804718997135 0.88430519471113334
0.39133707818048968 -0.033669410352057838 0.35830709891169743
0.15174572368834482 -0.50022907135108063 0.90153303509857707
0.34568243953093614 0.54296146624350072 0.67172714634798325
-1.1933327381361991 -0.1081248402711914 -0.45010399725575123
-0.27133531722411242 0.61383733551488717 0.54789889870859732
0.097139285077544102 0.52648070998326446 0.62920956544529272
-0.90872657657896916 0.20185497493095284 -0.54819153841849744
-0.67281399341626447 0.31205314495724323 -0.64993281304310013
0.22601374781404893 -0.073911833466667076 0.79890482142896513
0.49349034776045997 0.11800584829068228 0.51906049129901444
-1.2335959416732223 0.046375343859184959 -0.73053039490219263
-0.22034341352378917 0.44375114963199991 0.62471292251107791
-0.68889574682701848 0.71142498408677035 0.30115438211196466
0.19923443415854436 0.53390670161642362 0.69254425450243762
-0.79210287014208802 0.18754612285641592 -0.46528625221059627
-0.47494822909783174 -0.22283445814820624 -0.27877669025336704
-0.31380654705631805 0.70905216021931494 0.52538433948761742
0.025104603522796864 -0.35674740923484549 0.48023602989987335
-0.98496240440462124 -0.13112565175593716 -0.25529975809564753
-0.97671521357825419 0.099574511732110516 -0.61646261268614477
0.62082217032951803 0.14418722371571135 0.35207879297467315
-0.85846119466170734 0.17557127060965705 -0.4664349232493441
1.0700906779905317 0.36671030697167417 -0.31574910655880117
0.4389735981946874 0.51224822723112595 0.59584174634549392
0.14939105124438434 0.74050519333217224 0.56280278959351371
0.9097808416572768 -0.22522568681770316 -0.29399502916117548
-0.17124618978025552 -0.30213508786236787 0.71088056624179785
-0.54431880989925219 0.58813592164643147 0.46083742155170793
1.2542177945262774 0.27522356370397816 -0.32934766421712869
-0.71448346555748365 0.5274744909166138 0.39397213984317769
0.88140398358984484 0.11875799710187884 -0.25123895590422762
0.047169973544011867 -0.24408120694455171 0.90261470042939784
0.33659703361532145 -0.71713990726720844 0.73760970656531732
-0.35907043023816954 0.35958247774712859 0.6407779047528086
0.15496937963890822 0.1463186150597835 0.80247628945002258
-0.8089011501645178 0.34585652125384314 -0.16346894888190544
0.16130445825447026 0.1400940867443019 0.75125416538052647
0.19469436233656623 -0.53964377833680821 0.90356830913696573
-0.38030235763151232 0.74581214359226244 -0.49980247334256589
-0.32467157409808856 -0.34465700571407076 -0.26825096842514817
0.20883288528735733 -0.15091412150663963 0.84058829496009002
-0.37510547752142287 0.42331752717381654 0.65896520590687313
0.14778183561046809 -0.44681915030547081 0.93473392366664942
-0.34522625543968566 0.73004911883958634 0.50788386651857653
0.32315060309886867 0.13492848883079134 0.62349984874146269
0.63126721406816522 0.57404411745664063 0.54851141709297302
0.30433375565567111 0.37459101041376819 0.66156937176516806
0.27188915945039938 0.64282589512957422 0.61757151700514878
-0.16371948239269862 0.48835177517901052 0.60699998426799695
0.5957910586785804 0.36784045324248993 0.55809460393383326
-0.51117040202713859 0.64754868333071158 0.45522258103992996
-0.17351934610229947 -0.26521284121375821 0.73916148058826625
-1.2247169183690314 -0.042636924354833461 -0.54856166674170304
0.10485906167648373 0.52253270016248798 0.61366960221051947
0.1642790513136525 0.095126923180716361 0.82945496044251055
0.079367184526505596 0.67425779512030459 0.58458809421868896
0.050288140198478715 -0.3382068124701707 0.42794697532943182
0.64843117143282747 0.66574556957652398 0.52711789095743278
0.21314704397986972 -0.70959860553031007 0.76924537684985417
0.048018798163591114 0.14829897906356493 0.80028890702801991
1.1422829849434066 0.3801620221454094 -0.29256843423897116
0.27525813773268482 -0.5530470323593093 0.87631436218730441
0.61739145363555714 0.73223583761208921 -0.12899586420952236
0.17426739498006683 0.83561580153201653 0.57424717734541719
-0.90231383259014208 -0.068062411710677395 -0.36609371887251729
-0.53873521505707878 0.85952149843189574 0.35667201568088558
0.066561668392052908 0.15478313522959475 0.76223466866326728
-1.1089130201650619 0.1566279489065403 -0.72354625227089997
0.79351850364261445 0.48228673557094659 -0.33280244571386319
0.17724525132508973 -0.40400462078010868 0.4988514221902971
1.2499859943578713 0.37428589375947396 -0.35282303100847123
-0.82404263880298956 -0.1053603972539463 -0.13337709704452205
-0.59437323701132172 0.61957061145658443 0.4181875450192365
-0.64995284693706701 0.48992950908232658 0.44893861212419139
-0.8746177539248734 0.10039666272489356 -0.47301550322074171
0.29422914376764453 -0.56507572279131324 0.56115485749194693
-0.9076620555277799 -0.078955892379774184 -0.35275894258438889
-0.94962075032303161 -0.12327110734787716 -0.23697749187878614
0.51745174932991844 0.7044024768557513 0.10523580820512723
0.21127563068927202 0.41040406244989569 0.66135584946095083
0.02696590106926422 0.16225965504243156 0.75120228003087863
-1.0365571143840686 -0.2055105321936006 -0.3156071154227007
1.3191170840288935 0.21523289669497103 -0.34139627545212647
-0.19675919314948587 -0.36281879103273518 -0.46166704780802448
0.43808245261335443 -0.26076597910636501 -0.23955836797649521
0.099218111720828617 0.48918829157568844 0.64093883155053621
-0.75925645963266497 0.14241349981857532 0.083162400592962982
0.14758735705642678 0.43597537519722351 0.66066418101763791
0.052830277762897282 0.043007571662711186 0.84008821027213809
0.71170273322125688 0.5055707643096099 0.32629278155698227
0.275177997012646 -0.39276934534004937 0.90508975313936624
-0.54108070166217637 0.53228505005092686 0.54785523162276206
-0.25883130318083758 0.43291615345901668 0.62138187233224862
-1.1899703228175387 -0.15994386664913218 -0.43131133068664251
0.40343183249993331 -0.71897705825491443 0.69276769007126671
-0.21933745752297895 0.39624307126131519 0.59612450369574432
0.50993475567576318 0.21633458481249335 0.57328994026920821
-0.46407121640204352 0.63260120442301826 0.47370019279622433
0.30718677251565474 -0.59329372189550078 0.9048774872648111
-0.19390915673943709 0.7044223881391023 0.27808857731952852
-0.036296777137177827 -0.31802477371291538 0.43958208000531052
-0.88085124217834121 0.5387121949624003 0.2471771213442624
-0.89397888102510414 0.0049661311471442815 -0.44355195142971215
0.2805032667155043 -0.31837604709717127 0.035625818604337667
-0.67055688865013607 0.48876920731886919 0.43968309232281388
0.97504311000735022 0.21989744066648775 -0.26621994412165684
-0.1262153069456815 0.73266992919079854 0.259573972278349
0.32977095810445078 -0.27160703002048692 0.82821972880036299
0.29685581694743668 -0.51532949449641485 0.84974640346378649
-0.060108071224599158 0.86474748189685435 0.52094281006228016
-0.25834385104675128 0.26679072710831697 0.5722882661663018
-1.0655363509434945 -0.13577230847727506 -0.32590614736600187
-0.40948016994719083 0.79134506938577154 0.47204686914057525
0.10001588950201246 -0.36351794293019957 0.46357455323745711
0.34167403662666906 -0.49135460619913651 0.89728922813104273
0.57436185784560756 0.74772566036738475 -0.31711521128768894
-1.0744595830990171 0.1795729229220715 -0.73168228388495926
-0.15500738505336109 -0.32298810959179036 0.80799588944976497
-0.16638135725871273 -0.063807793165628013 0.66982233575931538
-1.1153659863804251 0.077908762574316448 -0.67491145992606061
0.29300009786600256 -0.35099679537928452 -0.1530529652623196
0.82906697405398511 -0.11846266866688282 -0.22587742856063731
-0.39460551268384947 0.52273000440233552 0.6291938196718192
0.63478236839357294 0.11703499285080632 0.29451771131137772
-0.37201210504910165 0.6398248843759955 0.51001134916216451
0.40838850531412696 -0.50427843172902165 0.85077760554210524
1.160069534972795 -0.13452153121351884 -0.35734911350482967
-0.53609689483838352 0.37286426046485488 0.5683908997990299
0.15929720782075485 0.062338393764484579 0.82719419586560949
-0.3345841682966153 0.48506957792017502 -0.79700521038800964
-0.91465635974620696 0.081946915218152228 -0.53296045426922944
-1.1476493284523244 -0.098352752815358713 -0.47932564522312138
-0.29436616004411853 0.53709142104386842 0.57385579258365738
0.64015822537568923 0.62516980528257093 0.12079245186781673
-0.097915402386266948 0.66091504475115848 0.41619507128428701
0.19428053759578212 0.48257326374330134 0.6829769327597619
-0.59738680772690245 0.60167571009666254 -0.082189237470648102
-0.65201852975480712 0.50504280392210887 0.43966340533928694
-0.60249197618075989 0.42592603263605611 0.50278311866497472
0.39692827252470231 0.34088195536696553 0.62769942980054072
-0.23801824753174472 0.73688694745968064 0.45945674280235771
0.12307385013429517 0.7210858052178768 0.56809890297132526
0.45132787401883157 -0.54853412579017302 0.60012744684004637
0.20659636100071133 -0.18689950657311449 -0.69497803213606613
-0.023510650983583403 0.068279290153450134 0.82082017021909071
-1.2059966500556047 -0.11546832921826411 -0.45528016026654949
0.37967207660160263 0.45056990169412536 0.66338412552936621
0.97312144110161647 -0.1210661843869385 -0.30068779326778383
0.36860375797575884 0.31012035717655628 -0.77458586586730149
-0.26287682051368932 0.33433783188146649 0.65580830060297668
-0.48106217575596943 0.76960125357834031 0.43702726836083627
-0.47420486789660288 0.88527131766047162 0.35194305484983257
0.65493414260593141 -0.19821027824608706 -0.19760342771570816
0.88855003788585485 0.023553678195893823 -0.30039811013297779
0.079200273989355807 0.56270884538529486 0.61927765115765165
-0.44941439554038531 0.74056769787184074 0.44845215022777918
-1.2606401249514079 -0.061177152802251555 -0.5824548917452903
0.77102131821797393 0.52724296632398371 0.024426489189571576
-0.17552250920643253 0.78977692567954705 -0.51555000632891801
-0.10527174404329465 -0.29152989644426874 0.51999094719555305
-1.175422384851057 0.10172751305932515 -0.70100020284157782
0.017058428670994275 -0.35653933952178996 0.27298131879101017
-0.92889737782246584 0.12737389167078561 -0.55144256206459819
0.87543355442921467 -0.061810366589277521 -0.29525603228680986
-0.75975789815338857 0.44928258444411284 -0.36028884137354922
0.28707441814098189 0.66253301670242415 0.5887595029949555
0.37962890113901437 -0.24516033290855255 0.74891511738719041
-0.43507774773525298 -0.1703685009156839 -0.54891083712003841
0.82626708865338649 -0.010821807227731739 -0.35652193207151139
0.10329020042768633 0.4169287571444702 0.64860241946564567
-0.63193537314955783 0.48802350699123309 0.44859962126790442
0.21535729834266704 0.47579798920896366 0.69834921887845525
0.32012192500146419 0.57352151725860523 0.66820347469264973
0.12464118716662753 0.47981279279572853 0.6392917527520865
0.14424744780035148 -0.45184528798263912 0.95766645918036986
-0.63198090936289653 0.66313562236222445 0.40126757975747829
0.35408691532775727 -0.55908384462419924 0.89305592478133056
-0.05681104717939256 0.080640195114193958 0.78248244282225254
1.1290898151353641 -0.089002873799344684 -0.33394529548602758
0.59345287097656119 0.66941078363579187 0.42296231992314137
-0.26561090270050158 0.56589270863022989 0.57029883166214379
0.57763848078872293 0.62722982224754098 0.56810942601394654
-0.55457047476238763 0.0010884047685060239 -0.63922162000112159
-0.19626546989493576 -0.21766731477693035 0.37521822656170745
1.1993086955766561 0.30773417235718981 -0.32278577250136475
0.23107052875010758 -0.33734917136489173 0.90060579328629498
0.14083608046871454 0.16043266208278872 0.7467174177336009
0.10275836752268042 0.17313830156180821 0.7771692259321048
-0.50222816033587492 0.37260769408036154 -0.77340366816143025
0.38677241429624942 0.37140944930701636 0.6447444595774785
-0.80213063745888213 0.39817234256712908 0.018111218898584802
-0.51282077426841255 0.1257004500943264 0.45430583185379092
0.81056645029009644 0.0040459441215183745 -0.27702085991683845
0.33161854300109539 0.70323179162680027 0.57186620364247531
0.079299215259231559 0.16579642117965321 0.74574846297733011
-0.88746938512346318 0.050621118186476188 -0.48055764520806576
-0.94546256476485979 0.14086271613675638 -0.57094318137698341
-0.015418098551595705 -0.39983582535982798 0.084385279987988504
-0.72124332319263829 -0.028969058238645928 -0.063388948585059168
0.32160564910903311 0.4383637444556463 0.69175789948671618
0.31189321411230431 -0.55853130290604724 0.90962330539379543
-1.1805549432468485 0.055289130686407617 -0.7839950752130429
-0.95671830233465371 0.025359698877600145 -0.50812150571122761
0.78581429614614429 0.054531316249040174 -0.18191055129450007
-0.54815356103212665 0.25894878851544512 0.56516123403098639
0.55282781530481628 0.63168837316983684 0.30587929470312325
0.13082068893238308 0.41482904708889023 0.65518404043932144
-0.38107933222833168 0.67088867806134367 0.48940073541442075
-0.073094419051304982 0.81559136675768151 -0.48098700259410432
0.023460364835544922 0.84988755075578837 0.37949534278146224
-1.1666369252452409 -0.067098691742046412 -0.57844366764660204
-0.3497484229304888 0.55893192226714916 0.59803739881773055
-0.56505157038200693 0.83897244329975429 0.34909242626605774
0.45353728999404375 0.32107202873572582 0.61647869311747083
0.1055932553703105 0.49192826893849073 0.64162962805395285
0.37471141726070023 0.14251358651347878 0.60220872063760922
0.032332662511834087 -0.43301419087028492 -0.14600032540567742
-1.2362536648211986 0.01343926936599793 -0.73554269183887389
-0.71630001368706253 0.40201471638143182 -0.53026121131007731
0.55236681371828666 0.64771033412031542 0.34809538725796862
0.12254590354734596 -0.67451797415576564 0.87743163608760222
-0.32867442144833348 -0.3323948748609542 -0.35122702116783788
0.94557383946051665 0.18018675252405814 -0.26720556185750777
-0.056944880492974193 0.7311036722884392 0.58393584514663299
1.3148123757629113 0.015601727612244431 -0.40648176606405517
-0.81319156649822588 -0.10045960659846287 -0.16122672588980791
-0.97744824090401927 -0.14923536331469833 -0.20386831870018085
-1.03359219044418 0.19450159828495206 -0.70853937845574944
0.15111946106744512 -0.48594973808939734 0.89725318719327163
0.17518190130822653 -0.4046328366920342 -0.15108911993619323
0.16592198606269903 0.52361875307041394 0.67664641376624601
0.11005537932010689 0.15431554613275367 0.81005974243004886
-0.034370976148052179 0.88286750770007494 0.53965631560338601
0.17843282561296014 0.25916541706563834 0.71394760554545389
-0.43995622167490822 0.35243439815852717 0.6110534337501452
-0.39999094275309943 0.28272879809320806 0.58877006894332595
0.38138569200750183 -0.21216196811717225 0.67181223835829762
1.0352800734847705 -0.13694172973821495 -0.27988352054825771
0.37102366027919764 -0.70412300075149226 0.64318745062326244
0.4346714395531901 -0.23584557362955749 -0.46446362924113238
-0.576582773801535 0.49964728577966966 0.49753826687976588
-0.50300717288357433 0.88115990784491771 0.30299451155413948
-0.40734351377726696 0.59707631428141816 0.56905972174178832
0.079940806621673133 -0.53802587661411216 0.5978694458049203
0.30247305601588081 0.43172252338264805 0.68906637894598433
-0.63634047551259698 0.30072532651387007 -0.69462490121162723
-0.48976562223857023 -0.11837796152708968 -0.56129914465734121
0.39224088404022872 0.4366097608505477 0.65355403434757697
0.82905960972642667 -0.039503690060094243 -0.26733848375307367
0.46547589513862064 0.52468009463784782 0.57338695803252104
-0.33100166703254708 0.33167471523864833 0.62877188726619693
1.2215772246044834 0.36570132087504525 -0.3145041879457855
0.91968667372583113 0.13774991316566165 -0.27414441198446049
0.44720382743502896 0.43086882998968434 0.60282156030567258
-0.61307927800027073 0.5872740418473068 -0.42868654519076621
0.18762027831978045 0.066089949655236069 0.80726386693328145
-0.59380455885377614 0.40264042888123086 0.52492496934394595
-0.80314737458525798 0.61502592117070698 0.28596114220560764
-0.92723301251839629 -0.14263788222650042 -0.15970579461378964
0.29101721293149829 -0.60770174777825048 0.90421516932168355
0.13486344460053168 0.50121974381213263 0.63918454559159343
0.30477244655066649 -0.52356920445974708 0.85664833082861858
1.0072268453654427 0.16080805680500987 -0.3182382841867355
1.2491734365938401 0.10718043239222474 -0.37008537938481378
0.45460120304558238 0.67676765625161828 0.31497144746435257
-0.85939508609544646 0.10203239711752232 -0.44698464564427631
0.41965931430501158 0.2945912249653837 0.59034956654340753
0.22778450109185755 0.63200820760432741 0.65661808112608355
1.1952877180169201 -0.023574939660575112 -0.38322173287931172
-0.14690541648367983 0.66646834137440791 0.43554794079877013
-0.81238283998827221 0.21702178033650199 -0.25972163894466593
-0.34736208396012813 0.33514044671618137 0.64255128609466539
0.1511356986824417 0.047402377020992148 0.82652646514682004
-0.46291523630272025 0.42208568358766207 0.62410129423486271
0.27761506839539507 -0.43807472037938844 0.90930291660362439
0.78818219797573263 0.54637681642614311 -0.17185504435458032
0.28223044483357107 -0.03289189940902304 0.59672791736585751
-0.47178262242077196 0.66101700843255884 0.29558251166622096
-0.75374362967268915 0.2256187924899713 -0.50174417699468954
0.12645480484375682 -0.56632467516845786 0.95859108510737778
-1.0078913621632868 -0.069713538727408597 -0.44682907417309536
0.72623338043750785 0.59206458135237128 -0.33201049625527812
0.87600205975793877 0.082322600243402988 -0.27515157591084449
0.32426850972663779 0.46671485703048354 0.69801786024166645
-0.4316935378444331 0.56093908576528229 0.59748687450369875
-0.38926635821300692 0.35245820800681926 0.63453075980191365
0.12846971763255155 -0.33557261880443257 0.30917915518116956
-0.2867346431253921 -0.050235009523364127 0.42423800128322142
0.27415166720644812 -0.029469515225770238 0.51976226140145254
1.168359357589468 0.12562317941162782 -0.36470022791837575
0.28420669320688141 -0.34412766160339103 0.88380834327437618
-0.72337953812371758 -0.14025960939664195 -0.079025993818825135
-0.56560717540267724 -0.14659141682239252 -0.42566288083329162
0.48885039094145277 -0.53062440110686815 0.66927474067145898
0.36152692986371981 -0.41665249617854805 0.8664171959096918
0.71779421198740678 0.51477202872164085 0.48671658472092094
1.0381927657022842 0.089837104542148438 -0.33029134222256751
0.23700152229336524 0.20802199079925821 0.7009896434388887
1.2655131365888774 0.29223820683529311 -0.32596394593329325
0.28197597012554887 -0.52983561601019247 0.85686423118241795
-0.051069729929933416 -0.60853434421084884 0.92158178128074075
-0.92965368608266097 0.084657658502332644 -0.55412787716048406
0.36217442621098606 -0.55819930774214122 0.55137721090281433
-0.82131648166308402 -0.11135968809575658 -0.24351876883640955
0.016052465318031395 -0.099701043044404969 0.84837118363166919
0.71561580606805997 0.28272700080597168 0.36095771297425294
-0.53758753438965279 0.49462084968144104 0.56416647084364335
-0.80092610146591703 0.16960051780908714 -0.38754077699526501
0.28095972791132162 0.018277598377594018 0.51148309260141733
-0.026373514854963531 -0.19880421897716438 0.87608014475961049
-0.62168835427154079 0.78293258575802227 0.30801881685812127
0.57912170758511117 -0.1720618454159375 -0.087322454911615388
-0.60152496631096319 0.58805992543303098 0.44069897812991776
0.72112742897752646 0.38713069967941038 0.46587749217893037
-0.51692333960353309 0.46140081553990342 0.59081964177543256
-0.47446518251279457 0.35783620361995361 0.60248983415981439
-0.053827177393857895 0.12754355712502274 0.78584490919965067
0.33688022137051199 0.598274228730034 0.63545680003640825
0.20335980070266046 -0.47812102717271365 0.88684927689445159
0.59724638298084187 -0.18263968950503617 -0.33943038457010388
0.6641128947437327 -0.034437498768582486 -0.47164118268754773
-1.0983920896165742 -0.1263661274058121 -0.38503775811225349
0.22246531973142325 -0.58404049323050877 0.93592134616603273
0.88406838472548444 -0.11995608247495859 -0.20399576832403632
0.096517515043444746 -0.53791857159467504 0.96433573349100454
0.40034360071815733 0.21548460052511409 0.62415908205571569
-0.3230618177262734 0.26805634851930549 0.65873556631601193
-0.49189108347651711 0.73093039244488978 0.43222745343701963
-0.52059763694689032 0.51746900922602457 0.5749075179089882
0.59652459891462861 0.44514740519117701 0.55842974316166671
-0.74727283304684633 0.4868082269872378 -0.23951009389289357
-0.80782764802017404 0.033655464939016611 -0.51949542262610837
1.2106115547320986 0.16084781636607559 -0.38603023720876273
-0.80692536880733279 0.23191185006308146 -0.31726603020288824
-0.050309058496370795 0.061553218701671852 0.78740452279877093
1.1660893972208406 -0.14384319614606511 -0.37868172936011302
-0.68859343881277901 0.14000101853555869 -0.61246800136761337
0.09114762219160788 0.41057258558381271 0.56661253163987002
-0.41910183493345166 -0.21276453148413488 -0.50993787708324323
-0.32223538950787933 0.31050166225162634 0.61774519624233015
-0.70911774778868875 0.53405068707022529 0.065368506131547655
0.3571444831892947 0.30301524168086758 0.64550091500155471
-0.22467850746459384 0.28480095963923269 0.68828148664628319
-0.45218583319205408 0.25370959592437003 -0.7956387813028396
-0.14298094854607335 0.037822471982210004 0.6665317503342969
-0.056162668099409174 0.45692233659739934 0.6247668916146738
-0.17369547405796837 -0.070701856571938393 0.63654092000362716
-0.809791688799395 -0.17934187824204706 -0.22725475280997109
-0.79817577550217678 0.15395287579467798 -0.20681378207212742
-1.2488114460467745 -0.09949995386856969 -0.53268793516665536
-0.041344768916188102 0.80891822147253478 0.4183532239821881
-0.79790036628564209 0.17642829965768847 -0.018310214497660127
-0.66842920301982822 0.42651478942901377 0.46722840745099603
0.25828044947942708 -0.1582142250763674 0.82223263921519907
-0.87266202484432576 0.21174202031715872 -0.54437410473205627
-0.47150583459391981 0.36570188237295831 0.59308903913885658
0.3433712454715927 0.48623930468608378 0.68931952450453782
-0.48771472628971857 0.64387328624045104 0.46849653648109157
-0.029155760837962674 -0.45268280641653824 0.60690710237072576
-0.3328415672693037 0.66376646644156523 0.51085035953914826
0.18813605189593474 -0.49055792023742306 0.88696737910258738
-0.65556891919654348 0.59918116060031856 0.12552211162821525
0.18491083998846136 -0.52264664939574423 0.94992420968459435
-1.0928611829527117 0.12566190781358788 -0.684171116898038
0.16374137268721611 0.86415387165686219 0.56965021973677832
0.48689417218329289 0.41886982523958771 0.5717968245828482
0.80669293839856238 -0.086409644085875925 -0.22977268411019125
-0.0072753730968084795 -0.42437689325157812 0.57096952550204261
0.14104088167093565 0.58209251167262188 0.63983021003608087
-0.83245239913302349 0.19842475310147378 -0.4906328510884137
0.25841255907326044 0.69670750372706181 0.58744665096929349
0.08474455835201411 0.6136806415972984 0.56220293396109966
0.15204778876826097 -0.44589836435902264 0.92083841219755813
0.36182410216668615 -0.48507224391954296 0.88442607486589253
0.27182858645008778 -0.029791706514883387 0.54264876807151374
1.0160568970187107 0.23924495874754292 -0.28679522440107785
0.15618414906992051 0.54371529876610403 0.66969868249162268
-0.12316707276647243 -0.54833312507805054 0.7450473104443347
-0.51852920980430639 0.28886454427671637 0.58022485180170502
-0.98999253040340385 -0.047788954957596275 -0.45308737686918743
-0.0064102922685655983 0.17043115590941582 0.8007168342876918
0.38729650968260643 -0.27520573627243117 -0.45611398055427177
0.059755155950821148 0.140251363440699 0.77374876107255552
1.0698530258984817 0.11605093934116617 -0.33515451932491391
-0.22179654831935025 -0.36557221155477038 0.010398064329123713
0.9716307935106272 0.30359896768541006 -0.22925291756064325
-0.22067939160164052 0.47529628913094868 0.61240667278227434
-0.77037621832915448 0.6031290500946298 0.36583573298955141
0.47874629754802989 0.61753638302489122 0.56601635828238184
1.1655962729185658 -0.057280953147333946 -0.39877322317692965
-0.38727973155100059 0.65344137062393948 0.4989636517498246
0.024416576667102063 0.43508097954409308 0.63451110617255679
0.83484822475952036 -0.12069035533149375 -0.26695733864689242
-0.88119757656938802 0.51218373230875081 0.27863987907307841
0.78567920998180973 0.070890664919330604 -0.15585306234652663
0.29608641682255943 0.50361969064919698 0.69821474746473555
0.15926227319346609 0.13510015938371822 0.75608210951451316
-0.081539413469080557 -0.46052678580063322 0.91926714938959186
-0.51269119957470899 0.35702706297630549 0.56462482651712964
-0.34471058461590154 0.51001693686674443 0.64009873025817576
0.68869791658541679 0.24489053285582685 0.4023858383165555
-0.053468083269379463 0.13140173260978649 0.79398196012222133
