# XYZ point cloud file
-0.4879438712917486 0.41615773605523365 0.47540131913267614
0.31519436309989829 0.52791212822372946 0.2617601609925897
-0.78727464353732102 0.43538491621730269 -0.10645389791827076
0.022904282592197345 0.40422477526565848 0.52438255708374237
-0.66932733262267607 0.45890148089525407 0.22466660881462852
-0.39521553450092939 0.50381566316131088 0.5655019316636859
0.22749498853763817 0.60839642866664845 0.58639150776378202
-0.0057069611608969451 0.065265185008166499 0.69674094451018664
-0.042973387174337768 0.01975850920880956 0.64054907415337803
0.011604345794795468 0.70938868738480243 0.46429669136114293
0.36899512486313513 0.41756006141128865 0.59590763765888188
0.016025735365415406 0.33696804752168757 0.62407860099684986
1.205438573628123 0.20917837739386991 -0.38047720962610437
0.86071609164913832 0.02046163959646341 -0.23505402844568341
-0.52679607784474825 0.23959976089308591 0.36408776196072656
0.9726721979584545 0.014847739496820833 -0.22772331444099125
0.1657549241356383 -0.38640131089958585 0.7991121847999445
0.32665645067792087 -0.36153811968981336 0.82927505947446378
0.66161138357137705 0.03235558557948981 0.060151941538307163
0.64169799178555187 0.32641050939672378 -0.020186946336061995
0.077830498352625621 -0.22117146044511243 -0.5978468206749884
-0.19539662148776032 0.4071554840083455 0.5919411442444783
0.98251934882155822 0.28416673381205287 -0.31136191888324483
0.9157259007991293 0.1877109244524276 -0.29925729429571779
0.10205351041323606 0.057507248037232922 0.75368661609458953
-0.57200519053331034 -0.024340548063787881 -0.43278377716045646
0.47252638268024827 -0.11167472486508997 0.030307387991913792
0.33159272554206953 0.4737222927123842 0.58343490746052917
0.013555293487822237 0.087034513317736539 0.74655084959156814
0.28082154878452337 0.0092882450139176731 0.54392044627762814
0.23456074696885279 -0.36125333805247112 0.82112865617458197
1.1744967846763035 0.25000521010087007 -0.34468171028854316
0.2802470524352435 0.44961708084966023 0.63415837659850793
-0.35476997441053515 0.54766447671345975 0.53284916634233848
-0.78594698208546943 0.0027430638702043292 -0.40989580924491947
-0.21366475782966909 0.41172594779513016 0.59315078117567055
0.45825806599434515 -0.52599398800388419 0.69595438011877353
0.93034896380458698 0.26551233069490909 -0.2973382495439757
-0.8309929277719218 0.095289897197764387 -0.41284056991908935
-0.69308135991529307 -0.032229342932064642 -0.36073594166863543
-0.29442547344324188 0.5234981679716898 0.53666737131856512
0.3358592703303217 -0.075051838705571333 0.31309848119539108
0.43696172407441147 -0.22303015759263609 -0.24935355246234081
0.067631329044307534 0.070014320009864572 0.75787900962236998
0.042283570549600746 0.60599484820540916 0.59148324753850978
0.86432491682115553 0.31259389771098223 -0.25097745352766293
0.94211974163550649 -0.0055559922867088329 -0.13953223131341186
-0.25526538968530754 0.51658786612904251 0.56665729962281142
0.87630592109303862 0.080297994532916694 -0.25667373576004171
0.18890095410858873 0.41094449233471908 0.67182698312928124
0.38136217350477458 0.47543717334580443 0.57736408993515032
0.020553286150850558 0.49757835988846666 0.61336942522358873
-0.19852834653143109 0.3985441089197917 0.58921809858383301
0.15156128134556063 0.65041526216181267 0.45704573698197792
0.95900841300005513 0.016128814442273653 -0.18460641725818483
0.64593089009070359 -0.03672892058444821 -0.41228166713039338
0.11610527802251819 0.46888781368475219 0.67683341606313963
0.10502262364272083 0.16557060235344162 0.74645487826970436
0.85971635753293507 0.32144337686902014 -0.25493419759325758
-0.40271425918443804 -0.068492586249200127 -0.48868330846781449
-0.71024687689990118 0.07764842778609353 -0.34581502857414775
0.27860843946586766 0.020277999393935014 0.48625518286773506
-0.17249982975699241 0.43953592946784481 0.52804198905690469
-0.3265826323399087 0.65775665676060391 0.08647659229630289
0.053409274945877397 -0.10199070834570911 0.75305204478445043
0.17774247227023937 0.37951867378378534 0.64899526460804657
-0.057672975687676459 0.045482813978396902 0.60361088522450179
-0.5184500257641268 -0.028625326564375358 -0.4796773458268252
0.6978016442581374 0.22321385154611806 0.018742767582543451
-0.27638505630359472 0.53718902183981532 0.46376882035841793
0.33857570231381467 -0.11770758870683856 -0.64588106022204261
0.31816732105737744 0.49887589881482031 0.57903808811192248
0.061652479718173447 0.56072825229335288 0.59959691744757848
0.43164838984964138 0.41000576751550238 0.57048485534831739
-0.45082323816249326 0.52915337210851909 0.46649158971662585
-0.077015329589862125 0.65475557672760232 0.60823678155960059
0.37892663455780951 -0.5135344661760195 0.7908462947833812
0.78522723677332351 0.072315926683179432 -0.23738789981081782
-0.77887819240074729 0.02359007627837495 -0.40817859998862843
-0.1349054605984365 0.72585160784990976 0.5052655229890165
-0.09582682054515318 0.48811173312576284 0.60478019260508442
0.031613741449892208 0.58740525809155331 0.49722588690330682
-0.69034171638637321 0.49539425725708042 0.36668895825070524
0.075840861044648655 0.58460642160230936 0.59510431329317459
-0.93341112112703817 -0.10644604485361921 -0.44372824567774732
-0.35691290018890104 0.51520165058937806 0.57950625149479351
-1.0553949688560003 -0.033884177027042522 -0.51719056300118704
-0.18433603890755035 0.56999212700180202 0.40416873438996281
0.37111377641324694 0.39338403120265875 0.59706094244341812
-0.12366861448234845 0.65579920290695626 0.58113506617856392
1.0238818975446984 0.043980880345599882 -0.29754905512835272
-0.64896898908349421 -0.037313786762386891 -0.34035621324765591
0.1191541187178502 0.60055049885552181 0.60108774870617809
0.62114671921091513 0.12189955396989172 0.19730765279919182
-0.62830235949346558 -0.028788681987986578 -0.23407298457692005
-0.70887423493923174 0.47238677687768144 0.33469069268067297
0.16256781950620974 0.37040795745856547 0.64962863231066914
-0.40140715654643144 0.28103648371944701 0.50358561271745805
0.11343110758462192 0.13250575042396501 0.76290517220899534
-0.77594902110636466 0.12680949329357266 -0.44699272058776718
-0.53809267980305298 0.21803315314433586 0.24297335489377514
0.20031552920508805 -0.41662010359243939 0.78577559283396814
0.078524918687294276 -0.50348796903858861 0.77498256892709239
-0.034178473756822647 0.045325923047026706 0.65926174113193525
-0.0032310201277700457 0.54458453377408622 0.60220915278166431
0.037887216107377941 0.57476293016344948 0.59901532457579354
0.1091870989244868 -0.41477019426281442 0.81793310013276843
-0.69871333329325691 0.050781903213170526 -0.37356552508195223
0.826734282694496 0.31489200783984306 -0.24726879436163496
0.18897010482115023 0.56920704798591415 0.57888637640530261
-0.55470406943991557 0.42628187385657607 0.44531376032452541
0.24523520629706108 0.55542532005858081 0.0082598605128370028
0.050873002270345802 -0.024552929405647267 0.73363614289096812
-0.037254828880998653 -0.098087944009234596 0.33546829713292192
-0.40970279560554917 0.47225649712463813 0.56272436845549667
0.14434356325445616 0.13705687377511386 0.72745406390027101
-0.20008417928185079 -0.15800337483128379 -0.53971720684577584
0.29761254449858138 -0.2868315273930917 0.46660188474337916
0.18929836236020564 -0.33031856725307979 0.83695324020371631
-0.23397189289933024 0.51749259497636246 0.45724253197909115
-0.77548499452311237 -0.074309994878868108 -0.37746139536891815
-0.97743888796562994 -0.06220801189584646 -0.52268242590120972
0.79350946984805248 0.068823858606033517 -0.24367069704865923
0.17064192817924065 -0.58105020372181282 0.68873573367500152
-0.62545904719547862 0.042118817114194379 -0.52339335009848309
-0.35519813269542211 0.68765076286767224 0.51775524637930537
-0.27846647355534127 0.62266194320283985 0.57837461135167356
0.1423441433975341 0.58933173284269358 0.60411270563121044
-0.79686696081771391 0.35562733655902767 -0.11152620646741274
-0.77758123077854657 0.22492004756037395 -0.24690100801248505
1.1158235323445782 0.089985153239235227 -0.29974454366978892
-0.61374409894090343 -0.013999289202323642 -0.28567227958265262
0.46641358813719425 0.16029224682609483 0.40562927124364057
-0.46392645449231695 0.69618994912982046 0.41468202682390853
0.86531528018562165 0.25874557779427987 -0.34654442117726947
0.20257262933851558 -0.44501688894606178 0.80107153033938372
0.44650776430824074 -0.016743716278038889 0.20496761677119568
-0.017670745959435769 0.16594355404739869 0.7183044296636022
0.26486920016838233 -0.25792109910127076 -0.4617012790994397
0.48881908008144992 0.39843019008759689 -0.18419905379583268
0.0018300090386415002 -0.40876577331119396 0.67328847236347689
0.15335686343107574 0.42604682399334937 0.67594395201763124
1.1143812588865067 0.088544546685846215 -0.31007302409411441
0.45890725214106232 0.55060853183305858 0.43913133253119341
1.1345906024915953 0.28488859862245008 -0.32957908914887801
0.17518290387037255 -0.22457324282275987 0.80719156922718238
0.33693817037662221 0.49032576512401393 0.58579666943178732
0.97733081794641963 0.16531349228374775 -0.30029851467311003
-0.46601601072448612 -0.033365811496705422 -0.16243580680464298
0.14685399700014948 0.13147960941302175 0.71216904710330853
0.38875228515999843 0.59444302737350052 0.47430045300248302
-1.0206089613413316 -0.0070314604304936718 -0.53215532526822984
-0.27770746574114624 0.63243292486541602 0.57048944809784474
-0.064952473227753604 0.10336881345390925 0.6049119565268547
0.049884354489231453 0.56531016342532869 0.58294584280102213
-1.0145603499943305 -0.13462651583023855 -0.52742320479682658
0.12898726309642242 0.517288399195725 0.67169246946460337
0.099481386694662971 0.17874763623858383 0.6898758732475716
0.36496735395541335 -0.12643854392384973 0.20148338188289983
-0.13756818811751731 0.58136901001790131 0.57969673361693441
-0.034739816969141524 0.73694215187418866 0.48287374247640069
-1.0803957944708957 0.068108129920756447 -0.52214329146204075
-0.77900687360768783 0.072954821799370323 -0.40013679568613097
0.31678982325003369 -0.19909016722929862 0.12468277282243867
-0.57318986352710222 0.42927540987141188 0.43993690151582365
-0.74054881510042236 0.46432982020370572 -0.34785553838232541
-1.0503742979680279 0.1239871862525852 -0.48160272439835505
0.31939692922901425 -0.2749809681497834 0.47192858852137787
0.7676547956216071 0.010627862451500714 -0.12825621214554406
0.1835660852481068 0.53983738614312615 0.65369105530943006
0.080586755978901359 0.40968009736240441 0.63439936652988005
-0.55193241992223774 0.58050404385108945 0.48450848274706515
0.3892269887247698 -0.45069373996205775 0.8117236177288264
-0.26081134628752412 0.12410327388628849 0.41063797176291839
-0.063265294395574156 -0.1200199141744574 0.55677331128402074
-0.84288432853199347 -0.011305132622339759 -0.51357784042567989
-0.86338716950397698 0.017952599279034587 -0.447869961403499
0.42856360805778271 -0.16910790504064954 -0.55076417387221765
0.16002513004789404 -0.5341553114101929 0.80283927630753882
-0.4669569211346466 -0.065756027174962955 -0.36294582912956347
0.34351500739046215 0.61953893918588099 0.50274075967233411
-0.0036913243172302934 0.63200577926038481 0.58880171824749805
0.21310739078007515 0.26047855247838825 0.65086869845765694
-0.19240590354146248 0.56533430694633413 0.45297428873455736
0.36427803441475004 -0.43686881864531735 0.82423437026024526
0.52710907019312392 0.41268481390007528 0.50824025670381434
0.062493954791591227 -0.55153213153621561 0.70325143189864325
1.1910553697755355 0.12485971302483367 -0.32175504438973201
-0.15047003318719332 0.57651840667909626 0.57751643599373581
-0.73846244264044458 0.23024298411683319 -0.56722384680286686
1.0809563115749439 0.32240047332459021 -0.36658808922548158
-0.28999210059416569 0.46736894351548214 0.6154393890130615
0.15125417655413084 -0.50217824704568348 0.5740791802083004
-0.10251700860026924 0.65380569999763405 0.46382254320891148
0.10730911323207121 0.45552291873318618 0.66003264751840918
-0.93046330022381518 -0.0024888172519467178 -0.4804318833454157
0.13810560210276387 0.56395968182730383 0.64594987652874458
0.62715264501026702 -0.021301505573675827 0.015762080825282299
0.73470789889171662 0.16973712881466807 -0.14750102240115703
0.29311516793454456 -0.40108128624182127 0.82412313791345437
-0.033635332754869851 0.15935931129115338 0.6823768022452803
0.24119056856538679 0.44692203046132412 0.6723218390257234
-0.89284946190882231 -0.089454535834969928 -0.48609083258381225
-0.22632654862334545 0.49402621358755322 0.52442498053416831
-0.57322626603265259 -0.0022680281259673946 -0.23631610297897843
0.8807154354457325 0.0057931844355601503 -0.1694635261845987
-0.046602881872100474 -0.13892768196820865 0.48915418075685191
0.40050802924758128 0.32752239018555734 -0.37870167510109498
0.15768417337347479 -0.22683554024250568 0.80665011298594436
1.0662679103289918 0.045788627998003761 -0.2588731499198027
0.58061751447139776 0.33941343884096015 -0.17617386053587958
0.34393857647389575 0.5960721853480484 0.58705820448588919
0.55161900815920561 0.41860390946019777 0.021679306563738843
1.1267858937930515 0.11438053047868718 -0.32248020350337614
-0.75818796446544945 0.074528076535752941 -0.38683704042656103
-0.21517571129947494 0.59399610201586528 0.58256406991144749
0.54059264186556377 0.24684530695984408 0.40995923868116457
0.10511228980482845 0.45082356373095744 0.65265859535853221
0.12492638892026026 0.58858762290724265 0.60011856670806862
0.52216413606649437 0.039543581690859031 -0.53914735680335324
0.39659760960563817 -0.52849730561842523 0.63104287236104051
0.098885303235468708 0.39086263001993055 0.61306877255432424
0.03059681311977569 0.55672159397604182 0.60042092752329013
0.36400682409139928 -0.26990231971114598 0.7750987361775068
-0.1178405720959842 -0.038891502791583599 0.27682958964867888
0.2078993834767266 -0.20167111500884044 0.29954522345552581
-0.23225984203633204 0.47460222529997409 0.56814484876921711
-0.53100040881465937 0.60478850632407144 0.49427480054546968
-0.54889662871064493 0.50823237151190837 0.46239618067789168
-0.26468224253688272 0.33366758809780728 0.58375380884046668
-0.18987425706719191 0.39585792261929975 0.59933285740337816
-0.59265077774380737 -0.031078304490739034 -0.19850974933598176
0.99476816782974775 0.15984204955438702 -0.30401747783509508
0.37431881348192353 0.45632559053319882 0.58540246585740485
0.22537566576572435 0.42986823744143332 0.67927356409865602
0.10493609369613155 0.39566267382265585 0.64321087292760704
-0.6352705623593603 -0.03548011610234561 -0.29868926799328155
0.77797854049316773 0.11374147000252932 -0.20547610640027503
-0.15572487922205136 0.57384239362503842 0.50907244784867489
-0.093669438240338992 0.14072520281316322 0.59799371020862513
0.20556210467599101 -0.20241382124820609 0.32786544990603439
-1.1311494821649597 0.058108733959618158 -0.60343724803291521
-0.040046282413996021 0.13635157038243961 0.67624619914279205
-0.63715926389652866 -0.036387146400332027 -0.22428591040600776
0.73602933300367179 -0.067253617594183968 -0.25127747810302103
0.94341680408466311 0.20343138284238005 -0.31886035687090281
0.044998915638444853 -0.5103780179078734 0.72364827639196105
-0.44340876573243482 0.35472025181006939 0.50194712605588787
0.12724365104288729 -0.024495559872839384 0.74552603748117185
-0.08869482463054959 0.064961101990175851 0.47388620026202044
-0.29596834747973366 0.30517631698370057 0.57444812833841175
0.12788861883782965 -0.21229439962611785 0.19555753342125581
-0.4602804815454648 0.51492512927387357 0.50506019847080219
0.64203740670960407 0.31877204675210358 -0.05940832518639183
0.064881634665566179 -0.18728489475585886 0.34144810401534353
0.79864440419617622 0.11383123104812032 -0.31496797720175812
-0.48757079127455627 0.3493058973073801 0.39761885410061815
0.19123663652965739 -0.41578819536388739 0.78510172939494782
0.24556345500142765 0.45744613079183105 0.66835164889378273
0.079721149108489875 0.59450926921414671 0.59574951715169278
0.44988703682119346 -0.50803450746758627 0.61609159001576852
0.28944557904120582 -0.57502729338110392 0.7343838823468446
0.10860576972317759 0.46117040248850172 0.67047397867387881
-0.64117218632253659 0.084617167193314899 -0.26058731262270507
-0.1097219328709832 -0.071972548374364731 0.22031660603960923
0.22336866558297244 -0.4186468026500052 0.78686607019096133
0.070020237088595033 0.061820958696766515 0.75514106575369289
-0.39975790326361343 0.31614419539078836 0.51641835612744147
0.099737598092821678 0.67177195940288958 0.4598101668426281
0.47049219625753558 0.4667052553605302 0.54605983136358494
0.17035101644028566 -0.45566239190808777 0.84037026614019528
-0.6377907690333845 -0.031782492312149191 -0.27470144106230099
-0.15278171681074354 0.55650290943383207 0.43829243270597962
0.14674015045167094 0.1152786753330442 0.7508584487383797
0.38366460108666789 0.14776928722463453 0.48963221710064564
1.1267780723986753 0.091176534740064208 -0.28578752938269752
-0.23762152541916626 -0.041173198638935538 0.061138026293325431
-0.53395607983388604 0.31703088303783544 0.42952121850832814
0.35086598742036523 0.38306737337665275 0.58198234800796311
-0.21170412873655428 0.14424994149803461 0.51576909671467808
-0.7661636639130609 0.11390950771849409 -0.34730871416978332
-0.39598735726062406 0.036689216459261764 -0.7168710695831334
0.11186311947698335 -0.45741224462889402 0.54425878674195338
-0.40976710296311941 0.40542952964040568 0.54009374795717002
-0.47204324185255009 0.26154026623815957 0.44611836174318253
0.71723968724977594 0.050705240705789301 -0.03784074506375823
-0.4653027798016407 0.71576408020120175 0.46518908718394769
-0.33648537303894732 0.3837100009493089 0.6043725084867575
0.41415228833820328 -0.49675774559065089 0.59625818028164046
-0.25499201980847175 0.39050331064477978 0.62461060684306613
-0.014626829598826774 0.10348066951952452 0.70354723574497091
0.99781372310077476 0.33244732800866023 -0.36749475557549871
0.24191300840784991 0.52035157215828032 0.61695895971082582
-0.064183490981412072 0.0054830865913728655 0.58083991290797266
-0.84310450558534855 0.1592025196367069 -0.35586971834834225
-1.0730525741489523 -0.1197768908661291 -0.56308722868346028
0.052209955990793422 0.1571537271266302 0.72917476797493075
-0.87049765574399385 0.097159314274424813 -0.43543083479922196
0.11392635570294077 0.17769896708714161 0.72272759484903792
0.13708281400205924 0.43111480518910605 0.66792656428367103
0.2241885854350322 0.57715358340209644 0.59126207782942242
0.2921084088225897 0.53887703879602844 0.5822944191605598
0.13743432082905976 0.14881295499034569 0.71296539884474719
-0.23880179286758463 0.55851540509244935 0.57391893727226717
0.3864820915867101 0.50433011287584462 0.20852711806467283
-0.56690397643432444 0.63257580209354858 0.39622449927035952
-0.087067127730290572 0.57233057753854766 0.61040715713888516
0.60985160430036955 0.054026482430253209 0.14170224865791403
0.01998094662564516 0.16427317261432448 0.73492444008615865
0.74468733511838248 0.13756196565040385 -0.16183744584803039
0.24723551448515657 0.42490813021159513 0.66313988430339266
-0.66745051546743595 -0.038171462888607205 -0.34909194435241647
0.25533017507763767 -0.39441579771271734 0.78814043818344504
-0.023247230656522788 0.65052716524906185 0.59422939370942018
-0.21442110520144086 0.59974967293022952 0.5678971989725069
-0.10997232268123486 0.7634113201550522 0.55402207687083926
0.10813465780286904 0.15582701025606854 0.75300826071763938
0.19414980918863545 0.66620127383671535 0.50732110675335074
0.00820693446108825 0.17831603268060481 0.69299475484642215
0.41804424560403625 -0.061169226642225127 0.19053761611220021
0.25898055096051414 -0.21315762463488527 0.39688454828247877
0.073612918916728137 0.18214791983710402 0.71670032997743083
-0.5168303398632359 0.47780717362235786 0.4675694263601885
-0.82124858975957327 0.25105139909575758 -0.39970099683774529
1.0225780377518878 0.16568445158913292 -0.31598129275160336
0.25272287947238214 -0.2562028774162306 -0.0918908715222998
-0.27881713400925345 0.46910461353667665 0.61498189541310699
-0.1679090937706948 0.13667082581279333 0.5338379835153535
0.54005903268353772 -0.15028023852456668 -0.30349349121374136
-0.4443685187514913 0.52639361229536763 0.51386793407091891
-0.067412627925551583 0.74060577318740994 0.48195106793179743
0.53955492217546064 0.42502116520852584 0.19158661755681483
0.4786382727287074 0.21401862342699907 -0.45688969877893709
-1.0261770566668311 -0.1340862314681148 -0.55071125883175365
-0.47947378587650069 0.4527477243294189 0.46396952323174678
0.19471404471685072 -0.44409078909992111 0.83318382971576854
1.0124432996967729 0.24379669740141569 -0.35397103031374949
0.24021356132901331 0.43241667717848564 0.67267890210486769
-0.26242039057575606 0.51027527738390444 0.56117582959735102
0.20639737992863005 0.63170326445306058 0.45426089481341092
-0.072684430084204443 -0.0024234833271367107 0.51948054858241755
0.75973607332626336 0.14426310457267733 -0.17967539743906236
0.36051846445341806 -0.3978012210599447 0.8219381511570637
-0.62912694418131565 0.019746294080493582 -0.30391015529014531
-0.15500711523070398 0.54084304372425285 -0.24789350104191699
-0.50867387308409517 0.45135987932192995 0.46865386337441162
0.6987560697774523 0.24227842706301594 -0.076242239623049879
-0.47166639665116428 0.38889383117598064 0.48658383734742117
-0.68615200097188733 0.23772475696881418 -0.0013497866598320973
-0.35624817835348505 0.44352378045151397 0.59910403951577507
0.87483942826757266 0.10998719139897717 -0.2625998184020335
-0.51713981117499341 0.51966513117339508 0.363772104535664
-0.50101054849701487 0.57844748368207788 0.49489382981857655
-0.80145066598352388 0.067949870587704311 -0.41330390617601304
-0.12608887958369219 -0.14524372813386871 -0.65166507586159284
0.28432845595234663 -0.16281874600613555 -0.65034631549240018
-0.53523028464095979 0.45228286261390338 0.45564429065646972
-0.17336888870285716 0.37704771633316958 0.60271646206659379
-0.64271787523735091 0.14576373982110916 -0.085554383712314497
-1.031389763785509 0.10306812019470449 -0.49088808877825152
-0.61674659899709727 0.43677074060896315 0.4276617014764863
0.32570559288671119 0.43099752972135791 0.59400803942894753
0.014850005083403006 0.51231816608622271 0.61023470991486317
0.35414403572290987 0.58687507140475348 0.44613072288535216
-0.2167829897098498 0.12112454182804443 0.467950472880448
0.09650826574233462 0.15730491499580829 0.75209385014615082
0.36855097451255464 -0.13948376206944582 0.62864597046222792
0.97025963636201562 0.059526023550404372 -0.27578162037418102
0.92028819614074253 0.2793542371529556 -0.28551526727180021
-0.77747598954094999 0.1668718029930959 -0.31593301351324754
0.45464308483757854 0.43644315141149742 0.55736241719603652
-0.80828218291604892 0.29993222881347015 -0.48124600615592189
0.43872510829323902 0.49639501331415969 0.55914299640325082
-0.25258406010053086 0.43118747641356792 0.62603904255086718
-0.49622846764584749 0.50887571058168568 0.47923202122456754
-1.0440785917023925 -0.051894294063463173 -0.49885511752946121
0.31251693702854755 -0.12780388381186211 0.31356857043981068
0.24844995043074114 -0.53274850805758533 0.81199701934682766
0.16198722304195462 -0.40645476935765346 0.84094831555967575
-0.0010836450600641423 0.53281352744357169 0.53200454424481669
0.063834066247661497 -0.14830010064914156 0.76700509893019952
0.37946122490557149 0.054917761924239084 0.36324248364999723
0.17890952482265868 -0.41838528230383321 0.78878168713245311
0.22526463191596757 0.49707146221965498 0.66246979264713102
-0.98237194546741846 -0.097337050629545827 -0.46864212905376873
-0.23674546339201175 0.52932833627989118 0.56755860424136695
0.045437380773172886 0.471160202134418 0.6195628601347325
-0.9238254222422968 0.17611403116482413 -0.39366634976356701
-0.82459900451192469 0.25492553697502485 -0.44173624266095762
0.19008306086838528 -0.013944578391411278 0.73739409198529049
0.40842633800286238 0.18097900933919303 0.5255852243355037
-1.1830328613875301 -0.017243714820338749 -0.58214075891987771
-0.17277434029213723 0.39887419610590025 0.59817707116662011
-0.59364465012035206 0.59140216928625877 0.42959821744318616
0.11901635025276092 0.48235119610313326 0.67670618912537339
-0.79379509435484696 0.18368486121136834 -0.34773209471423783
-0.29403878406370509 -0.11034328005320365 -0.35508142597530745
-0.2826370277811362 0.59848841068514225 0.5706504104494754
0.14745919377834699 -0.23306485381777015 0.38981864755411488
-0.7561934256574967 -0.069434724387686386 -0.33103697327241893
-0.96183898009966085 0.084601148413505481 -0.49373715439782156
0.52815043222729918 0.20491214487059578 0.38080781272611919
-0.84232211694377623 0.17009317357945175 -0.34943441035672024
0.83267141432521941 0.3039687848152538 -0.2900351921007302
0.30182424187737966 0.47546301123378931 0.59644451175089053
0.049530261523593244 0.62718106111162486 0.5848666583971911
0.96250544459219989 -0.05548568927244335 -0.22609769152189646
-0.036240668674185635 -0.2307475934921778 0.5537381336050885
-0.43845461072743519 0.50579283783212592 0.50418960544480829
1.0391913048146046 0.29483336447600422 -0.31027521376581557
-0.56183962156589717 0.45524164163324854 0.44489401811738838
0.78714057295836326 0.14353163517676532 -0.20480729252875951
0.074297696539530195 -0.19688800446167487 0.78080218158865922
0.37728632815561397 -0.55466155375483672 0.69545251303223055
-0.25920864487678585 0.32664631808695832 0.59145602351460358
0.1186737336072558 0.16554179972319191 0.74180726431232935
-0.75099901691459059 0.31993690183322604 -0.044181301096201109
0.1288907751232943 0.16492429930815228 0.69686139181097073
0.21212663930019049 -0.44988831165151399 0.80146861724376339
-0.6901756647681716 0.54829356726269518 -0.19831149990207719
-0.098607714753939035 -0.20528974414068496 -0.36145015867314795
0.17980948719224857 -0.087686369556489868 0.76786507145725147
-0.2752871547637451 0.37487139143742743 0.62029118250781534
0.16145252333432666 -0.37735452362500255 0.82015211707585589
-0.31051419007060599 0.61311877966175454 0.56311568404478329
0.26200917581768768 0.17906993867397075 0.60203363214234851
0.4403527536680884 0.53186849357553367 0.55705567727118621
0.21542649640511852 0.36525145892849964 0.64404365700332222
0.15768627384214551 0.56394086624045181 0.62051235913585834
-0.13900567576929246 0.4355320580729039 0.59199514444346035
0.44542624182299129 0.38009188132859084 0.56695670511554708
-0.4244178868300067 0.55052923666588649 0.51342173948835912
-0.047616595649331454 -0.2031451717040397 0.58348073390064603
-1.0673637062776595 -0.06071797543108115 -0.50285514885328508
0.051242399959535001 0.46814109616308758 0.60597314960756421
0.12678271506894925 0.12077441926848315 0.76354540992358366
0.010363793557424616 0.57930438466406842 0.59803792109128129
0.1707027483648369 -0.210853394111746 0.35008325806970075
0.43714965170144088 0.59526793406117884 0.53712578042426573
0.28849127471225244 -0.57248829537358337 0.68079332652047031
0.044470572401821701 0.15941217667232252 0.7267526279841503
0.89347119250658602 0.33036856116615121 -0.2725765260503959
0.27115570721387128 -0.44530675730289454 0.80216909276516002
0.30363203179598874 0.5185387309662628 -0.053655148606593595
0.052300407504975777 0.69643339021129713 0.60281352625669815
-0.74573316166625325 -0.013203415616122052 -0.3885914146263495
-0.49950137050800175 0.6982409946092164 0.49529400624675146
0.059635732351878523 0.16963100411746707 0.69620132036802929
-1.1336704973789495 0.091620709716379783 -0.52558736569946585
0.52062543706454589 0.33498753975865203 -0.28090405174974792
0.26582596595356583 -0.26336662526382743 0.44126719528822744
0.98439070701429587 0.34360845170216447 -0.34455692156626766
-0.61141229079506632 -0.028539498842778566 -0.21518388350121054
-0.48596150785553477 0.52824041067105187 0.48288065402580149
-0.50122569985872589 0.42813576158900241 0.47229409872749006
-0.82772935073282106 0.11193415965825051 -0.39079790961462257
0.36765185525918076 -0.39491174748082242 0.525712395116397
-0.7416930054691232 -0.021711282290438255 -0.3831702974649196
-0.72707386234636351 -0.057875574764332145 -0.31182224861003061
0.28668738487236389 0.54422575454964672 0.16618572794749475
0.14271169289569857 0.38739187230011085 0.64088316515854027
0.031902299090051378 0.17431436230011182 0.68263230944649944
-0.7800933313241516 -0.1404225408194664 -0.41753172859194865
1.1238186704454942 0.28073358722951797 -0.319560062933467
0.012064690092801755 -0.22647362565332901 -0.52703769592971383
0.55478587403544055 -0.1310177076929856 -0.21497377702698039
0.051720731344973792 0.44296863793493385 0.62579399013864723
-0.59277008980893564 0.17231388983960286 0.062542999654091713
0.093179433473833839 0.40406257376093463 0.63939396555139016
0.054194603543555764 0.065913006915579053 0.75248032805784426
0.52344525479730386 0.45990289315993194 0.35314925844954126
0.2404954181728387 -0.30581259405322436 0.83249342298571849
-0.41412909551019617 0.45965603820272638 0.55842174578894543
-0.19887662591942806 0.38945766915791119 0.59266306842248462
-0.95145385411302286 -0.13758822216700384 -0.48397166925593349
0.43404626487304138 -0.53622365010849926 0.67817451693599196
-0.16844713054480998 0.36338600576970226 0.56547123103572994
0.3991309687480652 0.25877515794372136 0.5765182340032674
-0.38612092514166213 0.54059805201347555 0.52109433738127386
0.29138433904052874 -0.48435307167279235 0.8361087415654721
-0.2416200662641026 0.58790197849427339 0.36423831348936253
0.0990748332848157 -0.19987872025019426 0.34266577995729997
-0.7148584990862723 0.45618270617240853 0.35133430075774119
-0.79346010108732656 0.039658114352918217 -0.41447574041875801
0.41225942826213247 -0.16845368078905049 0.031505396651693607
-0.51705767094174604 0.42658104996194024 0.46569639921144157
0.82372642708958554 0.21309618413133019 -0.2263853381656683
-0.20068374712402776 0.60370796924741921 0.34994218327576609
0.27765998099013639 -0.17712111613120504 0.7801968927206786
0.28495708043047646 -0.40224417713956517 0.78643362240923764
-0.12864554415308782 0.71050068905626118 0.57759931477797244
-0.18140764811299931 0.26181112486220637 0.51890991558900634
-0.83554413507591707 -0.088023319774779729 -0.39025860852248301
-0.37117295014046886 0.65541868717053631 0.55348897168522182
0.20733927444362302 -0.23201889585833338 0.39230325887462991
0.29871700399846646 -0.38427251082959824 0.84231401847488496
0.1957209765759409 0.49431918738547148 -0.21668035788737061
-1.1207702442741496 0.11295673516166706 -0.52260232529503559
-0.032989659148657063 -0.26642420035823544 0.63964549410004756
-0.069855945809612574 -0.017055486528556818 0.55487254283217713
-1.0837132905984324 0.039198010247370657 -0.53617438192144218
0.45748919498414631 -0.19641359744930137 -0.15231535159908871
0.84212428352138291 -1.5552979722666116e-05 -0.16820692455484076
-0.3017875066022917 0.4537027744428036 0.61784343031717925
0.5525446895170989 0.18264821698979472 0.32780983212871018
-0.31647938572671452 0.54724552043034957 0.54663430800190993
0.35502140305557239 -0.3760498358229325 0.82048181240596318
1.145740420508647 0.046887116829173792 -0.29068291910093791
-0.3898952357704234 0.33525059857431944 0.5320122433817871
0.12655011280512329 0.092776987710711384 0.75872600068894402
-0.69667272428657723 0.33807684525319648 -0.52930954620939286
-0.87347649527048421 0.088172197476826641 -0.44406604391203913
-0.96048197658913392 -0.082315688267654868 -0.48798911646030152
-0.24029582063284083 0.47072545871646587 0.57390305509961104
0.41714585362113255 0.49830297587079508 0.16703434772779702
-0.13638669935226705 0.56202315877957998 0.46218526143097904
0.12141193945397155 0.44247183479352292 0.66435375006147057
-0.62760825213932248 0.5088199349300484 0.095169440162008012
-0.50636680202885465 0.43992551222823545 0.46968411490292283
-0.4511730864659057 0.37839807729016339 0.49439088986504809
0.29112322410727803 0.3452786937039326 0.61843197257610472
-0.24424478529808985 0.61817662473585622 0.51872623607403634
0.033839588391189168 0.61313636030115626 0.58818688190871826
0.46188816819934575 -0.36434574898081107 0.6068003637036623
0.26126932697263627 -0.12495291718458357 -0.68268526631311355
0.0016023030008121553 0.084339136069314369 0.72683398791389298
-0.9905521074527196 -0.1064694872673756 -0.47620884129888175
0.26211652776828426 0.42902697170642762 0.65257712653427258
0.97411924699030972 0.015419528232865687 -0.2391114507279497
0.068554561832360861 0.17240761822540285 -0.6729598920401344
-0.18876978628285929 0.3091232436808154 0.60249519025615572
-0.42490920830216877 0.63856894788159513 0.52770937880014523
-0.46073674781419177 0.71644172595586408 0.49010036947418312
0.71909916011927999 -0.068796766289124511 -0.14900714014907068
0.83494721238163772 0.08252959173633212 -0.25167163629712125
0.027477426072402888 0.49778909374416447 0.61479289116263403
-0.39609173115017177 0.61881206227317465 0.52664842984414961
-1.0986622527765759 -0.087569739682163653 -0.53642281417751447
0.54872029877068895 0.42573112485808162 0.066615367323497487
-0.55411757360768432 0.55542301326842458 -0.23601042961318719
0.031145551128122284 -0.18963237749432216 0.40214156182861993
-1.1510148550007142 0.041690085465960647 -0.5335104010559153
0.17443060092870752 -0.216273491020022 0.19925969064330329
-0.91079643576969982 0.11872318586279416 -0.43337002265421076
0.86180481573842427 0.032077227280726484 -0.24202629022844196
-0.81741452523268965 0.38131213340866937 -0.15150667372492166
0.16522046957617881 0.57674361102156602 0.59689171422828058
0.32625002515220969 -0.13672929745487503 0.7201903930104564
-0.33881594399151027 -0.085189559870515741 -0.57160062920752208
0.79327685047252372 0.046752615895564287 -0.30975789059621872
0.063271347719983939 0.3874674779611505 0.62525482417452682
-0.48863585566504242 0.42776844554987536 0.47053377872624047
0.13708679382448674 0.43861071185383727 0.67796571021487528
0.20270051108017928 0.51824146571850627 0.66040568624328821
0.071390963407571673 0.43671369911755048 0.62414312317176746
0.15580388310144033 -0.38774680751885476 0.83887608846466843
-0.52168777669766908 0.55841648254570386 0.48554910828906817
0.31802958557658767 -0.44320178292378898 0.8413208016533833
-0.019729506829692045 0.097455048956773344 0.6901029886955502
1.0976631219127038 0.065354830867770219 -0.27229748959089173
0.39266922013198785 0.57676285274607786 0.44471475573543651
-0.22393770249265227 0.49320720544794516 0.57625573108405148
0.38953735122079614 0.56718876448981981 0.57481585984469341
-0.56924373608811107 0.034709076042866688 -0.5829725242263406
-0.040559333556596022 -0.11669185515033295 0.2657697075114942
0.97569044957163709 0.29865671633242991 -0.30299995678369368
0.20564839462569173 -0.26053140182004109 0.81867480707696871
0.1127537200031978 0.1805537948530252 0.69182863554427687
0.082029213911938043 0.18605592804678928 0.71521824329276751
-0.77011204271345679 0.27670905108697363 -0.53154105660419737
0.27831191083436979 0.36839227462293789 0.63388313664476126
-0.70047099585045314 0.36336303078095189 0.11490736718920991
-0.35098134422127625 0.14965578823477846 0.370023230507182
0.77428886228763316 0.063670844777408919 -0.22803294800460594
0.19114831438931745 0.60637325421954136 0.58417986544670641
0.068738549352484024 0.18094179662450596 0.68422962152231426
-0.81990965014413808 0.072259944642482379 -0.42094399885800093
-0.93699441198174149 0.12466450168043425 -0.4395759450018944
0.18670484928623854 -0.24430225096839622 0.01278921927824328
-0.54295004647173162 0.040626533834730805 -0.12207201033115478
0.21899826759701374 0.41637308355071811 0.67456630108279392
0.28739200488641303 -0.45279235273255325 0.84275321521573809
-1.1686611860004252 -0.0072349298591493916 -0.62304841399067057
-0.87387393925491286 0.042787219395306095 -0.45195181307862436
0.73144332600882989 0.10344854144968785 -0.13264628233328679
-0.38493341857132019 0.24433021235464691 0.49779048006001914
0.36334111582728884 0.53058645650400726 0.3399984633951143
0.083499693350289839 0.38694679110412344 0.63200183956770994
-0.33050865555174563 0.56999294787522692 0.53766665020213666
-0.46408328444196456 0.56559681805389128 -0.22257227790607959
-0.089144846681583068 0.6878487513706858 0.45431425214738352
-1.0221052131324053 -0.070705157536791366 -0.54497666209605988
-0.27860400514152245 0.4847239231117616 0.59935026067536257
-0.51608643577372237 0.6835817084032626 0.48748235187825995
0.33732479313090447 0.33454640114695738 0.61173556815361962
0.056038101106936911 0.44529761782297966 0.62683082817955948
0.30245187316250982 0.1895795322315823 0.58884875222526478
0.26245341550595003 -0.26668611803575204 -0.1993891618467466
-1.1719186405165725 -0.043760289848749745 -0.60654153551499157
-0.8413551724608499 0.33158889599648489 -0.30426928517189833
0.36181295966700594 0.54791678706377378 0.37844252081385044
0.19889955450165181 -0.57771563527708192 0.74560290165306931
-0.11607913376252954 -0.19826094650370035 -0.43466841328240224
0.81566556991996242 0.18569318870453944 -0.22472756764213531
-0.096313362974259575 0.61861528307488944 0.60920467165981451
1.2134733928330603 0.1662699381050608 -0.36326473882867388
-0.61042961741291668 -0.023843542709524643 -0.23542210438958777
-0.7308460142128923 -0.08222529494132215 -0.2981688999813672
-1.0855163913884045 0.13376304133913849 -0.50243944837525523
0.17698194263722866 -0.40436979833336728 0.78575632696468167
0.376130794503855 -0.24049332795645148 -0.17417101706676452
0.096198057358195366 0.47249138125755918 0.66138406713091213
0.086030911719397418 0.16804159955008383 0.74350037294846949
-0.11071972958121845 0.72453682829370258 0.5934231202188065
0.13231868496653257 0.26526609531223477 0.67402210960041276
-0.31677538664650806 0.3200367164829796 0.56302297406889024
-0.28284253706432161 0.26832467253043779 0.52902061853794047
0.34081896098364473 -0.10014602446035559 0.65035825737716602
1.033163863504917 0.022664561347181256 -0.21204112895561111
0.42478220405243011 -0.51841070581861559 0.62294885372410824
0.54030430056709178 -0.13267279901210288 -0.44248711065470703
-0.44306085553780078 0.43642022200660879 0.51051941385588928
-0.49359054735225705 0.71169088256506818 0.45578290811300282
-0.32662054829014431 0.51284941640164072 0.58609996381469709
0.20440280070750783 -0.40048901773351869 0.49598349012085008
0.20586806626333584 0.40982914828801675 0.6709664744451016
-0.81008703157623896 0.24126321513154847 -0.4857014997787697
-0.42146326945059542 -0.04674819465563515 -0.5652906240644715
0.27378460332376126 0.41892540145686807 0.64395510979731607
0.81021104898382423 0.041693652196658437 -0.21571445290241209
0.32091415645623345 0.4845978348805533 0.57730546914468983
-0.23754432877980769 0.30661145504202636 0.57631777947043716
0.96796474409975097 0.33774791801938192 -0.30083879075230885
0.81155613703293927 0.15644858002493761 -0.22956989627356544
0.319187688852695 0.41614886124339334 0.60092455991299065
-0.77898406073928117 0.46794962129045842 -0.16449682211035643
0.14822208285714389 0.10048775873340909 0.7454723502911007
-0.43896768901519989 0.35909539060040041 0.50535253174944661
-0.66194276196383472 0.5166693931789087 0.39965072656655853
-0.68427278803819402 -0.069900172069059754 -0.25757664933655144
0.28396981483703143 -0.49983806232887473 0.82981524275590823
0.076239711391555109 0.45343673137320212 0.62636506591173102
0.28972243395349917 -0.41006661628441526 0.79472933421972991
0.87622510122731589 0.17692517701093252 -0.27848724942204711
1.1132449392409713 0.19758323950892454 -0.33515254247021375
0.27423131597202483 0.55935824187911898 0.35446188677700319
-0.80712700744609034 0.11685473438207687 -0.37064858348495683
0.31777902772764977 0.31057841747708048 0.58533937542680925
0.12755069151034107 0.55647183798575406 0.65349903182214808
1.1276506824800336 0.11170268745109552 -0.33287741590140424
-0.17060595135749429 0.56716712423825821 0.48115374391986721
-0.74810171078218146 0.22017294718440522 -0.17427794902218019
-0.24834589902365733 0.3075048510693344 0.58801540522642037
0.12239301870621845 0.079436840368275891 0.75592867302050737
-0.33856705826251959 0.37271032703948598 0.590623562285012
0.2474065748635004 -0.34743121592081894 0.83557626595390588
0.52282274201956891 0.40172312591591419 -0.12233039460991624
0.25813301507544134 0.042565235981077365 0.56662029818627113
-0.4336888076633017 0.56219550429822229 0.38906251869339836
-0.79193144279126915 0.20969035100251401 -0.36078505593503807
0.16364695829179679 -0.49665278154148523 0.82589866683609059
-0.85318064094414825 -0.033043631510593266 -0.45208429479479489
0.40401167632019463 0.39756875497667621 -0.26640101667959715
0.79768394961707045 0.11816299068236968 -0.22808465178367077
0.21743145710533052 0.43860243586610975 0.68146189535554691
-0.33522466170143378 0.48329676272099686 0.60165078655355275
-0.27976467333120031 0.32021991573282949 0.58379668018257713
0.25024329162493003 -0.19556322349579314 0.2590655445663671
-0.15088966522468394 0.015700785542560741 0.32520247151631654
0.26338526290687003 0.048124356460156448 0.49554580178691676
1.0336630842825334 0.18564812496875388 -0.32948787804230856
0.24448073751506622 -0.25672348401299688 0.81730193546524754
-0.50747466544992159 -0.049665662919378628 -0.1780303878056958
-0.44013380537144337 -0.058792358308240922 -0.46259212353807855
0.46361179457956347 -0.35345453550956196 0.68025212896912823
0.30833334814370117 -0.30771069481130131 0.82127250650472627
0.52108862019755042 0.49119488513094745 0.50183483727580613
0.9367889187868168 0.14161198049136914 -0.28715399430442667
0.18122519666797887 0.22864455550229618 0.66507246469085046
1.0411621955355028 0.30788489256942564 -0.30908232302005478
0.27610395300929635 -0.41894586211996387 0.78782928045002065
0.07043248436313615 -0.54684328509747115 0.73102571317973686
-0.89435586145166379 0.086328677002517756 -0.45792343119648887
0.41632734005645244 -0.3787330088945402 0.53665699049366766
-0.63079187695368999 -0.034963224402459303 -0.30781002250657641
0.043468289649290982 -0.061929026377411461 0.73982637282543029
0.57502898332845254 0.31350166376966354 0.39088247346878202
-0.4050272541950109 0.43000466326882625 0.56140776571732975
-0.76599142413400534 0.1768210809452852 -0.29549609243760644
0.26183933626834976 0.086561455991441577 0.4909334625773234
0.024227266885931777 -0.15791270727418544 0.74517605321040969
-0.55690634351226853 0.64334129101338799 0.44803616790127998
0.63259230608340222 -0.050323856739306172 -0.045360785149693439
-0.4819788297032826 0.50408679783570309 0.49201021564720115
0.54891270039911921 0.39935933221812481 0.48627832241100211
-0.38356442300092664 0.40341971064581694 0.57379015211084983
-0.34195821517558578 0.3234399227102277 0.55665847682337022
-0.022712054036008428 0.13684933148100589 0.69928206126608916
0.21219679009143894 0.53557690617530929 0.63331622673618493
0.21090484257990072 -0.3886067116759645 0.79263771099757219
0.66677948696771749 -0.077776825095784707 -0.3000481644866842
0.64701813094277072 0.0029478051133675076 -0.43126296798858466
-0.88153820199395705 -0.089042405977616854 -0.43160002269763714
0.23022475395827638 -0.49520833730629016 0.83619497505471929
0.88910310696220662 0.010609453741405317 -0.14173143805931776
0.13928202130962342 -0.47509893932588687 0.82359970044554243
0.3096173633696917 0.24873040780230138 0.61277823181944802
-0.22317088655865275 0.2530340141623808 0.58857977258375893
-0.42763513676110293 0.61110606640010601 0.51530953679917124
-0.39433849783161573 0.44758041761329348 0.57556850234137014
0.43425497356127851 0.43668744359814032 0.56642850687050617
-0.77003369182287007 0.41780301369720185 -0.047782530849647231
-0.76100588667766655 0.062338130459957911 -0.46334299381467942
1.0528262881031543 0.2124349475711087 -0.35733688284872639
-0.76821343234073647 0.22789775699910991 -0.21214170697312107
-0.013566417046645921 0.081065916903763247 0.69295383958977586
1.1566192246379678 0.041216786097346803 -0.31252760730082396
-0.74482751801497926 0.13741140018343551 -0.49240346890608228
0.055284302272096297 0.382284070390495 0.55322333973068627
-0.29094663190298586 -0.11454364027161185 -0.55092309927829641
-0.22970876089665127 0.29099660064987293 0.56292450544479644
-0.64599197851481605 0.46597558760513785 0.19418241132700365
0.26436012856173374 0.31337900764259802 0.63047215420133751
-0.15563526837854727 0.26802049657909677 0.62294292386172423
-0.67742803194781176 0.19206966547856921 -0.60830733006289972
-0.068082297108571138 0.070311329839051528 0.57120843089733087
-0.057313916856857827 0.41356604250399037 0.60401329664705627
-0.071821171732002406 -0.019049556885844143 0.52350578918462254
-0.58928880897540625 -0.088909228316150696 -0.32314057525201811
-0.70012798619801786 0.17621687414854353 -0.16184555670846312
-1.05542950808618 -0.11017086238861271 -0.52323973843640714
-0.12149369595064163 0.66449375226176022 0.48474159288272411
-0.65463910766023203 0.19732657156648412 -0.0040994235876840035
-0.50261572813776778 0.37752583314535565 0.46805277114861898
0.21739458374208587 -0.086097761124944383 0.76143987547175074
-0.89790222833710098 0.18706680046211999 -0.38926755637945848
-0.34181554343176135 0.33067551300066683 0.55090575903709904
0.22965888093285841 0.45465788733076146 0.67539508122494185
-0.40505015868066613 0.54824981561237818 0.5213295036650285
0.10790864673872304 -0.33630212835132528 0.47988465483012621
-0.29208417058861635 0.56542339529291608 0.55053435599557354
0.2032305633854915 -0.40185642239482816 0.78756410036419089
-0.60139749014866206 0.5142094815278232 0.25694318890910584
0.19370208847711595 -0.44649076355521583 0.83991195570927635
-1.0910880122207094 0.077541352343346623 -0.51723888084770953
0.038974464025131328 0.71594275759412374 0.60238380657098023
0.3532294626944012 0.40834264551497013 0.57447232368822698
0.8093782327291037 0.015353309008771687 -0.17540463133956752
0.12342846919656005 -0.30451834758473384 0.45668480928521593
0.07060029751865271 0.51486742380178208 0.63467511633212881
-0.83975688248097391 0.18645261180652756 -0.35876110097897707
0.13850742980068254 0.60038023026930198 0.59873879853617029
0.021730513401444274 0.53401160782147672 0.57211287619124229
0.16659683831844599 -0.37284855551066776 0.80926278232091942
0.31376598695787894 -0.3728454145579978 0.83688954281146932
0.25826182744310433 0.046820768609957264 0.51600735792342822
0.84944769066253145 0.22751088164190347 -0.25028723454571655
0.086771537654591058 0.48725290566166746 0.65694424349002112
0.041885949727517344 -0.45570689218919108 0.5623802906464519
-0.36662507979666992 0.26841656418684384 0.51931803036732682
-0.85049345326899761 -0.013672805759776585 -0.44599917921971061
0.0048971030015472761 0.17426091175728203 0.72298806543892424
0.51732194371343998 -0.15927105230113442 -0.44044841085070874
0.055428194028567912 0.1560459709298298 0.70412138212419362
0.95231923797134477 0.16182044013248231 -0.29481300159118701
0.0062779758458725854 -0.22033047724676191 -0.093340732262106596
0.78579378384388676 0.26674153645007703 -0.19178464871021761
-0.17747977712262519 0.4238612673897032 0.59365806007026201
-0.61680729873812901 0.50793803791659742 0.45295409719586976
0.3161970638566089 0.55210802436678119 0.57326202361236234
1.1178810100418206 0.083769003877606163 -0.34600417506527303
-0.33081926035886067 0.55707013310262021 0.54168894639867982
0.0037515502548354229 0.39886622072543693 0.61194909844689716
0.85052960408626865 -0.0051126340717360108 -0.21071011864630385
-0.70253780118442744 0.43564380545838172 0.36523092761138887
0.72474350975015589 0.11686669256789228 -0.10664808421987138
0.19267750108422327 0.46501653645288266 0.68238700761472071
0.12745632555164219 0.16028342707579324 0.70053720481490378
0.023307643992651561 -0.41062010144323513 0.73811628569618715
-0.37244324637650594 0.32437228988244532 0.52475169096578367
-0.26510210884545787 0.44521435753201088 0.62339972418656553
0.5564566415933736 0.28824891192584301 0.43004911813268909
-0.023292920140268847 0.13918433920750681 0.70690769497667616
0.074875336561473438 0.61595909817275218 0.58750575726093945
-0.19566893425013343 0.50353499565527204 0.57894007241499357
