# XYZ point cloud file
0.041156488140905445 0.43459378643621993 0.52473412882055115
-0.73918248129726472 0.50952780124157493 0.16103344516838902
-0.46379444902322309 0.55699162030662519 0.55347562580548626
0.34974825629759643 0.6871583693261325 0.56716735496667159
-0.056938266811866534 0.040519242342856199 0.76209721022815735
-0.11286944544790689 -0.012289138720163129 0.71161176067997634
0.14698326533720429 0.84024652461517446 0.4011804850563454
0.46414852133175266 0.43691338434730342 0.59577909394061779
0.012324209503870698 0.35131995916814707 0.64702857445705053
1.2826837866869787 0.16100545991410375 -0.40243138822348845
0.8889305915493444 -0.050746812379076855 -0.26588705291175874
-0.66437607979043367 0.24356007970161886 0.39961833589339957
0.99402465061897383 -0.072128316531694159 -0.25827064287578594
0.13276962387296098 -0.4502695980977206 0.87619585706666703
0.33689630324497877 -0.43851389056657697 0.87578142912165813
0.68152489055380094 -0.041600793625039323 0.039403273876458922
0.78569052133974226 0.36708614510621418 -0.065984663344304639
-0.0099648151924833783 -0.32876360335626376 -0.57844743067077786
-0.23855900046479928 0.43918974107241815 0.60643246807155826
1.1215484524374078 0.30032148268627168 -0.34277578885949644
1.020423920539415 0.17930799040157175 -0.33464272140498519
0.082379968151649052 0.028813784684991406 0.81189813992279758
-0.65008452244813153 -0.069640257417564744 -0.41690280806513602
0.42737925404089649 -0.21581199382004401 0.03033977068141791
0.43469505122206442 0.51051460580380259 0.577949949517651
-0.026587403129418874 0.067305757044755055 0.81090090001057735
0.27269485622639333 -0.050812602352140912 0.57439342353615075
0.22298169765851705 -0.42902986198128168 0.88459649701081222
1.2714022054728891 0.21812176740051359 -0.36664023914578792
0.3653803608524564 0.47966577953642364 0.63695580033400789
-0.39391350259212388 0.61214542037027186 0.50545541041812658
-0.8702973068795048 -0.024688535706302694 -0.39960609699557459
-0.26082794793080932 0.44486625342679198 0.60722344906316827
0.45243067629346712 -0.63973728490453996 0.71790839470727219
1.0672021538957486 0.28303716793920808 -0.3324283891253268
-0.87535510978286801 0.090406365805021149 -0.44753988696749269
-0.79958059285831418 -0.073711384039279793 -0.32673774240858933
-0.32598436513422868 0.58245193900127079 0.51740743504800157
0.29928929665714099 -0.16205457140538893 0.33318326943205179
0.34754776520733577 -0.35132079860481724 -0.24192217100693947
0.040827672252531144 0.045510386901413513 0.81898213381035001
0.12042670194596283 0.68728352798675796 0.56881850072055418
1.023745481599271 0.35246320632525308 -0.29050126939387111
0.95520570961774531 -0.10317526800947974 -0.16948857590760102
-0.28269376698534021 0.57336515617981276 0.55408393814832646
0.93191934703246337 0.031825166569429353 -0.29002790165862802
0.2440947373051765 0.43477086390600772 0.68449307011352012
0.49421086807365588 0.51022129176735653 0.571015399321817
0.057559486194892706 0.54820944864278576 0.6107682960112033
-0.24437787807687528 0.4288404251442457 0.60519987490780025
0.29329267479208099 0.76105137191206351 0.40963523560764958
0.98063742217886585 -0.072440440237157899 -0.21510852171705386
0.66078981266985748 -0.098254627617264889 -0.44328431631394016
0.16682162644764631 0.50826846584375018 0.68531740480477765
0.098840765228682237 0.15042971491562196 0.79457904148277603
1.0238002751458239 0.36572232776513758 -0.29494105792070613
-0.47393728346603936 -0.12848592089971334 -0.47274287967420525
-0.77732143293962519 0.058893592285175322 -0.35575578479576864
0.2664083396611141 -0.040097441437539239 0.51299062156082931
-0.19522722970152184 0.47898923242573099 0.52679558489735978
-0.16339337524761621 0.82003557491210732 -0.068244957002111306
0.0055038977972099445 -0.14327255830762298 0.8301560090759903
0.22336598096492466 0.39743010521478128 0.6627659758277149
-0.12999913921228323 0.014629925364083363 0.67061291040351323
-0.58235448656750766 -0.075000236871031301 -0.47215864085545123
0.79456707520563485 0.2150619733488579 -0.015954306180673505
-0.28623642481788547 0.60299320060946526 0.42940235722605546
0.3297855504569891 -0.18517005505182982 -0.66962871785048028
0.42589924817396785 0.54345991906130875 0.57088739577927861
0.12904089296401722 0.62834568049880191 0.58538131017565664
0.53598192612038487 0.42491945593957303 0.56742642189328585
-0.50813838263376887 0.58992929661545035 0.4305775287013196
-0.015378681928794435 0.74884404353141698 0.57682806612791548
0.38285116924735796 -0.60595356244917542 0.8286633576267155
0.8383855885911804 0.028228709262830609 -0.27180885112482844
-0.85480997238487966 -0.00036803454956546577 -0.40663727264869376
-0.038047106028468392 0.85382906797767089 0.43813657208158929
-0.091934467072053216 0.53747875775578735 0.60360490181401438
0.11413234025839003 0.67170876407885216 0.46207053228183614
-0.78691494353558777 0.55073935478612634 0.31088202679721277
0.15483675588247703 0.659127842628912 0.57686009782604053
-1.0499539213601929 -0.13566264193975119 -0.40064152327725644
-0.41411262429242957 0.57083963051083109 0.56751813822096242
-1.1205190994078498 -0.040171547066519264 -0.53116494815010462
-0.14556703866367737 0.652656523560454 0.35202024114438846
0.46072172123179556 0.40659869247180991 0.59871394772862541
-0.069714024649007555 0.75199955076172542 0.54320828989930625
1.0560373103618979 -0.033489075388764444 -0.32789894378865769
-0.75945754722925329 -0.083035602827752797 -0.3018730650187389
0.21313712971606602 0.67850380249858899 0.58232811436393828
0.66795852408445144 0.069265660318621247 0.17879069284681881
-0.75647331493854608 -0.074699724588224159 -0.18369258239268627
-0.80879916123351236 0.52347879700691469 0.28076237585937402
0.20258044014819454 0.38693620048678024 0.66499057502800341
-0.51823218147090966 0.29209174158580098 0.54129876802363519
0.1063920850510387 0.11315417087459867 0.81435219678349124
-0.78981190032606996 0.1296808003861657 -0.5026109028013237
-0.66594139223409243 0.21535660157970338 0.27100239156993755
0.1710823970819364 -0.48705066657659907 0.85714280208161719
0.01498454923293524 -0.56254884087612866 0.87573699597042243
-0.097562274941556559 0.017167447452494544 0.72748160458243749
0.04221304442218976 0.60811211528454967 0.59049400021142695
0.10374900270724652 0.64653591157100321 0.58231029594397832
0.064581410401542527 -0.47047012050517967 0.90793041720457301
-0.76872973318707505 0.026480382172226147 -0.37677889358152328
0.99032702704928299 0.36099105128615072 -0.28978614428247518
0.29119883654424772 0.63856443783177808 0.56214105412781556
-0.66376369990220319 0.46456741654770872 0.43367843811258666
0.47281715775000333 0.70745405813240869 -0.088999765801481612
0.0074146988034273775 -0.060223974176725759 0.80361561154467953
-0.14033993826690683 -0.16781365538852921 0.40300466858023265
-0.49050285377912406 0.51876905944061991 0.55827810044876891
0.14280519357323662 0.11440871214975346 0.77316917551958086
-0.2864019274789813 -0.24482291389450284 -0.51253744942448698
0.23888722461098189 -0.39358058679423391 0.51017374643185587
0.17186154979382717 -0.38987130923364521 0.90810093038950157
-0.23858150366113406 0.57888017692813798 0.42726145428954787
-0.89642918370186031 -0.1154836352974753 -0.32951502175301473
-1.0555853521401275 -0.080677215661828394 -0.51534225278267387
0.84541762114942554 0.02326551067378313 -0.27789023677771718
0.10737970558102994 -0.66352262021080599 0.77304934567537709
-0.64841078230559024 0.021548677183269471 -0.55258119438727693
-0.33725557054173549 0.79377133121373478 0.44959719457783365
-0.27895448133112044 0.70646374774005094 0.54181635642721382
0.23784293095773013 0.66332266147625973 0.58772573795567595
-0.81935011679779013 0.39910778281199455 -0.20639657188499427
-0.81373511563494105 0.24040170013625795 -0.30683259932952822
1.1579061763073337 0.013572796911868856 -0.32878584296558921
-0.72525440175918909 -0.05834931059828008 -0.24880851014376493
0.51042255743994414 0.11834786941537079 0.40345133847129455
-0.44022268424604061 0.81174754847284369 0.3154938710308457
1.011347081923331 0.28989551143996439 -0.38684247451378218
0.17539349809730753 -0.5144279943553336 0.87334316441614579
0.43271579624177248 -0.097563008145542529 0.205567653021415
-0.058011272276021764 0.15620957075549569 0.7747241134369256
0.15770076161111657 -0.38584793864960143 -0.44094682833711962
0.6959941534910894 0.50562709266422923 -0.25952350334869312
-0.091238903624818679 -0.47124500380720846 0.78118846606552328
0.20334408100878321 0.45453344507660653 0.68845686796168071
1.1563025225284962 0.012885396601082233 -0.3389941553246425
0.61663911410692229 0.61755905247368559 0.41334378765817359
1.250775965245114 0.27131410144790502 -0.35199786813657363
0.15567561515221096 -0.28056890711464355 0.87550651347121766
0.44549552449248475 0.53103595560800776 0.5792186175113847
1.0663008860798908 0.13920407578936733 -0.33250724838540835
-0.59277895145478521 -0.089747350197254327 -0.1092641029136372
0.14392116175865421 0.10708556630007493 0.75703628746178842
0.54795235567947786 0.6751372469050152 0.4467978870127971
-1.0713810913338495 -0.012284535079145842 -0.5570200870425559
-0.27293725249578138 0.71951061118205772 0.53023149077663145
-0.1309096706991868 0.080608989520358443 0.66492214752455947
0.11755360567856954 0.63551444792178824 0.5654031731115694
-1.1162512370069448 -0.15771852331542857 -0.49376713997995081
0.19530083731750469 0.56792376401020017 0.67355468820119846
0.090125257056574704 0.1632426179544324 0.73284809277407525
0.31205009727553623 -0.22810751708343069 0.21863693946076301
-0.11379953698340106 0.65569700407445053 0.55631530405792606
0.097962657033978218 0.87460642737734284 0.41551586396786444
-1.0974262872794975 0.082045701666345505 -0.59077460280587424
-0.83569258811955471 0.059236071230188925 -0.41962757974192177
0.23464982743323848 -0.31479603760763342 0.15158764714176387
-0.68430786839067625 0.46840297935949171 0.42574346880796199
-0.56594458354225008 0.59337118628496888 -0.56228573644584223
-1.0562578595808825 0.14512596655728172 -0.56647227238009856
0.26657131398634615 -0.38185667243093591 0.51164822090267581
0.78747181479192152 -0.064793564087723521 -0.15614950515911463
0.27001848553248919 0.59537942121974829 0.65054207806461095
0.10947740049947274 0.43775400330000647 0.64605081544431719
-0.61814695120262364 0.6529057004171348 0.42961750729770642
0.40328223575625444 -0.54013539049782133 0.84705363171001924
-0.36929105077738367 0.10207093107838916 0.46782485180258693
-0.16037970004906477 -0.17257729233255692 0.64267211413567349
-0.90407643291413375 -0.033742347685063678 -0.51817454731114143
-0.9321968557090905 0.00043245217740439656 -0.45452438309833543
0.38129766401242904 -0.26595900799196992 -0.56170637733010986
0.1194776488743936 -0.59931632938120694 0.88794440471410407
-0.56976270411363128 -0.12718386877916299 -0.32545001473777546
0.5009018326554493 0.70685331213929237 0.47497701498389455
0.072112721783697431 0.7213408109171795 0.5603651711416866
0.24274353304624441 0.25227570650671693 0.67470785867139149
-0.16771515477518761 0.64222464454577521 0.4107593592264811
0.37702053840736705 -0.52147924170695847 0.86444365076850271
0.64695618824760137 0.42579505185354116 0.4985218782473062
-0.019486807867507228 -0.6186703089050426 0.80985002114406468
1.2373650858573688 0.047536249621942472 -0.34869869533384579
-0.13155284906016185 0.64948232911580284 0.55457805519800818
-0.63074793374393234 0.28563459746012099 -0.70859998220660092
1.222256001302775 0.3359758764430123 -0.38997379747942773
-0.34657244489575501 0.5124512965959358 0.62082024423231985
0.066167284433515938 -0.59672753915342114 0.65750480166512881
-0.020059847075590831 0.76188189908721338 0.4055863695240669
0.15312731660551915 0.4926392450961774 0.66824440651866546
-0.99808279599692984 -0.017046524591062373 -0.48837437351644386
0.2211280153015327 0.6277375350928549 0.63868186617394596
0.62569471742560534 -0.10710212068929814 -0.0017198479729314542
0.82482108150880906 0.15809769533046047 -0.186197062854355
0.29291576150254972 -0.47650060704468633 0.87756756132237301
-0.080645213908876912 0.14745763870836792 0.73813317716292248
0.31665482834007985 0.47643742732737571 0.680324135900789
-0.99346211507594084 -0.12091607730114728 -0.45370608913246713
-0.24702816596874744 0.5465970676548102 0.51088840464458674
-0.68739883863481666 -0.047216952728650452 -0.19798635034956158
0.89998304972967436 -0.078515232812310431 -0.19904439338699698
-0.14776336198100282 -0.200818508635218 0.57175586755680108
0.6136677837161244 0.4376429903248702 -0.46917627090844061
0.13370529689680133 -0.28128300929733496 0.87792963686150793
1.0945638711957391 -0.04116458116707622 -0.28935025713168061
0.75627828005958131 0.41350892209472478 -0.23771404847314415
0.4844234141069097 0.66541364602706499 0.57231030067181754
0.72771577392181763 0.49628554075806997 -0.033067886684290393
1.1779614837723322 0.046387697000366046 -0.35050057373604915
-0.81724964436042669 0.05937778723089282 -0.4039223267802039
-0.20898523401210323 0.6706511323146791 0.55536044253513417
0.61741122243374846 0.22185267984579671 0.40021109018383738
0.14948540942213384 0.4871458374696751 0.66059492012321286
0.21652079089739207 0.66308343501989531 0.58291712605071577
0.59580091848167172 0.029158829232653005 -0.58792899372824303
0.36472166543507845 -0.64363577024759844 0.66569109114631431
0.12847893625863183 0.41461721143489405 0.62410559988366821
0.08875792230426871 0.62345133742730274 0.58667955688849105
0.37660824262184622 -0.35184821229433338 0.81283931042826829
-0.22633966765624791 -0.099208920049570715 0.34050440316557617
0.12549501171074873 -0.30340100543515436 0.34576170280458252
-0.26575663917699188 0.52152251411041339 0.56547422448255524
-0.58552455761098621 0.68342597285516016 0.43481423256279861
-0.63497704306505653 0.56367704249643957 0.42753097312454713
-0.34238824317715721 0.35266199415817745 0.61442837895124836
-0.23475022791568367 0.42559690427452956 0.61689919206527399
-0.72520229594194863 -0.079553444630124481 -0.14368920666368767
1.0797998070173374 0.12930427608498496 -0.3354918264625053
0.48055438776487236 0.48590331362615369 0.58132672597798329
0.29329151525299713 0.45601403117734396 0.68996292694165007
0.13651293055529479 0.41978888141621651 0.65693958527287677
-0.75320889139043068 -0.082107197466075976 -0.25495408461381519
0.84770661798280189 0.083001611317947477 -0.24163674480004005
-0.12840408208584186 0.65016812123382062 0.47524689048585156
-0.16142204446245323 0.12419592580759664 0.65467123474650357
0.12562932024557671 -0.30231082367524464 0.37538215591340496
-1.1185676470629256 0.079478933031152388 -0.69271373338032172
-0.092216069192375016 0.12125312629468787 0.73501705505975989
-0.77028985018704166 -0.082729226176987303 -0.16953508382823435
0.72640545625645769 -0.15862024549007181 -0.27607868580274753
1.0539137486191064 0.19871950770276769 -0.35306343670145512
-0.035529855217075301 -0.57252547637670992 0.83135423815581655
-0.55411719668800163 0.37877703310715216 0.5208247609942509
0.10421971668030627 -0.065038618279867011 0.80661158532437804
-0.16986413316611682 0.029941604663678456 0.53179254488381655
-0.38710601251429466 0.31978686936958278 0.61120708135304636
0.022481718275377816 -0.31678153335055059 0.25014566026328966
-0.53190506208320532 0.57126318636987117 0.47895868441288858
0.78836602045058468 0.36211304265783717 -0.10733801441531332
-0.034416464385645718 -0.27479173546134561 0.4074677254685799
0.87807712800379134 0.093076715957018941 -0.35344749570232104
-0.59529021925395842 0.37133790031788827 0.40504779673514602
0.15987953117947251 -0.48525808203734938 0.85821487751717074
0.32453195224341602 0.48936455755242725 0.67486831758608101
0.16282627067895561 0.67177643270391796 0.57622976739270015
0.42433203902013661 -0.62999145267153356 0.64010734725175045
0.2599280220482254 -0.66537680333893512 0.79230176372132455
0.15577117547827246 0.4992192646692386 0.6792467599324894
-0.72334430175693498 0.061102658226367068 -0.25824560591666224
-0.22366738650316442 -0.14073131947138773 0.2849885030511774
0.19935678156339387 -0.49159369786705609 0.85378639361602993
0.042686523524114506 0.035986611381760625 0.81654284844590741
-0.5101180548848534 0.33316111677991378 0.54674166336203278
0.23904672464005206 0.78994284053801489 0.40704601948345687
0.59630807219407389 0.49555130053931729 0.53716872214646783
0.14286541243666973 -0.51618020775168116 0.92030904916900003
-0.75959853918642395 -0.077647255881032273 -0.22875934741054227
-0.11835846307396292 0.63277284990449334 0.39616950472563239
0.14497525830223701 0.090692238498116806 0.79970567119703162
0.41591113966108573 0.10655468727314554 0.49871987304019116
1.1677327216394331 0.01183426242441632 -0.31493634383671809
-0.3606044425684054 -0.10552840121790974 0.12055472817802171
-0.6642058510924107 0.33527397651376323 0.44968873464955461
0.43419759575317629 0.39579643408599985 0.5833260932158737
-0.30825485083552273 0.12873147564333787 0.57462972004252588
-0.82017350687458013 0.10647950459197142 -0.37501025155469803
-0.33529451372459373 0.034964755451385887 -0.78663284628264751
0.017329686737196148 -0.54997453411149833 0.63235101545320616
-0.5048583813573071 0.43872188642395193 0.55033864414084555
-0.60329975973462346 0.26975241119311733 0.48390644483236933
0.74867655803006627 -0.014264474304637176 -0.064678763975738907
-0.44746070367645352 0.83298033889266199 0.37031571809914432
-0.42447659509520186 0.41324598812395918 0.62761353974905454
0.37914609184181058 -0.61682958698301427 0.62712940366812786
-0.32090832698243421 0.42041208846303346 0.64769256129387642
-0.06306827742652299 0.08446064456899316 0.76594719872319761
1.1575687583447012 0.36721450587781712 -0.39653457541277692
0.33814047111408341 0.5711997924487564 0.61125184142045619
-0.14458705194449628 -0.031573188721145229 0.65231410966458681
-0.87690232506681731 0.16724379906469566 -0.41056067639292504
-1.1561385972196199 -0.13424965554442536 -0.54910647051180295
0.029958858562229018 0.14300700041868164 0.78140471597243888
-0.90742582037016906 0.096382277271599648 -0.47801231238002728
0.11009121462585192 0.16267418605224648 0.76718160914709976
0.18434861923649759 0.46152537344315325 0.67935604482872591
0.3353236510829678 0.64649124927422452 0.57599675440925679
0.40617900639311477 0.5954476525731911 0.5707406198213576
0.13467318840423115 0.12760322549325065 0.75726305572971597
-0.24963884517263768 0.62577067474016146 0.55292545115857727
0.55278669704017958 0.59430008353492281 0.15499929769650445
-0.5920728475585415 0.72464654520784588 0.30678687504825319
-0.05646964963845047 0.64285087028507037 0.5943944512332866
0.63339644212545609 -0.014619830567146108 0.12490736297949301
-0.0095818801528242403 0.15324139018416938 0.78962581240621654
0.82156983379934889 0.11422582730178199 -0.19878515187920831
0.3190216930390215 0.44945267665469224 0.67198562902644765
-0.77740847923316903 -0.082661421097900867 -0.31124190661429418
0.23988805247689093 -0.46993569004139302 0.84808667083288247
0.053321584496528018 0.74491593120153199 0.56297049419729905
-0.20365082969898918 0.67882829390343069 0.53697450174775252
-0.0014298112618371661 0.89888920153222596 0.49064187418044547
0.10193640010676042 0.13945709044583254 0.80221758604355164
0.3413900361630251 0.77417557345833976 0.46827824067204915
-0.024555334229575898 0.16761554336539131 0.74377013135073877
0.38787828456203188 -0.1512471731539895 0.19652652714724672
0.19403950630430788 -0.31357381968958309 0.43997310501333065
0.059711589078789373 0.16977752699495419 0.76357898563637994
-0.60644766115226645 0.52630833756413775 0.44472103744903002
-0.78542958235376847 0.29000582527518648 -0.51202148442613815
1.1076961831155576 0.13377779992880656 -0.34631187977139533
0.13747689800473939 -0.38563825992913847 -0.05698436701843157
-0.33180361693828608 0.51450291855094443 0.6199520308735762
-0.25526094575111724 0.11919541810330536 0.59209753759790118
0.48850085940730681 -0.25778079732297066 -0.31414068050904032
-0.51001395953977013 0.5853269080292246 0.48639953373992562
0.059428236604617268 0.87919098533129336 0.41154790360762306
0.69002421855198426 0.479486443986336 0.15136369576064101
0.64188629447239753 0.27779665987288782 -0.53020381873997868
-1.1208366904986558 -0.15572622807573744 -0.5223298233641156
-0.56743943031528588 0.49570184893829006 0.44964354163739628
0.1721187643617883 -0.50824443904735606 0.90753663846537691
1.1339029428809817 0.24498572394814011 -0.3839319245242705
0.3121066800126715 0.45865224582481812 0.68205861133496626
-0.29295363719262468 0.56560513706677384 0.54920695513213591
0.35190005964455118 0.73533558304635571 0.41160871327304882
-0.15927516977920142 -0.044561198517953371 0.58901417112203269
0.84130203153892991 0.12419055838977222 -0.21728841149783129
0.37409883100847141 -0.48094581725356322 0.86246529556202933
-0.72514060451634776 -0.016981068765949625 -0.28270538846495086
0.11673444125198262 0.73240864783430171 -0.42358596264365778
-0.60453930324467553 0.49419319539067286 0.45438024448538084
0.81350973258906967 0.25309176953126711 -0.11735588786204865
-0.5787485569991917 0.41923705714289206 0.49392663492180411
-0.78126605459260645 0.24317264418586726 -0.016566029707525409
-0.43509665510627826 0.48417362455464197 0.60754118832423476
0.94438546084547204 0.073585556978114974 -0.29717044185975316
-0.57049312751574366 0.58102545899948677 0.31087087191494067
-0.55866037816343539 0.65040423239736445 0.44590390481574449
-0.85724210329217243 0.055048813768347915 -0.43377684775527081
-0.1780727053004405 -0.22250723430771635 -0.64687596357654886
0.2472806303626065 -0.24812481453200375 -0.66180381640937824
-0.63443407655502604 0.49556366819778941 0.43818810993690871
-0.21824937752437634 0.40288919939998369 0.62394645024448003
-0.74492571192364121 0.13168449096921753 -0.078080607740127483
-1.0448905076805595 0.1184947028159633 -0.56410824630682344
-0.7321330229658134 0.47804629078625194 0.40682900443011061
0.41609982123750511 0.45636695309002828 0.59328322648165255
0.054769997467348119 0.56687588462107463 0.60491330309243452
0.50930270650278597 0.67118909500925161 0.41401180680946759
-0.31758037480063361 0.099821105940198107 0.52738944964421108
0.087416864755017976 0.1418103254337395 0.80213025862530074
0.36719909582780907 -0.2226010680998779 0.65949119966096648
1.012394266055201 -0.0066984521679429587 -0.30699203357987326
1.0630731330944165 0.30216947878645439 -0.32120178973894076
-0.81773304153093385 0.17136779671471469 -0.36264864615691472
0.56964391316067209 0.45747480485773973 0.55128150493009764
-0.69782335394088335 0.37098200145931637 -0.64344589675240771
0.56749995929323305 0.53448000216988256 0.5496972814828669
-0.30869207497559525 0.46879254183464059 0.6406556443361282
-0.57353645293294875 0.56417547047978378 0.44950373520381159
-1.1223910396399503 -0.062179636337265642 -0.49988257185399698
0.26147224474037944 -0.22327045993576911 0.34058020031040481
0.22965532993110882 -0.60728779886065454 0.87787412966562561
0.13482575911331107 -0.46494906951584547 0.92050509886863541
0.049101000852380672 0.59739707847461254 0.51164182695193006
0.016489285989124802 -0.19274409448927998 0.84676692518394292
0.38254892317517486 -0.0063537689061838876 0.37140766611208509
0.14532880272358506 -0.48605213311713086 0.86450672755574676
0.30956757503564125 0.53970765364265416 0.6647904898922099
-1.0881380929163571 -0.12013620079144749 -0.43772178809285478
-0.25533755514804835 0.58937728053408711 0.55234236708935835
0.081323114711616462 0.51469876236083523 0.62152318130697815
-0.93775580756664922 0.19540392061608769 -0.47156786740055523
-0.76717114742141224 0.30084874332426403 -0.56758981999999092
0.18225586038873498 -0.058923029012338479 0.78964320911591512
0.45421011063083849 0.1451281245785021 0.53348928157309361
-1.2101360069893934 -0.0054160798088095374 -0.63768187294811218
-0.21218379403169596 0.42902046357669432 0.61457234004884853
-0.65135711950109343 0.66868870437181283 0.35848587698987977
0.17375469819329492 0.52475378443806653 0.68350681183787731
-0.81550029289269155 0.19551743515463382 -0.41035666939759841
-0.39989308081862696 -0.18875522492824459 -0.3145044235921568
-0.29154351886647589 0.67591682498192607 0.53853468925284798
0.060245622022969236 -0.32826183385449648 0.45044283379507677
-0.88514723425592123 -0.11150907600371018 -0.27786096195338628
-0.98476532808239359 0.090624349221350098 -0.5499314985852366
0.59151186345011375 0.17132836235589455 0.37166786643311056
-0.87302167407069309 0.18046874581333849 -0.40811705320969471
0.99596028290870109 0.3503946143313339 -0.33277805610742694
0.39911412467334406 0.51330334802124655 0.5924205841946506
0.13766864368125908 0.71532984709035641 0.55804403576641448
0.95535309654893963 -0.16556701309242716 -0.25551451071966857
-0.13936596863370765 -0.29507444152722406 0.64823586943572087
-0.50747050846976904 0.56010627974186333 0.48143664304677181
1.1739741312285927 0.30315693799049392 -0.33777416260814119
-0.66390444871387455 0.49942923243402748 0.42371379090887462
0.87034883866564527 0.12339525768372006 -0.2423557435057333
0.027822610936235392 -0.24417995666223535 0.86293665709452805
0.35592958467997171 -0.66009356071803049 0.73419811257211443
-0.33740676340406406 0.34453584366992662 0.62428375508089484
0.11566383347421461 0.1493351924233024 0.78840983820585153
-0.80899461056162014 0.34802855193165061 -0.10485289345128557
0.12520042710710477 0.14593049571876215 0.73925522107420338
0.18693286041588575 -0.52045602231498767 0.87199182899846628
-0.52788332370581514 0.69097517182744117 -0.40986734213002096
-0.22165949215975811 -0.3118515050418762 -0.31218931460629484
0.16625861082875293 -0.13711162564643953 0.8271423185289688
-0.3498566749399048 0.40220494036404131 0.64654317775333947
0.13177973514402996 -0.4377127289969166 0.89810335530816676
-0.32045885860673895 0.69447981895238786 0.52511058962203538
0.28455280435376817 0.15201606942920143 0.62540533437181089
0.57955687283220136 0.57979842987381081 0.54528587877798218
0.26663875919217528 0.37852667033011578 0.65738095701802868
0.24739641917827626 0.62909726780477637 0.60986978416036397
-0.15976000588612127 0.47318223003232218 0.59967175111262527
0.54452524846343353 0.38671778617083286 0.56509001253533508
-0.47702083461131828 0.6155394442194686 0.47974466518558057
-0.14746092014666612 -0.26127980089028413 0.67788163483999853
-1.1465258129168827 -0.06949800040741072 -0.50392144847080278
0.088647763191547213 0.51134144335112297 0.60649124169810165
0.12178141363784656 0.09901130483555276 0.81473730692688839
0.070715389606045953 0.65256121034755687 0.58009897301522706
0.086196553814376742 -0.30801563484175765 0.40396674384343845
0.59646697588450959 0.66395947611640849 0.51925058895967657
0.24674507859131367 -0.66998081178124891 0.73885392490180068
0.02033673902920885 0.14588477126306265 0.77923830197183275
1.059374390028307 0.37423315662015488 -0.31003784136957613
0.25925954772245774 -0.52243226344937121 0.86065851111426372
0.53427552807276868 0.6646619655578121 -0.14793557470355934
0.16351271640339959 0.80399095974877044 0.56870803038024853
-0.84061512107747749 -0.04701781289254825 -0.36702956770649386
-0.50700567745740344 0.80550619780995303 0.40904699101867514
0.039166238537145404 0.15515484629435417 0.74393480245517729
-1.1346263650389554 0.11550976472473551 -0.61615380832637801
0.71517691865815713 0.42722226379319839 -0.35401809254428596
0.20100411361508819 -0.36705523778240357 0.48785275340633394
1.1489499000205221 0.38242393875213798 -0.37450728031280489
-0.74172443348621453 -0.075467046234090285 -0.16281905082228976
-0.55520063344994597 0.58808342331356744 0.44828284065628488
-0.60259126248986838 0.46620823322037386 0.4657309712813742
-0.87151418289746019 0.10959539817506669 -0.42883139634773837
0.31877256654701691 -0.51215911096858802 0.56284459412576959
-0.84107790530414572 -0.057435787521560533 -0.35708983851579612
-0.85513937302893162 -0.10081860384896568 -0.2601407728139713
0.46870250979768802 0.66033472622281741 0.095769143497276055
0.18174869784700842 0.4085037367923976 0.65408850129814855
0.0042848183433124021 0.16130928917735698 0.7310828210969631
-0.91421503961974171 -0.18979034025534702 -0.34991289371800915
1.2399278378159111 0.26731407207388469 -0.34279674133634241
-0.092034378765450953 -0.33752200111692454 -0.49559652451101144
0.50919195011035079 -0.23691169087575004 -0.22617560490584809
0.081639439330801977 0.47949864740422865 0.6325388416798754
-0.71113655152073019 0.16096300349460935 0.082321231335053646
0.12381197842110225 0.4304521869778144 0.65199017273381887
0.022937211931765233 0.041448457154334539 0.81504182527543412
0.66639080681544449 0.50476572264305442 0.32601704456809388
0.23564949137937052 -0.37033876973627977 0.89342869459724739
-0.49886128737556046 0.50362592320012289 0.55664068937285993
-0.2472048338650854 0.41796622633210934 0.61092895034150985
-1.0678950048878999 -0.16825127823038533 -0.43593173496702509
0.41922063172837154 -0.64978577021449713 0.70514097600536862
-0.21267971994326196 0.38603529670990477 0.58473971857852902
0.4626759290853002 0.23972457277839476 0.58408437177175365
-0.4337116699366188 0.60329744397344665 0.49282231661024412
0.28928566204903206 -0.56010562444298051 0.89184558415552528
-0.20019465730792874 0.67853639964114232 0.29836756116222229
0.0036938429692510155 -0.2912224567156263 0.40532551205310918
-0.82522590271274598 0.50362813509706994 0.30523132818370868
-0.86120103858541697 0.020185272487787453 -0.4217792855672946
0.34373724431292274 -0.28395296465335129 0.042432973699447096
-0.62133265245050051 0.46450514165947998 0.45818741386943884
0.93963525045462459 0.21842701365439776 -0.26605894476413239
-0.13779631087681299 0.70344371709013265 0.27800613389363704
0.28060547945257053 -0.24256464859161164 0.82967085878080438
0.27501361077706354 -0.48155927919475772 0.84090165911257664
-0.053556780221323486 0.82441172417320208 0.52787441383802935
-0.24854780805839471 0.26439312647340851 0.5534918045447359
-0.95928122285072082 -0.12522941528540643 -0.34051715160971385
-0.37930903095601387 0.7482460544312628 0.49982248027384557
0.13055836241750285 -0.33137081057147577 0.44409140118117074
0.30446938676214907 -0.4574180795948366 0.89465412775520292
0.45646157465017101 0.6626896250117329 -0.33822907707008953
-1.1127597788480479 0.14017620248679463 -0.62177190974351859
-0.12879796160523282 -0.32372953954739936 0.74022452194718902
-0.15599821186680174 -0.058449323224264327 0.62835376127054721
-1.109197452596276 0.048482399449945812 -0.5933820154890066
0.37932470480039449 -0.31986942707650812 -0.14746200283069344
0.85933807134951667 -0.082531356702628456 -0.19719617784941512
-0.36532892576325882 0.49608606491461793 0.62659898650111234
0.6117649274084016 0.14424170224969979 0.31559985128681545
-0.34789627352045116 0.61163774828592821 0.52251445913926187
0.36840303945800112 -0.4578778138077203 0.86179471768428328
1.1669431172149647 -0.050249155135955847 -0.32076225886633081
-0.49528690914114115 0.35565694491724065 0.55918012310545606
0.11767221845274989 0.067084688142691196 0.81185084586331646
-0.51807918597638558 0.4415071011800602 -0.72110402475602697
-0.91180883483960251 0.08597674220353646 -0.48420337887268383
-1.0565489640758479 -0.1057057994771704 -0.46428479696582903
-0.27771657247283521 0.51667815322076471 0.57293642940290646
0.59225597558687015 0.59149651376045176 0.1109827462393711
-0.10007271876604928 0.63856662862992342 0.42320850269657484
0.1675154479689569 0.47605438477665829 0.67439463882306327
-0.62539826636162843 0.58434593771678922 -0.013496307306715138
-0.60516758281967675 0.48039950920539165 0.45908115933454319
-0.55711580404021976 0.40661759916134321 0.50590009127880631
0.35408520424827516 0.35100324325925492 0.62817904385522905
-0.22581781547023461 0.70526255940882809 0.4740288744928387
0.11271978299677521 0.69685321254874899 0.56368749274704477
0.44785225223473057 -0.4804875556499778 0.62746075002738078
0.25113266137149015 -0.19184825019661944 -0.70500702785670732
-0.043415969977713686 0.063620123308535503 0.79136142586860903
-1.0971466727130794 -0.12934446723370896 -0.44355738526708333
0.338186660137064 0.45420384075806952 0.65956227326093408
0.99590562755877166 -0.070535579175842855 -0.26965306447827997
0.25216664439794201 0.24933645281980232 -0.7832167353660533
-0.25211154276847925 0.32273215104820951 0.63730161189363344
-0.44808012479439885 0.72682262856427027 0.47099056080825719
-0.4487451229218804 0.83152819291324964 0.40051377037843494
0.70569260985845705 -0.16631702314972974 -0.17122497257295155
0.89279378072259519 0.038973933204358158 -0.28596383865618513
0.066240357394812932 0.5483327298872871 0.61230109163308288
-0.41939978204758166 0.7020353754923907 0.47701192329225872
-1.1758292486236082 -0.095631756913539423 -0.53602510299515194
0.71984539790217017 0.49917756897100207 0.015119696146471906
-0.34060252092120624 0.72214241963919745 -0.4508647519000788
-0.069060275423857398 -0.27024214041339467 0.47580479211791449
-1.1718079899997162 0.057975236951145814 -0.6028521429617193
0.075206746027213001 -0.3239245084718203 0.24819902276219308
-0.93870660103074677 0.12550526498624248 -0.48928653828333823
0.89546730314313416 -0.034311796626438573 -0.27344346930302477
-0.81212176703814976 0.43703068891675789 -0.27045488455358679
0.26273997792704673 0.64724908965373773 0.58142394896506122
0.33263511020691849 -0.20849337446615435 0.75948555884070768
-0.39314113105571646 -0.14646907828358546 -0.56542290705392828
0.83995059387250359 -0.0008184236633519415 -0.3441106908702567
0.08283779149348014 0.41120745781240564 0.63936494065484961
-0.58694269622516337 0.46562548107368062 0.46423519105998157
0.18589501458036484 0.47042585824543193 0.68971329333617515
0.28742160358853575 0.56717096710164272 0.66044114727838243
0.10485168953273671 0.47141894104659965 0.63112465921988647
0.12765106879542198 -0.44532199976476772 0.9187897091816164
-0.5893552256177248 0.62538856609992743 0.43999580334693267
0.3247243564574096 -0.52049256610567107 0.89092557547065487
-0.071039417408823802 0.077053252092044056 0.75275223302381633
1.1311826467160699 -0.018841980335905673 -0.30229960741912976
0.55004096737580799 0.65579746689813456 0.41496631442851095
-0.25086294916350038 0.54434052773854558 0.57057352510577175
0.52998754898916056 0.62675512068977124 0.56180667126137207
-0.57209434989104047 0.015843610063386082 -0.62171054431276618
-0.15046744630417486 -0.19324612409237418 0.33249273053327677
1.12082341981142 0.32009386155953412 -0.33466087748214957
0.19296160811614449 -0.32053855502874773 0.88376220600300481
0.10709867780062776 0.16469493721619499 0.73369179276147989
0.070786927990327264 0.17374519636495367 0.76089362964484319
-0.64771134670041963 0.3467440454062185 -0.69196114851283852
0.34395054468230191 0.37954552944056563 0.64368973423844444
-0.78175235482117511 0.39461923140363719 0.068331610534431597
-0.47180192812708555 0.1332377190222499 0.42388537686624606
0.82284393344007256 0.016276617268173643 -0.26183262085831149
0.30529431486761016 0.6859853458952776 0.56387256288006604
0.051649564246465829 0.16714977150025878 0.72903707826247199
-0.87196765084040351 0.06182795820557585 -0.44571240736296547
-0.9599650712410881 0.13497298883300002 -0.50218569472596908
0.071193256868143706 -0.36557550419049634 0.057397773900540905
-0.66152611379671278 0.0018152399430584332 -0.0840409655818255
0.28243018836362532 0.43996842984142348 0.68616414301407325
0.28733618092764868 -0.52658895502580827 0.89870112277356862
-1.1779211884512168 0.0062627171349172173 -0.68884509756285794
-0.9306756641211793 0.031119796982276959 -0.47165944276933258
0.7904609110128531 0.065060068720282471 -0.16646609474816598
-0.50456802643790155 0.24909055696847449 0.54342104323999685
0.51437606303214967 0.61073029626209685 0.29950671137358142
0.10791814226463892 0.40995226625400649 0.64626788788626577
-0.35651523681800423 0.64044231220648995 0.50585299375787063
-0.23430969489640141 0.74238241842351771 -0.43086301466166921
0.014452759932000347 0.80999167782083292 0.38763280535681677
-1.0950985604262247 -0.085216941666104828 -0.54272226244163857
-0.32566266421243295 0.53352707275049727 0.59867338746363608
-0.53215293815390297 0.7862600753336404 0.40289989181554642
0.40708109049898678 0.33542059681580239 0.61997048660834198
0.08760329192503491 0.48225744097044276 0.63328379919360156
0.33437765242270157 0.16204362098024183 0.60757099821806948
0.14323830292161066 -0.40008966184785377 -0.16732238140891731
-1.2031679030708435 -0.036353196142224653 -0.65159145930380458
-0.80003628449703257 0.38797647347119835 -0.43764031260780012
0.51343462115330984 0.62854663609313222 0.34124396429786641
0.15339621904314482 -0.65568415234059096 0.82366041913583832
-0.22959165759121891 -0.30138689377758032 -0.39178821922249574
0.91928124736548167 0.18119398406767617 -0.26372066872773425
-0.052833746252573199 0.70193549687327006 0.58413456677408515
1.2728087238356256 0.10129414410486492 -0.38731008327420158
-0.73530363731529125 -0.070214463641330327 -0.18761634773647229
-0.86960272085031942 -0.12794150065031984 -0.23542368901216104
-1.0765428838819329 0.16148040974670674 -0.60260902519124659
0.14313231657722625 -0.47180430002481311 0.86119642468645097
0.2757393163251094 -0.37203879495181458 -0.15697297325995629
0.14332077658511366 0.51380511349633551 0.66781242759890791
0.075041996115580822 0.15423638672181372 0.79280587550717785
-0.028269175641208122 0.84160919879575635 0.5448657360991076
0.14464008386186666 0.26226696325970611 0.70445929702593713
-0.4095188699055754 0.33721068027460521 0.59587716602538254
-0.3748906957453233 0.2749368631788246 0.56848956028870656
0.34260147737754076 -0.17445178407493145 0.68419100437208735
1.0539112947075435 -0.071384404996690298 -0.24299461572837844
0.39620495506136955 -0.63724892979876446 0.65191321563272719
0.50594195426820754 -0.22569543531280956 -0.45982337711550958
-0.53439789470770283 0.47575243930483135 0.50815612536476529
-0.48170146416266402 0.82744969963930037 0.35783752512468592
-0.37726783556630217 0.56797175468834382 0.57629473433778688
0.122658585659706 -0.50542426699004439 0.56216830627443581
0.26480269135541068 0.43268627971564277 0.68316260985756827
-0.73994355811637735 0.288028056227009 -0.61474804194540722
-0.46380855648580965 -0.095398076349198169 -0.56920041245833808
0.35005012475883612 0.4415234920980915 0.65062588151563006
0.84768400207311778 -0.018462634762852481 -0.24751813635147535
0.42524935674704878 0.52533519019237307 0.57019261525073306
-0.31308524295335172 0.32012672248976792 0.61085886180300442
1.1293997269755627 0.37340433645017734 -0.33233872576621382
0.90236147969484781 0.14161177766931488 -0.2675925368626535
0.40445740197285351 0.43777616757025273 0.60226867874852363
-0.70947113450214072 0.55910959667122329 -0.32995572455828759
0.1444829029042638 0.07349285194728572 0.7949565359625903
-0.54801453668976574 0.38389549772177545 0.52347781264118076
-0.75391118233048715 0.57588135014916308 0.34386367048300581
-0.82468796152058577 -0.11759547555979388 -0.19421079838093691
0.2781905451625315 -0.57580531723698125 0.88738370367262709
0.11504242200995574 0.49190942207004551 0.63122119484567651
0.28208347912930876 -0.48915320139621299 0.84858963454230141
0.97748162727131804 0.16770753352404855 -0.31539971498550479
1.2000799314809942 0.16139319471214142 -0.36131031174623018
0.42062238191227763 0.65053661496177595 0.30873800653218098
-0.85442091920228691 0.11346078294752038 -0.40593208400040526
0.37773617866673126 0.30791385796281867 0.59370048880981319
0.20530129511902118 0.61805415136474284 0.64812647608926088
1.1779173526076598 0.043632407103209925 -0.36076771976161703
-0.14478598046082691 0.64310772675491124 0.44380525346533251
-0.80800229108618815 0.22931938414009678 -0.21565567548881504
-0.32726007941262214 0.32179864916365464 0.62404953382205175
0.11062576561240567 0.052159751699814683 0.81035443287595532
-0.4282539040400426 0.40004620124738799 0.61486910229688263
0.24234809296811921 -0.41425288633060742 0.89654104082893582
0.71859087079444661 0.49799848698929128 -0.1900057198402525
0.25332885245088921 -0.0095829131953864 0.59829841376884163
-0.45733066991908089 0.63592700606174835 0.33008631997232829
-0.79469699007463568 0.23016751037048622 -0.43963844298722421
0.13001694125611385 -0.5588444543818889 0.90878966677997841
-0.94159373597328422 -0.060329560822971917 -0.43601743045550911
0.62955578264177614 0.52257584403671986 -0.35662924927313888
0.87107284756914094 0.089703149312831743 -0.26461998088037042
0.28548677672803802 0.46700825237572774 0.69175989559262874
-0.39846532755036002 0.53184267599156043 0.60104739140727492
-0.36424857425109369 0.33724233442960072 0.61780307388118594
0.17129500415962529 -0.30130228320736152 0.29783109529601903
-0.2550576405081264 -0.032104190607730176 0.38621321182816004
0.25426678749390419 -0.0060197740651801723 0.52204429836678345
1.1265839116756529 0.16020385188602204 -0.35914270235468804
0.24079637614418115 -0.3206953262364729 0.87564548243807572
-0.64121902639481565 -0.10651721836931027 -0.11868480382427737
-0.51608152093003312 -0.11638244584571422 -0.4441774725588612
0.46716735154542022 -0.46156830143670435 0.70080187922953607
0.31625166432539675 -0.38098152516236294 0.87001695661233702
0.66253170659513794 0.52719020127622107 0.4878263131420213
1.0182077456572558 0.1115632991066775 -0.32068720849463617
0.19843919750977257 0.21639117654843654 0.69505832276192381
1.1805283618822329 0.31985916416649274 -0.33610400607239255
0.26364211939701843 -0.49769548539698394 0.8444532069172701
-0.0046359462920593231 -0.61108254725208455 0.83581692956136955
-0.92911621269214795 0.085865605461097227 -0.50150121473737697
0.37884455455767796 -0.49836651255987219 0.56508004697617631
-0.74631376917723546 -0.08177062741310015 -0.26576076653816783
-0.0048613098982590586 -0.10011308906422212 0.81432626471989122
0.6746946465164414 0.30557601105283938 0.37578747895750375
-0.49549899748598403 0.46813029948611429 0.56794452016533281
-0.80762051090616627 0.18218822345179941 -0.34224215071414132
0.2594286467139888 0.039597122520131478 0.5140160592189833
-0.036621144644147119 -0.20182535055109807 0.83073375438196306
-0.58963671287754771 0.73529190656809384 0.36563860440988005
0.6210093681667761 -0.14232845927971405 -0.062931751972787442
-0.55986259421321005 0.55809483794739645 0.46626942748629485
0.66826679738675887 0.40897627924952773 0.47518149948174804
-0.47642587847406492 0.43653716391316144 0.58879103606478722
-0.44000109665199183 0.34155241343297349 0.58863106763191553
-0.06919541740581181 0.12232431852652503 0.75818542975866476
0.30521071708235059 0.59039571270984803 0.62804931382614493
0.18691217987814612 -0.45841420136718991 0.86098320600316613
0.65313878023465932 -0.16532191492541237 -0.32355120301263085
0.68493397398047895 -0.040316852827274152 -0.4676136686083554
-0.99590895675949209 -0.12179655430056402 -0.39002041608007509
0.21414103666357365 -0.56390060062358471 0.90502204621274274
0.90962289612966263 -0.075276436327440965 -0.17126674735267855
0.10031921974534175 -0.53450134458229792 0.9106130877143257
0.35589056766022953 0.23273156306539367 0.62863831275683069
-0.30571209251058917 0.25784140464956562 0.63433810553162928
-0.45954002470199118 0.69212183344493061 0.46423813853792328
-0.47939687450749613 0.48912138657481896 0.57952669958496728
0.54593799433503465 0.45856819212341304 0.56134015424530803
-0.78197320296346629 0.47495688979781181 -0.1565143788319423
-0.80144214671225367 0.048502670169602302 -0.49019048382303998
1.1557637826191147 0.19548063186834685 -0.38552274278690923
-0.81411082839408966 0.2416996407580223 -0.26565601574113407
-0.065157089491364673 0.058451780796237474 0.75708729587674295
1.1744697180663368 -0.057818597123209692 -0.34232217029381129
-0.73349912063161149 0.14664598761447145 -0.56312570575772769
0.074113514015914816 0.40618055667982844 0.559710210011648
-0.36115105587248575 -0.18660257961162707 -0.53373366286883872
-0.30556474670230216 0.30122649566784165 0.59887186607833609
-0.70032550409770167 0.51986035528504093 0.1235494931865091
0.31506838493974332 0.31329094468652086 0.64514284486811979
-0.21847576280207637 0.27453338274702943 0.66567635113613743
-0.5733234007796657 0.23800810610437306 -0.73640951094321228
-0.14086234809153453 0.04103355845084522 0.63362238172903229
-0.062254528484745997 0.44550498510679892 0.61531149330606461
-0.1603676645435641 -0.062996609431385409 0.59551611299623186
-0.71755412549425301 -0.14760845125612632 -0.26476793064708115
-0.7775747355333511 0.17265383936392531 -0.1802315969120154
-1.1474074659738092 -0.12587810147182321 -0.50446326115109352
-0.044008535868505838 0.77336141041499118 0.42739873975376774
-0.75926572937069636 0.19330805773253057 -0.0034216085713332234
-0.61696178508221511 0.40607347627757817 0.47575044994294302
0.21185490556133102 -0.13924055349731534 0.8152498287286627
-0.90708813986697567 0.20758436593070306 -0.46967686697102495
-0.43780497446131594 0.34981753011679095 0.58055956955037047
0.30429442563252707 0.48638185238945786 0.68324678886235768
-0.45498633632059082 0.61265554507008824 0.49030785536581245
0.013104927895017049 -0.42938413706378287 0.55829355961393379
-0.3115319333095119 0.63471803139929983 0.52303014160660855
0.17579931164555163 -0.47191727761693247 0.85780891682817684
-0.6456100006125487 0.5786449580947467 0.18194609624470637
0.17208113592248475 -0.50965736479114332 0.91467734644445198
-1.1048099501035855 0.09411616946770629 -0.59140366754768481
0.15445928668511844 0.82984826791132105 0.56471648423223897
0.44338824291503398 0.42765094771982293 0.57305705743862756
0.83336090501903692 -0.058028640093472195 -0.20498020485602675
0.031528976976917811 -0.39888892636592388 0.52926247050500486
0.1237837782208393 0.56815028100163878 0.63214968115145176
-0.85859299409909795 0.20173239153145617 -0.42767568007508228
0.23723955630159477 0.67811865988173992 0.58006259360752388
0.073518515143516261 0.59634261046809889 0.55773573607923321
0.13639749171630422 -0.43504250387886079 0.88579199900310446
0.32224483711075047 -0.44792144895798791 0.88609735712921589
0.24961946530121271 -0.0065725422010942669 0.54433921165901111
0.97276813570193976 0.23791204235594976 -0.28949811441115436
0.13541740490349685 0.53245032191762931 0.66101590660647158
-0.062781982950986137 -0.53817177870098565 0.6644671073349242
-0.47888231340148124 0.27709497276147332 0.56085010065160645
-0.93285170516588245 -0.038049156655575178 -0.43728422809016942
-0.027982891041101077 0.16475184274417465 0.77690880624533598
0.46863350885737187 -0.26164229441532361 -0.45282106573372083
0.032372173151769879 0.14020535459534078 0.75427655786617276
1.0418382063334475 0.13777643228200809 -0.32804701542660419
-0.12577656608483245 -0.33188403508107456 -0.034703425246455311
0.92406048469403457 0.29308577772092947 -0.23456998022381059
-0.21181821057641947 0.45923187419394274 0.60460879377459964
-0.71517349546646081 0.56378137078383783 0.41198325896137433
0.43949070984348637 0.61207805692628403 0.55972606061123154
1.1583225113839486 0.009201001799011177 -0.37437258130231488
-0.36200054872332466 0.62397002344976815 0.51389045552279988
0.011057072557291825 0.42654934666095379 0.62479384385642511
0.86683815055446001 -0.086713363727854542 -0.24011336869464905
-0.82070787017685021 0.4785410627360146 0.32964830064733786
0.78753110370984158 0.081337236160059945 -0.14039853442471051
0.2610628449460517 0.5004969836087696 0.69068315337276553
0.12298125436833462 0.14082195992120994 0.74375818098646551
-0.055084324557455044 -0.46704823288839692 0.8432623088840594
-0.47511385684967777 0.34235616045549788 0.55356685555960539
-0.32109830221267366 0.48568096930273041 0.63474059592423338
0.64667801838833228 0.27176408091992932 0.41935762248627606
-0.069259308025655386 0.12547681427886137 0.76615607368683492
0.16500270049047305 0.70030454323414038 0.56346290655705911
-0.2121636387436201 0.55718604033313124 0.57139703549758813
1.1122992487052357 0.09519153197078678 -0.35132344567608786
-0.31383195437646894 0.43649151725334856 0.64892051902713543
0.20136277849563111 0.83969532935551916 0.5360687458357658
