# XYZ point cloud file
0.37698990150150813 0.32633023514257542 0.033074420506647897
0.49712838137764331 0.30239119464698888 0.013476422384800596
-0.18235069240082652 0.089100641678028947 0.3482394797810987
-0.20230159894431968 0.13057648081555245 0.41683404898556697
0.42139598963425712 -0.023563943225813677 0.4514968122854176
-0.28142420027586335 0.15533114820001898 0.41206478291922299
-0.031442263756095795 0.38095358889557052 0.35706110033688837
-0.67962719039693364 0.2091713560155819 0.0019939642488425169
0.00047182639521786696 0.2557263000681344 0.45709099908285328
-0.48500960259009424 0.17784746906155885 0.24111727166623792
-0.24183032044870542 0.20683605152872125 0.49677243098974089
0.0045931332849287326 0.3901634332768098 0.55511409300322878
0.17209610209741288 0.10951369983554832 0.47538490726252591
0.15962486307545565 0.088486830534405259 0.42586943823676765
-0.19707115897902808 0.41186060365486699 0.48643852533123189
0.17685085277878987 0.32586372042198503 0.52590757839844704
0.055340290320469679 0.22188561159517678 0.50169115771510864
0.57103174822164937 0.44416737407368989 -0.01850163205437147
0.42474843604798523 0.25451814154797991 0.034110321975291125
-0.26653136534449851 0.082393566271579455 0.29189137256249492
0.51570246697019462 0.27159588848392791 0.040862627508270744
0.45774109608269065 -0.030243131709993737 0.41957117833930624
0.55470543245400339 0.021503095049306281 0.44668790349080323
0.38003872850413156 0.22012542167615368 0.17571494668140852
0.15858198954744682 0.35492108750962981 0.19441465036576275
0.006526063507643759 0.079972727242105163 -0.32428051724085871
-0.086450281711250382 0.20759241311288723 0.49204784477371222
0.34404380172390048 0.43571459413536684 0.032398142542826275
0.34303639392856966 0.35810871520474125 0.0287867353709651
0.24268128272831696 0.12852721868343009 0.51236244798372876
-0.43648900929145701 0.062107655841084519 -0.27834814038473182
0.3505468949672968 0.14547142782736272 0.10187052390411799
0.12535341256967011 0.34381308979553338 0.5296418844428562
0.18229406157675493 0.11807277526506707 0.5144757300659657
0.3172823822221893 0.15585419525662364 0.38252758406527682
0.49450534222202958 -0.0019364954925980005 0.44078186368525712
0.52910512170540913 0.46016187291259314 0.0085027613187752954
0.12808436574091317 0.32185663347257931 0.55047917582207184
-0.2480997899847566 0.24244964436702204 0.48308960844991111
-0.59292821000771845 0.020295085848120509 -0.28613388362326014
-0.097456819505697123 0.20520771768418403 0.49375918171146704
0.69801180901835114 -0.010646398843828564 0.32029168521835122
0.31294691601872326 0.4099504190823377 0.038564465494177275
-0.66915567449173774 0.064767235852926541 -0.2727776177551901
-0.49103818879907424 0.017911588465747641 -0.25196142956835049
-0.20407969160014172 0.24366346899614144 0.4807613052052222
0.33304491987859031 0.13913311222701083 0.24020811458369146
0.31963734784487718 0.10600806941516187 -0.078856534980012771
0.21990812604268029 0.12445057738311449 0.51793140224668777
-0.075974990257818037 0.34920706432399268 0.54777284957597006
0.2479756251252638 0.42076385629803142 0.069197171765858226
0.53210182983073473 0.25373369343050284 0.081892939566011458
-0.17296019192378553 0.24555963430192634 0.50049293113762006
0.39060497379640313 0.28741239007125058 0.035207305444914017
0.11394292960852571 0.2855879927491739 0.55868023664659638
0.14752667601057315 0.35529489641978629 0.52977180117882727
-0.021892472653980838 0.29084219136211542 0.53546261758464719
-0.084909241076103703 0.20352489834126208 0.48799189027403844
-0.10209160880694834 0.40458580372451519 0.48028142117746658
0.51711615122167265 0.26791292582217141 0.063944310188100734
0.26373843350134618 0.20825318578186297 -0.092671412717017149
0.053148252943944638 0.29541153839323769 0.57299763517329327
0.19899203477536515 0.16938355183974163 0.53742114900106741
0.23867511035633704 0.42641296153356534 0.067235285587333465
-0.32704985010648741 0.078681692768803657 -0.29696629251527806
-0.5467895649889507 0.073626791143692305 -0.21880644753009049
0.2977155783282075 0.16026629096750053 0.35361902479973384
-0.10614113036644812 0.2327190796209761 0.45799934528444858
-0.48687066624279041 0.37748237548674202 0.20984364782895282
0.27727290268047849 0.056767659629312184 0.46736354155600629
0.11779694807172773 0.27051014882187963 0.53610157952394544
0.13515519821487756 0.098149599785536779 0.40870472056766477
-0.41776091327931175 0.076386910045585732 -0.29984162093841427
0.27031112654469874 0.30842734562041535 0.20162872150978162
-0.22328399954886372 0.26256347015454762 0.43470320461729883
0.062924022657687539 0.15524286830641704 -0.28521633734597618
0.10419936666814386 0.3530816526731374 0.53203752519113434
-0.040343905686293952 0.32974067144722097 0.54361042633961543
0.20525294612656605 0.33537775944537684 0.51382361747290139
-0.31019457181190835 0.22095694045536529 0.43116566061918282
-0.1501907114199337 0.34955144569779212 0.56465001331314757
0.64875937642161252 -0.027182775611857946 0.37969349539022429
0.33640013513256062 0.26641087945997982 0.039654661630410648
-0.59595226517445687 0.034574245335302844 -0.27938917104219391
-0.25415034581262091 0.38849543726626901 0.50821505307914494
-0.072582993359186665 0.26319327878506582 0.52310561216576323
-0.10209725219970786 0.34276746816615011 0.48386245264765215
-0.47432520405516609 0.16286862973247496 0.35239117126869757
-0.048310971032667405 0.34488517594657009 0.54693738901737121
-0.68421988871384332 -0.09188145689458932 -0.34851780794775494
-0.22221976085539477 0.21981283664170737 0.50912394378957815
-0.84059585844201745 -0.06481413249330481 -0.39502772499025435
-0.21887989500377586 0.30233497048678326 0.4077711421172121
0.19054628716275301 0.31562268853067749 0.52081307112868536
-0.1801607736062055 0.34238693496261019 0.5451942576036658
0.51846319914451444 0.29965970592821356 0.009170982392905605
-0.44975859237235416 0.024280974634752872 -0.23509036548301671
-0.035780184572494961 0.36203824295700454 0.55648965081525481
0.34644001520910284 0.2477009082220859 0.26349993826657259
-0.40303489684036498 0.019990106364977611 -0.16457344572007251
-0.48638681573515391 0.15213564028303433 0.32387747256087107
0.11514612411742722 0.26370601569628399 0.53335208053383387
-0.17021542053910191 0.1134534576050284 0.39892024931782999
0.21994290526975113 0.1582112243896634 0.53923541589939195
-0.65867543665310657 0.10267834657427288 -0.28104620398864616
-0.29546136126455408 0.091583684866733184 0.20383263764432019
0.49024952578389613 -0.032072595965746131 0.40250826454630551
0.43940363777680685 -0.11008276119924154 0.37406699149612249
0.15789764062534822 0.098456664430873531 0.44504748857309162
-0.059822305265963743 0.30850661730795437 0.53848385044567415
-0.058542928177523462 0.33188501893776856 0.54531580747145059
0.43282483256969079 -0.062484460829347666 0.42533927030265878
-0.53679981445356517 0.065725088467223525 -0.24103825172861104
0.21841085696980875 0.41385374812592529 0.070190235284330479
0.0055662033121708504 0.36108681642177753 0.53975095053033395
-0.33519535829386399 0.14744099357470153 0.39353686472178584
-0.19539660182555416 0.42058849598484088 0.20535323774552394
0.24367750413681055 0.087116377557577424 0.47584807860007422
0.15014911631679195 0.071887837846733194 0.2100214108575188
-0.23722223404581758 0.18832812990896361 0.48762849651234752
0.22760674402478306 0.16867305193887955 0.51866994103031383
-0.17317737047721554 0.071134598395859922 -0.31795608646340795
0.44944303022664078 0.057366890484557342 0.2554208858515935
0.45543564197311409 -0.003126924368541395 0.45975139048938546
-0.1947783649025108 0.2623562190677648 0.42759370601432967
-0.54266639462733524 -0.029583233637075046 -0.28198928138322288
-0.76322638528334075 -0.059627835203664104 -0.39694275725016226
0.34243212838705861 0.26652924753511031 0.035972981097695839
0.52340964591757133 -0.10905400072290938 0.29564777594191444
-0.54407658121986657 0.098228260694604497 -0.32640628752894213
-0.32707656145675879 0.31974836692814151 0.50259256831133015
-0.23455774142241492 0.29217244335247206 0.53278642005905785
-0.018258420823263344 0.36095356745251272 0.55710218153343893
-0.64630501151687891 0.16288759881499582 -0.017265074868767105
-0.62450033352982459 0.12189552882351706 -0.13114842952604988
0.56979665730603124 0.34365067881574501 0.016304378328140759
-0.41607586607521624 0.039218665776319106 -0.19124139282938935
0.30369155004183213 0.23859577928817077 0.36526712091554581
-0.42359267505896114 0.31848020367453539 0.42863180061707862
0.25063149360788606 0.39927218487186389 0.0049327130815871312
0.50405304748627711 -0.045154708157107648 0.40461010749568432
0.33140636641159704 0.17355473551708739 0.21344789299080763
0.13013110563712516 0.14232533319497009 0.51668878028912013
0.18192503217916023 0.079820385554161766 -0.22855014001624077
-0.040778526329548787 0.39348819117891848 0.094383018372318772
0.34610874280549653 -0.079248672564043665 0.33280275110144697
0.091000937098520585 0.28453493236706279 0.56335225828419389
0.56658282083153677 0.34327933079086781 0.010093484008721954
0.0993775758108877 0.41355136724088992 0.47276563865439369
0.47795879950986075 0.47296234504336748 0.021397411318260132
0.40277619749003729 0.0377852962841147 0.46961869046543631
0.12011951252655291 0.35292458793497983 0.53521158723473605
0.40570781295987934 0.35743988770246898 0.026837480844428468
-0.2672714095950029 0.05149024031848104 -0.10389928831794087
0.2283297219893804 0.1678728075858173 0.50762556816690119
0.051171593873276695 0.42183430522256649 0.49639430552311503
-0.82469563397143586 -0.031679252373313815 -0.39637776920939816
-0.24170154763753457 0.29843837686528546 0.52936767162919307
0.10888839418765257 0.11787479364539175 0.4247941395856466
-0.053197581537923061 0.33037075068765304 0.53354764575352709
-0.773403334334131 -0.12380987339667171 -0.41933799818050099
0.033700674360501365 0.32054888962278277 0.58211974637098352
0.17972858997318633 0.17596453651488625 0.50470183221479936
0.34741456190937109 0.12680161176358823 0.17127880447362948
-0.1460404394280497 0.30049147263546711 0.52721494426963722
-0.22707556771096202 0.41842772032874154 0.50058416205771827
-0.90273469696510089 0.0026429733809436584 -0.38083448414525711
-0.61520313354717693 0.062514477561208426 -0.26305729171037107
0.34108813209820199 0.097074261229438116 0.10510183039952375
-0.34984912089859344 0.14482339746943268 0.39063613602310765
-0.80062014714990315 0.29123490364709537 -0.15168721412293179
-0.88463882439403485 0.040497073228473623 -0.33854747827480652
0.45765373045785074 0.06535323334738069 0.26345057508077974
0.40024915529809824 0.23082361610556942 0.083022713977348006
0.042183205364226969 0.34356106289369553 0.57869180531245568
0.0542415351086286 0.26384470150769901 0.52977522831251089
-0.38952974798538642 0.22129976491902734 0.45639152556430107
0.63145228056463665 0.0012538420434210495 0.41092191850198539
-0.047990893346426672 0.10033749345063198 0.299596396769157
0.18669195128548452 0.038095777331973446 0.33458016342829633
-0.66919259049021451 0.01299855901375685 -0.36384804281525973
-0.6734704990663759 0.014442467764160749 -0.31656501519897745
0.18484565881300413 0.1357897436777846 -0.22991310963473888
0.50838830322551454 -0.10002588284302455 0.38245253185519185
-0.32125674609164595 0.056003038980588116 -0.23142787307000595
0.024747163281968548 0.42530696538714674 0.51472916227738463
-0.11146808546776724 0.35369225321535203 0.54966620755170081
0.19126787573833098 0.23069545970449723 0.50817721290501139
-0.20260381613505496 0.29348206448083813 0.43769988027502899
0.61022859950919617 0.00029105075894977905 0.4223998897649775
0.23559676026871049 0.35634902062602153 0.48649184505345772
0.43892871111135628 -0.13186569633636813 0.31436369532431813
0.6145190045900073 0.38225716779510899 0.0074850829171786704
-0.1500211675591708 0.29559403041188465 0.52424557590689058
-0.75441687862210816 0.19226050348269269 -0.33391493431782826
0.4028273792102024 0.49292042410333842 -0.00019087203599679747
-0.15647400566415737 0.20895832605228121 0.52297999317605626
0.46828078945548157 -0.067985956143318482 0.24626835637456967
-0.21111610122675936 0.3558326143584829 0.46857771280187605
0.051147988222505325 0.28809422957122416 0.5586542387285296
-0.73136564157344019 -0.012296389353529502 -0.35033403270252456
0.0064374491604843181 0.34586730573265573 0.57729516900065603
0.37875525147693706 0.19575588842868108 0.13623677223701652
0.26928939287349068 0.29923986267975489 0.10456040004347927
0.54846579629372139 -0.0029757872570309041 0.43183388034213049
0.11789198604904599 0.13908879022073817 0.49084905269229584
0.12147259683095363 0.31231746502391677 0.57063977124216336
-0.66852595907086232 -0.058593261564679644 -0.36932604587102646
-0.15931000612409021 0.2459406263210096 0.46695541603348173
-0.37639977139882069 0.049448946113458347 -0.15326833766924597
0.46932370773061127 0.24856641915335728 0.066723444022872752
0.19203672875725114 0.041506472201458727 0.28849046056578842
-0.12301347486902425 0.36771345522496146 -0.042654468937714018
0.39300871073034693 0.032208284495408523 0.4685411340762341
0.56428053843230486 0.30694021344273203 0.031472131865394271
0.05497291965719743 0.37056079672490061 0.10110676246481162
0.068299989568619879 0.40972102297876822 0.55969321809634764
0.064425717718898837 0.38722889670268967 0.22432532085980256
0.55959791696006811 0.36165080928169202 0.0068675917599984593
-0.59554219982915202 0.066489482100672237 -0.25157240298379846
-0.18782445376228463 0.29035475060046084 0.53014284889297758
0.2990758477926469 0.28478493966265356 0.39581271671070212
0.050464047821122765 0.28579840075253771 0.55273346153437519
-0.02699213817435267 0.35700643147026201 0.55352472349077364
0.091158119585194944 0.24097812508535163 -0.1654707840372327
0.64869999700793812 -0.023225369174083743 0.27986225713498664
0.066130039492492368 0.2604963170452741 0.5126695469504543
-0.051721721522663189 0.32137911149966769 0.54170531470351024
0.53257950596595693 0.068263987360862213 0.44044515172149046
0.066806236774002756 0.082961528660510792 0.18572475508049019
0.324082317865659 0.07793816797319747 0.18332121404759794
-0.14127847757943787 0.23122791881751281 0.49180500536709992
-0.38572579228002601 0.2380610792435251 0.46844293224877664
-0.36088198011825812 0.18727544620811853 0.42427490647894928
-0.093933990759987401 0.16103813301303835 0.46738148638234933
-0.076983768815402087 0.20330994764648574 0.49433232626824386
-0.36538975927671669 0.023903259233854668 -0.13933857952597967
0.42238255978320144 0.35820855140539692 0.024191858919351023
0.15641448027263433 0.34470439676134323 0.52947756359938969
0.12413169994669808 0.30137568847941226 0.56984105252268069
0.07449352514987731 0.26262140084005803 0.53290984125429164
-0.4265203155383695 0.023355999996759802 -0.20711244937373602
0.31483048728707497 0.28308918462103216 0.064966316795056211
-0.17212441015763214 0.29922501238669219 0.47798676227879749
0.077484035428528386 0.12571368607633343 0.42945587177098282
0.32932991395243627 0.076458389960011863 0.19797824975162215
-0.9744007486003522 0.0010131744615672345 -0.4459229252382868
0.12245116649499971 0.12944851030485077 0.48052739672097611
-0.40329335592961901 0.011801300824985206 -0.16124384826518606
0.39326536601241446 0.19835757079916239 -0.0036182197849390918
0.35118677041255075 0.37567687466251687 0.019510248743261599
0.41449047658535504 -0.1195489611226625 0.33891204182009738
-0.22396815928702837 0.13449163772994194 0.41614071184628632
0.28783639895980795 0.10513794622446124 0.48497807078409311
0.084850748734121739 0.11064667746152929 0.33177091759256372
-0.10217321332619092 0.14219424996782604 0.45381578393593114
0.26138014570194151 0.065234382339320773 0.11664329320119426
-0.2990203394586855 0.20549854525322106 0.45594746935285169
0.14892240949417263 0.35461669394156697 0.17125930279321924
0.24695109061733475 0.057426870431505073 0.19704308274368687
0.29467060994513317 0.29604537064276015 0.003855850390771548
-0.27341218065347661 0.13805479974326945 0.34097020062459915
0.48396278524545794 -0.034258479478804837 0.40230537387080734
0.11726805343569253 0.31799462398958805 0.57104285707641789
-0.051776293764121017 0.35078358160656581 0.54976651720050895
0.67342405771587721 -0.0029915386941047339 0.27937402375858167
0.60700929317876406 -0.074999636208938153 0.3262359752378805
0.051762676435966951 0.29055805720183941 0.56672682114159401
-0.46992255563705343 0.081337398819463946 -0.15542374151397495
0.071685259786762004 0.076283555618119336 0.14530776212959434
0.5061271622774024 -0.026547492171935749 0.40269346913105741
0.22397598409691097 0.12221671278177063 0.51391771628566585
-0.17950787298357559 0.12717555572100031 0.41655150894214599
-0.13701599451317856 0.40668930696469696 0.482416395232597
0.18873696807637141 0.37048561061113849 0.51585644159397459
0.49004718414850579 -0.063557252318895974 0.42815085415004911
-0.42187378330118308 0.021385262965853524 -0.19159982911652904
-0.18501469164772855 0.29791569334793749 0.4284938708720929
0.24230973579376483 0.16018848714685696 0.52760993123543631
0.2903500047353525 0.2211038445050621 0.39915533380689033
0.58283172789942073 0.34575775219736876 0.024400725256093894
-0.056550600363748232 0.076427942542163174 0.050128750935180988
-0.28430395893182403 0.10376031605347691 0.35661224701442429
0.18103253968536723 0.30689136821563012 0.50831910616083187
-0.0050698783356784155 0.10731348119744835 0.37398131624608261
-0.60413071007047048 0.080454742555720715 -0.21844506900313132
-0.49002819038135481 0.15637171182964985 -0.41160197329392967
0.42134337008743772 -0.056022599797022565 0.23980891931593878
-0.21490466725153282 0.16057358481446143 0.45526333368117322
-0.22009105840673793 0.093857770419447872 0.35442777811644899
0.3708952030208903 0.23712772832274198 0.1356633341746204
-0.41809913985779834 0.32247210476650545 0.46875081247186212
-0.1499030814019231 0.16074491187912016 0.4952248724939482
0.64134104839666328 -0.005146932271356236 0.2701950918400135
-0.1031293093307703 0.18239526598985034 0.51027343385893509
0.15363025612913431 0.12092811852480304 0.49007205520357866
0.32218197336483928 0.4821960867829489 -0.0010980986818559385
0.06836772861476062 0.34703456167399815 0.55478716760381097
0.14284231335583814 0.08379370059661323 0.38333848417363403
-0.68510357379817433 0.089284798542160426 -0.22330522508029638
-0.84304619049103757 -0.12483209233972309 -0.44648692647362737
0.17202936292578028 0.15504405989333808 0.52264808947896679
-0.70903408647934896 0.059966163276106821 -0.29200626409180408
0.19398149568799983 0.17708725005950529 0.52574942316081819
0.078861541941656871 0.28348133359614108 0.55886196434797131
0.021666882718756247 0.3724473770087311 0.55110478579124944
0.071461659602997996 0.36743736069510385 0.54135625522394992
0.2162976996765941 0.1720985514556731 0.51251439317927272
-0.18343483269868677 0.26845104952317556 0.51560560476656458
-0.0034335133630263026 0.38595595984479492 0.32920580067506888
-0.45058399336321381 0.26302831262283921 0.40142959617328677
-0.10941137903768183 0.3041824343411107 0.54722430973060199
0.36215866584153333 0.22034474075664037 0.21734981380915269
0.15343950827270569 0.14958042642166186 0.52778904089041834
0.29145494789835874 0.28599323622584305 0.09139769744169271
0.13265925927028771 0.30390125732419682 0.55991093208219234
-0.46574516974368918 0.019936780450628022 -0.24300282776268617
0.51737725528116285 -0.0077487615791674569 0.41050311380569526
-0.12868377852777466 0.35944514604405042 0.55639712788001849
-0.19478263262015463 0.29488071872979565 0.52135349008107701
-0.24848484131012519 0.41309640013772414 0.54891931703403363
0.20582990343280441 0.16613974427309125 0.53908018867746144
-0.07241063649970339 0.41990576529934676 0.51667860255542775
0.13403174460965236 0.15523794712283928 0.50376293014486262
0.33700294116514529 0.15517671014267173 0.19056516225169484
0.37883018818837877 0.079162719829593664 0.23659110654000837
0.17043531650202137 0.17004636423722347 0.52186634124561759
-0.32650336017105369 0.1790762287669759 0.42083040284261353
-0.73621287447076789 0.15703847439935686 -0.23111789928671933
0.439514778012979 0.36877533679186147 0.018160917488245817
0.28117012582408335 0.072276270149182933 -0.031653732819112212
-0.15139758182920721 0.21254883398659596 0.52298636304561152
0.025961598088477603 0.11317151778301254 0.38488162016207678
0.31352861843634827 0.14461334237835141 -0.072928145899880947
-0.29267504352819673 0.21372483491830543 0.46480673230901215
-0.2438886745668101 0.41424192681582089 0.49886491383969589
0.11989314881428791 0.37246164643962831 0.31922119610666533
-0.028807339448306463 0.32122098799399007 -0.095025445951473914
-0.79131404761720825 -0.12261557955676322 -0.43649534341709328
-0.29384932632606131 0.17702416986540812 0.41210001411787467
0.50141692703345253 -0.050009298586688455 0.4260436369175345
0.37960484079448031 0.42088503784898301 0.0027439617626843077
0.12822038496397281 0.30567911402692877 0.56720344009153811
-0.17498131808111528 0.24163804655557847 0.49509947668275389
-0.067083389737280757 0.40499723217790895 0.47894634190541563
0.12973765587510983 0.084801092008809392 0.34257640844633619
0.29138447664131117 0.29322783960595966 0.083794723818144817
0.59108948047883758 0.015606031845500301 0.43213678358341601
-0.44808308886470938 0.055997787535246146 -0.19616810635158938
-0.50987747060888799 0.40215849505285228 -0.0031533755179429246
-0.31017004208988963 0.1679471564666441 0.41553116543382396
0.22548477701941771 0.32462660813977129 0.1539788929108519
-0.25802370293914068 0.14498752594008929 0.41358249289687199
-0.47577725819876016 0.10517909494718314 0.039608758501554597
-0.18646052395210788 0.18332681706564175 0.50637049045978966
0.36890924825719218 0.30288566738739281 0.037181564065249417
-0.37409490725933353 0.21799534348002808 0.35538597922138604
-0.35495174402558438 0.23038375187074214 0.46292339540889049
-0.63465808967954995 0.05602565406085469 -0.27545434583700096
-0.18093998072129569 0.093729056731780058 -0.36846670018499594
0.064114206688630368 0.12976492729082809 -0.30705489580514778
-0.33047163588023371 0.16369764107304408 0.40662221478682536
-0.059690800061653948 0.19889960353742775 0.49214716949003545
-0.43577520314790641 0.084944828439227571 -0.03187944836495521
-0.86322889625676535 0.033148378332911677 -0.3469275525529919
-0.38511353343068311 0.1388375938762012 0.38425036190249728
0.14774948103314073 0.32287422471870186 0.52523460124977195
-0.03280222371042954 0.29658925873302211 0.53675997611558546
0.026872698812351131 0.41076955428558981 0.47630488500602358
-0.009118326462061524 0.10293331765520422 0.33698997104576278
0.19904180857086701 0.16403774085623241 0.53861505118665565
0.45239461681195642 0.1192434771415222 0.3932460512654169
0.47086298178655561 0.29573356835247017 0.023591747903901533
0.30069094678113789 0.41534511707344862 0.046828794747825656
-0.62467533940267073 0.10222233995977004 -0.18809854876808021
0.19963933638825102 0.35242780638523891 0.51422674130514312
-0.79987247965466102 0.20597468761767976 -0.27509756829429804
0.16053218854985302 0.37832860680384239 0.52781341350066524
-0.11862930131636701 0.20059908096513801 0.52139762680361945
-0.32430505610419247 0.1978560017702149 0.43607423694182668
-0.81826597013594948 -0.078397640766580234 -0.38482786254965667
0.34774140907811724 0.11824906326994118 0.22277887014607695
0.5692591078755882 -0.072473293864144334 0.38743627233435302
0.46660690929314097 -0.044192033613206755 0.44192475394910202
-0.074219411056121121 0.30734282978744087 0.49123883756253073
0.30247467869926353 0.040424210837289559 0.46391655720400915
0.30146181942838907 0.18829873039655837 0.30700291848389161
0.47728630207441725 -0.039304626112805219 0.40401234684589205
0.086106292318658864 0.33192735738453 0.57603690981104438
-0.73826705148861149 -0.097273761639332323 -0.36788156651534598
-0.16971692990532244 0.25551411065597096 0.50441457006116797
0.0042634221743026168 0.28376050116330243 0.53409083766396626
-0.76990145158267997 0.087338778672557571 -0.25417470005018888
-0.7613472650029911 0.16717553054810308 -0.25869777643659614
0.31673263105088412 0.1239519797797088 0.48462696572365083
0.29635972207744443 0.23756023256516429 0.4293966629743643
-0.98576323399510946 -0.075542333582258481 -0.45025923189691419
-0.069955789272490659 0.20859280968786048 0.49459157531243092
-0.43571249695285874 0.22752221107844772 0.41796553122559144
0.047863474286155491 0.30210141732045248 0.57636653359984891
-0.65766641970789408 0.11378566710546673 -0.20708950732752623
-0.18895143783487367 0.067364616517698706 -0.21262290921592258
-0.22617682827896662 0.27942743041445439 0.52190249531236166
0.32367245767262648 0.05308880671729338 0.21758642562892599
-0.51444582910331493 -0.027913825790957081 -0.24888268689826243
-0.79872769891585316 0.039632836223528811 -0.34458146031559866
0.30564255117582478 0.26552921984626476 0.36924085669724577
-0.68703047330107103 0.094687271667927564 -0.2167228016315072
0.21649391516480881 0.41431108676575085 0.042828428179223901
0.11395683297162043 0.33834236877480717 0.53572357237656476
-0.086741154621661765 0.36238287948016507 0.54856300184474083
0.55503615258563688 0.23770711786123996 0.024554289223812836
0.24352434545461532 0.00084102326494595037 0.30363747066491564
-0.28243413073042201 0.20642638513456363 0.4530413884567327
0.3892321926266466 0.45545766566737667 0.034544175759261289
-0.35143969865231317 0.16004805834100178 0.39983948331392594
0.30246984290658607 0.29967078723438029 0.071317006931669258
0.32837610775269882 0.022914925474859932 0.45975307413227728
0.65482266678803602 -0.041400413356202898 0.30952341405852241
-0.086503202367372967 0.15850271429264018 0.47096737827654278
0.20515448332313002 0.17272316695653589 0.53478868548894787
-0.57125578570558311 0.14000772047320709 0.024241571498614389
0.20190733123702362 0.17686230691219262 0.50648012510457585
0.51225027262803113 -0.044552616612925616 0.40348762256671672
-0.74630652415883447 0.31701194057678195 -0.032512850021267636
-0.024710928446231711 0.055642859542475442 -0.21285747192412785
0.34602280126595369 0.093227721721981516 0.48279947877112261
-0.10869709514379036 0.17097747618778081 0.50348253201447823
0.45363246615623504 -0.029618482000257185 0.43594429284513331
-0.2497901292996291 0.28190556972260711 0.51959608373810773
0.24171496756702454 0.21074960565146605 0.46075639936658419
0.14214332840107929 0.3971903678559906 0.53446340885341403
0.14126344359967297 0.27231383143821708 0.53153839636666034
0.007537369453578982 0.35068204047172968 0.56236236225541636
-0.071395600530566872 0.2321158045708529 0.50038326435372482
0.2268074122192188 0.32483453096611192 0.50557638280652273
-0.29262134269577289 0.23069959219498531 0.46976844019758734
0.23085158815545043 0.0059713775006611791 0.32945560591208606
-0.83789986565040853 -0.09155238329312354 -0.39150030733631758
0.0046174657160407973 0.28419480015719623 0.52504252063830914
0.23185332960142754 0.15697674344829526 0.53673576356733799
-0.073433046802587693 0.32856168745337089 0.54446076043144931
0.31860686495374868 0.066989467313266743 0.20427689113943437
0.099921877537260312 0.43206648543904563 0.53587963548697459
0.60004940306673749 -0.070800250282747335 0.29384840340719343
0.16666517283933924 0.15422797191704285 0.52151462161312101
0.25662999312732299 0.44257119552185098 0.05790597040788234
0.54947984727455979 -0.026063874478029714 0.40524274817011258
-0.16855683439335051 0.41752241631757481 0.16910963013998462
-0.11887988407330635 0.40174582883886722 0.57476758578971099
-0.54804688858697814 0.018562907819659691 -0.27138724230415434
-0.41640333789525646 0.29990114614011665 0.48754757123633552
0.16456892890696972 0.16352116045454321 0.50488384513832218
-0.9605817837806967 0.0062680276995619177 -0.38450251414705816
-0.017939603270038906 0.37425524346175898 0.031360520644456463
0.41518768916414128 0.061063567586883014 0.24625348779077155
0.31043926433436131 0.48364178353137349 0.014261834580756264
-0.38500660403688719 0.022274973752838489 -0.15099998929376132
-0.32585640623394579 0.20958459453189435 0.44294877912085862
-0.29525023013942686 0.15801712153945274 0.41277361786243849
-0.66564354010405735 0.071568041855662845 -0.25439622442869991
0.55300220786515908 0.02811760548573039 0.25964625376706657
-0.53950109317385087 0.013773988338559306 -0.26945453592028912
-0.49002602014602292 -0.014712875699731398 -0.230877296988586
-0.096316978694134026 0.3955849834917648 0.30220530561450321
0.095449912565031811 0.26688623468057959 0.53127278962549607
0.14584749589563581 0.15992610182440739 0.49659692785782267
-0.53441879654603663 -0.067354415001568857 -0.32418303171185336
0.47182750565014109 0.46626014887772044 0.027567167919730025
-0.0034654827485286477 0.067250389857084869 -0.29539771423086103
0.33608153528969431 0.15104848176508404 -0.019034919825454327
0.022655326773884057 0.27246686948405641 0.5313523162123841
-0.36532092233659752 0.086403814507007848 0.072501577349057877
0.064047324320446408 0.26386112329070621 0.53208808486631387
0.21340301937968387 0.1200014799504866 0.51306518278594704
0.15268021577054966 0.38019899078555786 0.41227130171251419
0.47771004686036145 0.021352704197697692 0.46369921696109395
-0.23550449099495271 0.18182398329159097 0.48159744911002444
-0.080337480608550976 0.19925386897351452 0.48805198968449937
-0.7022319539906412 -0.11271537340985566 -0.38437857652787161
0.68367676787031528 -0.019817747396288804 0.30613912641296687
-0.060018614515317259 0.19818638954627327 0.46385959115713649
0.26657311015612417 0.26571526018506952 0.47710017806303073
-0.26470975589398732 0.23342865451134925 0.47300179715883295
0.58175616983693501 -0.040039668679874435 0.41618244571603974
-0.26996702364603919 0.30579966277553045 0.3824025751269694
0.271983918829241 0.058908790407527556 0.19706796612073779
-0.48017204374778777 0.13797282945378897 0.33324429317880105
-0.61637513008722489 0.041352522512808854 -0.2815713317053436
0.35152289638815076 0.11946600487958059 0.078524254489521494
-0.30620254971249949 0.15415184166504248 0.40786623112716647
0.27934398480587114 0.34668301817621894 0.071694236040102277
-0.26715619562470427 0.32293183295718447 0.37928036107243213
0.44124080153850292 0.082833876953215577 0.46777125593458163
0.53948251431607042 -0.0031932180797635545 0.40755547645842088
-0.21546118117482899 0.37335442816620468 0.55405519871064501
-0.034504810686621479 0.15991023227433998 0.40711266835968374
-0.59041736489852559 -0.055811724312828215 -0.29958322584552644
-0.30592973139942287 0.29315907396474816 0.52158532475026276
0.35763113204523822 0.0639537606457872 0.22418511428419696
0.54730230902595933 0.0042890090158752558 0.44827011202075573
-0.28323983614948167 0.41628664026239359 0.053023756346905648
-0.95676486548837958 0.024417274341362483 -0.37711061058151513
0.27023501587346693 -0.022604206265552873 0.34863571865655646
0.14361822430065238 0.076472970117012318 0.36077727514326957
-0.89938115888676773 -0.015837229609091286 -0.39664105828548452
0.34207475005021526 0.11631525501061153 -0.017709665141766473
0.44576982098384976 0.23946865646865209 0.064096420907637397
-0.1563996843656838 0.19945463298613064 0.52152037042428989
0.31465893941471978 0.2605329735598545 0.33858494264052602
-0.22417296789818028 0.2490438145582507 0.49299672467202249
0.57816711882914651 0.023138614490470444 0.43740376262320935
0.62561985806268616 0.32623683322552133 0.013050603014764156
-0.17746318510351516 0.13581324709762663 0.43218853483853636
0.24234089461502592 0.14691781302043255 0.52590489696766751
-0.78661018883653833 0.25803974427099324 -0.28579095338004212
-0.71065204123521442 0.05524040600993313 -0.29998542291549246
-0.72990005336714558 -0.07529708659712131 -0.37589514846375266
-0.14206737936528011 0.2270631096775933 0.49470139680221425
-0.00083974076839445078 0.39260866419488089 0.30739535700646897
-0.17259504085033917 0.30136152457680365 0.44594084920305316
0.065151449561159452 0.28521312518583181 0.55875358490225768
-0.5315971118397077 0.23870710646777785 0.16408177654481398
-0.30382962861210339 0.16280329597858595 0.4136462175507889
-0.2394758429342487 0.14445451501992668 0.4164300559608376
0.18074083274778735 0.27936734033947574 0.51586629113631566
-0.23393414292478854 0.30337957201417143 0.49102659313651137
-0.084702387530287859 0.35139667657358575 0.54684542038661843
0.61172983595226138 0.056296328417063432 0.31888167000408635
0.011305388003356093 0.14682360856751431 -0.32040162733692601
0.17367323471710583 0.1157586038345377 0.50050439203684771
-0.74500084030084635 -0.10516683382107317 -0.37575208900269436
0.13487050924539731 0.30885562788405074 0.55538695744426958
0.51309521611603381 0.27265109473398791 0.034837773220157242
-0.32027390460101834 0.27982443911998589 -0.28937986996671022
-0.039215693076857655 0.16757968293923167 0.47447815548280248
-0.33288322198992681 0.27551989628016738 0.49931108931754309
-0.407537057935975 0.31997039905608393 0.48716885483698191
0.41495088490825982 0.19256410811164348 0.048068744384447221
0.36036439790645591 0.28082410032511917 0.036496296975066511
-0.018481662730130438 0.2922766915697666 0.53673324625841223
-0.30738611297240293 0.27101440082496708 0.49431480539802508
-0.86889124983022037 -0.11446732302612744 -0.42334743902292937
0.076015595021889149 0.38580672917518855 0.25067163812067245
-0.70438530296416069 0.35143974213084694 -0.041569447764939926
0.24105551238338585 0.046204363159390138 0.22798178767221883
-0.96004250003955183 -0.03345040676647637 -0.40113272014645396
0.28995117569654333 0.070629727004466486 0.12247238848261416
-0.74933656353970712 0.062694073198408362 -0.290912502786766
0.41572292786389708 0.26047580376615265 0.032902128903627675
-0.69071073688432871 0.1817256461529555 -0.041080478963443301
-0.0034285791160211521 0.35946940481371509 0.55106976418769671
0.44301929769143539 0.11019888332954358 0.44475484478586635
-0.31171071873305883 0.087775452821850619 -0.34042380968247704
0.33623419861828813 0.2605816353642032 -0.0055207148377660331
0.05443482363972249 0.25156771879721973 0.51756753781793341
-0.28763073515600834 0.16153438526144306 0.41121304419942273
0.077869033412551317 0.28649264024953752 0.56705270562227084
0.064149160001092109 0.3371260568471427 0.57869493557485252
0.034250587027458021 0.27382147708870064 0.52968407625116443
0.45553506577482028 -0.037707662474037978 0.44569586560741314
-0.36043550909112299 0.21630741995434674 0.45195708667923118
0.58371394054658343 -0.015265793399850097 0.43108902375954822
0.15092395434157091 0.11863021846268268 0.47951109599839958
0.57585417391296578 0.32453953137718655 0.027682833356015485
0.051764909408116351 0.41349409763085432 0.4763081821385502
-0.14375390691800422 0.24061761796105352 0.50200123988373724
0.10281553403875343 0.40442398580991618 0.54912256996480568
-0.53004924676572007 0.11242521985976711 -0.35643851631593365
0.14053127465863519 0.069028915802606505 0.16517006314223931
0.33323063758687105 0.44297508417348647 0.038600089096609086
0.43669715448115709 0.030995731888469352 0.46722958170983375
0.18605375895776446 0.17937207850153145 0.50693165779017402
0.17280282944424691 0.17347422839972876 0.52221636454597364
-0.7871424544738419 0.20850122653248249 -0.30715997767228059
0.16737837347336176 0.28630280772100897 0.53000318369842248
-0.49989381220754997 0.14287516403918127 0.14373939339605213
-0.12018474088054967 0.092967025346784582 0.27670197590035212
0.33756029840716473 0.25991941317582018 0.042362813361561724
-0.011959414465145479 0.38115794326419056 0.55124075357429225
0.16213272400440612 0.17042852742749115 0.50059982718734064
-0.65344350147083174 0.055161272051256316 -0.28173286655097013
-0.77518200014341043 0.061015164947098355 -0.296905928223406
0.26542995345057552 0.066744513508474504 0.017888609542230427
-0.33644645181709776 0.063770109849013656 -0.069741838180470583
0.12636906782219895 0.29419639919439133 0.56324597686593303
0.5672341436033318 -0.027778454000365854 0.42928228368560534
-0.98999311787317201 -0.05386058321493653 -0.47645702787074568
-0.69386731706526472 0.028051404445937123 -0.31502945340540511
0.314390405234585 0.26579206756208662 0.099432427557828995
-0.14789588926715552 0.10331238830054668 0.38569337434461282
0.0224366196048017 0.38613791569314859 0.40593827653847603
0.065797112194014337 0.25512633641995253 0.52264212267058463
-0.24509205626005504 0.25836835342813647 0.49174291785124014
-0.66044935414011219 0.36793965310338089 -0.0206506014075023
-0.23040943225043531 0.37934893421283744 0.46995466415400267
-0.80702686716880245 -0.075347722412901164 -0.41869820665513907
-0.16187320765088858 0.22165605795755181 0.51564162377642819
-0.4199635038731333 0.28864757971442678 0.4789804690845878
0.20713467369737892 0.28412494611099437 0.51225855829546063
0.023771285730900205 0.27429914041247727 0.53278848684106817
0.25394557494054071 0.22202112025050841 0.45883317557611536
0.26331153923743061 0.071070178120108171 -0.089816634782358851
-0.9744388253092171 -0.087086067659406463 -0.47181137566732378
-0.75028621078068447 0.18103184173180265 -0.1552646734394357
0.026734389793286864 0.39338457589749137 0.43080235375384934
0.54659549859476309 -0.10343646669271367 0.33272329429564873
-0.06312788214739691 0.059375308696832468 -0.25496202108753174
0.29033781365605932 0.32934785013517653 0.068369634283366926
-0.13853229689908406 0.32590388288661076 0.55672897722102199
0.60425202206022632 0.41644241096994294 -0.012647686024440941
-0.39275101104257176 0.027921015512277381 -0.16226691586020262
-0.47958961497814445 -0.032870635124194914 -0.22828669519539102
-0.92710780980041896 0.043317103878359131 -0.3551810006482059
0.47044073288224431 -0.033497142220077297 0.40589152630307568
0.31797223418927589 0.092460652764624965 -0.053044382051390115
0.038098797249739275 0.2932480441667541 0.56323286198669265
0.18765256171487882 0.16608285268152345 0.53571073836206973
-0.21049590280597183 0.38439116885151503 0.56815430048324589
0.15497124807276691 0.21570697256036547 0.51940747447959656
-0.12216401566145374 0.14452416750441338 0.44964294604922361
-0.089981347235117554 0.1367825498267761 0.41323542971713834
0.42251872509628385 0.12736538191787564 0.4153684386562706
0.56453750506594891 0.2865125756997674 0.052043966613591369
0.66213202513201441 -0.012686165171457958 0.27921082068405079
0.25822236800245729 0.15694038202007293 -0.14428448432808821
-0.25396507430764281 0.17091670259409933 0.44164663083683275
-0.4341034267194876 0.31584024843483299 0.46082873691580195
-0.20316572649908976 0.22509686784823729 0.51307058775969261
0.4495563347490501 -0.0059598643993206413 0.23197877260800748
0.12231258969973763 0.28866737306347928 0.55872151484178278
-0.76537738215946549 0.17049354433619818 -0.28839065440710421
-0.38206492429016981 0.093242984718764743 -0.34062484798215503
0.14309272000745096 0.30687266354540743 0.54838881198393019
0.38076304851893872 0.25484608797330799 0.046604364898910594
0.11246493266331348 0.34675628590636576 0.52791625196290726
-0.069863235741789959 0.15768163713525246 0.45553580438660013
0.30882610903760799 0.46856086246681583 0.042193552615864383
0.30374002712491999 0.31303119789855927 0.060828425780841355
0.15417557387004788 0.31494744995568424 0.52521178292049764
-0.7220112974950379 0.24311310241246542 -0.030860084367698715
0.24825418704982205 0.15539374357759067 0.52014783445625934
-0.22213965476855299 0.13715161166270762 0.41956418742833834
-0.45497885664394144 0.17510990320661479 0.38115459050314748
-0.43577326298898011 -0.016819152851503649 -0.19496795654123283
0.58225719278440191 -0.048560756318224402 0.40783150139209012
0.028874816219047236 0.28193346213285636 0.53547398418486303
0.54668459152762328 -0.0057354799494710729 0.41061453145016619
0.32438542624932803 0.34160626613929312 0.038395093145086601
0.49857187535069303 0.41046269847527234 0.010332097852502636
-0.032162229923793917 0.38358430519784498 0.41214444691803942
-0.64461434732694411 0.076023392399782674 -0.23775929121384837
0.20186101966973666 0.27057660068304928 0.48970168571583311
0.007789147899085469 0.33965919800420608 0.57983488884842993
0.55925703294815798 0.36115355576105923 0.00029196362383007712
-0.1843079321215107 0.29569189951178498 0.45753946927312156
-0.57296674354386812 0.11266202246582246 -0.081978369506796711
-0.073653948281807186 0.15381878000212224 0.46374744036066384
0.24508382258690764 0.14122827533740753 0.52032044655587384
-0.14956075100733268 0.15734287888171852 0.48261055892462412
0.49883254117010495 0.0061694121470929897 0.45404807520991713
0.0015215676781162313 0.39140715617667154 0.13536454674837503
0.29494792479893961 0.16287521877118227 0.4029016685837708
-0.34049254738712137 0.25325236349936542 0.38424558261254843
-0.67530650610777421 0.13153257760678649 -0.20999411840352303
0.49919200348788195 -0.08325074546472383 0.40767874817447725
-0.64592470469890595 -0.014609981000289762 -0.32961416705451124
-0.12291454570082683 0.39358125854300025 0.035010216138914668
0.3184156151183089 0.29043043599254487 0.05433956802674017
0.11666931536091947 0.30350180724664677 0.57297653348313882
-0.19102699765268058 0.20691706889110495 0.51739567687002397
-0.096957811216496798 0.15149890983182032 0.46405590524627138
0.33527439688009503 0.087341713264336776 0.16806633695831241
0.037262601989296561 0.092821478468854524 0.2257278089456104
0.27872749416677189 0.16711215125467055 0.3651942192068347
0.43460527786964837 0.3848215572095815 0.012512428978521062
0.45884139129757745 0.042721990912147179 0.46780271443866822
-0.29259810224795102 0.03469343638924105 -0.12218312166282483
-0.34529648800333435 0.074384145855689199 -0.28487735348038035
0.61957438344474947 0.059997618582590798 0.36358785780314734
0.51980382100583689 0.038714932427497739 0.45676070681192238
0.18876589178982445 0.39431469413584741 0.49986456092265541
0.39026207619540304 0.33420530898996181 0.030277942305627664
0.1933915282495558 0.21216782271945614 0.50652023123033407
0.38528874845202321 0.46486231102765457 0.036180401464469117
0.5406531703414349 -0.01254871263288862 0.40359996912772605
0.44509262066404287 -0.12971900416888332 0.33375707889665079
-0.73153139926321498 0.051295588959452965 -0.31209199803926752
0.57779344917177222 0.043147830689800881 0.27340969422167133
-0.42662768423536201 0.02611607055766535 -0.21210905685270215
0.25465014289518401 0.070580845871216935 0.46957316617332623
0.27604629440572104 0.31939619917277851 0.40460231134555458
-0.21733092852230179 0.16981014959288726 0.47657761775283625
-0.61299311245808685 0.10685194708157214 -0.17146282079645811
0.2584289303102551 0.18008891189491755 0.37309826691564291
0.27971882252939961 0.02752682955048541 0.44687949391026727
-0.43405150465890302 0.26239120543882444 0.44187495461334825
0.38134409700993721 0.18649961234312964 0.098226618229170892
-0.31040048201663961 0.19684525679564702 0.4442045410931732
0.24755340042186236 0.35447912074201338 0.47302152811602421
-0.19138976183314163 0.16142212964829028 0.47878911065120366
-0.13938365162673283 0.14008492043757809 0.4462191833939767
0.13555954092040284 0.13180140826731812 0.49614115619874466
0.051547202798508412 0.34794245950710184 0.56660221210194361
0.48699064659273139 -0.017672275174320795 0.41470377382661427
0.34093176349696613 0.18707353529109044 -0.038248121379417549
0.23042430871045819 0.22815749534628713 -0.095150540182644516
-0.6415752399819119 -0.064460560703707703 -0.33168497365876937
0.54463334026633226 -0.062631436851261102 0.41370274485776837
0.48097751437338992 0.25129215760189272 0.082767056029152186
0.47478748814498367 -0.080926888970686894 0.41244093947600752
0.23529284309608212 0.24515775336749285 0.48873288604371445
-0.038362960723560269 0.13811334349357568 0.45034083753523757
-0.32367728971498411 0.26151538202395508 0.48443105596782643
-0.21515484441081131 0.17867692000527238 0.49091442747946923
0.19158389479706225 0.34821570666877999 0.51802403118585727
-0.63295972724351002 0.18986797588875942 0.039864748502594916
-0.62233126839126884 0.071126233379273263 -0.30369942736140637
0.43050612748263156 0.40932954516075115 -0.0017976939319087337
-0.60537163595689303 0.11914726351941274 -0.10693438526867727
0.16108952938996712 0.11378636611209714 0.47705386855178411
0.63329814969094966 0.32682590391458394 -0.00069879225651331422
-0.66319020288547326 0.12316481825203524 -0.30368426615389132
0.0340986870289436 0.25124643357957499 0.47125607329064956
-0.25727683939932966 0.07918873076016622 -0.32780980259189635
-0.062236335627802286 0.15496152049497022 0.44254696419587691
-0.48303896737022128 0.19302167233712303 0.22197261919237526
0.18633128461429888 0.26131436233009009 0.51301761366251908
-0.00089063549408111009 0.15700061512907687 0.4781016048593496
-0.71192724311478717 0.18678822850009491 -0.3581859614866354
0.11373059119099269 0.10807846392773107 0.39444624678566498
-0.019348733189672895 0.23907948535234713 0.50543237964157739
0.1374700615413578 0.078339032556124871 0.34065287413485967
-0.37924025667477734 0.0092868940788060073 -0.23001264741011951
-0.51515212891252671 0.098924463171738586 -0.078894304372695956
-0.81749732557498023 -0.12018502407777543 -0.41488143312171083
-0.21791332007896766 0.35624655333118338 0.48327216807177581
-0.43834992353336366 0.093648282692492479 0.031020516817898192
-0.27744458494565383 0.13426606367112681 0.39802113787354654
0.36569320685717843 0.10299627283820884 0.4802077233861245
-0.75338473460603672 0.099508824719883315 -0.24609827703720066
-0.14327831733318611 0.14411315423562115 0.44393263269740357
0.11298827967362106 0.31329915650208728 0.57384451804539838
-0.27866176879788074 0.23287139817592384 0.47491563545077631
0.36090871452827405 -0.00025272467507220231 0.23603972336451229
-0.2197018188278724 0.26290478767220493 0.5001617492485817
0.48664165620890765 -0.025043149589462022 0.40774415582747281
-0.45685764887968383 0.21595690848059865 0.27717812137448278
0.50221918016308298 -0.052033740972663944 0.42988158005774196
-0.91407311402164193 0.0053613499602772619 -0.37672205009597021
-0.13632286081204131 0.41080268312439755 0.57782545075425484
0.16704658018973911 0.3183369443752499 0.5103763839960338
0.4103782119522475 0.24105697539818313 0.06214749989838092
0.35310585467796451 0.017436745086267941 0.23272258761916098
-0.0020814050292983222 0.30815942924564627 0.55546504729723667
-0.69686236491963127 0.10679724729672974 -0.21920377196932164
-0.027759097394329635 0.36614709330644468 0.5560043062732738
-0.052279232022132721 0.31007306144448915 0.5179958069590973
0.45420713223029674 -0.025120245817601222 0.42993741936787522
0.55186033030287718 0.013221480931875362 0.44815390283466655
0.28152018668851042 0.16541786068260164 0.37573409934788971
0.28289468795988493 0.36305966716635235 0.060562316161433719
0.025306173793701162 0.29805537469174864 0.56363954815996553
0.37717552896233281 -0.076960853787358341 0.24972036922631446
-0.14107376643608244 0.11543543674877726 0.40654279116519199
-0.64944234439960857 -0.0023819454596929468 -0.32091984098293724
0.13946570618147797 0.15060335457257384 0.52234698969351034
0.26441023239359995 0.14363519428246241 -0.15311475230231289
0.16952227182520829 0.15705193274756646 0.50617006404579568
0.38869720529654128 0.34969253216320706 0.029075996536370663
0.12388272379137054 0.05434565166578717 -0.054839532213476594
0.23138135261421572 0.36707035457010895 0.096990939502196172
-0.084485136307159703 0.21856292704371522 0.49769852360228173
-0.40749738928193091 0.17136377959685228 0.41872613606043174
0.073137839019639148 0.37966481171818744 0.54046323871481938
0.5632181528528345 0.34409929289448882 -0.011780740306775672
-0.23773286700900007 0.25132743169882887 0.49164778585014002
0.018050276514011102 0.24495324500870705 0.50930706699968353
0.44193381280847976 0.24019116021743991 0.040819765322212653
-0.46007954566355813 0.12711578879453206 0.33923510670098711
0.31019693415049449 0.26945996510552284 0.11563148129246043
0.092252528953710777 0.30995859623274147 0.57892668974887762
0.20388845130318931 0.1746949054677811 0.5074629162550619
0.36728539743013189 -0.08049007893254001 0.37488964987413986
