# XYZ point cloud file
0.75201416015625 -0.255218505859375 0.6322021484375
0.73199462890625 -0.22589111328125 0.64385986328125
0.691070556640625 -0.229949951171875 0.6519927978515625
0.712982177734375 -0.258392333984375 0.63437652587890625
0.745391845703125 -0.2691650390625 0.62656402587890625
0.764312744140625 -0.2421875 0.636260986328125
0.697509765625 -0.218505859375 0.65773773193359375
0.681671142578125 -0.24920654296875 0.6421051025390625
0.793121337890625 -0.339569091796875 0.5890350341796875
0.780364990234375 -0.336578369140625 0.59235382080078125
0.79217529296875 -0.353973388671875 0.5884552001953125
0.799072265625 -0.346160888671875 0.58591461181640625
0.794342041015625 -0.32843017578125 0.5936279296875
0.780242919921875 -0.3201904296875 0.595611572265625
0.78424072265625 -0.35284423828125 0.5897979736328125
0.8009033203125 -0.3604736328125 0.5866546630859375
0.80047607421875 -0.334564208984375 0.58887481689453125
0.72467041015625 -0.313995361328125 0.6098785400390625
0.7403564453125 -0.333465576171875 0.6003265380859375
0.748077392578125 -0.324981689453125 0.6006317138671875
0.7161865234375 -0.297576904296875 0.61511993408203125
0.70245361328125 -0.30682373046875 0.6166534423828125
0.718780517578125 -0.326171875 0.60793304443359375
0.758758544921875 -0.339813232421875 0.59696197509765625
0.742462158203125 -0.304229736328125 0.6102142333984375
0.688629150390625 -0.2874755859375 0.62396240234375
0.80804443359375 -0.357147216796875 0.586456298828125
0.805023193359375 -0.35455322265625 0.58307647705078125
0.808685302734375 -0.362274169921875 0.58016204833984375
0.80755615234375 -0.3507080078125 0.58425140380859375
0.808502197265625 -0.346710205078125 0.5878143310546875
0.807373046875 -0.361480712890625 0.58264923095703125
0.812835693359375 -0.3575439453125 0.58379364013671875
0.65771484375 -0.29241943359375 0.632720947265625
0.66888427734375 -0.3023681640625 0.62438201904296875
0.663909912109375 -0.29510498046875 0.6242523193359375
0.646728515625 -0.281219482421875 0.635772705078125
0.65435791015625 -0.289886474609375 0.63475799560546875
0.680694580078125 -0.310333251953125 0.623291015625
0.64892578125 -0.279327392578125 0.6349945068359375
-0.08917236328125 0.283172607421875 0.77288818359375
-0.096435546875 0.2789306640625 0.773895263671875
-0.0748291015625 0.26251220703125 0.77693939208984375
-0.08575439453125 0.285675048828125 0.7774200439453125
-0.10205078125 0.30615234375 0.7740631103515625
-0.108642578125 0.302703857421875 0.7761993408203125
-0.0858154296875 0.253753662109375 0.77574920654296875
-0.075439453125 0.26507568359375 0.77794647216796875
-0.09649658203125 0.3096923828125 0.77066802978515625
-0.3924560546875 0.167755126953125 0.76239013671875
-0.4012451171875 0.14349365234375 0.759765625
-0.37628173828125 0.1702880859375 0.7633514404296875
-0.37872314453125 0.193145751953125 0.7648162841796875
-0.40155029296875 0.163726806640625 0.762115478515625
-0.41241455078125 0.13726806640625 0.7587432861328125
-0.38482666015625 0.142486572265625 0.7636871337890625
-0.3624267578125 0.196807861328125 0.7649993896484375
-0.39031982421875 0.18914794921875 0.7635955810546875
-0.12432861328125 0.38177490234375 0.7658843994140625
-0.1331787109375 0.384033203125 0.7647857666015625
-0.1180419921875 0.36041259765625 0.7687835693359375
-0.11553955078125 0.3826904296875 0.7685394287109375
-0.12255859375 0.409210205078125 0.761322021484375
-0.134765625 0.415618896484375 0.7637939453125
-0.128662109375 0.35821533203125 0.766265869140625
-0.11175537109375 0.35296630859375 0.7704010009765625
-0.11907958984375 0.407440185546875 0.762298583984375
-0.33953857421875 0.27789306640625 0.7641448974609375
-0.3553466796875 0.247039794921875 0.76409912109375
-0.33038330078125 0.29022216796875 0.7623748779296875
-0.331787109375 0.309326171875 0.76361083984375
-0.3524169921875 0.273529052734375 0.759857177734375
-0.365966796875 0.24322509765625 0.764190673828125
-0.34515380859375 0.259429931640625 0.7648773193359375
-0.32269287109375 0.321746826171875 0.7595672607421875
-0.33935546875 0.29742431640625 0.76092529296875
-0.11328125 0.497039794921875 0.749053955078125
-0.12347412109375 0.498992919921875 0.7465972900390625
-0.11846923828125 0.467376708984375 0.7547607421875
-0.1104736328125 0.48992919921875 0.7494354248046875
-0.1063232421875 0.518157958984375 0.744232177734375
-0.11334228515625 0.526092529296875 0.7440643310546875
-0.12982177734375 0.47137451171875 0.7530059814453125
-0.11517333984375 0.46075439453125 0.7548370361328125
-0.10284423828125 0.511138916015625 0.74379730224609375
-0.292236328125 0.3897705078125 0.7572479248046875
-0.301513671875 0.36614990234375 0.76190185546875
-0.2818603515625 0.407623291015625 0.7552032470703125
-0.27886962890625 0.41070556640625 0.7588348388671875
-0.30157470703125 0.37396240234375 0.75799560546875
-0.31494140625 0.350860595703125 0.761505126953125
-0.293701171875 0.3804931640625 0.7593994140625
-0.2652587890625 0.429718017578125 0.7530517578125
-0.289306640625 0.395477294921875 0.75433349609375
-0.03179931640625 0.20068359375 0.7812042236328125
-0.031494140625 0.19097900390625 0.78145599365234375
-0.008056640625 0.186553955078125 0.78124237060546875
-0.032470703125 0.20684814453125 0.7774810791015625
-0.04815673828125 0.219635009765625 0.77864837646484375
-0.04949951171875 0.215850830078125 0.77756500244140625
-0.00848388671875 0.16888427734375 0.780242919921875
-0.01092529296875 0.1845703125 0.78231048583984375
-0.049072265625 0.22332763671875 0.7776336669921875
-0.44549560546875 0.065673828125 0.7553253173828125
-0.469482421875 0.036590576171875 0.7528076171875
-0.43255615234375 0.064117431640625 0.7598419189453125
-0.43157958984375 0.089935302734375 0.7583770751953125
-0.4578857421875 0.06488037109375 0.75494384765625
-0.4771728515625 0.03857421875 0.746185302734375
-0.45880126953125 0.03167724609375 0.7524566650390625
-0.4154052734375 0.090423583984375 0.7624969482421875
-0.43975830078125 0.090362548828125 0.7562103271484375
0.106201171875 0.1170654296875 0.77294921875
0.1082763671875 0.105377197265625 0.7709503173828125
0.14227294921875 0.094512939453125 0.76371002197265625
0.09912109375 0.1207275390625 0.773040771484375
0.06231689453125 0.14190673828125 0.777923583984375
0.06854248046875 0.129852294921875 0.77669525146484375
0.153076171875 0.083953857421875 0.76346588134765625
0.13079833984375 0.10540771484375 0.7660980224609375
0.057861328125 0.148162841796875 0.77850341796875
-0.56298828125 -0.08258056640625 0.733184814453125
-0.594482421875 -0.130096435546875 0.719024658203125
-0.558349609375 -0.093353271484375 0.728118896484375
-0.5223388671875 -0.038177490234375 0.73974609375
-0.56744384765625 -0.07550048828125 0.727386474609375
-0.59600830078125 -0.11962890625 0.718597412109375
-0.591552734375 -0.14337158203125 0.721435546875
-0.5216064453125 -0.0472412109375 0.7437286376953125
-0.538330078125 -0.032623291015625 0.736663818359375
0.20745849609375 0.06134033203125 0.74605178833007812
0.21942138671875 0.04681396484375 0.74117279052734375
0.21331787109375 0.066314697265625 0.733734130859375
0.19537353515625 0.072296142578125 0.74406814575195312
0.19183349609375 0.063323974609375 0.7505340576171875
0.20611572265625 0.04913330078125 0.74809646606445312
0.22802734375 0.052703857421875 0.73101997375488281
0.203857421875 0.07879638671875 0.738861083984375
0.18060302734375 0.07318115234375 0.75003814697265625
-0.63214111328125 -0.2315673828125 0.695526123046875
-0.623046875 -0.250946044921875 0.693817138671875
-0.63671875 -0.2509765625 0.694366455078125
-0.6328125 -0.206634521484375 0.70458984375
-0.6329345703125 -0.2174072265625 0.696197509765625
-0.62603759765625 -0.235687255859375 0.697021484375
-0.6229248046875 -0.270050048828125 0.687225341796875
-0.63677978515625 -0.21923828125 0.6973876953125
-0.6328125 -0.1951904296875 0.704498291015625
0.22064208984375 0.1312255859375 0.70748424530029297
0.23211669921875 0.122283935546875 0.69861698150634766
0.2181396484375 0.168182373046875 0.69619369506835938
0.208984375 0.142974853515625 0.70978736877441406
0.220458984375 0.104583740234375 0.71802330017089844
0.2298583984375 0.09393310546875 0.711761474609375
0.22515869140625 0.16107177734375 0.68767356872558594
0.20977783203125 0.17889404296875 0.70198345184326172
0.20843505859375 0.11322021484375 0.72085380554199219
-0.55035400390625 -0.2752685546875 0.694732666015625
-0.52197265625 -0.269195556640625 0.701324462890625
-0.54205322265625 -0.294952392578125 0.689453125
-0.5775146484375 -0.2752685546875 0.6903076171875
-0.55010986328125 -0.260986328125 0.70068359375
-0.52203369140625 -0.254058837890625 0.706939697265625
-0.51220703125 -0.29010009765625 0.69635009765625
-0.57501220703125 -0.29150390625 0.6865234375
-0.57818603515625 -0.25823974609375 0.695556640625
0.19903564453125 0.30047607421875 0.67847442626953125
0.205322265625 0.299896240234375 0.66898345947265625
0.1875 0.3446044921875 0.6740875244140625
0.1917724609375 0.305511474609375 0.681365966796875
0.2044677734375 0.256683349609375 0.68032073974609375
0.21185302734375 0.25018310546875 0.672698974609375
0.1947021484375 0.347076416015625 0.6658782958984375
0.18218994140625 0.34417724609375 0.6787261962890625
0.19744873046875 0.26226806640625 0.68544387817382812
-0.46160888671875 -0.196533203125 0.728729248046875
-0.45001220703125 -0.1546630859375 0.73956298828125
-0.4617919921875 -0.212860107421875 0.728118896484375
-0.473876953125 -0.23004150390625 0.71942138671875
-0.46429443359375 -0.181732177734375 0.73309326171875
-0.4512939453125 -0.14312744140625 0.73974609375
-0.453857421875 -0.17291259765625 0.73699951171875
-0.4742431640625 -0.247100830078125 0.716156005859375
-0.47802734375 -0.215728759765625 0.72149658203125
0.15118408203125 0.464019775390625 0.67131233215332031
0.15301513671875 0.4716796875 0.667236328125
0.138671875 0.500701904296875 0.67348480224609375
0.15057373046875 0.459075927734375 0.67726516723632812
0.1663818359375 0.427703857421875 0.66885185241699219
0.1690673828125 0.43389892578125 0.6634521484375
0.14190673828125 0.507476806640625 0.6700286865234375
0.13726806640625 0.4879150390625 0.67766571044921875
0.15985107421875 0.42327880859375 0.676666259765625
-0.43084716796875 -0.03045654296875 0.76092529296875
-0.41851806640625 0.0198974609375 0.76580810546875
-0.43646240234375 -0.032562255859375 0.7596435546875
-0.4383544921875 -0.071258544921875 0.753021240234375
-0.42657470703125 -0.02252197265625 0.758636474609375
-0.41357421875 0.022003173828125 0.76763916015625
-0.42572021484375 0.0159912109375 0.76702880859375
-0.4429931640625 -0.085693359375 0.751617431640625
-0.4337158203125 -0.06591796875 0.752777099609375
0.07879638671875 0.57147216796875 0.69342231750488281
0.07965087890625 0.5858154296875 0.68778038024902344
0.05401611328125 0.5877685546875 0.70409774780273438
0.07159423828125 0.55792236328125 0.70200538635253906
0.10052490234375 0.550811767578125 0.68545436859130859
0.1053466796875 0.56396484375 0.68036460876464844
0.0546875 0.60748291015625 0.69394302368164062
0.04736328125 0.57464599609375 0.711151123046875
0.097412109375 0.542572021484375 0.691192626953125
-0.36376953125 0.1904296875 0.77679443359375
-0.3402099609375 0.247406005859375 0.777557373046875
-0.36566162109375 0.202972412109375 0.77777099609375
-0.3857421875 0.132110595703125 0.77178955078125
-0.36505126953125 0.1805419921875 0.77545166015625
-0.3472900390625 0.233612060546875 0.77490234375
-0.3424072265625 0.262481689453125 0.774566650390625
-0.390380859375 0.13970947265625 0.771575927734375
-0.38677978515625 0.128875732421875 0.7734375
0.005126953125 0.618133544921875 0.709808349609375
0.00799560546875 0.63348388671875 0.70406341552734375
-0.00128173828125 0.62225341796875 0.70867919921875
0.001953125 0.601165771484375 0.71567535400390625
0.0150146484375 0.608062744140625 0.71042633056640625
0.01885986328125 0.628448486328125 0.70291900634765625
-0.0023193359375 0.636383056640625 0.70424652099609375
-0.00640869140625 0.60400390625 0.7149505615234375
0.01611328125 0.593597412109375 0.71710968017578125
-0.283935546875 0.380340576171875 0.7724609375
-0.265625 0.405517578125 0.7628173828125
-0.26971435546875 0.40118408203125 0.7645263671875
-0.30169677734375 0.33917236328125 0.771209716796875
-0.2919921875 0.355804443359375 0.76898193359375
-0.27886962890625 0.389068603515625 0.766082763671875
-0.2552490234375 0.430419921875 0.76446533203125
-0.29241943359375 0.361297607421875 0.7725830078125
-0.31341552734375 0.319793701171875 0.770751953125
-0.028564453125 0.622344970703125 0.7122650146484375
-0.02813720703125 0.63507080078125 0.70510101318359375
-0.03759765625 0.615753173828125 0.7154083251953125
-0.0306396484375 0.608154296875 0.71445465087890625
-0.02032470703125 0.623779296875 0.7041015625
-0.01593017578125 0.63525390625 0.70423126220703125
-0.03741455078125 0.627197265625 0.7074737548828125
-0.03912353515625 0.604827880859375 0.716766357421875
-0.01702880859375 0.610992431640625 0.71148681640625
-0.2392578125 0.45697021484375 0.759429931640625
-0.23638916015625 0.4600830078125 0.75701904296875
-0.22625732421875 0.4796142578125 0.754425048828125
-0.24310302734375 0.446197509765625 0.760894775390625
-0.25238037109375 0.4326171875 0.7633056640625
-0.2484130859375 0.440765380859375 0.758697509765625
-0.2200927734375 0.485748291015625 0.752655029296875
-0.2286376953125 0.466033935546875 0.759033203125
-0.25750732421875 0.42864990234375 0.760406494140625
-0.07232666015625 0.581787109375 0.7283782958984375
-0.07574462890625 0.58673095703125 0.72502899169921875
-0.08551025390625 0.564453125 0.732177734375
-0.07244873046875 0.567230224609375 0.73265838623046875
-0.0589599609375 0.592437744140625 0.72454071044921875
-0.06134033203125 0.60546875 0.719207763671875
-0.08917236328125 0.568695068359375 0.7327728271484375
-0.08349609375 0.556121826171875 0.7376251220703125
-0.0604248046875 0.582733154296875 0.72428131103515625
-0.24334716796875 0.4549560546875 0.756378173828125
-0.25726318359375 0.444732666015625 0.7563629150390625
-0.23248291015625 0.474365234375 0.75384521484375
-0.2384033203125 0.46160888671875 0.7520904541015625
-0.25787353515625 0.43719482421875 0.756561279296875
-0.26824951171875 0.431182861328125 0.755340576171875
-0.24365234375 0.46588134765625 0.75225830078125
-0.227294921875 0.481781005859375 0.7504425048828125
-0.25213623046875 0.440216064453125 0.756500244140625
-0.06072998046875 0.547271728515625 0.7354736328125
-0.06903076171875 0.552581787109375 0.73516082763671875
-0.06951904296875 0.535919189453125 0.73752593994140625
-0.0570068359375 0.5474853515625 0.735382080078125
-0.05230712890625 0.560150146484375 0.73125457763671875
-0.0601806640625 0.56695556640625 0.731842041015625
-0.07464599609375 0.539642333984375 0.7369232177734375
-0.06573486328125 0.536102294921875 0.73732757568359375
-0.04986572265625 0.5538330078125 0.7293701171875
-0.2813720703125 0.40069580078125 0.760650634765625
-0.2886962890625 0.390350341796875 0.7612152099609375
-0.277099609375 0.41015625 0.75823974609375
-0.28125 0.40185546875 0.75958251953125
-0.28399658203125 0.389129638671875 0.75970458984375
-0.2867431640625 0.384979248046875 0.762603759765625
-0.2821044921875 0.4007568359375 0.760528564453125
-0.270263671875 0.414459228515625 0.761322021484375
-0.281494140625 0.39501953125 0.7618408203125
-0.03167724609375 0.584930419921875 0.723876953125
-0.03515625 0.585205078125 0.72515869140625
-0.03900146484375 0.57562255859375 0.7231292724609375
-0.031005859375 0.579254150390625 0.7217254638671875
-0.02154541015625 0.586273193359375 0.7207794189453125
-0.0220947265625 0.59173583984375 0.72039031982421875
-0.04180908203125 0.583099365234375 0.725799560546875
-0.03765869140625 0.573760986328125 0.7242584228515625
-0.01885986328125 0.576690673828125 0.71942901611328125
-0.2755126953125 0.39434814453125 0.76019287109375
-0.27337646484375 0.40301513671875 0.763397216796875
-0.2677001953125 0.408477783203125 0.761383056640625
-0.2813720703125 0.384796142578125 0.767822265625
-0.28070068359375 0.387542724609375 0.76708984375
-0.2769775390625 0.393035888671875 0.764556884765625
-0.26708984375 0.411651611328125 0.762847900390625
-0.27069091796875 0.394012451171875 0.765045166015625
-0.2821044921875 0.37841796875 0.767333984375
-0.001708984375 0.57440185546875 0.72385406494140625
0.00140380859375 0.57989501953125 0.72492218017578125
-0.00885009765625 0.583160400390625 0.7248077392578125
0.00164794921875 0.5750732421875 0.722686767578125
0.01055908203125 0.565582275390625 0.72481918334960938
0.0042724609375 0.56781005859375 0.72730255126953125
-0.009521484375 0.58660888671875 0.72269439697265625
-0.00579833984375 0.577056884765625 0.72373199462890625
0.0147705078125 0.56707763671875 0.72118759155273438
-0.3109130859375 0.32647705078125 0.76715087890625
-0.294189453125 0.350311279296875 0.7655029296875
-0.30938720703125 0.330108642578125 0.7694091796875
-0.3267822265625 0.29534912109375 0.77105712890625
-0.31048583984375 0.3238525390625 0.771942138671875
-0.3001708984375 0.345794677734375 0.767578125
-0.294921875 0.361663818359375 0.766937255859375
-0.3228759765625 0.297576904296875 0.76934814453125
-0.32220458984375 0.2923583984375 0.76873779296875
0.0716552734375 0.537200927734375 0.70679473876953125
0.06884765625 0.53863525390625 0.70927047729492188
0.0484619140625 0.552703857421875 0.713409423828125
0.07330322265625 0.534637451171875 0.70333480834960938
0.0950927734375 0.521881103515625 0.69411754608154297
0.09368896484375 0.526092529296875 0.69809341430664062
0.04510498046875 0.552825927734375 0.71808624267578125
0.05126953125 0.545196533203125 0.71250534057617188
0.099609375 0.517913818359375 0.69281005859375
-0.3665771484375 0.172882080078125 0.7723388671875
-0.35333251953125 0.216339111328125 0.77374267578125
-0.372314453125 0.1700439453125 0.77288818359375
-0.3814697265625 0.125457763671875 0.77227783203125
-0.36468505859375 0.172882080078125 0.773590087890625
-0.35064697265625 0.220977783203125 0.7720947265625
-0.35357666015625 0.220611572265625 0.77435302734375
-0.3829345703125 0.12237548828125 0.7724609375
-0.38006591796875 0.127960205078125 0.7735595703125
0.1441650390625 0.4476318359375 0.68069648742675781
0.143310546875 0.4481201171875 0.68008899688720703
0.12994384765625 0.476806640625 0.68220996856689453
0.1444091796875 0.449981689453125 0.67670822143554688
0.15423583984375 0.420745849609375 0.6797637939453125
0.15570068359375 0.416900634765625 0.68199348449707031
0.12896728515625 0.476776123046875 0.68349361419677734
0.130859375 0.47442626953125 0.67544174194335938
0.1552734375 0.4254150390625 0.67492771148681641
-0.41522216796875 -0.003692626953125 0.757843017578125
-0.40020751953125 0.035858154296875 0.766693115234375
-0.41851806640625 -0.012451171875 0.76092529296875
-0.421142578125 -0.039215087890625 0.7568359375
-0.40863037109375 0.00262451171875 0.76214599609375
-0.39605712890625 0.041473388671875 0.764984130859375
-0.40313720703125 0.030914306640625 0.765960693359375
-0.426025390625 -0.048919677734375 0.754119873046875
-0.41278076171875 -0.029937744140625 0.7567138671875
0.18109130859375 0.31964111328125 0.68410396575927734
0.18292236328125 0.311492919921875 0.68503379821777344
0.1724853515625 0.354400634765625 0.68271160125732422
0.17822265625 0.327301025390625 0.68425750732421875
0.1875 0.284942626953125 0.68917274475097656
0.1873779296875 0.275177001953125 0.68886184692382812
0.173583984375 0.35162353515625 0.6827392578125
0.172119140625 0.358612060546875 0.68002414703369141
0.1832275390625 0.2913818359375 0.68097972869873047
-0.45245361328125 -0.137176513671875 0.7369384765625
-0.437744140625 -0.10882568359375 0.74517822265625
-0.4560546875 -0.153472900390625 0.732574462890625
-0.46240234375 -0.1671142578125 0.730499267578125
-0.44140625 -0.125274658203125 0.7374267578125
-0.4327392578125 -0.0966796875 0.745025634765625
-0.44451904296875 -0.117095947265625 0.743011474609375
-0.470703125 -0.18408203125 0.72906494140625
-0.45416259765625 -0.1490478515625 0.7308349609375
0.19500732421875 0.179901123046875 0.71512699127197266
0.19793701171875 0.166748046875 0.71272182464599609
0.1968994140625 0.210845947265625 0.70593166351318359
0.195556640625 0.18963623046875 0.7119140625
0.1929931640625 0.15069580078125 0.72408485412597656
0.197509765625 0.140167236328125 0.72426795959472656
0.197509765625 0.1995849609375 0.70446395874023438
0.1927490234375 0.22430419921875 0.69976425170898438
0.191650390625 0.162017822265625 0.721405029296875
-0.53057861328125 -0.212799072265625 0.7095947265625
-0.50213623046875 -0.205596923828125 0.714508056640625
-0.54119873046875 -0.229156494140625 0.7047119140625
-0.55743408203125 -0.215911865234375 0.703857421875
-0.52398681640625 -0.202239990234375 0.7127685546875
-0.494384765625 -0.187408447265625 0.716949462890625
-0.51318359375 -0.22125244140625 0.71209716796875
-0.57098388671875 -0.229888916015625 0.69940185546875
-0.5433349609375 -0.20098876953125 0.707733154296875
0.173583984375 0.1063232421875 0.74966049194335938
0.17962646484375 0.090850830078125 0.75012969970703125
0.187255859375 0.117919921875 0.73796463012695312
0.1744384765625 0.11865234375 0.745697021484375
0.1646728515625 0.10723876953125 0.75502777099609375
0.1654052734375 0.0948486328125 0.75513458251953125
0.18804931640625 0.10308837890625 0.74157333374023438
0.18115234375 0.131622314453125 0.73926544189453125
0.16351318359375 0.115875244140625 0.74941253662109375
-0.61199951171875 -0.19085693359375 0.70440673828125
-0.5997314453125 -0.20269775390625 0.700347900390625
-0.62139892578125 -0.197967529296875 0.699188232421875
-0.6134033203125 -0.167510986328125 0.706634521484375
-0.5970458984375 -0.17742919921875 0.70770263671875
-0.5888671875 -0.191253662109375 0.706207275390625
-0.61029052734375 -0.212127685546875 0.69683837890625
-0.62017822265625 -0.17803955078125 0.705322265625
-0.599853515625 -0.1573486328125 0.7139892578125
0.08685302734375 0.1478271484375 0.769317626953125
0.08612060546875 0.14111328125 0.77355194091796875
0.1197509765625 0.12835693359375 0.766387939453125
0.0859375 0.15887451171875 0.770355224609375
0.05181884765625 0.16754150390625 0.7774505615234375
0.05303955078125 0.16180419921875 0.77550506591796875
0.12115478515625 0.119140625 0.7682952880859375
0.11834716796875 0.1397705078125 0.76123428344726562
0.05523681640625 0.17279052734375 0.77142333984375
-0.55889892578125 -0.0638427734375 0.728912353515625
-0.58154296875 -0.103118896484375 0.72149658203125
-0.56756591796875 -0.069610595703125 0.729248046875
-0.5364990234375 -0.022308349609375 0.736328125
-0.55010986328125 -0.056610107421875 0.73040771484375
-0.5716552734375 -0.094085693359375 0.72039794921875
-0.5943603515625 -0.10687255859375 0.71929931640625
-0.54583740234375 -0.028106689453125 0.735137939453125
-0.52691650390625 -0.02178955078125 0.737701416015625
-0.02252197265625 0.226593017578125 0.77651214599609375
-0.0277099609375 0.21661376953125 0.78064727783203125
-0.00372314453125 0.205413818359375 0.7795867919921875
-0.01995849609375 0.232208251953125 0.778106689453125
-0.0369873046875 0.243194580078125 0.77440643310546875
-0.042236328125 0.231689453125 0.7774200439453125
-0.00518798828125 0.19659423828125 0.779815673828125
0.00286865234375 0.21221923828125 0.7777862548828125
-0.02838134765625 0.2496337890625 0.7753448486328125
-0.4600830078125 0.0723876953125 0.751068115234375
-0.48406982421875 0.042205810546875 0.7461090087890625
-0.46893310546875 0.06805419921875 0.750457763671875
-0.4432373046875 0.095947265625 0.7559356689453125
-0.45379638671875 0.0723876953125 0.752716064453125
-0.47576904296875 0.045562744140625 0.74957275390625
-0.48822021484375 0.04058837890625 0.7502899169921875
-0.44659423828125 0.094512939453125 0.75244140625
-0.43829345703125 0.101287841796875 0.756866455078125
-0.08746337890625 0.4810791015625 0.74733734130859375
-0.0958251953125 0.480010986328125 0.7503814697265625
-0.0894775390625 0.460968017578125 0.75397491455078125
-0.0811767578125 0.483245849609375 0.743194580078125
-0.0860595703125 0.50408935546875 0.74597930908203125
-0.08758544921875 0.49981689453125 0.74452972412109375
-0.0997314453125 0.459259033203125 0.7539520263671875
-0.0849609375 0.461181640625 0.7528839111328125
-0.07763671875 0.500152587890625 0.74187469482421875
-0.31280517578125 0.34808349609375 0.7628631591796875
-0.32373046875 0.33538818359375 0.7604827880859375
-0.31353759765625 0.357940673828125 0.760467529296875
-0.302978515625 0.367340087890625 0.7610015869140625
-0.31195068359375 0.34814453125 0.7625885009765625
-0.3193359375 0.329620361328125 0.7609100341796875
-0.32440185546875 0.336639404296875 0.7597503662109375
-0.30059814453125 0.376739501953125 0.7586517333984375
-0.3028564453125 0.3603515625 0.7609405517578125
-0.09326171875 0.3885498046875 0.764129638671875
-0.099365234375 0.38751220703125 0.7649688720703125
-0.089599609375 0.364532470703125 0.7665252685546875
-0.0848388671875 0.392791748046875 0.759521484375
-0.09698486328125 0.41253662109375 0.7587432861328125
-0.10186767578125 0.409454345703125 0.760711669921875
-0.0985107421875 0.35943603515625 0.76929473876953125
-0.0794677734375 0.3740234375 0.76131439208984375
-0.0877685546875 0.4189453125 0.755126953125
-0.35882568359375 0.262786865234375 0.7600250244140625
-0.36468505859375 0.23858642578125 0.76025390625
-0.36224365234375 0.262481689453125 0.76318359375
-0.34417724609375 0.284332275390625 0.76141357421875
-0.35467529296875 0.264495849609375 0.762725830078125
-0.36578369140625 0.238311767578125 0.7606201171875
-0.37298583984375 0.236846923828125 0.7617034912109375
-0.34661865234375 0.28765869140625 0.762481689453125
-0.3409423828125 0.287750244140625 0.76055908203125
-0.0697021484375 0.298370361328125 0.7717437744140625
-0.07586669921875 0.29376220703125 0.7747802734375
-0.0606689453125 0.27880859375 0.77245330810546875
-0.0595703125 0.30712890625 0.7696533203125
-0.07904052734375 0.31988525390625 0.771728515625
-0.083740234375 0.31378173828125 0.771820068359375
-0.06878662109375 0.274261474609375 0.77573394775390625
-0.0540771484375 0.28546142578125 0.7703704833984375
-0.06915283203125 0.327911376953125 0.76815032958984375
-0.40045166015625 0.16571044921875 0.759063720703125
-0.41357421875 0.1434326171875 0.757476806640625
-0.4080810546875 0.164794921875 0.7613525390625
-0.38726806640625 0.190887451171875 0.7604827880859375
-0.39312744140625 0.170806884765625 0.7615509033203125
-0.40673828125 0.14599609375 0.762786865234375
-0.41796875 0.14129638671875 0.76068115234375
-0.3916015625 0.186492919921875 0.7577972412109375
-0.38616943359375 0.18927001953125 0.759033203125
-0.104736328125 0.6663818359375 0.6398773193359375
-0.10247802734375 0.64520263671875 0.672393798828125
-0.0849609375 0.689483642578125 0.627899169921875
-0.1102294921875 0.690704345703125 0.60302734375
-0.118896484375 0.653564453125 0.646453857421875
-0.1173095703125 0.6273193359375 0.6796112060546875
-0.08355712890625 0.6622314453125 0.6628265380859375
-0.0904541015625 0.7076416015625 0.5865020751953125
-0.123779296875 0.674468994140625 0.614288330078125
-0.1322021484375 0.64617919921875 0.6576690673828125
-0.12548828125 0.65985107421875 0.65545654296875
-0.12921142578125 0.622955322265625 0.6869964599609375
-0.13720703125 0.643463134765625 0.658355712890625
-0.14544677734375 0.665313720703125 0.6256866455078125
-0.14459228515625 0.675628662109375 0.624237060546875
-0.12249755859375 0.64068603515625 0.6797332763671875
-0.13116455078125 0.6207275390625 0.687347412109375
-0.1417236328125 0.663665771484375 0.6235809326171875
0.03009033203125 0.750396728515625 0.5742034912109375
0.031494140625 0.727020263671875 0.6124267578125
0.08197021484375 0.7596435546875 0.555389404296875
0.0240478515625 0.775146484375 0.5348358154296875
-0.0147705078125 0.731689453125 0.5941314697265625
-0.0185546875 0.71246337890625 0.6288604736328125
0.088134765625 0.735687255859375 0.588653564453125
0.07159423828125 0.7789306640625 0.52227783203125
-0.021728515625 0.75653076171875 0.5534820556640625
-0.03936767578125 0.722930908203125 0.6304931640625
0.0008544921875 0.741180419921875 0.6211090087890625
-0.02825927734375 0.70391845703125 0.65435791015625
-0.08074951171875 0.70465087890625 0.64208984375
-0.06256103515625 0.73687744140625 0.6079254150390625
-0.02978515625 0.75433349609375 0.604461669921875
0.01763916015625 0.71923828125 0.64434814453125
-0.0693359375 0.686065673828125 0.66650390625
-0.10198974609375 0.71710205078125 0.6127777099609375
0.18243408203125 0.765289306640625 0.51070404052734375
0.19256591796875 0.734466552734375 0.5458526611328125
0.18536376953125 0.772216796875 0.5017852783203125
0.15972900390625 0.78692626953125 0.476348876953125
0.1663818359375 0.757598876953125 0.521331787109375
0.17413330078125 0.73187255859375 0.5549468994140625
0.19451904296875 0.745269775390625 0.53833770751953125
0.1634521484375 0.7967529296875 0.4717559814453125
0.14117431640625 0.78448486328125 0.4886322021484375
0.044921875 0.754791259765625 0.621337890625
0.01446533203125 0.75518798828125 0.630767822265625
0.06988525390625 0.727630615234375 0.6407318115234375
0.049560546875 0.751617431640625 0.6165924072265625
0.0020751953125 0.77178955078125 0.60394287109375
-0.02593994140625 0.769317626953125 0.615753173828125
0.03765869140625 0.73394775390625 0.648162841796875
0.07562255859375 0.7286376953125 0.63482666015625
0.01348876953125 0.768035888671875 0.6009521484375
0.1290283203125 0.824371337890625 0.501556396484375
0.1243896484375 0.806121826171875 0.54341888427734375
0.11260986328125 0.8336181640625 0.50210189819335938
0.11865234375 0.8343505859375 0.46174240112304688
0.150634765625 0.80670166015625 0.500732421875
0.151123046875 0.787109375 0.54018402099609375
0.109375 0.817596435546875 0.54913711547851562
0.1038818359375 0.83953857421875 0.4586639404296875
0.13739013671875 0.82379150390625 0.46660614013671875
-0.18048095703125 0.701446533203125 0.671112060546875
-0.25885009765625 0.653411865234375 0.688568115234375
-0.1658935546875 0.68829345703125 0.68829345703125
-0.109375 0.733551025390625 0.65765380859375
-0.1888427734375 0.71240234375 0.650787353515625
-0.26068115234375 0.658599853515625 0.663848876953125
-0.2481689453125 0.63665771484375 0.706512451171875
-0.08758544921875 0.719268798828125 0.675384521484375
-0.125732421875 0.74334716796875 0.63818359375
0.13397216796875 0.799285888671875 0.50673770904541016
0.12103271484375 0.796112060546875 0.55900096893310547
0.1536865234375 0.774993896484375 0.50327682495117188
0.1363525390625 0.807098388671875 0.44329357147216797
0.117431640625 0.820831298828125 0.50454902648925781
0.10589599609375 0.811187744140625 0.55475425720214844
0.13861083984375 0.76910400390625 0.55843925476074219
0.16424560546875 0.78265380859375 0.44116973876953125
0.11541748046875 0.82305908203125 0.44829273223876953
-0.4793701171875 0.39764404296875 0.71942138671875
-0.54608154296875 0.297576904296875 0.719085693359375
-0.47833251953125 0.3890380859375 0.740692138671875
-0.40625 0.493408203125 0.71490478515625
-0.48486328125 0.40496826171875 0.69122314453125
-0.5491943359375 0.30718994140625 0.6895751953125
-0.5477294921875 0.287139892578125 0.737762451171875
-0.40008544921875 0.4852294921875 0.736297607421875
-0.4093017578125 0.501800537109375 0.683868408203125
0.2135009765625 0.667083740234375 0.5102996826171875
0.1905517578125 0.664794921875 0.56620025634765625
0.23004150390625 0.619354248046875 0.5059661865234375
0.22381591796875 0.6756591796875 0.44858551025390625
0.19403076171875 0.708953857421875 0.50876617431640625
0.176513671875 0.704345703125 0.56715774536132812
0.21380615234375 0.611602783203125 0.55853271484375
0.24578857421875 0.62713623046875 0.445953369140625
0.20855712890625 0.71575927734375 0.445892333984375
-0.7158203125 0.02093505859375 0.69091796875
-0.746337890625 -0.068572998046875 0.6793212890625
-0.72601318359375 0.00384521484375 0.70623779296875
-0.6727294921875 0.1058349609375 0.700714111328125
-0.7071533203125 0.036346435546875 0.66998291015625
-0.7347412109375 -0.048614501953125 0.657257080078125
-0.75421142578125 -0.0882568359375 0.694305419921875
-0.68048095703125 0.09375 0.721893310546875
-0.66522216796875 0.121124267578125 0.6776123046875
0.31512451171875 0.36077880859375 0.445953369140625
0.30230712890625 0.3402099609375 0.490875244140625
0.338623046875 0.263427734375 0.441925048828125
0.32122802734375 0.3944091796875 0.39479827880859375
0.288330078125 0.45989990234375 0.46662139892578125
0.2745361328125 0.4454345703125 0.51398468017578125
0.33062744140625 0.234619140625 0.47891998291015625
0.34466552734375 0.3011474609375 0.39446258544921875
0.294921875 0.4808349609375 0.41451263427734375
-0.6201171875 -0.365509033203125 0.61865234375
-0.54119873046875 -0.449310302734375 0.59246826171875
-0.62738037109375 -0.3826904296875 0.636016845703125
-0.69744873046875 -0.269287109375 0.644744873046875
-0.614990234375 -0.34661865234375 0.5977783203125
-0.540283203125 -0.4327392578125 0.570831298828125
-0.54522705078125 -0.46435546875 0.6126708984375
-0.70062255859375 -0.2830810546875 0.659454345703125
-0.68560791015625 -0.24627685546875 0.62359619140625
0.3720703125 0.03302001953125 0.5390472412109375
0.36639404296875 -0.00042724609375 0.566802978515625
0.37469482421875 -0.00811767578125 0.5837554931640625
0.3763427734375 0.083251953125 0.501251220703125
0.3671875 0.09625244140625 0.4937286376953125
0.36328125 0.06268310546875 0.52339935302734375
0.36785888671875 -0.04400634765625 0.6061553955078125
0.37255859375 0.03656005859375 0.55088424682617188
0.37274169921875 0.14215087890625 0.457855224609375
-0.43292236328125 -0.554962158203125 0.561309814453125
-0.46038818359375 -0.549346923828125 0.56829833984375
-0.45184326171875 -0.564361572265625 0.57489013671875
-0.435546875 -0.542999267578125 0.562957763671875
-0.4176025390625 -0.54486083984375 0.53973388671875
-0.43292236328125 -0.54718017578125 0.548095703125
-0.4844970703125 -0.556182861328125 0.576141357421875
-0.44915771484375 -0.5517578125 0.5775146484375
-0.428955078125 -0.53057861328125 0.54217529296875
0.35845947265625 -0.06103515625 0.68091583251953125
0.36181640625 -0.094970703125 0.69322967529296875
0.348876953125 -0.06341552734375 0.70843315124511719
0.349365234375 -0.02813720703125 0.66683483123779297
0.36529541015625 -0.05401611328125 0.65365219116210938
0.36602783203125 -0.0916748046875 0.66990470886230469
0.35400390625 -0.09246826171875 0.71125125885009766
0.334228515625 -0.03179931640625 0.69357967376708984
0.36151123046875 -0.0184326171875 0.63400459289550781
-0.57501220703125 -0.48583984375 0.61505126953125
-0.59136962890625 -0.45037841796875 0.640960693359375
-0.60260009765625 -0.48162841796875 0.6187744140625
-0.54364013671875 -0.515411376953125 0.59326171875
-0.54156494140625 -0.487060546875 0.6009521484375
-0.56585693359375 -0.450225830078125 0.629364013671875
-0.61297607421875 -0.44464111328125 0.642913818359375
-0.5740966796875 -0.5130615234375 0.603363037109375
-0.50665283203125 -0.514251708984375 0.58056640625
0.09368896484375 -0.318603515625 0.6958770751953125
0.01922607421875 -0.319610595703125 0.6742095947265625
0.05023193359375 -0.3065185546875 0.702545166015625
0.15625 -0.31298828125 0.708709716796875
0.1376953125 -0.32574462890625 0.6734161376953125
0.068115234375 -0.332672119140625 0.658782958984375
-0.0220947265625 -0.310577392578125 0.687103271484375
0.1146240234375 -0.29791259765625 0.7202911376953125
0.2049560546875 -0.324798583984375 0.689239501953125
-0.2142333984375 -0.33697509765625 0.657562255859375
-0.27099609375 -0.33441162109375 0.66009521484375
-0.1351318359375 -0.332275390625 0.6576385498046875
-0.161865234375 -0.3392333984375 0.647796630859375
-0.28875732421875 -0.3450927734375 0.6583404541015625
-0.340576171875 -0.346038818359375 0.664337158203125
-0.18731689453125 -0.325958251953125 0.6698150634765625
-0.08599853515625 -0.33544921875 0.6487274169921875
-0.2276611328125 -0.34710693359375 0.653411865234375
0.295166015625 -0.3658447265625 0.5777435302734375
0.21978759765625 -0.364776611328125 0.567291259765625
0.2401123046875 -0.3580322265625 0.6155853271484375
0.360595703125 -0.37445068359375 0.59613037109375
0.3492431640625 -0.384735107421875 0.5400390625
0.276611328125 -0.37786865234375 0.5297088623046875
0.16705322265625 -0.3515625 0.604736328125
0.30511474609375 -0.357421875 0.6302337646484375
0.4169921875 -0.39044189453125 0.5580291748046875
-0.0035400390625 -0.35443115234375 0.56781005859375
-0.05230712890625 -0.3502197265625 0.6006927490234375
0.07318115234375 -0.357177734375 0.5565338134765625
0.04608154296875 -0.368255615234375 0.532257080078125
-0.08038330078125 -0.35394287109375 0.57977294921875
-0.12371826171875 -0.353118896484375 0.608123779296875
0.0224609375 -0.3480224609375 0.5929412841796875
0.1287841796875 -0.37042236328125 0.5237274169921875
-0.03466796875 -0.361419677734375 0.54486083984375
0.5069580078125 -0.4493408203125 0.4677276611328125
0.447021484375 -0.45172119140625 0.45648193359375
0.458740234375 -0.422119140625 0.47900390625
0.557861328125 -0.451019287109375 0.48285675048828125
0.54632568359375 -0.479736328125 0.47052764892578125
0.493377685546875 -0.486083984375 0.4588470458984375
0.3922119140625 -0.42230224609375 0.4662322998046875
0.51629638671875 -0.4285888671875 0.498748779296875
0.589385986328125 -0.477783203125 0.48566436767578125
0.206146240234375 -0.4346923828125 0.4625244140625
0.14794921875 -0.4063720703125 0.4766998291015625
0.296173095703125 -0.445648193359375 0.4549102783203125
0.263916015625 -0.476806640625 0.4647064208984375
0.104736328125 -0.42572021484375 0.47674560546875
0.0517578125 -0.397735595703125 0.4909820556640625
0.23773193359375 -0.4114990234375 0.464080810546875
0.352294921875 -0.481658935546875 0.4557647705078125
0.1556396484375 -0.461700439453125 0.4783782958984375
0.6419677734375 -0.54296875 0.52686309814453125
0.671844482421875 -0.547271728515625 0.54306793212890625
0.620758056640625 -0.551239013671875 0.51555633544921875
0.61529541015625 -0.531219482421875 0.5023956298828125
0.660552978515625 -0.53265380859375 0.53985595703125
0.677490234375 -0.536712646484375 0.56319427490234375
0.652374267578125 -0.552886962890625 0.5363616943359375
0.58026123046875 -0.53887939453125 0.4897613525390625
0.641845703125 -0.522247314453125 0.5186004638671875
0.439453125 -0.544891357421875 0.518798828125
0.520477294921875 -0.55328369140625 0.5104522705078125
0.4969482421875 -0.545623779296875 0.5402679443359375
0.335968017578125 -0.5321044921875 0.5280303955078125
0.37799072265625 -0.53021240234375 0.495025634765625
0.46435546875 -0.54364013671875 0.48783111572265625
0.572021484375 -0.553070068359375 0.53539276123046875
0.39910888671875 -0.535125732421875 0.5527191162109375
0.273834228515625 -0.51904296875 0.505645751953125
0.673492431640625 -0.51434326171875 0.6286163330078125
0.66644287109375 -0.5211181640625 0.64421844482421875
0.671722412109375 -0.516082763671875 0.59711456298828125
0.677947998046875 -0.506072998046875 0.60834503173828125
0.67596435546875 -0.517822265625 0.65948486328125
0.662261962890625 -0.5174560546875 0.67659759521484375
0.67181396484375 -0.524078369140625 0.61541748046875
0.667205810546875 -0.509735107421875 0.57459259033203125
0.686126708984375 -0.506683349609375 0.639495849609375
-0.08056640625 -0.475189208984375 0.586090087890625
0.069915771484375 -0.5006103515625 0.5651702880859375
-0.00152587890625 -0.47808837890625 0.61370849609375
-0.220458984375 -0.447052001953125 0.6058502197265625
-0.144927978515625 -0.460723876953125 0.56719970703125
-0.002105712890625 -0.4847412109375 0.541900634765625
0.1416015625 -0.501800537109375 0.58966064453125
-0.139617919921875 -0.450714111328125 0.6277923583984375
-0.268829345703125 -0.43756103515625 0.5840606689453125
0.7115478515625 -0.521331787109375 0.69281005859375
0.688232421875 -0.52288818359375 0.7117462158203125
0.6959228515625 -0.519683837890625 0.69394683837890625
0.72259521484375 -0.5130615234375 0.66534423828125
0.7255859375 -0.521331787109375 0.6837921142578125
0.70379638671875 -0.525177001953125 0.704132080078125
0.673980712890625 -0.52105712890625 0.7142791748046875
0.71075439453125 -0.512847900390625 0.66857147216796875
0.73046875 -0.50830078125 0.66172027587890625
-0.461822509765625 -0.356689453125 0.6428070068359375
-0.41571044921875 -0.38665771484375 0.63360595703125
-0.4034423828125 -0.35791015625 0.669647216796875
-0.4869384765625 -0.335052490234375 0.6505584716796875
-0.47808837890625 -0.35748291015625 0.612823486328125
-0.43658447265625 -0.381317138671875 0.6109161376953125
-0.348419189453125 -0.39117431640625 0.6607513427734375
-0.43585205078125 -0.334716796875 0.678009033203125
-0.495849609375 -0.3370361328125 0.620025634765625
0.7255859375 -0.5001220703125 0.6783447265625
0.7305908203125 -0.511322021484375 0.68170166015625
0.73724365234375 -0.514404296875 0.6775665283203125
0.69580078125 -0.474578857421875 0.6771087646484375
0.71063232421875 -0.4783935546875 0.68860626220703125
0.7265625 -0.497528076171875 0.6817779541015625
0.72802734375 -0.521484375 0.68781280517578125
0.7164306640625 -0.490509033203125 0.66552734375
0.66412353515625 -0.452056884765625 0.69377899169921875
-0.4918212890625 -0.301177978515625 0.6728973388671875
-0.496490478515625 -0.30682373046875 0.6642608642578125
-0.47216796875 -0.2789306640625 0.6986541748046875
-0.49322509765625 -0.305450439453125 0.6865386962890625
-0.48333740234375 -0.323944091796875 0.6555633544921875
-0.48736572265625 -0.32318115234375 0.641937255859375
-0.466400146484375 -0.2900390625 0.69219970703125
-0.48272705078125 -0.275177001953125 0.7073211669921875
-0.478271484375 -0.329620361328125 0.6665802001953125
0.53173828125 -0.40545654296875 0.64899444580078125
0.5787353515625 -0.422698974609375 0.62500762939453125
0.47869873046875 -0.387542724609375 0.632293701171875
0.48138427734375 -0.38153076171875 0.6816558837890625
0.58526611328125 -0.418701171875 0.6651153564453125
0.62890625 -0.441741943359375 0.64238739013671875
0.5274658203125 -0.40667724609375 0.6008453369140625
0.42694091796875 -0.36865234375 0.6645050048828125
0.5379638671875 -0.39910888671875 0.69162750244140625
-0.32672119140625 -0.350677490234375 0.6185302734375
-0.2435302734375 -0.34942626953125 0.606353759765625
-0.31317138671875 -0.3475341796875 0.592926025390625
-0.39520263671875 -0.347381591796875 0.62750244140625
-0.3433837890625 -0.353759765625 0.6416778564453125
-0.272216796875 -0.3499755859375 0.63037109375
-0.2213134765625 -0.35302734375 0.580078125
-0.39361572265625 -0.341278076171875 0.608001708984375
-0.39776611328125 -0.352081298828125 0.6464080810546875
0.6710205078125 -0.471038818359375 0.570526123046875
0.6962890625 -0.484283447265625 0.604461669921875
0.68011474609375 -0.48016357421875 0.57785797119140625
0.6380615234375 -0.459747314453125 0.5397491455078125
0.65093994140625 -0.45416259765625 0.58138275146484375
0.68560791015625 -0.47308349609375 0.61199951171875
0.69622802734375 -0.48944091796875 0.60821533203125
0.65802001953125 -0.476837158203125 0.540924072265625
0.61151123046875 -0.445159912109375 0.54898834228515625
-0.268829345703125 -0.380462646484375 0.5411376953125
-0.237823486328125 -0.406341552734375 0.5374755859375
-0.376129150390625 -0.3685302734375 0.561798095703125
-0.28570556640625 -0.364776611328125 0.5509490966796875
-0.141204833984375 -0.395538330078125 0.5188446044921875
-0.103546142578125 -0.426971435546875 0.5146942138671875
-0.34234619140625 -0.393280029296875 0.5619049072265625
-0.3890380859375 -0.35400390625 0.5744171142578125
-0.17120361328125 -0.373260498046875 0.5318145751953125
0.32757568359375 -0.3084716796875 0.748870849609375
0.38739013671875 -0.311248779296875 0.75292205810546875
0.3753662109375 -0.33258056640625 0.7280731201171875
0.26910400390625 -0.304931640625 0.740478515625
0.28472900390625 -0.28326416015625 0.762451171875
0.34576416015625 -0.28509521484375 0.76679229736328125
0.43621826171875 -0.341522216796875 0.73822784423828125
0.31787109375 -0.32489013671875 0.7176055908203125
0.22998046875 -0.2872314453125 0.750701904296875
-0.41571044921875 -0.36474609375 0.68212890625
-0.39007568359375 -0.36004638671875 0.6710357666015625
-0.439453125 -0.365264892578125 0.69085693359375
-0.4439697265625 -0.36712646484375 0.681427001953125
-0.3870849609375 -0.358551025390625 0.6741790771484375
-0.3436279296875 -0.35699462890625 0.6664276123046875
-0.42333984375 -0.36199951171875 0.6791839599609375
-0.4521484375 -0.36669921875 0.6925048828125
-0.427734375 -0.363372802734375 0.67413330078125
0.59423828125 -0.386566162109375 0.73089599609375
0.64044189453125 -0.4154052734375 0.7172698974609375
0.64251708984375 -0.423980712890625 0.71839141845703125
0.53253173828125 -0.3541259765625 0.74578094482421875
0.54571533203125 -0.35040283203125 0.747894287109375
0.5947265625 -0.378875732421875 0.73095703125
0.67803955078125 -0.4505615234375 0.70085906982421875
0.57708740234375 -0.392425537109375 0.72780609130859375
0.48114013671875 -0.319580078125 0.75897216796875
-0.489990234375 -0.335662841796875 0.7150421142578125
-0.48895263671875 -0.324066162109375 0.70751953125
-0.495849609375 -0.307159423828125 0.7287139892578125
-0.48626708984375 -0.340606689453125 0.7193603515625
-0.4725341796875 -0.3514404296875 0.704193115234375
-0.47509765625 -0.348358154296875 0.6930999755859375
-0.4930419921875 -0.291534423828125 0.7199249267578125
-0.49224853515625 -0.319427490234375 0.72735595703125
-0.46746826171875 -0.35931396484375 0.714935302734375
0.30645751953125 -0.15704345703125 0.77869415283203125
0.32379150390625 -0.17401123046875 0.77913665771484375
0.276611328125 -0.13482666015625 0.78305816650390625
0.28955078125 -0.14263916015625 0.78539276123046875
0.3345947265625 -0.172088623046875 0.7784271240234375
0.3575439453125 -0.189849853515625 0.77428436279296875
0.2841796875 -0.1541748046875 0.77941131591796875
0.2652587890625 -0.1207275390625 0.781219482421875
0.31488037109375 -0.154632568359375 0.78256988525390625
-0.42425537109375 -0.3057861328125 0.749237060546875
-0.44268798828125 -0.31109619140625 0.74151611328125
-0.4302978515625 -0.315704345703125 0.747314453125
-0.41339111328125 -0.2930908203125 0.757415771484375
-0.4150390625 -0.29437255859375 0.753265380859375
-0.43377685546875 -0.29864501953125 0.744903564453125
-0.4473876953125 -0.322021484375 0.738372802734375
-0.42291259765625 -0.304229736328125 0.753997802734375
-0.40899658203125 -0.287506103515625 0.75567626953125
0.41436767578125 -0.2454833984375 0.77329254150390625
0.454345703125 -0.28045654296875 0.76671600341796875
0.36016845703125 -0.22540283203125 0.776947021484375
0.3795166015625 -0.22265625 0.77861785888671875
0.45654296875 -0.269683837890625 0.7650909423828125
0.5 -0.302734375 0.755859375
0.39556884765625 -0.254150390625 0.77593994140625
0.3260498046875 -0.2012939453125 0.7801055908203125
0.42095947265625 -0.23974609375 0.76806640625
-0.45465087890625 -0.340850830078125 0.7348480224609375
-0.4552001953125 -0.345794677734375 0.7281494140625
-0.47076416015625 -0.343597412109375 0.736083984375
-0.45758056640625 -0.324737548828125 0.743927001953125
-0.44598388671875 -0.32977294921875 0.742279052734375
-0.452880859375 -0.34002685546875 0.729461669921875
-0.46051025390625 -0.355438232421875 0.7279052734375
-0.47247314453125 -0.32928466796875 0.737335205078125
-0.44677734375 -0.3175048828125 0.746124267578125
0.2354736328125 -0.088592529296875 0.7815399169921875
0.25213623046875 -0.10321044921875 0.781494140625
0.25164794921875 -0.1087646484375 0.7784576416015625
0.2249755859375 -0.08154296875 0.777069091796875
0.230224609375 -0.078033447265625 0.776824951171875
0.24609375 -0.08953857421875 0.7763519287109375
0.27008056640625 -0.117218017578125 0.77767181396484375
0.23370361328125 -0.09405517578125 0.7768707275390625
0.22332763671875 -0.06951904296875 0.77706146240234375
-0.40203857421875 -0.2557373046875 0.75592041015625
-0.4019775390625 -0.26715087890625 0.756500244140625
-0.391845703125 -0.25128173828125 0.7612457275390625
-0.4158935546875 -0.25408935546875 0.754058837890625
-0.41912841796875 -0.263458251953125 0.75225830078125
-0.41815185546875 -0.273101806640625 0.74981689453125
