# XYZ point cloud file
-0.375732421875 -0.2367401123046875 0.76275634765625
-0.370819091796875 -0.2297210693359375 0.7623291015625
-0.39892578125 -0.256317138671875 0.76129150390625
-0.3818359375 -0.243011474609375 0.760772705078125
-0.347564697265625 -0.219268798828125 0.764892578125
-0.346160888671875 -0.213958740234375 0.7642669677734375
-0.390167236328125 -0.244781494140625 0.7606201171875
-0.407012939453125 -0.262054443359375 0.7581329345703125
-0.346893310546875 -0.2235260009765625 0.7624053955078125
0.260955810546875 -0.1204833984375 0.7732391357421875
0.24505615234375 -0.102203369140625 0.77425384521484375
0.235198974609375 -0.1201171875 0.7725677490234375
0.291839599609375 -0.138702392578125 0.769317626953125
0.277557373046875 -0.11700439453125 0.77182769775390625
0.2664794921875 -0.098846435546875 0.7705841064453125
0.198944091796875 -0.10028076171875 0.77304840087890625
0.27001953125 -0.14215087890625 0.771514892578125
0.298004150390625 -0.1356201171875 0.7688446044921875
-0.368255615234375 -0.1939697265625 0.7665252685546875
-0.363616943359375 -0.177703857421875 0.7629852294921875
-0.38812255859375 -0.1884918212890625 0.7646636962890625
-0.377471923828125 -0.2158050537109375 0.76922607421875
-0.36737060546875 -0.2088623046875 0.7681427001953125
-0.35321044921875 -0.191253662109375 0.76666259765625
-0.383392333984375 -0.1639556884765625 0.7628936767578125
-0.391632080078125 -0.2095489501953125 0.764190673828125
-0.377105712890625 -0.225250244140625 0.763702392578125
0.8029632568359375 -0.2885589599609375 0.62970733642578125
0.801666259765625 -0.2870635986328125 0.63054656982421875
0.7944793701171875 -0.2748870849609375 0.63588714599609375
0.8032989501953125 -0.29180908203125 0.627105712890625
0.808074951171875 -0.3009185791015625 0.62445831298828125
0.80316162109375 -0.301055908203125 0.622955322265625
0.79296875 -0.271759033203125 0.63652801513671875
0.7935791015625 -0.2795867919921875 0.63326263427734375
0.8071746826171875 -0.3043212890625 0.62197113037109375
0.7127532958984375 -0.2323760986328125 0.66512298583984375
0.74652099609375 -0.24749755859375 0.65532684326171875
0.703369140625 -0.2265472412109375 0.67047119140625
0.675323486328125 -0.2217254638671875 0.67879486083984375
0.7155609130859375 -0.2403717041015625 0.662841796875
0.7474822998046875 -0.2538299560546875 0.654144287109375
0.7454376220703125 -0.2432098388671875 0.65938568115234375
0.657073974609375 -0.2151947021484375 0.68129730224609375
0.68017578125 -0.22845458984375 0.673980712890625
0.816192626953125 -0.3381195068359375 0.61022186279296875
0.8121490478515625 -0.3466033935546875 0.60837554931640625
0.8128509521484375 -0.3271484375 0.61431884765625
0.81781005859375 -0.3374786376953125 0.6093597412109375
0.8188323974609375 -0.35009765625 0.60827255249023438
0.81170654296875 -0.3584747314453125 0.60753250122070312
0.8095245361328125 -0.3318939208984375 0.61297225952148438
0.8101043701171875 -0.3256988525390625 0.6138763427734375
0.8195953369140625 -0.34503173828125 0.6090850830078125
0.6536102294921875 -0.230560302734375 0.6822509765625
0.640594482421875 -0.2175750732421875 0.6865081787109375
0.630157470703125 -0.22967529296875 0.69052886962890625
0.6735382080078125 -0.2465972900390625 0.677947998046875
0.6588134765625 -0.234100341796875 0.682098388671875
0.6500091552734375 -0.22418212890625 0.68184661865234375
0.616119384765625 -0.21343994140625 0.69107818603515625
0.6580657958984375 -0.2437591552734375 0.68065643310546875
0.6783447265625 -0.24847412109375 0.67400360107421875
0.8252410888671875 -0.369720458984375 0.60474395751953125
0.822265625 -0.377227783203125 0.6040191650390625
0.8242950439453125 -0.3649139404296875 0.60587310791015625
0.8266143798828125 -0.3646697998046875 0.60381317138671875
0.828948974609375 -0.373443603515625 0.6039581298828125
0.8233642578125 -0.3792724609375 0.60646820068359375
0.8192596435546875 -0.373199462890625 0.60630035400390625
0.8235626220703125 -0.3602752685546875 0.604278564453125
0.8303985595703125 -0.3694610595703125 0.604827880859375
0.7464447021484375 -0.3022613525390625 0.64986419677734375
0.7228240966796875 -0.2849884033203125 0.66245269775390625
0.7334747314453125 -0.3048858642578125 0.65499114990234375
0.7667999267578125 -0.3195037841796875 0.64150238037109375
0.7455291748046875 -0.3012847900390625 0.6479949951171875
0.7241668701171875 -0.2846527099609375 0.6555633544921875
0.7122650146484375 -0.2845611572265625 0.66371917724609375
0.7579803466796875 -0.3206634521484375 0.6440277099609375
0.7636871337890625 -0.31976318359375 0.6382293701171875
0.8268890380859375 -0.37152099609375 0.60707855224609375
0.8278961181640625 -0.3807830810546875 0.60796356201171875
0.8281097412109375 -0.373931884765625 0.60669708251953125
0.8255157470703125 -0.37060546875 0.60541534423828125
0.8267669677734375 -0.3704071044921875 0.61038970947265625
0.8262481689453125 -0.3758544921875 0.61086273193359375
0.8290863037109375 -0.3797760009765625 0.606719970703125
0.8284912109375 -0.3729400634765625 0.606414794921875
0.82366943359375 -0.36834716796875 0.6097869873046875
0.804351806640625 -0.3541717529296875 0.6226806640625
0.7954254150390625 -0.345550537109375 0.627685546875
0.804962158203125 -0.357086181640625 0.624176025390625
0.81292724609375 -0.3592376708984375 0.61669921875
0.8029022216796875 -0.353057861328125 0.61777496337890625
0.7921600341796875 -0.3432159423828125 0.62389373779296875
0.7905120849609375 -0.34906005859375 0.6274261474609375
0.8138580322265625 -0.3643035888671875 0.61545562744140625
0.8115234375 -0.358306884765625 0.6145477294921875
0.801666259765625 -0.3723297119140625 0.59371185302734375
0.8118438720703125 -0.372406005859375 0.5992584228515625
0.807586669921875 -0.3724517822265625 0.59198760986328125
0.794158935546875 -0.3726806640625 0.59308624267578125
0.7977752685546875 -0.3720703125 0.59830474853515625
0.810760498046875 -0.37060546875 0.602996826171875
0.8160552978515625 -0.3741302490234375 0.597381591796875
0.7984161376953125 -0.3771209716796875 0.590667724609375
0.785736083984375 -0.3691253662109375 0.59259796142578125
0.7704010009765625 -0.3574981689453125 0.6063079833984375
0.7563934326171875 -0.3494720458984375 0.612091064453125
0.7844696044921875 -0.3540496826171875 0.611480712890625
0.7808380126953125 -0.36285400390625 0.60453033447265625
0.752777099609375 -0.3556671142578125 0.60129547119140625
0.7396697998046875 -0.3502960205078125 0.60782623291015625
0.7719573974609375 -0.3484649658203125 0.61553192138671875
0.7945098876953125 -0.361480712890625 0.607452392578125
0.766571044921875 -0.3610992431640625 0.5980377197265625
0.8156585693359375 -0.370025634765625 0.59233856201171875
0.8204803466796875 -0.3674468994140625 0.5986785888671875
0.81549072265625 -0.3675689697265625 0.59435272216796875
0.8070831298828125 -0.3701934814453125 0.58919525146484375
0.8128509521484375 -0.37420654296875 0.591766357421875
0.821441650390625 -0.368927001953125 0.5949249267578125
0.8205413818359375 -0.3646697998046875 0.599365234375
0.8087005615234375 -0.3678131103515625 0.5908660888671875
0.8061676025390625 -0.3732757568359375 0.5882568359375
0.7057037353515625 -0.317138671875 0.63100433349609375
0.686370849609375 -0.3022003173828125 0.6402740478515625
0.7236328125 -0.3110504150390625 0.6374664306640625
0.7269134521484375 -0.32989501953125 0.624267578125
0.68499755859375 -0.3185577392578125 0.62725830078125
0.6685943603515625 -0.3069000244140625 0.63501739501953125
0.702789306640625 -0.2959136962890625 0.64598846435546875
0.7422943115234375 -0.325439453125 0.630157470703125
0.7020721435546875 -0.3297882080078125 0.61962127685546875
0.8094024658203125 -0.345123291015625 0.60137939453125
0.813507080078125 -0.341064453125 0.605072021484375
0.8056488037109375 -0.3371429443359375 0.6065673828125
0.8055267333984375 -0.35113525390625 0.59814453125
0.8121490478515625 -0.3535308837890625 0.5989227294921875
0.8163909912109375 -0.351470947265625 0.6019439697265625
0.809478759765625 -0.33392333984375 0.60742950439453125
0.799652099609375 -0.34393310546875 0.600738525390625
0.807281494140625 -0.3589324951171875 0.5957183837890625
0.634979248046875 -0.2586822509765625 0.66287994384765625
0.628753662109375 -0.25177001953125 0.66449737548828125
0.646026611328125 -0.2521209716796875 0.6688995361328125
0.646881103515625 -0.271514892578125 0.6566162109375
0.622894287109375 -0.268585205078125 0.6549072265625
0.6209259033203125 -0.2647857666015625 0.6572265625
0.64044189453125 -0.2401123046875 0.6712493896484375
0.663330078125 -0.264007568359375 0.66187286376953125
0.636444091796875 -0.2789306640625 0.649139404296875
0.78955078125 -0.3094482421875 0.6150665283203125
0.7987060546875 -0.30084228515625 0.61994171142578125
0.77777099609375 -0.3013763427734375 0.619598388671875
0.786529541015625 -0.318206787109375 0.610595703125
0.7975921630859375 -0.3205413818359375 0.6110382080078125
0.80255126953125 -0.312835693359375 0.6160430908203125
0.787445068359375 -0.2920074462890625 0.626922607421875
0.7717132568359375 -0.3076324462890625 0.61421966552734375
0.792236328125 -0.3260040283203125 0.604278564453125
0.698883056640625 -0.2676849365234375 0.649871826171875
0.7323150634765625 -0.277923583984375 0.63796234130859375
0.7064666748046875 -0.255859375 0.65155792236328125
0.6654510498046875 -0.2562713623046875 0.6556396484375
0.6918487548828125 -0.277862548828125 0.64014434814453125
0.7238922119140625 -0.2887115478515625 0.629364013671875
0.740325927734375 -0.2686309814453125 0.64295196533203125
0.6750946044921875 -0.2461090087890625 0.66474151611328125
0.65814208984375 -0.269317626953125 0.648895263671875
0.77850341796875 -0.3498992919921875 0.59381103515625
0.76690673828125 -0.3425140380859375 0.597412109375
0.7799530029296875 -0.3587646484375 0.58919525146484375
0.785980224609375 -0.3531036376953125 0.59082794189453125
0.7796478271484375 -0.3375701904296875 0.59963226318359375
0.76531982421875 -0.3297576904296875 0.60356903076171875
0.7714080810546875 -0.355499267578125 0.59332275390625
0.78765869140625 -0.3616790771484375 0.58881378173828125
0.786468505859375 -0.3429412841796875 0.5973663330078125
0.706695556640625 -0.3222503662109375 0.61254119873046875
0.720306396484375 -0.338775634765625 0.60552978515625
0.7323760986328125 -0.3309478759765625 0.60607147216796875
0.6964569091796875 -0.30908203125 0.62036895751953125
0.683929443359375 -0.315460205078125 0.6184844970703125
0.7017059326171875 -0.3314056396484375 0.6116180419921875
0.7401275634765625 -0.3460845947265625 0.60059356689453125
0.7221527099609375 -0.31634521484375 0.61464691162109375
0.6656951904296875 -0.297149658203125 0.63077545166015625
0.796478271484375 -0.3621063232421875 0.589996337890625
0.7925262451171875 -0.360931396484375 0.58713531494140625
0.798553466796875 -0.3664703369140625 0.5863037109375
0.798065185546875 -0.3617706298828125 0.59021759033203125
0.7959747314453125 -0.354217529296875 0.5928497314453125
0.7943878173828125 -0.3677978515625 0.58629608154296875
0.801666259765625 -0.3628387451171875 0.588470458984375
0.6356964111328125 -0.307769775390625 0.63277435302734375
0.6486663818359375 -0.3112030029296875 0.62792205810546875
0.643951416015625 -0.3085174560546875 0.628173828125
0.62249755859375 -0.2951202392578125 0.63909149169921875
0.6353607177734375 -0.3012237548828125 0.63619232177734375
0.662994384765625 -0.3184661865234375 0.6218109130859375
0.6292266845703125 -0.293060302734375 0.6412353515625
-0.08160400390625 0.2796630859375 0.7687530517578125
-0.087158203125 0.2740325927734375 0.77027130126953125
-0.07049560546875 0.2568206787109375 0.770172119140625
-0.080657958984375 0.28424072265625 0.76900482177734375
-0.0943603515625 0.3007049560546875 0.76790618896484375
-0.1004638671875 0.300018310546875 0.7681121826171875
-0.077423095703125 0.2516937255859375 0.772674560546875
-0.06439208984375 0.2624664306640625 0.76999664306640625
-0.0888671875 0.3016815185546875 0.7680511474609375
-0.382110595703125 0.1603851318359375 0.7641448974609375
-0.398101806640625 0.13604736328125 0.761688232421875
-0.36676025390625 0.166473388671875 0.76641845703125
-0.366729736328125 0.1853790283203125 0.764007568359375
-0.39361572265625 0.1583251953125 0.761688232421875
-0.403778076171875 0.1319122314453125 0.7598876953125
-0.381378173828125 0.136749267578125 0.7662200927734375
-0.35723876953125 0.19537353515625 0.7648162841796875
-0.38055419921875 0.1834716796875 0.763946533203125
-0.114898681640625 0.3798980712890625 0.76007843017578125
-0.1263427734375 0.381317138671875 0.76280975341796875
-0.111541748046875 0.35296630859375 0.76265716552734375
-0.107940673828125 0.3788604736328125 0.7607574462890625
-0.118988037109375 0.4095306396484375 0.7575836181640625
-0.12835693359375 0.409271240234375 0.7575531005859375
-0.120697021484375 0.3541107177734375 0.76168060302734375
-0.105682373046875 0.35107421875 0.762542724609375
-0.11279296875 0.4056243896484375 0.755523681640625
-0.337493896484375 0.272918701171875 0.7645111083984375
-0.346954345703125 0.2428436279296875 0.764739990234375
-0.326141357421875 0.286102294921875 0.7655487060546875
-0.325592041015625 0.3013153076171875 0.7646484375
-0.344573974609375 0.2667083740234375 0.765228271484375
-0.358856201171875 0.2377777099609375 0.763519287109375
-0.3350830078125 0.2554931640625 0.7667083740234375
-0.312652587890625 0.3168792724609375 0.7635650634765625
-0.332244873046875 0.2913360595703125 0.7613525390625
-0.111480712890625 0.4918365478515625 0.74115753173828125
-0.1202392578125 0.4969940185546875 0.74271392822265625
-0.119720458984375 0.4641571044921875 0.74837493896484375
-0.108154296875 0.4854736328125 0.74517059326171875
-0.1036376953125 0.517425537109375 0.738677978515625
-0.112274169921875 0.523284912109375 0.738037109375
-0.126251220703125 0.4673614501953125 0.747833251953125
-0.1112060546875 0.460113525390625 0.7494964599609375
-0.103302001953125 0.510528564453125 0.738250732421875
-0.284759521484375 0.3833160400390625 0.7596435546875
-0.2962646484375 0.35882568359375 0.7600860595703125
-0.276123046875 0.3971710205078125 0.757080078125
-0.27313232421875 0.4053955078125 0.756866455078125
-0.293670654296875 0.367889404296875 0.75927734375
-0.30828857421875 0.344329833984375 0.7613983154296875
-0.288330078125 0.370819091796875 0.7614288330078125
-0.2587890625 0.42132568359375 0.757781982421875
-0.283782958984375 0.3889617919921875 0.759918212890625
-0.020050048828125 0.199249267578125 0.7722930908203125
-0.02423095703125 0.18951416015625 0.77086639404296875
0.002227783203125 0.180877685546875 0.77088165283203125
-0.01904296875 0.205841064453125 0.7720947265625
-0.039581298828125 0.2181396484375 0.77225494384765625
-0.040618896484375 0.2108917236328125 0.7725982666015625
0.003509521484375 0.171600341796875 0.7737884521484375
0.001922607421875 0.186187744140625 0.77098464965820312
-0.037689208984375 0.224456787109375 0.77120208740234375
-0.4410400390625 0.0592193603515625 0.7563934326171875
-0.46240234375 0.0311431884765625 0.7506866455078125
-0.428314208984375 0.0556488037109375 0.75775146484375
-0.423614501953125 0.0847015380859375 0.7599029541015625
-0.448394775390625 0.05902099609375 0.753662109375
-0.472198486328125 0.0333099365234375 0.7488555908203125
-0.450103759765625 0.028106689453125 0.75372314453125
-0.409942626953125 0.0856475830078125 0.7602081298828125
-0.43280029296875 0.0858917236328125 0.75665283203125
0.113128662109375 0.114166259765625 0.76091384887695312
0.123748779296875 0.10003662109375 0.76178741455078125
0.154449462890625 0.089630126953125 0.75735855102539062
0.1053466796875 0.121673583984375 0.76267242431640625
0.072052001953125 0.13818359375 0.7657470703125
0.080322265625 0.126922607421875 0.76735687255859375
0.1629638671875 0.075286865234375 0.7550048828125
0.142303466796875 0.097747802734375 0.7579193115234375
0.06591796875 0.144805908203125 0.76848220825195312
-0.553253173828125 -0.089935302734375 0.72869873046875
-0.5833740234375 -0.1355438232421875 0.7183990478515625
-0.552581787109375 -0.0980224609375 0.730743408203125
-0.521209716796875 -0.0462188720703125 0.7393646240234375
-0.559814453125 -0.083404541015625 0.7269439697265625
-0.5849609375 -0.12847900390625 0.7156219482421875
-0.58514404296875 -0.144805908203125 0.71954345703125
-0.515045166015625 -0.0489654541015625 0.73785400390625
-0.530029296875 -0.0396270751953125 0.7384796142578125
0.212738037109375 0.050872802734375 0.73937892913818359
0.22869873046875 0.03814697265625 0.73445892333984375
0.220703125 0.0555419921875 0.73288536071777344
0.20355224609375 0.062347412109375 0.74016380310058594
0.19970703125 0.05572509765625 0.74404239654541016
0.217742919921875 0.03961181640625 0.74328327178955078
0.233551025390625 0.04327392578125 0.72705078125
0.207916259765625 0.07080078125 0.73424053192138672
0.188995361328125 0.0672607421875 0.74648284912109375
-0.62261962890625 -0.2372283935546875 0.6910400390625
-0.615875244140625 -0.2552032470703125 0.6877593994140625
-0.62457275390625 -0.250396728515625 0.688995361328125
-0.62261962890625 -0.209228515625 0.70050048828125
-0.624420166015625 -0.2229766845703125 0.691741943359375
-0.612548828125 -0.241058349609375 0.6887664794921875
-0.61383056640625 -0.271148681640625 0.6843719482421875
-0.6220703125 -0.22418212890625 0.6974639892578125
-0.621246337890625 -0.1993255615234375 0.6993560791015625
0.217864990234375 0.1248779296875 0.70725250244140625
0.22857666015625 0.110321044921875 0.70200729370117188
0.21429443359375 0.16033935546875 0.698638916015625
0.2103271484375 0.13348388671875 0.71121978759765625
0.222869873046875 0.09112548828125 0.71651458740234375
0.23223876953125 0.079864501953125 0.71181106567382812
0.2218017578125 0.14788818359375 0.69472122192382812
0.204620361328125 0.167449951171875 0.70282745361328125
0.21234130859375 0.10369873046875 0.72131729125976562
-0.54193115234375 -0.2768096923828125 0.689666748046875
-0.512359619140625 -0.26915740966796875 0.695159912109375
-0.5374755859375 -0.2950286865234375 0.6851654052734375
-0.56781005859375 -0.2752685546875 0.6865692138671875
-0.54266357421875 -0.25901031494140625 0.69219970703125
-0.51324462890625 -0.2508392333984375 0.698699951171875
-0.510467529296875 -0.28594970703125 0.6920166015625
-0.564697265625 -0.293212890625 0.6819000244140625
-0.57232666015625 -0.2600555419921875 0.689849853515625
0.185272216796875 0.295745849609375 0.68365478515625
0.191192626953125 0.29437255859375 0.6769561767578125
0.173828125 0.34100341796875 0.67615890502929688
0.17669677734375 0.298492431640625 0.68532943725585938
0.196807861328125 0.247100830078125 0.6867523193359375
0.20343017578125 0.244232177734375 0.68141937255859375
0.17572021484375 0.343292236328125 0.67201995849609375
0.16778564453125 0.34124755859375 0.68419647216796875
0.189849853515625 0.254180908203125 0.68935394287109375
-0.46209716796875 -0.197174072265625 0.720489501953125
-0.451171875 -0.1574249267578125 0.7313232421875
-0.46173095703125 -0.212188720703125 0.71990966796875
-0.47491455078125 -0.229156494140625 0.7115478515625
-0.459136962890625 -0.1811370849609375 0.7261962890625
-0.45245361328125 -0.14522552490234375 0.73291015625
-0.45220947265625 -0.17060089111328125 0.72760009765625
-0.4736328125 -0.24465179443359375 0.7081298828125
-0.473785400390625 -0.21185302734375 0.713348388671875
0.13494873046875 0.46014404296875 0.6725311279296875
0.134918212890625 0.469207763671875 0.66768646240234375
0.117919921875 0.495697021484375 0.67173385620117188
0.1298828125 0.45709228515625 0.6767425537109375
0.147430419921875 0.424163818359375 0.6727142333984375
0.14923095703125 0.433746337890625 0.67034530639648438
0.120452880859375 0.5052490234375 0.66946029663085938
0.114776611328125 0.485321044921875 0.67795944213867188
0.144561767578125 0.420562744140625 0.67841339111328125
-0.4295654296875 -0.03067779541015625 0.753265380859375
-0.41851806640625 0.0172119140625 0.757537841796875
-0.43603515625 -0.036468505859375 0.751007080078125
-0.43792724609375 -0.0741119384765625 0.7462158203125
-0.42474365234375 -0.02565765380859375 0.753692626953125
-0.41552734375 0.01984405517578125 0.75640869140625
-0.42840576171875 0.01451873779296875 0.759521484375
-0.44354248046875 -0.0840911865234375 0.74395751953125
-0.4345703125 -0.066864013671875 0.74652099609375
0.05560302734375 0.57080078125 0.6870880126953125
0.057342529296875 0.586395263671875 0.67980480194091797
0.033843994140625 0.587005615234375 0.69297885894775391
0.055145263671875 0.55621337890625 0.69403743743896484
0.08087158203125 0.550750732421875 0.67848587036132812
0.08404541015625 0.565643310546875 0.67703628540039062
0.038421630859375 0.6041259765625 0.68538284301757812
0.028472900390625 0.57110595703125 0.70193004608154297
0.078948974609375 0.539093017578125 0.68548202514648438
-0.3631591796875 0.1866302490234375 0.771514892578125
-0.3409423828125 0.240936279296875 0.7698822021484375
-0.36297607421875 0.19549560546875 0.770660400390625
-0.384521484375 0.12581634521484375 0.76861572265625
-0.36688232421875 0.17813873291015625 0.7709808349609375
-0.346221923828125 0.22998809814453125 0.7710113525390625
-0.335662841796875 0.25768280029296875 0.772552490234375
-0.38739013671875 0.13140106201171875 0.7696380615234375
-0.3858642578125 0.1204986572265625 0.767608642578125
-0.01007080078125 0.61614990234375 0.7012786865234375
-0.00787353515625 0.634765625 0.69137954711914062
-0.018035888671875 0.6224365234375 0.69840621948242188
-0.01544189453125 0.601531982421875 0.70643043518066406
-0.0008544921875 0.60723876953125 0.70085906982421875
0.002105712890625 0.626708984375 0.69193840026855469
-0.0169677734375 0.6377410888671875 0.69240570068359375
-0.021759033203125 0.608154296875 0.70443344116210938
-0.003875732421875 0.592071533203125 0.70788192749023438
-0.2767333984375 0.3675079345703125 0.765594482421875
-0.259735107421875 0.3973236083984375 0.7635498046875
-0.26446533203125 0.3907928466796875 0.7660980224609375
-0.295135498046875 0.3314971923828125 0.7689056396484375
-0.287078857421875 0.348785400390625 0.7672271728515625
-0.271453857421875 0.3772735595703125 0.7656097412109375
-0.247406005859375 0.418853759765625 0.76080322265625
-0.283966064453125 0.352081298828125 0.7685699462890625
-0.306243896484375 0.3143768310546875 0.767791748046875
-0.03826904296875 0.6196746826171875 0.70263671875
-0.0362548828125 0.6336669921875 0.6971282958984375
-0.04693603515625 0.6124267578125 0.7052154541015625
-0.038787841796875 0.60845947265625 0.70623016357421875
-0.029388427734375 0.625030517578125 0.69854354858398438
-0.0323486328125 0.63641357421875 0.6938934326171875
-0.04595947265625 0.6266632080078125 0.70082473754882812
-0.047698974609375 0.601104736328125 0.710113525390625
-0.032958984375 0.6107177734375 0.7035064697265625
-0.23040771484375 0.44781494140625 0.75555419921875
-0.22906494140625 0.4512176513671875 0.7555694580078125
-0.2132568359375 0.47198486328125 0.7535247802734375
-0.2376708984375 0.43585205078125 0.757598876953125
-0.246246337890625 0.4268798828125 0.760162353515625
-0.240570068359375 0.4340972900390625 0.76019287109375
-0.212738037109375 0.47674560546875 0.7540435791015625
-0.220977783203125 0.4608306884765625 0.7553253173828125
-0.24920654296875 0.41705322265625 0.7584381103515625
-0.07586669921875 0.5776214599609375 0.72076416015625
-0.081695556640625 0.5875091552734375 0.71779632568359375
-0.08697509765625 0.5602569580078125 0.726470947265625
-0.075775146484375 0.565704345703125 0.7256622314453125
-0.065460205078125 0.5919342041015625 0.71596527099609375
-0.06597900390625 0.60137939453125 0.71079254150390625
-0.090240478515625 0.5675048828125 0.72357940673828125
-0.0848388671875 0.5511016845703125 0.728118896484375
-0.067169189453125 0.5784454345703125 0.7174072265625
-0.238037109375 0.444732666015625 0.755096435546875
-0.24761962890625 0.4402923583984375 0.753997802734375
-0.225677490234375 0.4676055908203125 0.7540130615234375
-0.23199462890625 0.454986572265625 0.7544097900390625
-0.25201416015625 0.4310455322265625 0.7562408447265625
-0.26123046875 0.4208221435546875 0.756988525390625
-0.235748291015625 0.4545745849609375 0.7533721923828125
-0.216949462890625 0.47369384765625 0.7484893798828125
-0.244598388671875 0.4338836669921875 0.756988525390625
-0.065643310546875 0.5461883544921875 0.7259521484375
-0.07159423828125 0.55206298828125 0.7281646728515625
-0.073699951171875 0.5328369140625 0.7300262451171875
-0.06182861328125 0.5439605712890625 0.72515106201171875
-0.061920166015625 0.5576019287109375 0.72252273559570312
-0.061767578125 0.5635986328125 0.72250747680664062
-0.078125 0.538543701171875 0.73126220703125
-0.063507080078125 0.5298614501953125 0.728179931640625
-0.054534912109375 0.55279541015625 0.72199249267578125
-0.277740478515625 0.392242431640625 0.760345458984375
-0.2806396484375 0.3842620849609375 0.760284423828125
-0.26715087890625 0.400360107421875 0.7600860595703125
-0.268218994140625 0.39410400390625 0.7579498291015625
-0.278045654296875 0.3802490234375 0.7603607177734375
-0.282989501953125 0.3762969970703125 0.7619476318359375
-0.277740478515625 0.3923492431640625 0.7594451904296875
-0.267578125 0.4039154052734375 0.7600250244140625
-0.275360107421875 0.384368896484375 0.7607574462890625
-0.039520263671875 0.58184814453125 0.71368026733398438
-0.043243408203125 0.587677001953125 0.7131195068359375
-0.04638671875 0.57550048828125 0.71650314331054688
-0.039337158203125 0.576568603515625 0.71563720703125
-0.03228759765625 0.58746337890625 0.7136077880859375
-0.03277587890625 0.5914459228515625 0.71172332763671875
-0.0498046875 0.5843963623046875 0.7154388427734375
-0.044769287109375 0.568634033203125 0.71822357177734375
-0.031402587890625 0.5782318115234375 0.71100616455078125
-0.269073486328125 0.3916168212890625 0.7626800537109375
-0.2686767578125 0.3943328857421875 0.761199951171875
-0.264617919921875 0.3994293212890625 0.7609710693359375
-0.272216796875 0.3806610107421875 0.763092041015625
-0.276702880859375 0.3799591064453125 0.7621307373046875
-0.273773193359375 0.3852386474609375 0.761077880859375
-0.256683349609375 0.4040069580078125 0.761199951171875
-0.2679443359375 0.389404296875 0.7620849609375
-0.276763916015625 0.3715057373046875 0.7621307373046875
-0.013519287109375 0.576202392578125 0.71551132202148438
-0.01641845703125 0.581390380859375 0.71539306640625
-0.0208740234375 0.5799560546875 0.71277999877929688
-0.0115966796875 0.57452392578125 0.7109375
-0.006195068359375 0.56878662109375 0.71696090698242188
-0.00811767578125 0.572509765625 0.71719741821289062
-0.023468017578125 0.588226318359375 0.71315765380859375
-0.01873779296875 0.57861328125 0.71089935302734375
-0.002777099609375 0.5662841796875 0.71316719055175781
-0.305694580078125 0.3177642822265625 0.765869140625
-0.294189453125 0.3445281982421875 0.7649078369140625
-0.302703857421875 0.324249267578125 0.766998291015625
-0.32012939453125 0.287322998046875 0.76519775390625
-0.309783935546875 0.3160247802734375 0.766815185546875
-0.296173095703125 0.3405914306640625 0.76544189453125
-0.285186767578125 0.3499908447265625 0.7648162841796875
-0.317779541015625 0.2930450439453125 0.7670135498046875
-0.31890869140625 0.285491943359375 0.769012451171875
0.05096435546875 0.535247802734375 0.69991493225097656
0.0504150390625 0.538787841796875 0.70228004455566406
0.031005859375 0.549224853515625 0.70735645294189453
0.05426025390625 0.533721923828125 0.69462203979492188
0.079254150390625 0.52008056640625 0.69071674346923828
0.071929931640625 0.5218505859375 0.69018173217773438
0.025390625 0.5538330078125 0.70870399475097656
0.03448486328125 0.54541015625 0.70379161834716797
0.079986572265625 0.51580810546875 0.685638427734375
-0.36627197265625 0.1699371337890625 0.7664642333984375
-0.35162353515625 0.21051788330078125 0.7672271728515625
-0.36871337890625 0.1670684814453125 0.7666168212890625
-0.37890625 0.1195068359375 0.7662200927734375
-0.3616943359375 0.16939544677734375 0.768218994140625
-0.349578857421875 0.21533966064453125 0.7680511474609375
-0.3494873046875 0.21140289306640625 0.76727294921875
-0.382415771484375 0.11933135986328125 0.765625
-0.376922607421875 0.1246185302734375 0.7657928466796875
0.127593994140625 0.445526123046875 0.67781829833984375
0.1280517578125 0.4468994140625 0.67963027954101562
0.115264892578125 0.471710205078125 0.67737197875976562
0.13067626953125 0.4453125 0.67214584350585938
0.13836669921875 0.416473388671875 0.67772674560546875
0.1361083984375 0.415863037109375 0.6810455322265625
0.11480712890625 0.4755859375 0.68234634399414062
0.1177978515625 0.47027587890625 0.67325210571289062
0.139312744140625 0.41815185546875 0.67459869384765625
-0.4093017578125 -0.00504302978515625 0.754241943359375
-0.40631103515625 0.03147125244140625 0.7585601806640625
-0.4166259765625 -0.0129547119140625 0.754180908203125
-0.42022705078125 -0.042144775390625 0.751220703125
-0.40850830078125 0.0032196044921875 0.754547119140625
-0.3973388671875 0.0402069091796875 0.7593231201171875
-0.41094970703125 0.02729034423828125 0.75848388671875
-0.42462158203125 -0.0469207763671875 0.749053955078125
-0.41485595703125 -0.033966064453125 0.7508544921875
0.169891357421875 0.312774658203125 0.6860504150390625
0.174346923828125 0.30572509765625 0.68796157836914062
0.1583251953125 0.349456787109375 0.68277740478515625
0.1708984375 0.320343017578125 0.6815185546875
0.18035888671875 0.2755126953125 0.69087600708007812
0.183380126953125 0.267242431640625 0.69346237182617188
0.15899658203125 0.345703125 0.68432998657226562
0.16058349609375 0.3568115234375 0.68006515502929688
0.177764892578125 0.285736083984375 0.68737411499023438
-0.45172119140625 -0.13904571533203125 0.729644775390625
-0.437469482421875 -0.10874176025390625 0.737518310546875
-0.4564208984375 -0.15395355224609375 0.727813720703125
-0.464324951171875 -0.16611480712890625 0.722198486328125
-0.4422607421875 -0.12587738037109375 0.73272705078125
-0.42987060546875 -0.09638214111328125 0.74078369140625
-0.44482421875 -0.12114715576171875 0.735107421875
-0.468048095703125 -0.1834869384765625 0.717926025390625
-0.455322265625 -0.15140533447265625 0.724945068359375
0.193817138671875 0.169921875 0.71241378784179688
0.197601318359375 0.1551513671875 0.71543121337890625
0.19189453125 0.2032470703125 0.70438385009765625
0.19464111328125 0.181884765625 0.71235466003417969
0.19647216796875 0.142333984375 0.72188949584960938
0.197906494140625 0.127410888671875 0.72327804565429688
0.196044921875 0.191497802734375 0.70491790771484375
0.19091796875 0.2154541015625 0.70153427124023438
0.195037841796875 0.155181884765625 0.71944427490234375
-0.52630615234375 -0.2136077880859375 0.703125
-0.50140380859375 -0.20545196533203125 0.7080078125
-0.53424072265625 -0.22888946533203125 0.697357177734375
-0.55328369140625 -0.2176513671875 0.698089599609375
-0.51983642578125 -0.20011138916015625 0.70745849609375
-0.49127197265625 -0.18927001953125 0.71441650390625
-0.50531005859375 -0.22064208984375 0.7045135498046875
-0.56231689453125 -0.229095458984375 0.696624755859375
-0.541229248046875 -0.20478057861328125 0.705230712890625
0.18304443359375 0.097900390625 0.74317646026611328
0.1865234375 0.0870361328125 0.74343204498291016
0.190948486328125 0.10406494140625 0.73455619812011719
0.18316650390625 0.1119384765625 0.74041938781738281
0.173309326171875 0.102508544921875 0.74699497222900391
0.174835205078125 0.087646484375 0.74909019470214844
0.19512939453125 0.09417724609375 0.73690319061279297
0.187957763671875 0.118408203125 0.73417282104492188
0.169281005859375 0.111602783203125 0.74535799026489258
-0.60113525390625 -0.190826416015625 0.70172119140625
-0.593536376953125 -0.2055511474609375 0.69805908203125
-0.610443115234375 -0.2028350830078125 0.6971282958984375
-0.598480224609375 -0.1701812744140625 0.7050933837890625
-0.588592529296875 -0.1819305419921875 0.704071044921875
-0.579010009765625 -0.195098876953125 0.702850341796875
-0.602813720703125 -0.2167816162109375 0.6930694580078125
-0.609161376953125 -0.178680419921875 0.7015838623046875
-0.590545654296875 -0.1626739501953125 0.70867919921875
0.0970458984375 0.144805908203125 0.76050949096679688
0.098052978515625 0.133758544921875 0.76436996459960938
0.127593994140625 0.124542236328125 0.75731658935546875
0.098846435546875 0.151336669921875 0.76035308837890625
0.064300537109375 0.162841796875 0.76666641235351562
0.059234619140625 0.156158447265625 0.76874160766601562
0.129058837890625 0.11456298828125 0.75807571411132812
0.129669189453125 0.13507080078125 0.75758934020996094
0.067108154296875 0.172393798828125 0.7624664306640625
-0.551849365234375 -0.0679473876953125 0.7286376953125
-0.576629638671875 -0.1086883544921875 0.7188720703125
-0.55950927734375 -0.0737762451171875 0.728515625
-0.527740478515625 -0.0292510986328125 0.7364044189453125
-0.54364013671875 -0.0640869140625 0.730010986328125
-0.561981201171875 -0.101318359375 0.7232666015625
-0.58441162109375 -0.1136627197265625 0.718414306640625
-0.53173828125 -0.0350494384765625 0.734466552734375
-0.51690673828125 -0.025360107421875 0.73687744140625
-0.014312744140625 0.2216796875 0.76989364624023438
-0.0198974609375 0.2119140625 0.77086639404296875
0.004119873046875 0.201171875 0.76935577392578125
-0.009674072265625 0.230804443359375 0.76751327514648438
-0.028076171875 0.239532470703125 0.76963043212890625
-0.0372314453125 0.2320556640625 0.77066802978515625
0.001220703125 0.194549560546875 0.77146148681640625
0.0108642578125 0.209930419921875 0.76812362670898438
-0.02337646484375 0.247222900390625 0.76511383056640625
-0.454498291015625 0.0656890869140625 0.75
-0.478363037109375 0.03582763671875 0.74658203125
-0.45892333984375 0.060943603515625 0.751617431640625
-0.435699462890625 0.0891265869140625 0.7548065185546875
-0.446014404296875 0.0669097900390625 0.7542877197265625
-0.46685791015625 0.04010009765625 0.7487335205078125
-0.477935791015625 0.03399658203125 0.7486572265625
-0.44281005859375 0.086517333984375 0.756256103515625
-0.429473876953125 0.095245361328125 0.7562255859375
-0.0882568359375 0.4783477783203125 0.74041748046875
-0.09521484375 0.478607177734375 0.7440032958984375
-0.091094970703125 0.456512451171875 0.74620819091796875
-0.08056640625 0.478546142578125 0.73968505859375
-0.081512451171875 0.498291015625 0.73831939697265625
-0.08984375 0.5010833740234375 0.7382965087890625
-0.099517822265625 0.454620361328125 0.747711181640625
-0.0814208984375 0.458892822265625 0.74524688720703125
-0.073699951171875 0.4985198974609375 0.73526763916015625
-0.308441162109375 0.342926025390625 0.760772705078125
-0.31817626953125 0.3248291015625 0.76220703125
-0.30548095703125 0.3481597900390625 0.760833740234375
-0.29852294921875 0.3616485595703125 0.7629852294921875
-0.303680419921875 0.3411407470703125 0.762786865234375
-0.314422607421875 0.320526123046875 0.7626495361328125
-0.318939208984375 0.328857421875 0.7629241943359375
-0.2935791015625 0.3640899658203125 0.762451171875
-0.298553466796875 0.3561248779296875 0.7649993896484375
-0.089508056640625 0.3850860595703125 0.75555419921875
-0.098175048828125 0.3826751708984375 0.76100921630859375
-0.081390380859375 0.3647918701171875 0.75862884521484375
-0.078857421875 0.391693115234375 0.7531585693359375
-0.093780517578125 0.4093780517578125 0.7530975341796875
-0.097686767578125 0.4085235595703125 0.75390625
-0.090728759765625 0.3591156005859375 0.76214599609375
-0.075225830078125 0.3693389892578125 0.7561492919921875
-0.085662841796875 0.414093017578125 0.7498626708984375
-0.350860595703125 0.253265380859375 0.7643280029296875
-0.36090087890625 0.2320709228515625 0.763092041015625
-0.354034423828125 0.25543212890625 0.7621612548828125
-0.341705322265625 0.2785797119140625 0.7616119384765625
-0.34716796875 0.2555999755859375 0.7645263671875
-0.359527587890625 0.233489990234375 0.7667236328125
-0.364837646484375 0.2292938232421875 0.7643890380859375
-0.342681884765625 0.2796173095703125 0.7646026611328125
-0.33526611328125 0.2774505615234375 0.76348876953125
-0.059356689453125 0.2967681884765625 0.7623138427734375
-0.071136474609375 0.291351318359375 0.76660919189453125
-0.052734375 0.2761688232421875 0.7670135498046875
-0.053680419921875 0.306243896484375 0.76267242431640625
-0.06927490234375 0.3180389404296875 0.76336669921875
-0.078643798828125 0.3105316162109375 0.76602935791015625
-0.059478759765625 0.27032470703125 0.76752471923828125
-0.042724609375 0.286041259765625 0.76454925537109375
-0.057708740234375 0.3253936767578125 0.7598876953125
-0.397186279296875 0.1571807861328125 0.762908935546875
-0.4078369140625 0.1368865966796875 0.7584075927734375
-0.398468017578125 0.1543426513671875 0.7619171142578125
-0.38494873046875 0.184051513671875 0.7607879638671875
-0.38873291015625 0.1605377197265625 0.762908935546875
-0.400726318359375 0.1382904052734375 0.7609405517578125
-0.408477783203125 0.1331787109375 0.7590789794921875
-0.38671875 0.1817626953125 0.7617645263671875
-0.378570556640625 0.1864776611328125 0.7629852294921875
-0.093658447265625 0.6555328369140625 0.641876220703125
-0.093353271484375 0.634979248046875 0.6712646484375
-0.073944091796875 0.6768951416015625 0.627349853515625
-0.095458984375 0.6799774169921875 0.604248046875
-0.106964111328125 0.6415252685546875 0.648406982421875
-0.113922119140625 0.6201019287109375 0.6795501708984375
-0.075408935546875 0.6514434814453125 0.66168212890625
-0.077667236328125 0.70037841796875 0.58846282958984375
-0.114471435546875 0.6649169921875 0.616455078125
-0.124786376953125 0.6376190185546875 0.6586456298828125
-0.11688232421875 0.6470794677734375 0.658050537109375
-0.11834716796875 0.615081787109375 0.68560791015625
-0.124359130859375 0.63360595703125 0.6584014892578125
-0.133331298828125 0.65826416015625 0.6303863525390625
-0.12945556640625 0.665191650390625 0.6294097900390625
-0.11077880859375 0.6278228759765625 0.68292236328125
-0.121673583984375 0.6122589111328125 0.6859588623046875
-0.128570556640625 0.6532745361328125 0.62548828125
0.037078857421875 0.739898681640625 0.56571197509765625
0.0377197265625 0.7158203125 0.60207366943359375
0.084259033203125 0.7440185546875 0.54496002197265625
0.0281982421875 0.7633209228515625 0.5265960693359375
-0.008636474609375 0.72320556640625 0.5885772705078125
-0.009552001953125 0.6996917724609375 0.62572479248046875
0.087799072265625 0.7217559814453125 0.57928466796875
0.072052001953125 0.7664794921875 0.50977325439453125
-0.0135498046875 0.7470703125 0.5462646484375
-0.022491455078125 0.707733154296875 0.6284332275390625
0.021514892578125 0.715362548828125 0.6188812255859375
-0.011749267578125 0.684112548828125 0.6496124267578125
-0.068145751953125 0.68896484375 0.63916015625
-0.047637939453125 0.7230224609375 0.6063995361328125
-0.00640869140625 0.729888916015625 0.6024017333984375
0.039337158203125 0.6913909912109375 0.639495849609375
-0.05682373046875 0.6678619384765625 0.66485595703125
-0.0899658203125 0.7040252685546875 0.615509033203125
0.177001953125 0.7482147216796875 0.49636077880859375
0.188323974609375 0.7195587158203125 0.53252410888671875
0.173828125 0.7565155029296875 0.4882659912109375
0.15386962890625 0.7719573974609375 0.462432861328125
0.16107177734375 0.7422027587890625 0.5088653564453125
0.17138671875 0.7162628173828125 0.541473388671875
0.182464599609375 0.7320709228515625 0.52620697021484375
0.151580810546875 0.78118896484375 0.455902099609375
0.1385498046875 0.7695465087890625 0.4764404296875
0.0797119140625 0.7104949951171875 0.615447998046875
0.050048828125 0.7076263427734375 0.6230926513671875
0.107025146484375 0.6824493408203125 0.6323089599609375
0.08013916015625 0.7130584716796875 0.6096038818359375
0.03167724609375 0.7300872802734375 0.5974273681640625
0.00665283203125 0.7285003662109375 0.6096038818359375
0.078460693359375 0.6832733154296875 0.641082763671875
0.10906982421875 0.68719482421875 0.62738037109375
0.039093017578125 0.731842041015625 0.5948944091796875
0.103607177734375 0.8160400390625 0.48634529113769531
0.09814453125 0.8014068603515625 0.53040504455566406
0.085235595703125 0.826202392578125 0.48930740356445312
0.10009765625 0.82672119140625 0.44650077819824219
0.1290283203125 0.798980712890625 0.48582077026367188
0.129180908203125 0.77972412109375 0.52877044677734375
0.081817626953125 0.814453125 0.53714179992675781
0.0853271484375 0.830413818359375 0.4404296875
0.119110107421875 0.812286376953125 0.45168685913085938
-0.14892578125 0.6618804931640625 0.6711883544921875
-0.23138427734375 0.61542510986328125 0.6871490478515625
-0.13287353515625 0.64257049560546875 0.68817138671875
-0.07049560546875 0.689178466796875 0.6533203125
-0.16534423828125 0.677215576171875 0.65032958984375
-0.2420654296875 0.6318359375 0.6609649658203125
-0.21600341796875 0.5992279052734375 0.705474853515625
-0.04608154296875 0.6669464111328125 0.6712646484375
-0.09783935546875 0.703094482421875 0.634002685546875
0.1063232421875 0.8006591796875 0.4943695068359375
0.08837890625 0.794403076171875 0.54891204833984375
0.127105712890625 0.77484130859375 0.49734115600585938
0.116790771484375 0.804473876953125 0.43328094482421875
0.09283447265625 0.81890869140625 0.49131011962890625
0.070770263671875 0.810882568359375 0.54498481750488281
0.104644775390625 0.77154541015625 0.554656982421875
0.140655517578125 0.77801513671875 0.43385696411132812
0.09661865234375 0.8209228515625 0.43367576599121094
-0.4686279296875 0.37628936767578125 0.719329833984375
-0.5347900390625 0.27939605712890625 0.7177734375
-0.4537353515625 0.3638458251953125 0.738616943359375
-0.3909912109375 0.47020721435546875 0.714508056640625
-0.47393798828125 0.39090728759765625 0.6920166015625
-0.54095458984375 0.29113006591796875 0.690216064453125
-0.52880859375 0.26250457763671875 0.7369384765625
-0.3770751953125 0.45603179931640625 0.73297119140625
-0.39935302734375 0.48516845703125 0.685272216796875
0.1827392578125 0.673004150390625 0.520660400390625
0.15850830078125 0.668182373046875 0.5770263671875
0.2034912109375 0.621826171875 0.5205841064453125
0.2061767578125 0.67547607421875 0.45468902587890625
0.165496826171875 0.711883544921875 0.5124053955078125
0.1412353515625 0.708831787109375 0.5723419189453125
0.1810302734375 0.617340087890625 0.5755615234375
0.223724365234375 0.632232666015625 0.454681396484375
0.185546875 0.7149658203125 0.44763946533203125
-0.70263671875 0.00130462646484375 0.691253662109375
-0.73016357421875 -0.0869293212890625 0.6787109375
-0.70587158203125 -0.01819610595703125 0.70928955078125
-0.65826416015625 0.0865478515625 0.70452880859375
-0.6990966796875 0.02130889892578125 0.67034912109375
-0.7239990234375 -0.0639801025390625 0.657928466796875
-0.73309326171875 -0.105621337890625 0.69500732421875
-0.65740966796875 0.0702667236328125 0.7215576171875
-0.65875244140625 0.106536865234375 0.678985595703125
0.30029296875 0.355712890625 0.47180938720703125
0.284423828125 0.336669921875 0.51581573486328125
0.3267822265625 0.252471923828125 0.464111328125
0.312103271484375 0.390655517578125 0.41483306884765625
0.263885498046875 0.459991455078125 0.4893341064453125
0.24517822265625 0.444183349609375 0.54048919677734375
0.314239501953125 0.2276611328125 0.507476806640625
0.3341064453125 0.292816162109375 0.413360595703125
0.280975341796875 0.48431396484375 0.43039703369140625
-0.6197509765625 -0.371368408203125 0.6229248046875
-0.54254150390625 -0.44895172119140625 0.597259521484375
-0.61920166015625 -0.386993408203125 0.635528564453125
-0.6854248046875 -0.2770233154296875 0.644866943359375
-0.61761474609375 -0.3490142822265625 0.602783203125
-0.5445556640625 -0.42664337158203125 0.577392578125
-0.5433349609375 -0.46538543701171875 0.613525390625
-0.68975830078125 -0.293670654296875 0.660888671875
-0.6827392578125 -0.25139617919921875 0.6241455078125
0.367950439453125 0.01361083984375 0.5457305908203125
0.361297607421875 -0.020355224609375 0.57401275634765625
0.37554931640625 -0.03094482421875 0.5794677734375
0.3778076171875 0.06256103515625 0.5043182373046875
0.360198974609375 0.0782470703125 0.50597381591796875
0.351318359375 0.04705810546875 0.54010772705078125
0.366363525390625 -0.06951904296875 0.6047210693359375
0.379974365234375 0.011932373046875 0.54874420166015625
0.36932373046875 0.1243896484375 0.46417236328125
-0.43353271484375 -0.54528045654296875 0.568817138671875
-0.45733642578125 -0.53633880615234375 0.5732421875
-0.45166015625 -0.55149078369140625 0.5782470703125
-0.4366455078125 -0.5335845947265625 0.567413330078125
-0.41925048828125 -0.532196044921875 0.54656982421875
-0.43817138671875 -0.53063201904296875 0.555633544921875
-0.4805908203125 -0.54514312744140625 0.5831298828125
-0.44964599609375 -0.54601287841796875 0.582122802734375
-0.431640625 -0.52062225341796875 0.54888916015625
0.3760986328125 -0.08270263671875 0.66831588745117188
0.378265380859375 -0.11090087890625 0.67804718017578125
0.36767578125 -0.0804443359375 0.68694305419921875
0.372650146484375 -0.0478515625 0.65105056762695312
0.3780517578125 -0.07830810546875 0.643951416015625
0.376373291015625 -0.11334228515625 0.65908050537109375
0.371337890625 -0.1048583984375 0.69591903686523438
0.36016845703125 -0.052001953125 0.67785072326660156
0.37530517578125 -0.037017822265625 0.62239456176757812
-0.567962646484375 -0.466827392578125 0.621185302734375
-0.586639404296875 -0.429443359375 0.640960693359375
-0.59918212890625 -0.4677734375 0.621612548828125
-0.5379638671875 -0.4948883056640625 0.599761962890625
-0.54150390625 -0.4665374755859375 0.610687255859375
-0.562164306640625 -0.430572509765625 0.63623046875
-0.612548828125 -0.4293670654296875 0.647979736328125
-0.567962646484375 -0.498504638671875 0.60772705078125
-0.5069580078125 -0.4955902099609375 0.586029052734375
0.096435546875 -0.30194091796875 0.6954498291015625
0.02154541015625 -0.304962158203125 0.6826629638671875
0.057525634765625 -0.290313720703125 0.704803466796875
0.163665771484375 -0.2969970703125 0.70900726318359375
0.138031005859375 -0.313507080078125 0.6799774169921875
0.067230224609375 -0.314239501953125 0.66766357421875
-0.017059326171875 -0.2972412109375 0.693084716796875
0.124359130859375 -0.28436279296875 0.7198638916015625
0.2080078125 -0.31146240234375 0.69037628173828125
-0.22186279296875 -0.3253326416015625 0.6670989990234375
-0.274078369140625 -0.321563720703125 0.6687164306640625
-0.1414794921875 -0.3154754638671875 0.6673126220703125
-0.165130615234375 -0.32794189453125 0.6565704345703125
-0.298431396484375 -0.332000732421875 0.6668853759765625
-0.34808349609375 -0.33392333984375 0.668548583984375
-0.1900634765625 -0.3129730224609375 0.673248291015625
-0.088714599609375 -0.322418212890625 0.6563568115234375
-0.23992919921875 -0.3316192626953125 0.65728759765625
0.297515869140625 -0.351898193359375 0.595794677734375
0.22210693359375 -0.350250244140625 0.5853271484375
0.240203857421875 -0.340576171875 0.626373291015625
0.367950439453125 -0.356842041015625 0.6080169677734375
0.353546142578125 -0.36468505859375 0.55922698974609375
0.279571533203125 -0.363800048828125 0.5509185791015625
0.1673583984375 -0.338531494140625 0.617523193359375
0.311370849609375 -0.339385986328125 0.64034271240234375
0.421112060546875 -0.37109375 0.57558441162109375
-0.015777587890625 -0.3459625244140625 0.586212158203125
-0.06298828125 -0.338165283203125 0.614959716796875
0.06561279296875 -0.3479156494140625 0.5788421630859375
0.036102294921875 -0.3579864501953125 0.5544586181640625
-0.09417724609375 -0.344390869140625 0.594970703125
-0.1368408203125 -0.337738037109375 0.62225341796875
0.013092041015625 -0.3388519287109375 0.6094818115234375
0.119293212890625 -0.3614349365234375 0.5478668212890625
-0.053192138671875 -0.3545074462890625 0.56597900390625
0.5152740478515625 -0.419586181640625 0.497528076171875
0.45172119140625 -0.42352294921875 0.4871826171875
0.464141845703125 -0.401214599609375 0.5101165771484375
0.572509765625 -0.41790771484375 0.513336181640625
0.560028076171875 -0.44342041015625 0.49652862548828125
0.4997100830078125 -0.448150634765625 0.48427581787109375
0.3951263427734375 -0.400787353515625 0.498321533203125
0.5301055908203125 -0.40045166015625 0.52577972412109375
0.6076812744140625 -0.435272216796875 0.5130767822265625
