# XYZ point cloud file
0.059207543730735779 -0.24081322550773621 0.51730304956436157
0.054738111793994904 -0.2456953227519989 0.51160675287246704
0.049920536577701569 -0.22798937559127808 0.52700561285018921
0.034650150686502457 -0.22532030940055847 0.52756959199905396
0.020101839676499367 -0.22272381186485291 0.52819490432739258
-0.0014501959085464478 -0.22543558478355408 0.52422165870666504
-0.009069003164768219 -0.23072108626365662 0.51879090070724487
-0.01639750599861145 -0.23597809672355652 0.51240712404251099
-0.00577501580119133 -0.2429230809211731 0.50516259670257568
0.012640886008739471 -0.24511459469795227 0.5053476095199585
0.031048089265823364 -0.24762961268424988 0.50530052185058594
0.12480244040489197 -0.26540333032608032 0.49793389439582825
0.136747807264328 -0.26788979768753052 0.4966881275177002
0.14683923125267029 -0.26923289895057678 0.49574083089828491
0.15823820233345032 -0.26309770345687866 0.50398039817810059
0.15830239653587341 -0.25576120615005493 0.51185524463653564
0.15520891547203064 -0.24725708365440369 0.51879203319549561
0.14451205730438232 -0.24024024605751038 0.52430069446563721
0.13788464665412903 -0.24099226295948029 0.5240330696105957
0.1295524537563324 -0.24056202173233032 0.52399146556854248
-0.0046716891229152679 -0.21799734234809875 0.52958601713180542
-0.014547772705554962 -0.21552252769470215 0.53032290935516357
-0.022985249757766724 -0.21250101923942566 0.53104245662689209
-0.04393593966960907 -0.21519508957862854 0.52657437324523926
-0.057505577802658081 -0.22177952527999878 0.52029037475585938
-0.070494204759597778 -0.22813281416893005 0.51275134086608887
-0.070909589529037476 -0.23654589056968689 0.50412547588348389
-0.05687732994556427 -0.23829036951065063 0.5043867826461792
-0.040987700223922729 -0.23966863751411438 0.50463342666625977
0.15944299101829529 -0.26623645424842834 0.4950408935546875
0.16171923279762268 -0.26128160953521729 0.49527281522750854
0.16168615221977234 -0.25398749113082886 0.49578204751014709
0.16598531603813171 -0.24073910713195801 0.50677639245986938
0.16631320118904114 -0.23371013998985291 0.51556158065795898
0.16168773174285889 -0.22442638874053955 0.52288484573364258
0.15451028943061829 -0.22160758078098297 0.52787363529205322
0.15436318516731262 -0.22835958003997803 0.52678912878036499
0.15270152688026428 -0.23392409086227417 0.52573871612548828
-0.03615570068359375 -0.20342832803726196 0.53254932165145874
-0.041147246956825256 -0.19731709361076355 0.53327691555023193
-0.045237869024276733 -0.19050911068916321 0.53383857011795044
-0.063933655619621277 -0.19096449017524719 0.52868437767028809
-0.078925535082817078 -0.19862771034240723 0.52153152227401733
-0.09285522997379303 -0.20557013154029846 0.51231229305267334
-0.1019115149974823 -0.21901634335517883 0.50176417827606201
-0.097485125064849854 -0.22540459036827087 0.50262981653213501
-0.091213926672935486 -0.23037779331207275 0.50330245494842529
0.15609654784202576 -0.23257863521575928 0.49735739827156067
0.15103030204772949 -0.21888430416584015 0.4980539083480835
0.14461222290992737 -0.20362851023674011 0.49831435084342957
0.14351028203964233 -0.18640758097171783 0.50842833518981934
0.14413928985595703 -0.18311931192874908 0.51707577705383301
0.14004942774772644 -0.17803598940372467 0.52401691675186157
0.14051061868667603 -0.18527798354625702 0.53007161617279053
0.14648953080177307 -0.19629397988319397 0.53008311986923218
0.15065580606460571 -0.2056843489408493 0.52963483333587646
-0.051201477646827698 -0.17580416798591614 0.5341193675994873
-0.053520649671554565 -0.1677040159702301 0.53366285562515259
-0.055802643299102783 -0.1584891676902771 0.53271198272705078
-0.073564797639846802 -0.15227422118186951 0.52517014741897583
-0.088251501321792603 -0.15732008218765259 0.5171782374382019
-0.10152381658554077 -0.16224008798599243 0.5070003867149353
-0.11093255877494812 -0.17909085750579834 0.49658703804016113
-0.10929632186889648 -0.1908838152885437 0.49823969602584839
-0.10741379857063293 -0.2016405463218689 0.49958479404449463
0.12822398543357849 -0.16910243034362793 0.49635037779808044
0.11896362900733948 -0.15052095055580139 0.49395525455474854
0.10967034101486206 -0.1319897472858429 0.49088636040687561
0.10354962944984436 -0.11275956034660339 0.49802780151367188
0.10207653045654297 -0.10954734683036804 0.50719952583312988
0.097171306610107422 -0.1054539680480957 0.51489996910095215
0.10023510456085205 -0.11931318044662476 0.52388834953308105
0.11140701174736023 -0.13804210722446442 0.52631193399429321
0.12248444557189941 -0.15599778294563293 0.52819418907165527
-0.06129533052444458 -0.13458773493766785 0.52923297882080078
-0.064351141452789307 -0.12009647488594055 0.52676987648010254
-0.067172646522521973 -0.10504046082496643 0.52394378185272217
-0.083230644464492798 -0.095270395278930664 0.51361513137817383
-0.096407651901245117 -0.10101920366287231 0.50438177585601807
-0.10816127061843872 -0.10714209079742432 0.49331262707710266
-0.11720415949821472 -0.12581706047058105 0.48446696996688843
-0.11603832244873047 -0.13940972089767456 0.48820501565933228
-0.11438137292861938 -0.15311431884765625 0.49158665537834167
0.041625276207923889 0.032183527946472168 0.49138858914375305
0.049769222736358643 0.017920374870300293 0.48186901211738586
0.055140078067779541 0.0062026679515838623 0.47183886170387268
0.069910734891891479 0.0041078329086303711 0.45884031057357788
0.086091309785842896 0.010405659675598145 0.45448315143585205
0.10467308759689331 0.017013788223266602 0.44952774047851562
0.12092572450637817 0.032235696911811829 0.45049810409545898
0.11681312322616577 0.042858198285102844 0.45595628023147583
0.11190283298492432 0.055039480328559875 0.46016347408294678
0.087896823883056641 0.062474638223648071 0.47112253308296204
0.06822359561920166 0.058902472257614136 0.47990706562995911
0.048559099435806274 0.05578574538230896 0.48901364207267761
-0.099803388118743896 0.038420140743255615 0.49074307084083557
-0.12184876203536987 0.033261001110076904 0.48077854514122009
-0.14355885982513428 0.027340888977050781 0.47058281302452087
-0.16905415058135986 0.0084987878799438477 0.45531469583511353
-0.17441880702972412 -0.0055058002471923828 0.44811075925827026
-0.17995023727416992 -0.018830776214599609 0.43934056162834167
-0.16488385200500488 -0.027028203010559082 0.43794333934783936
-0.14509099721908569 -0.024454295635223389 0.44543379545211792
-0.12754106521606445 -0.023294448852539062 0.45178931951522827
-0.10701417922973633 -0.012393414974212646 0.46855971217155457
-0.098328232765197754 0.0026505589485168457 0.48094379901885986
-0.088438332080841064 0.019884049892425537 0.49240946769714355
0.14111196994781494 0.034000471234321594 0.43893909454345703
0.15701186656951904 0.045388057827949524 0.43297272920608521
0.17144042253494263 0.059098884463310242 0.42569687962532043
0.18200463056564331 0.082210175693035126 0.42133152484893799
0.17755985260009766 0.091470226645469666 0.4246973991394043
0.17153894901275635 0.10155504941940308 0.42713987827301025
0.15299856662750244 0.096244774758815765 0.43834733963012695
0.13955044746398926 0.084246113896369934 0.44673001766204834
0.12409168481826782 0.074639856815338135 0.45472738146781921
-0.18363487720489502 0.017599284648895264 0.45017960667610168
-0.20123410224914551 0.015013337135314941 0.43997400999069214
-0.21708083152770996 0.013962507247924805 0.42935991287231445
-0.23815321922302246 0.0024064779281616211 0.41228577494621277
-0.24415123462677002 -0.010189414024353027 0.40583890676498413
-0.24900317192077637 -0.022242188453674316 0.39820212125778198
-0.23706150054931641 -0.032735109329223633 0.40224567055702209
-0.22079634666442871 -0.032520174980163574 0.41277730464935303
-0.20354509353637695 -0.031661033630371094 0.42168903350830078
0.19632542133331299 0.095142610371112823 0.4045242965221405
0.20603328943252563 0.1183919757604599 0.3906833827495575
0.21285182237625122 0.1455291211605072 0.37583425641059875
0.21134984493255615 0.18003049492835999 0.36775264143943787
0.20425617694854736 0.18456895649433136 0.37397760152816772
0.19578951597213745 0.18898704648017883 0.37986761331558228
0.18483108282089233 0.16867451369762421 0.39647531509399414
0.18036419153213501 0.14708857238292694 0.40783935785293579
0.17349874973297119 0.12769126892089844 0.41889432072639465
-0.24332761764526367 0.016333580017089844 0.40504667162895203
-0.2534409761428833 0.020211577415466309 0.39161667227745056
-0.26121389865875244 0.026626944541931152 0.37837326526641846
-0.27646541595458984 0.023908495903015137 0.35537788271903992
-0.28612875938415527 0.010245084762573242 0.34335628151893616
-0.29441452026367188 -0.0032621622085571289 0.33064490556716919
-0.2928006649017334 -0.025521636009216309 0.33464545011520386
-0.28157877922058105 -0.030704259872436523 0.35344645380973816
-0.26782739162445068 -0.032433509826660156 0.37225255370140076
0.21540826559066772 0.21134898066520691 0.34791082143783569
0.21185946464538574 0.2466990053653717 0.33659473061561584
0.20646369457244873 0.27960923314094543 0.32755929231643677
0.19567102193832397 0.3036419153213501 0.33038347959518433
0.189930260181427 0.29831084609031677 0.33949539065361023
0.18321734666824341 0.29153525829315186 0.34782284498214722
0.18065041303634644 0.26445123553276062 0.35979780554771423
0.18416732549667358 0.24167746305465698 0.36668464541435242
0.18640965223312378 0.21701088547706604 0.37535291910171509
-0.26871335506439209 0.04931795597076416 0.35578468441963196
-0.26860618591308594 0.065027713775634766 0.34742796421051025
-0.26648139953613281 0.081920504570007324 0.34126695990562439
-0.27126526832580566 0.095413088798522949 0.32638609409332275
-0.27920436859130859 0.090792179107666016 0.31360232830047607
-0.28566110134124756 0.085065603256225586 0.29990172386169434
-0.29717874526977539 0.053005218505859375 0.28994724154472351
-0.30183744430541992 0.02678990364074707 0.29620742797851562
-0.30312752723693848 0.0032619237899780273 0.30532544851303101
0.19190365076065063 0.32625776529312134 0.31611615419387817
0.18248379230499268 0.33965355157852173 0.31255826354026794
0.17144924402236938 0.34986528754234314 0.30947822332382202
0.15605121850967407 0.35425460338592529 0.31845715641975403
0.15267837047576904 0.34657543897628784 0.33043327927589417
0.14895749092102051 0.3373987078666687 0.34099450707435608
0.15610510110855103 0.31813052296638489 0.35033696889877319
0.16464090347290039 0.30875381827354431 0.35121724009513855
0.17115175724029541 0.29787001013755798 0.35246095061302185
-0.25781464576721191 0.11314201354980469 0.33644908666610718
-0.2509763240814209 0.12717032432556152 0.33734899759292603
-0.24159562587738037 0.14207839965820312 0.33934283256530762
-0.23247528076171875 0.1617199182510376 0.33106565475463867
-0.2346808910369873 0.16268682479858398 0.31762099266052246
-0.23575949668884277 0.16204655170440674 0.30255082249641418
-0.25264692306518555 0.138999342918396 0.28586524724960327
-0.26735734939575195 0.1200106143951416 0.28462323546409607
-0.27975058555603027 0.10054302215576172 0.28449603915214539
0.14498090744018555 0.37070214748382568 0.30252367258071899
0.13064014911651611 0.38326263427734375 0.29818582534790039
0.11662396788597107 0.39671593904495239 0.29321020841598511
0.099183827638626099 0.40592610836029053 0.30034637451171875
0.094673097133636475 0.39784914255142212 0.31376919150352478
0.09062156081199646 0.387398362159729 0.32624551653862
0.10131144523620605 0.3635651171207428 0.33999872207641602
0.11627495288848877 0.35128727555274963 0.34341052174568176
0.13131338357925415 0.33907556533813477 0.34651970863342285
-0.21294546127319336 0.1809658408164978 0.34250867366790771
-0.19489157199859619 0.20496481657028198 0.34226906299591064
-0.17658638954162598 0.22981524467468262 0.34064802527427673
-0.15954470634460449 0.26158374547958374 0.32623416185379028
-0.15917909145355225 0.26658725738525391 0.31200671195983887
-0.15848708152770996 0.26872861385345459 0.29668694734573364
-0.17678451538085938 0.2388041615486145 0.2857632040977478
-0.19682741165161133 0.21045041084289551 0.28778922557830811
-0.2168116569519043 0.18369185924530029 0.28819394111633301
0.092223018407821655 0.4256013035774231 0.28052914142608643
0.082088761031627655 0.43929344415664673 0.27370834350585938
0.072752907872200012 0.450257807970047 0.26806703209877014
0.059065297245979309 0.44955289363861084 0.27990657091140747
0.054873473942279816 0.43801558017730713 0.29625111818313599
0.05165533721446991 0.42328917980194092 0.31195557117462158
0.057725749909877777 0.40257668495178223 0.32654368877410889
0.066299803555011749 0.39556267857551575 0.32917127013206482
0.076077327132225037 0.38623291254043579 0.33264949917793274
-0.14508652687072754 0.27575790882110596 0.33422887325286865
-0.13278210163116455 0.29490035772323608 0.33062830567359924
-0.1221611499786377 0.31088423728942871 0.32778400182723999
-0.10910129547119141 0.33923661708831787 0.31165027618408203
-0.10479581356048584 0.35244011878967285 0.29454603791236877
-0.10036730766296387 0.36179625988006592 0.27694571018218994
-0.10934746265411377 0.34747660160064697 0.26411113142967224
-0.12385678291320801 0.32369077205657959 0.26971530914306641
-0.13991546630859375 0.29659354686737061 0.27611953020095825
0.054527893662452698 0.45706790685653687 0.26502871513366699
0.045189186930656433 0.45121660828590393 0.26883313059806824
0.035799950361251831 0.43934488296508789 0.27620550990104675
0.022890686988830566 0.41544315218925476 0.30149924755096436
0.020478099584579468 0.40589472651481628 0.31660693883895874
0.019458651542663574 0.39392778277397156 0.33077755570411682
0.027351051568984985 0.3935074508190155 0.33452975749969482
0.034760653972625732 0.40213373303413391 0.32913386821746826
0.042239859700202942 0.40638983249664307 0.32612854242324829
-0.10443758964538574 0.33123946189880371 0.32725793123245239
-0.096922159194946289 0.33481788635253906 0.33042004704475403
-0.090265393257141113 0.33374398946762085 0.336040198802948
-0.078662633895874023 0.34343302249908447 0.33153009414672852
-0.072359681129455566 0.35679382085800171 0.31641983985900879
-0.06622612476348877 0.36694866418838501 0.30051130056381226
-0.06722569465637207 0.38133591413497925 0.27383694052696228
-0.075205445289611816 0.38323670625686646 0.26571956276893616
-0.084957242012023926 0.37819641828536987 0.26134437322616577
0.017360448837280273 0.39851927757263184 0.30156266689300537
0.0086495280265808105 0.37281706929206848 0.31743055582046509
0.00052481889724731445 0.34732753038406372 0.33284598588943481
-0.0094069242477416992 0.32054495811462402 0.35823649168014526
-0.010585188865661621 0.31494373083114624 0.3700215220451355
-0.01026839017868042 0.30867651104927063 0.38011977076530457
-0.001665651798248291 0.3219248354434967 0.3767542839050293
0.0053236186504364014 0.34257018566131592 0.3649730384349823
0.012572318315505981 0.36272159218788147 0.35309901833534241
-0.079339385032653809 0.31733739376068115 0.35487136244773865
-0.074697375297546387 0.30408656597137451 0.366771399974823
-0.070161581039428711 0.29006177186965942 0.37856405973434448
-0.060651421546936035 0.28548014163970947 0.38138970732688904
-0.055869340896606445 0.29341048002243042 0.37084436416625977
-0.051516413688659668 0.29982274770736694 0.35866996645927429
-0.051023960113525391 0.32025223970413208 0.33264753222465515
-0.053711652755737305 0.33907186985015869 0.31681066751480103
-0.056820809841156006 0.35751545429229736 0.3004801869392395
-0.013586580753326416 0.30702584981918335 0.35575675964355469
-0.019686400890350342 0.29418224096298218 0.36221513152122498
-0.025344014167785645 0.28573751449584961 0.36585825681686401
-0.033036649227142334 0.27729284763336182 0.37869876623153687
-0.035289227962493896 0.27034562826156616 0.39060434699058533
-0.03720390796661377 0.26051133871078491 0.40224537253379822
-0.028365880250930786 0.25923943519592285 0.40796929597854614
-0.021133393049240112 0.27222874760627747 0.40203845500946045
-0.014632552862167358 0.28638377785682678 0.39538386464118958
-0.060349524021148682 0.26655930280685425 0.39695093035697937
-0.054655730724334717 0.25813066959381104 0.40324980020523071
-0.048108100891113281 0.25117933750152588 0.40872097015380859
-0.035654187202453613 0.28083294630050659 0.36601075530052185
-0.040306985378265381 0.28423452377319336 0.36246579885482788
-0.044499814510345459 0.29177039861679077 0.35601580142974854
-0.004704892635345459 0.29761397838592529 0.39015692472457886
-6.4432621002197266e-05 0.29339194297790527 0.39040529727935791
0.0049736052751541138 0.2896873950958252 0.38945049047470093
0.014822840690612793 0.29817229509353638 0.38165348768234253
0.02031804621219635 0.30925524234771729 0.37476372718811035
0.026074402034282684 0.31908375024795532 0.36838546395301819
0.028604067862033844 0.33882063627243042 0.35939955711364746
0.025139138102531433 0.35203704237937927 0.35556375980377197
0.022063553333282471 0.36615490913391113 0.35031643509864807
-0.089019298553466797 0.31127464771270752 0.35290229320526123
-0.092882156372070312 0.2945442795753479 0.35882341861724854
-0.096337080001831055 0.27877599000930786 0.36309099197387695
-0.094743013381958008 0.26273989677429199 0.37222379446029663
-0.09017026424407959 0.25872498750686646 0.37847670912742615
-0.0859641432762146 0.25317263603210449 0.38524621725082397
-0.078153610229492188 0.25342023372650146 0.39258858561515808
-0.074059665203094482 0.26096922159194946 0.39313971996307373
-0.069868087768554688 0.26884865760803223 0.39243161678314209
0.037566352635622025 0.33344081044197083 0.35846191644668579
0.043226558715105057 0.33761569857597351 0.35527163743972778
0.048998106271028519 0.33985030651092529 0.35320523381233215
0.053100757300853729 0.35443073511123657 0.34732183814048767
0.051185611635446548 0.3709251880645752 0.34184068441390991
0.049908529967069626 0.38863468170166016 0.33487975597381592
-0.1156766414642334 0.3051643967628479 0.33715668320655823
-0.11804628372192383 0.28676825761795044 0.34494549036026001
-0.1202387809753418 0.26946818828582764 0.35087311267852783
-0.11587858200073242 0.26027202606201172 0.35705640912055969
-0.11001050472259521 0.26383298635482788 0.35917544364929199
-0.10463416576385498 0.26541292667388916 0.3624177873134613
0.061425521969795227 0.33869472146034241 0.35228511691093445
0.06853117048740387 0.33564001321792603 0.35299834609031677
0.076665878295898438 0.33128297328948975 0.3539784848690033
0.085936248302459717 0.33686158061027527 0.35112622380256653
0.085732907056808472 0.34927648305892944 0.34756201505661011
0.086108237504959106 0.36236697435379028 0.34308171272277832
-0.15916788578033447 0.24379122257232666 0.34533971548080444
-0.15873193740844727 0.23259413242340088 0.35021156072616577
-0.15843546390533447 0.22168290615081787 0.35387834906578064
-0.1473921537399292 0.2259029746055603 0.35730403661727905
-0.13790690898895264 0.23748862743377686 0.35657328367233276
-0.12964475154876709 0.24708753824234009 0.35599115490913391
0.097312569618225098 0.31962528824806213 0.35535579919815063
0.10921388864517212 0.31246179342269897 0.35584089159965515
0.12087681889533997 0.3044268786907196 0.35673263669013977
0.13444119691848755 0.30228120088577271 0.35678675770759583
0.13779169321060181 0.30994892120361328 0.35556367039680481
0.14135110378265381 0.31849268078804016 0.35339981317520142
-0.22456455230712891 0.15623927116394043 0.34738507866859436
-0.21947157382965088 0.15272343158721924 0.35050135850906372
-0.21439659595489502 0.14951443672180176 0.35236307978630066
-0.19800174236297607 0.16303294897079468 0.35505631566047668
-0.18471765518188477 0.17990225553512573 0.35617998242378235
-0.17113602161407471 0.19668400287628174 0.35720342397689819
0.13929080963134766 0.28637856245040894 0.36061596870422363
0.14531368017196655 0.27634364366531372 0.36379557847976685
0.14975553750991821 0.26524782180786133 0.36784669756889343
0.15817868709564209 0.25906500220298767 0.36928227543830872
0.16372001171112061 0.26677447557449341 0.36534488201141357
0.16973531246185303 0.27521741390228271 0.36071586608886719
-0.25455939769744873 0.099744558334350586 0.34629806876182556
-0.24683070182800293 0.099961161613464355 0.35338684916496277
-0.23971545696258545 0.099990010261535645 0.35933661460876465
-0.2301405668258667 0.11086571216583252 0.36010387539863586
-0.22545790672302246 0.12167537212371826 0.35685473680496216
-0.21881604194641113 0.13357770442962646 0.35498079657554626
0.15574777126312256 0.23844780027866364 0.37889465689659119
0.1574634313583374 0.22281210124492645 0.38590231537818909
0.15786707401275635 0.20627421140670776 0.39376431703567505
0.16304588317871094 0.19050204753875732 0.39896520972251892
0.17036044597625732 0.19196334481239319 0.39500555396080017
0.17834079265594482 0.19280432164669037 0.39047783613204956
-0.25675499439239502 0.045492291450500488 0.37526354193687439
-0.24776053428649902 0.052672028541564941 0.3829694390296936
-0.23960399627685547 0.058394193649291992 0.38948968052864075
-0.23552548885345459 0.071089625358581543 0.38580742478370667
-0.23643672466278076 0.080177664756774902 0.37764832377433777
-0.2355886697769165 0.090152382850646973 0.37058520317077637
0.15310347080230713 0.17233631014823914 0.41150590777397156
0.14782202243804932 0.15616977214813232 0.42072767019271851
0.14104533195495605 0.1414467990398407 0.42953354120254517
0.14004039764404297 0.12537291646003723 0.43568879365921021
0.14795857667922974 0.12177897989749908 0.43357577919960022
0.15626341104507446 0.11717119812965393 0.43138700723648071
-0.22316408157348633 0.024630546569824219 0.4230024516582489
-0.21496737003326416 0.033397197723388672 0.42761799693107605
-0.20721769332885742 0.041000843048095703 0.43173396587371826
-0.21053266525268555 0.049546003341674805 0.42578276991844177
-0.21949660778045654 0.05264735221862793 0.41553059220314026
-0.22699165344238281 0.057198166847229004 0.40507635474205017
0.12451338768005371 0.1186949610710144 0.44452589750289917
0.11487042903900146 0.1113978773355484 0.4504183828830719
0.10392022132873535 0.10707449913024902 0.45529940724372864
0.094316959381103516 0.097782939672470093 0.46068167686462402
0.097890377044677734 0.088695049285888672 0.46226546168327332
0.10207957029342651 0.078585803508758545 0.4631848931312561
-0.16084194183349609 0.032782852649688721 0.46251517534255981
-0.15819990634918213 0.042114496231079102 0.46289852261543274
-0.15626192092895508 0.05011671781539917 0.46230822801589966
-0.16756737232208252 0.051706790924072266 0.45663359761238098
-0.17931282520294189 0.048568010330200195 0.45062053203582764
-0.19026660919189453 0.047385275363922119 0.4435209333896637
0.0771750807762146 0.10792103409767151 0.46215552091598511
0.062431633472442627 0.11224040389060974 0.46420294046401978
0.048396527767181396 0.11796581745147705 0.46525150537490845
0.033772483468055725 0.11163923144340515 0.47165879607200623
0.031252875924110413 0.095559686422348022 0.48014143109321594
0.029078125953674316 0.076418668031692505 0.48948699235916138
-0.084611833095550537 0.06129223108291626 0.49190288782119751
-0.092091798782348633 0.075294613838195801 0.48289698362350464
-0.098473012447357178 0.086450099945068359 0.47487181425094604
-0.11442804336547852 0.085024237632751465 0.4692709743976593
-0.12725389003753662 0.074804365634918213 0.46814006567001343
-0.14107447862625122 0.065188705921173096 0.46553921699523926
0.026835791766643524 0.1306881308555603 0.46358352899551392
0.019746491685509682 0.13730719685554504 0.4609450101852417
0.014349650591611862 0.14438831806182861 0.45754498243331909
0.002950713038444519 0.14305326342582703 0.45696896314620972
-0.0063282102346420288 0.13177275657653809 0.46124169230461121
-0.017613306641578674 0.11863446235656738 0.46596068143844604
-0.01578076183795929 0.090251535177230835 0.47997361421585083
-0.0023650676012039185 0.07972601056098938 0.48746871948242188
0.011124882847070694 0.067848145961761475 0.4943852424621582
-0.064316630363464355 0.059033066034317017 0.49648815393447876
-0.055422216653823853 0.072271376848220825 0.48908761143684387
-0.046044528484344482 0.085246860980987549 0.48092156648635864
-0.050712406635284424 0.11133837699890137 0.46649536490440369
-0.063674747943878174 0.11826306581497192 0.46240472793579102
-0.074245035648345947 0.12391805648803711 0.45886987447738647
-0.085491359233856201 0.12003391981124878 0.46033698320388794
-0.089680373668670654 0.111988365650177 0.46397364139556885
-0.095500171184539795 0.10379642248153687 0.46694460511207581
-0.00087833404541015625 0.2484591007232666 0.40903952717781067
0.0018549710512161255 0.26116743683815002 0.40249797701835632
0.0054419338703155518 0.27383413910865784 0.3956947922706604
-0.027122288942337036 0.24084970355033875 0.41683250665664673
-0.017870038747787476 0.2386920154094696 0.41666924953460693
-0.0096645355224609375 0.23707517981529236 0.41589707136154175
-0.06653362512588501 0.21559375524520874 0.41850733757019043
-0.058957159519195557 0.22308415174484253 0.4186786413192749
-0.050235390663146973 0.23198527097702026 0.41801175475120544
-0.078985333442687988 0.23830246925354004 0.39900439977645874
-0.076355338096618652 0.22936666011810303 0.40567049384117126
-0.074355244636535645 0.21969848871231079 0.41212564706802368
-0.002489238977432251 0.20060521364212036 0.43208986520767212
-0.0033644884824752808 0.21195036172866821 0.42684090137481689
-0.0034732222557067871 0.22373011708259583 0.42124232649803162
-0.038811415433883667 0.22422850131988525 0.42340648174285889
-0.038612961769104004 0.20792049169540405 0.42959189414978027
-0.038274288177490234 0.19253939390182495 0.43524694442749023
-0.02744823694229126 0.18079379200935364 0.43994826078414917
-0.017506211996078491 0.18401646614074707 0.43886488676071167
-0.0085186958312988281 0.1870495080947876 0.43775713443756104
-0.066901087760925293 0.16881859302520752 0.44000530242919922
-0.057989954948425293 0.17142140865325928 0.44042512774467468
-0.048157572746276855 0.17436176538467407 0.44075781106948853
-0.072537362575531006 0.19889318943023682 0.42423298954963684
-0.072675585746765137 0.18812477588653564 0.42980742454528809
-0.073354363441467285 0.177357017993927 0.43501120805740356
-0.037267893552780151 0.16231220960617065 0.44619521498680115
-0.036484330892562866 0.14589869976043701 0.45247477293014526
-0.035278469324111938 0.12733286619186401 0.46015924215316772
0.0064960494637489319 0.16052615642547607 0.44981244206428528
0.0034698918461799622 0.16964864730834961 0.44578093290328979
0.00098741054534912109 0.17940482497215271 0.44153422117233276
-0.075842559337615967 0.15648651123046875 0.44429409503936768
-0.077591896057128906 0.14661461114883423 0.44847851991653442
-0.079751312732696533 0.1371990442276001 0.45247733592987061
0.11574512720108032 -0.23239050805568695 0.52878212928771973
0.11060693860054016 -0.22564932703971863 0.53280776739120483
0.10495388507843018 -0.21954785287380219 0.53610342741012573
0.093007281422615051 -0.21488362550735474 0.53814095258712769
0.085871890187263489 -0.21463675796985626 0.53800278902053833
0.0783882737159729 -0.21387031674385071 0.53802919387817383
0.070198506116867065 -0.21626710891723633 0.5363386869430542
0.069120168685913086 -0.22063538432121277 0.5336492657661438
0.067499265074729919 -0.22551456093788147 0.53030264377593994
0.063043311238288879 -0.21120098233222961 0.53862148523330688
0.055423155426979065 -0.20935347676277161 0.53917145729064941
0.047955796122550964 -0.20708939433097839 0.53985941410064697
0.033904999494552612 -0.20726412534713745 0.53891116380691528
0.025387793779373169 -0.21097645163536072 0.53629380464553833
0.016060208901762962 -0.21536555886268616 0.53292173147201538
0.14146542549133301 -0.22833658754825592 0.53007775545120239
0.13245409727096558 -0.21901822090148926 0.53448319435119629
0.12350985407829285 -0.21071045100688934 0.53804582357406616
0.11392524838447571 -0.20841756463050842 0.54007589817047119
0.11044251918792725 -0.21149595081806183 0.53946584463119507
0.10555735230445862 -0.21346575021743774 0.53891885280609131
0.033830076456069946 -0.2011452317237854 0.54153501987457275
0.027392324060201645 -0.19729813933372498 0.54241359233856201
0.021544106304645538 -0.19273826479911804 0.54322391748428345
0.0075198579579591751 -0.19117075204849243 0.54213619232177734
-0.003674529492855072 -0.19618558883666992 0.53951793909072876
-0.016469217836856842 -0.20210057497024536 0.53606319427490234
0.14207726716995239 -0.20333574712276459 0.53356647491455078
0.1292245090007782 -0.19302816689014435 0.53733867406845093
0.11559769511222839 -0.18352189660072327 0.54043048620223999
0.10854479670524597 -0.18361543118953705 0.54229974746704102
0.11294010281562805 -0.19125120341777802 0.54170680046081543
0.11532226204872131 -0.19820314645767212 0.54118055105209351
0.012161048129200935 -0.18105140328407288 0.5443769097328186
0.0092886649072170258 -0.17428940534591675 0.54470354318618774
0.0083231255412101746 -0.16749504208564758 0.54495549201965332
-0.0042756795883178711 -0.16458034515380859 0.54356873035430908
-0.018593236804008484 -0.16980376839637756 0.54133814573287964
-0.033386498689651489 -0.17611542344093323 0.53827160596847534
0.080724895000457764 -0.097182750701904297 0.52556169033050537
0.070730239152908325 -0.093752533197402954 0.52876752614974976
0.060400217771530151 -0.09090009331703186 0.5309259295463562
0.059541776776313782 -0.10565277934074402 0.53497958183288574
0.069638311862945557 -0.12261459231376648 0.53721868991851807
0.079582333564758301 -0.13818767666816711 0.53908097743988037
0.10011973977088928 -0.15541559457778931 0.53902715444564819
0.1119036078453064 -0.1605028510093689 0.53677773475646973
0.12292483448982239 -0.16613370180130005 0.53366434574127197
-0.043355569243431091 -0.14394697546958923 0.53573381900787354
-0.028841927647590637 -0.14115220308303833 0.53884387016296387
-0.014943167567253113 -0.13929116725921631 0.54089486598968506
-0.0059289857745170593 -0.12683799862861633 0.54043662548065186
-0.01044338196516037 -0.11298215389251709 0.53837817907333374
-0.015146620571613312 -0.097857505083084106 0.53591829538345337
-0.031074166297912598 -0.083256572484970093 0.53171080350875854
-0.04323635995388031 -0.084628820419311523 0.52948462963104248
-0.05611690878868103 -0.086958467960357666 0.52601110935211182
0.094172090291976929 -0.16031764447689056 0.54159349203109741
0.097954124212265015 -0.16671071946620941 0.54226672649383545
0.10006269812583923 -0.17123261094093323 0.5427132248878479
0.0072768125683069229 -0.15688332915306091 0.54468929767608643
0.0045141503214836121 -0.1525406539440155 0.54410600662231445
0.0015738606452941895 -0.14665314555168152 0.54326438903808594
0.042869314551353455 -0.073416531085968018 0.52938950061798096
0.036981374025344849 -0.059532403945922852 0.52633184194564819
0.032499343156814575 -0.046731084585189819 0.52347791194915771
0.021947748959064484 -0.037878721952438354 0.52329277992248535
0.014862045645713806 -0.040603339672088623 0.5245097279548645
0.007494848221540451 -0.042277604341506958 0.52516627311706543
0.002127423882484436 -0.050294399261474609 0.52651500701904297
0.0056746955960988998 -0.059866398572921753 0.52863281965255737
0.010323524475097656 -0.071394383907318115 0.53130018711090088
0.024153910577297211 -0.085465669631958008 0.53401267528533936
0.03243023157119751 -0.086186975240707397 0.53378582000732422
0.041078880429267883 -0.087194859981536865 0.53325974941253662
-0.0098256021738052368 -0.082760453224182129 0.53378868103027344
-0.00068413466215133667 -0.083274275064468384 0.53412473201751709
0.0078391404822468758 -0.084023773670196533 0.53419482707977295
-0.0085308775305747986 -0.041804343461990356 0.52518856525421143
-0.017355397343635559 -0.039725959300994873 0.52459287643432617
-0.026793226599693298 -0.036741197109222412 0.52352535724639893
-0.033288419246673584 -0.044603228569030762 0.52385908365249634
-0.028973609209060669 -0.056292414665222168 0.52673840522766113
-0.024483859539031982 -0.06889680027961731 0.52988219261169434
0.054570466279983521 -0.14371231198310852 0.54219740629196167
0.065534055233001709 -0.14555284380912781 0.54198765754699707
0.07670244574546814 -0.14794424176216125 0.54149156808853149
0.022717207670211792 -0.10000443458557129 0.53666317462921143
0.029947422444820404 -0.1154593825340271 0.53886085748672485
0.037163406610488892 -0.12987944483757019 0.54073852300643921
0.010351258330047131 -0.13849687576293945 0.54261094331741333
0.021843452006578445 -0.13931837677955627 0.54270708560943604
0.032889075577259064 -0.14062643051147461 0.54254657030105591
0.048896655440330505 -0.15126487612724304 0.54361188411712646
0.052777603268623352 -0.1578717827796936 0.54459655284881592
0.05550876259803772 -0.16257965564727783 0.54524195194244385
0.067815423011779785 -0.1670365035533905 0.54533278942108154
0.078120917081832886 -0.16804830729961395 0.54498416185379028
0.088645190000534058 -0.16999088227748871 0.54434984922409058
0.022860139608383179 -0.1597524881362915 0.54559218883514404
0.034486442804336548 -0.16130474209785461 0.54565215110778809
0.046044997870922089 -0.16368982195854187 0.54560655355453491
0.032009944319725037 -0.024908095598220825 0.51897281408309937
0.033325344324111938 -0.017683982849121094 0.51736193895339966
0.033473923802375793 -0.010721474885940552 0.51582455635070801
0.031587511301040649 -0.0018236339092254639 0.51636016368865967
0.031670615077018738 -0.00016951560974121094 0.51874589920043945
0.032053232192993164 0.0014114975929260254 0.52122831344604492
0.032719120383262634 -0.0031543970108032227 0.52523112297058105
0.031564414501190186 -0.0084045529365539551 0.52622604370117188
0.028905399143695831 -0.013077020645141602 0.52690458297729492
0.024897031486034393 -0.019858002662658691 0.52571797370910645
0.024972245097160339 -0.02286180853843689 0.52383619546890259
0.025880314409732819 -0.026977211236953735 0.52219152450561523
-0.036242812871932983 -0.026187539100646973 0.52268797159194946
-0.035665318369865417 -0.022112071514129639 0.5244295597076416
-0.035325899720191956 -0.019022226333618164 0.52643108367919922
-0.041187077760696411 -0.01227232813835144 0.52804690599441528
-0.046198904514312744 -0.0078840851783752441 0.52762329578399658
-0.05007442831993103 -0.0030732154846191406 0.52687227725982666
-0.053723901510238647 0.00051683187484741211 0.52287530899047852
-0.054402381181716919 -0.0014005899429321289 0.52019929885864258
-0.055337011814117432 -0.0033744275569915771 0.51763379573822021
-0.054577857255935669 -0.011778056621551514 0.5167960524559021
-0.050903886556625366 -0.017995923757553101 0.51814770698547363
-0.045717239379882812 -0.024497121572494507 0.51959359645843506
0.02964039146900177 0.0046130120754241943 0.5122641921043396
0.02561747282743454 0.012926936149597168 0.51013368368148804
0.020300477743148804 0.020826756954193115 0.50790023803710938
0.014213062822818756 0.02651822566986084 0.50687044858932495
0.014958824962377548 0.026989936828613281 0.50858938694000244
0.01575777679681778 0.028210222721099854 0.51069498062133789
0.021736979484558105 0.023774176836013794 0.51550483703613281
0.026374340057373047 0.017016381025314331 0.51838451623916626
0.029992252588272095 0.0098010599613189697 0.52125030755996704
-0.054678082466125488 0.0083884596824645996 0.52318352460861206
-0.055303037166595459 0.014718055725097656 0.52033901214599609
-0.054594486951828003 0.020766586065292358 0.51739329099655151
-0.052655041217803955 0.024576276540756226 0.51226359605789185
-0.052566021680831909 0.02318921685218811 0.5100218653678894
-0.052565962076187134 0.022566705942153931 0.50822126865386963
-0.056392252445220947 0.016829252243041992 0.50935709476470947
-0.058046340942382812 0.0094681978225708008 0.51156938076019287
-0.058164507150650024 0.0019142627716064453 0.51359236240386963
0.0059969238936901093 0.03261488676071167 0.50361007452011108
-0.0025490224361419678 0.035313785076141357 0.50213074684143066
-0.011513903737068176 0.035269349813461304 0.50162744522094727
-0.013976827263832092 0.029746472835540771 0.50535142421722412
-0.0099443569779396057 0.030214607715606689 0.5076560378074646
-0.007125072181224823 0.031532019376754761 0.50996303558349609
-0.00055060163140296936 0.034537345170974731 0.51124650239944458
0.0048340549692511559 0.034634560346603394 0.51097249984741211
0.010624188929796219 0.032937496900558472 0.51157158613204956
-0.048728048801422119 0.029628962278366089 0.5130467414855957
-0.043952763080596924 0.031742841005325317 0.51215773820877075
-0.038600355386734009 0.032262057065963745 0.51212108135223389
-0.031935244798660278 0.030000895261764526 0.5104326605796814
-0.029905378818511963 0.028913289308547974 0.50798660516738892
-0.026920124888420105 0.028849780559539795 0.50556093454360962
-0.032427817583084106 0.033622562885284424 0.50207686424255371
-0.040893793106079102 0.032384335994720459 0.50299739837646484
-0.047812849283218384 0.028817176818847656 0.50479841232299805
-0.019600465893745422 0.025385767221450806 0.50657922029495239
-0.018385380506515503 0.021752238273620605 0.50916522741317749
-0.017729982733726501 0.020681113004684448 0.51096963882446289
-0.017271652817726135 0.020000725984573364 0.51227831840515137
-0.01673714816570282 0.019259840250015259 0.51381534337997437
-0.016252756118774414 0.020101606845855713 0.51608061790466309
-0.013132929801940918 0.022776335477828979 0.51796960830688477
-0.010859452188014984 0.025826126337051392 0.51630282402038574
-0.0083575621247291565 0.029503166675567627 0.51424157619476318
-0.028017431497573853 0.028471887111663818 0.51458966732025146
-0.023324623703956604 0.02523040771484375 0.5164724588394165
-0.019178122282028198 0.022511512041091919 0.51805013418197632
-0.0017497017979621887 -0.030255526304244995 0.52846360206604004
-0.0018198154866695404 -0.033268719911575317 0.52675056457519531
-0.0014512427151203156 -0.037239551544189453 0.52557063102722168
0.019761361181735992 -0.021348059177398682 0.52839994430541992
0.013545803725719452 -0.024659276008605957 0.52926862239837646
0.0063914358615875244 -0.026876837015151978 0.52993953227996826
-0.010226048529148102 -0.026442825794219971 0.53006666898727417
-0.01900850236415863 -0.023900538682937622 0.52956235408782959
-0.027412369847297668 -0.020412981510162354 0.52894562482833862
-0.0026499554514884949 -0.017436236143112183 0.53350216150283813
-0.0020182207226753235 -0.021329581737518311 0.53274863958358765
-0.0016683489084243774 -0.024663478136062622 0.53167635202407837
0.024282306432723999 -0.014726907014846802 0.52906692028045654
0.023091837763786316 -0.012218832969665527 0.53029370307922363
0.021409422159194946 -0.010040163993835449 0.53131091594696045
0.016195330768823624 -0.0096777081489562988 0.53247648477554321
0.010695032775402069 -0.011128097772598267 0.53309845924377441
0.003979208879172802 -0.012364894151687622 0.53365468978881836
-0.011597543954849243 -0.012015193700790405 0.53390181064605713
-0.019278675317764282 -0.010501831769943237 0.53363347053527832
-0.02588103711605072 -0.0088661313056945801 0.53328049182891846
-0.031762480735778809 -0.0091024041175842285 0.5323333740234375
-0.033218607306480408 -0.011243462562561035 0.53131699562072754
-0.034264698624610901 -0.013746321201324463 0.53001844882965088
-0.015068523585796356 0.021804898977279663 0.52138924598693848
-0.014179475605487823 0.021221786737442017 0.5241239070892334
-0.01296485960483551 0.019310981035232544 0.52705943584442139
-0.0051460191607475281 0.019205719232559204 0.52812576293945312
-0.0022713318467140198 0.023420751094818115 0.52564865350723267
-0.00037119165062904358 0.027007788419723511 0.5233008861541748
-0.00045947730541229248 0.030898630619049072 0.51980650424957275
-0.001932293176651001 0.032356202602386475 0.51744884252548218
-0.0034260004758834839 0.033016949892044067 0.5149233341217041
-0.033608198165893555 0.0314369797706604 0.51561212539672852
-0.033610075712203979 0.030886679887771606 0.51823592185974121
-0.033385306596755981 0.029575735330581665 0.5206642746925354
-0.030298769474029541 0.026111721992492676 0.52408665418624878
-0.025834456086158752 0.022881805896759033 0.52626287937164307
-0.019984796643257141 0.018983542919158936 0.52849918603897095
0.0038089212030172348 0.029579281806945801 0.52158308029174805
0.0079283565282821655 0.029233843088150024 0.52168393135070801
0.012131365016102791 0.02799069881439209 0.52186226844787598
0.015995010733604431 0.027809321880340576 0.5204046368598938
0.016531463712453842 0.029019057750701904 0.51811635494232178
0.016655754297971725 0.029559403657913208 0.51561588048934937
-0.051531761884689331 0.02653658390045166 0.51741725206375122
-0.050003856420516968 0.026419758796691895 0.51996195316314697
-0.047930091619491577 0.02565610408782959 0.52223742008209229
-0.04352957010269165 0.0262431800365448 0.52350294589996338
-0.040007680654525757 0.027642309665679932 0.5230681300163269
-0.03619132936000824 0.028203457593917847 0.52270573377609253
0.017388522624969482 0.023329973220825195 0.52397751808166504
0.019842535257339478 0.01856619119644165 0.52645498514175415
0.021942459046840668 0.01303553581237793 0.52883356809616089
0.027571745216846466 0.0063406229019165039 0.52952778339385986
0.030295535922050476 0.0052422285079956055 0.52791333198547363
0.031749650835990906 0.0041117072105407715 0.52591627836227417
-0.051443576812744141 0.0038442909717559814 0.52787238359451294
-0.04920661449432373 0.0052355825901031494 0.52990424633026123
-0.045954674482345581 0.006502687931060791 0.53149044513702393
-0.043555945158004761 0.012744992971420288 0.53072178363800049
-0.045046389102935791 0.017670631408691406 0.52836322784423828
-0.045811176300048828 0.021902412176132202 0.52585190534591675
0.023466415703296661 0.0025368630886077881 0.53168761730194092
0.022708505392074585 -0.0018317997455596924 0.53204631805419922
0.021275795996189117 -0.0056992769241333008 0.53206592798233032
-0.03298678994178772 -0.0048314929008483887 0.53326857089996338
-0.036108270287513733 -0.0010596215724945068 0.53346353769302368
-0.038965284824371338 0.0031205415725708008 0.53331953287124634
0.00046552345156669617 0.011816918849945068 0.53138542175292969
0.0094582736492156982 0.010101556777954102 0.53157174587249756
0.01715671643614769 0.0086895227432250977 0.53136742115020752
-0.035561352968215942 0.0088898539543151855 0.53288310766220093
-0.028471171855926514 0.010214179754257202 0.5326734185218811
-0.020481616258621216 0.011831045150756836 0.5320163369178772
-0.0083120614290237427 0.0059376358985900879 0.53295481204986572
-0.0063923150300979614 -0.0011225342750549316 0.53388404846191406
-0.0048192217946052551 -0.0073919892311096191 0.53415983915328979
-0.029412835836410522 0.075323253870010376 0.48434913158416748
-0.026541486382484436 0.057424694299697876 0.49203133583068848
-0.023951113224029541 0.043356180191040039 0.49765056371688843
0.013800080865621567 0.031146347522735596 0.50512683391571045
0.015172615647315979 0.036496073007583618 0.50455397367477417
0.018664434552192688 0.043097794055938721 0.50326919555664062
-0.063140988349914551 0.036631405353546143 0.50530141592025757
-0.057444453239440918 0.031360894441604614 0.50634956359863281
-0.054368793964385986 0.02667921781539917 0.50668579339981079
0.034292936325073242 -0.0050446391105651855 0.51241439580917358
0.03730715811252594 -0.0069134533405303955 0.51033949851989746
0.041050195693969727 -0.0094451010227203369 0.50729948282241821
0.040641263127326965 -0.0016176700592041016 0.50237053632736206
0.035837814211845398 0.011979907751083374 0.50227361917495728
0.031391322612762451 0.02813410758972168 0.50181210041046143
-0.072881311178207397 0.020826280117034912 0.503578782081604
-0.072922557592391968 0.0058872103691101074 0.50360429286956787
-0.073837012052536011 -0.0067998170852661133 0.50320470333099365
-0.068530112504959106 -0.012676417827606201 0.50811153650283813
-0.063481926918029785 -0.0094678401947021484 0.51136189699172974
-0.059644699096679688 -0.0072005987167358398 0.51351135969161987
0.038033142685890198 -0.037241727113723755 0.51926451921463013
0.04605315625667572 -0.040659666061401367 0.51707720756530762
0.053716763854026794 -0.044370859861373901 0.51387989521026611
0.056355297565460205 -0.039443254470825195 0.50680196285247803
0.052657395601272583 -0.031083583831787109 0.50487607717514038
0.049107849597930908 -0.022559672594070435 0.5034637451171875
-0.075275212526321411 -0.025983273983001709 0.50342392921447754
-0.075149834156036377 -0.033419966697692871 0.50463640689849854
-0.074678212404251099 -0.040471255779266357 0.50646525621414185
-0.064310669898986816 -0.043060064315795898 0.51411867141723633
-0.055239498615264893 -0.039145022630691528 0.51758098602294922
-0.046667575836181641 -0.03583177924156189 0.51981121301651001
0.080630600452423096 -0.085040241479873657 0.51800668239593506
0.072779387235641479 -0.07101777195930481 0.51492500305175781
0.066143661737442017 -0.058897197246551514 0.51193100214004517
-0.07329598069190979 -0.056430995464324951 0.51155304908752441
-0.072403967380523682 -0.066255748271942139 0.51454675197601318
-0.07119297981262207 -0.077538669109344482 0.51769006252288818
0.092436462640762329 -0.099229544401168823 0.48383039236068726
0.08488696813583374 -0.086082041263580322 0.48040443658828735
0.078180670738220215 -0.074812859296798706 0.4772799015045166
0.072992324829101562 -0.061744093894958496 0.48467779159545898
0.070853948593139648 -0.057578623294830322 0.49411144852638245
0.066568911075592041 -0.053008735179901123 0.5024304986000061
-0.084517329931259155 -0.054065942764282227 0.50100916624069214
-0.095057219266891479 -0.061092674732208252 0.49120363593101501
-0.10480159521102905 -0.068449795246124268 0.47992914915084839
-0.11445188522338867 -0.083095133304595947 0.47043466567993164
-0.11594754457473755 -0.091770350933074951 0.4734903872013092
-0.11710047721862793 -0.10165667533874512 0.47690236568450928
0.067801535129547119 -0.056524455547332764 0.47236096858978271
0.063911885023117065 -0.048745691776275635 0.47057881951332092
0.060440719127655029 -0.041349470615386963 0.46915531158447266
0.056093096733093262 -0.029227733612060547 0.47748035192489624
0.053387314081192017 -0.023677200078964233 0.48693230748176575
0.049561277031898499 -0.018018811941146851 0.49555096030235291
-0.082754820585250854 -0.024251282215118408 0.49496525526046753
-0.091338098049163818 -0.032470881938934326 0.48495036363601685
-0.099775612354278564 -0.041094183921813965 0.47374093532562256
-0.10866475105285645 -0.055628061294555664 0.46315661072731018
-0.11009365320205688 -0.061998426914215088 0.46424698829650879
-0.11146098375320435 -0.06849592924118042 0.46580171585083008
0.053537368774414062 -0.025959789752960205 0.46703696250915527
0.051455825567245483 -0.017851442098617554 0.46598613262176514
0.052436679601669312 -0.0099198222160339355 0.46451270580291748
-0.10706800222396851 -0.028588831424713135 0.45957225561141968
-0.10457688570022583 -0.034656882286071777 0.46117058396339417
-0.10511893033981323 -0.041739761829376221 0.46194165945053101
0.090799480676651001 -0.17637474834918976 0.54291296005249023
0.092964470386505127 -0.17535631358623505 0.54390597343444824
0.095889836549758911 -0.17484472692012787 0.54399996995925903
0.058251082897186279 -0.16843011975288391 0.54531347751617432
0.058462515473365784 -0.17037230730056763 0.54458713531494141
0.057900458574295044 -0.17205440998077393 0.5431867241859436
0.066024601459503174 -0.17466080188751221 0.54092717170715332
0.074711933732032776 -0.17515736818313599 0.54095017910003662
0.082365676760673523 -0.17597028613090515 0.54097402095794678
0.029222264885902405 -0.16777291893959045 0.54184281826019287
0.037238530814647675 -0.16941177845001221 0.54146814346313477
0.046659640967845917 -0.17170888185501099 0.54116052389144897
0.018387798219919205 -0.16260990500450134 0.54566192626953125
0.022177789360284805 -0.16419175267219543 0.54534316062927246
0.023711893707513809 -0.16583913564682007 0.54421454668045044
0.10201385617256165 -0.19603341817855835 0.5415341854095459
0.1055513322353363 -0.1971542090177536 0.54244613647460938
0.10989305377006531 -0.19968535006046295 0.54213881492614746
0.093590229749679565 -0.18137115240097046 0.54076695442199707
