# XYZ point cloud file
-0.032558441162109375 0.46823883056640625 0.70916748046875
-0.021604537963867188 0.49059677124023438 0.6870269775390625
-0.009449005126953125 0.51666259765625 0.65826416015625
-0.0077838897705078125 0.57739639282226562 0.6147918701171875
-0.016157150268554688 0.595245361328125 0.609222412109375
-0.023492813110351562 0.60329055786132812 0.61029052734375
-0.21492576599121094 0.30515670776367188 0.76873779296875
-0.24146842956542969 0.26159811019897461 0.76772308349609375
-0.27186489105224609 0.2077631950378418 0.767486572265625
-0.30564260482788086 0.12918186187744141 0.7591400146484375
-0.31316423416137695 0.11169338226318359 0.7531280517578125
-0.32355070114135742 0.095741748809814453 0.744171142578125
-0.31453037261962891 0.12220001220703125 0.742095947265625
-0.29614067077636719 0.15498948097229004 0.74637603759765625
-0.28161764144897461 0.18328118324279785 0.75089263916015625
0.017414093017578125 0.57266998291015625 0.586700439453125
0.031665802001953125 0.6016845703125 0.5438995361328125
0.04679107666015625 0.6274261474609375 0.4957122802734375
0.046710968017578125 0.6940155029296875 0.431732177734375
0.03729248046875 0.71640777587890625 0.42626953125
0.030015945434570312 0.72283554077148438 0.431915283203125
-0.20474052429199219 0.43748378753662109 0.7294921875
-0.25067424774169922 0.38010406494140625 0.7372589111328125
-0.29803848266601562 0.30705642700195312 0.745941162109375
-0.32154083251953125 0.20382976531982422 0.76202392578125
-0.30976772308349609 0.18589305877685547 0.766021728515625
-0.30233430862426758 0.16798114776611328 0.76688385009765625
0.0177459716796875 0.49961090087890625 0.6400909423828125
0.035182952880859375 0.4434661865234375 0.656494140625
0.0550384521484375 0.38031768798828125 0.6752471923828125
0.12526702880859375 0.42563629150390625 0.526763916015625
0.0999755859375 0.5175018310546875 0.4976654052734375
0.07745361328125 0.59546661376953125 0.470184326171875
-0.3693230152130127 0.12926673889160156 0.75385284423828125
-0.39000272750854492 0.037282943725585938 0.75189208984375
-0.4057464599609375 -0.048086166381835938 0.74585723876953125
-0.38275241851806641 -0.044215202331542969 0.7392120361328125
-0.35763931274414062 0.01749420166015625 0.75127410888671875
-0.33088827133178711 0.081861495971679688 0.76006317138671875
-0.031187057495117188 0.42168426513671875 0.7346954345703125
-0.019098281860351562 0.388397216796875 0.743865966796875
-0.005916595458984375 0.34889984130859375 0.752593994140625
-0.40204143524169922 -0.034859657287597656 0.717193603515625
-0.37838077545166016 0.0039725303649902344 0.7228546142578125
-0.35619640350341797 0.044873714447021484 0.7314300537109375
-0.016298294067382812 0.30496978759765625 0.7819671630859375
-0.01076507568359375 0.3057098388671875 0.777313232421875
-0.002727508544921875 0.3072052001953125 0.77191162109375
-0.048969268798828125 0.4420623779296875 0.737213134765625
-0.056165695190429688 0.43507766723632812 0.745513916015625
-0.061367034912109375 0.42938232421875 0.7512969970703125
-0.055095672607421875 0.39594268798828125 0.764556884765625
-0.0443878173828125 0.36989212036132812 0.77099609375
-0.033895492553710938 0.3376312255859375 0.779693603515625
-0.42104530334472656 -0.036814451217651367 0.701812744140625
-0.40102100372314453 -0.0049695968627929688 0.70770263671875
-0.37973213195800781 0.027250051498413086 0.71439361572265625
-0.35419750213623047 0.066550254821777344 0.72417449951171875
-0.34876251220703125 0.070592880249023438 0.7270965576171875
-0.34242057800292969 0.076753616333007812 0.73326873779296875
-0.43105936050415039 -0.068191289901733398 0.7022857666015625
-0.43657016754150391 -0.068034648895263672 0.69854736328125
-0.439697265625 -0.06835174560546875 0.69570159912109375
-0.080156326293945312 0.481719970703125 0.725311279296875
-0.086881637573242188 0.47499847412109375 0.732147216796875
-0.091505050659179688 0.46810531616210938 0.7393341064453125
-0.088655471801757812 0.45642471313476562 0.746917724609375
-0.08173370361328125 0.45189285278320312 0.7477569580078125
-0.074434280395507812 0.43872833251953125 0.7527923583984375
-0.34371566772460938 0.093117237091064453 0.72499847412109375
-0.32767486572265625 0.12125611305236816 0.72841644287109375
-0.3179473876953125 0.14323139190673828 0.7325592041015625
-0.29912185668945312 0.17276763916015625 0.7396697998046875
-0.29231357574462891 0.18157005310058594 0.7427825927734375
-0.28319406509399414 0.18998527526855469 0.74832916259765625
-0.09922027587890625 0.4278717041015625 0.7410430908203125
-0.10515213012695312 0.42279052734375 0.74664306640625
-0.11053466796875 0.41710662841796875 0.751617431640625
-0.10931396484375 0.4279327392578125 0.7517242431640625
-0.10628700256347656 0.44366836547851562 0.749603271484375
-0.10095787048339844 0.45222854614257812 0.74658203125
-0.30707311630249023 0.17217254638671875 0.7375030517578125
-0.3072509765625 0.17746686935424805 0.739471435546875
-0.31280183792114258 0.17503213882446289 0.7406768798828125
-0.31104946136474609 0.17888164520263672 0.7452545166015625
-0.30034160614013672 0.18737888336181641 0.7494049072265625
-0.29155826568603516 0.19801855087280273 0.7538604736328125
-0.09542083740234375 0.31749725341796875 0.7585906982421875
-0.10194969177246094 0.313232421875 0.7632293701171875
-0.10508537292480469 0.3128509521484375 0.766754150390625
-0.11183547973632812 0.33740615844726562 0.766021728515625
-0.11439895629882812 0.3637237548828125 0.7624969482421875
-0.11480522155761719 0.3868560791015625 0.7586517333984375
-0.33404970169067383 0.15447235107421875 0.7427825927734375
-0.34611272811889648 0.13735389709472656 0.7427978515625
-0.36337757110595703 0.11576080322265625 0.7411651611328125
-0.37349057197570801 0.097401618957519531 0.74201202392578125
-0.3654179573059082 0.10218238830566406 0.7473907470703125
-0.35550045967102051 0.10896873474121094 0.751129150390625
-0.046810150146484375 0.21036911010742188 0.7681732177734375
-0.05367279052734375 0.210845947265625 0.7743377685546875
-0.058927536010742188 0.21292495727539062 0.776885986328125
-0.079450607299804688 0.23809051513671875 0.7772064208984375
-0.09058380126953125 0.25996780395507812 0.77471923828125
-0.10022926330566406 0.28447723388671875 0.7711029052734375
-0.40113735198974609 0.063547134399414062 0.73480224609375
-0.42128467559814453 0.036386489868164062 0.73052215576171875
-0.44186735153198242 0.0088634490966796875 0.72534942626953125
-0.45929861068725586 -0.017022132873535156 0.7231292724609375
-0.45228147506713867 -0.015481948852539062 0.7265777587890625
-0.44554615020751953 -0.012371063232421875 0.73055267333984375
0.02223968505859375 0.15208053588867188 0.778228759765625
0.012086868286132812 0.15486526489257812 0.7836151123046875
0.0047626495361328125 0.15787506103515625 0.788177490234375
-0.017923355102539062 0.17229080200195312 0.7880706787109375
-0.031724929809570312 0.18180084228515625 0.7847137451171875
-0.047975540161132812 0.19792938232421875 0.7825469970703125
-0.48250055313110352 -0.044780731201171875 0.71332550048828125
-0.50034475326538086 -0.069001197814941406 0.7067413330078125
-0.51463842391967773 -0.088148117065429688 0.7000732421875
-0.52450752258300781 -0.1100764274597168 0.69443511962890625
-0.51950383186340332 -0.10898303985595703 0.69916534423828125
-0.51433801651000977 -0.10937118530273438 0.7034149169921875
0.0372467041015625 0.1803436279296875 0.7871551513671875
0.026760101318359375 0.18341064453125 0.7927703857421875
0.01971435546875 0.1873626708984375 0.7957305908203125
0.011861801147460938 0.17847442626953125 0.797393798828125
0.01117706298828125 0.16718673706054688 0.7959747314453125
0.004573822021484375 0.164215087890625 0.7933807373046875
-0.53001499176025391 -0.11944007873535156 0.687225341796875
-0.53023910522460938 -0.12895441055297852 0.68365478515625
-0.52454328536987305 -0.13253545761108398 0.6803436279296875
-0.5151667594909668 -0.13631391525268555 0.679840087890625
-0.51209259033203125 -0.13852024078369141 0.683074951171875
-0.5084686279296875 -0.13985943794250488 0.68575286865234375
-0.012037277221679688 0.27214813232421875 0.7910919189453125
-0.001636505126953125 0.2431182861328125 0.7954254150390625
0.0051422119140625 0.2168731689453125 0.79791259765625
-0.50014591217041016 -0.12194371223449707 0.6805267333984375
-0.48302793502807617 -0.10908317565917969 0.68292999267578125
-0.46382808685302734 -0.090331315994262695 0.68914794921875
-0.031785964965820312 0.30453109741210938 0.7880096435546875
-0.043027877807617188 0.30629730224609375 0.78863525390625
-0.057172775268554688 0.30722808837890625 0.788604736328125
-0.046369552612304688 0.26635360717773438 0.7936859130859375
-0.02411651611328125 0.23534774780273438 0.796722412109375
-0.0050334930419921875 0.21219635009765625 0.7981414794921875
-0.44259262084960938 -0.024286031723022461 0.69869232177734375
-0.44419956207275391 -0.042668342590332031 0.6952667236328125
-0.44445896148681641 -0.056277990341186523 0.69390869140625
-0.50603294372558594 -0.11277985572814941 0.6815643310546875
-0.49255180358886719 -0.087945938110351562 0.6867218017578125
-0.47177648544311523 -0.051288843154907227 0.69412994384765625
-0.054462432861328125 0.25049972534179688 0.791900634765625
-0.035989761352539062 0.21366500854492188 0.7933349609375
-0.019186019897460938 0.18601608276367188 0.7920684814453125
-0.51644277572631836 -0.094051361083984375 0.69338226318359375
-0.50127792358398438 -0.073784828186035156 0.69408416748046875
-0.47731351852416992 -0.045750617980957031 0.697662353515625
-0.074922561645507812 0.26916122436523438 0.786834716796875
-0.072118759155273438 0.24609375 0.7844696044921875
-0.068920135498046875 0.22945022583007812 0.7825164794921875
-0.46478629112243652 -0.017057418823242188 0.71521759033203125
-0.46169948577880859 -0.013685226440429688 0.713531494140625
-0.45444869995117188 -0.0078229904174804688 0.708892822265625
-0.091543197631835938 0.30877685546875 0.7796630859375
-0.10051345825195312 0.31083297729492188 0.776824951171875
-0.10555267333984375 0.30989837646484375 0.7713623046875
-0.39271974563598633 0.077092170715332031 0.733154296875
-0.40543270111083984 0.060158729553222656 0.7264251708984375
-0.41939830780029297 0.038560867309570312 0.71997833251953125
-0.097393035888671875 0.35071945190429688 0.7749176025390625
-0.10698318481445312 0.37526321411132812 0.7672576904296875
-0.11216926574707031 0.39357757568359375 0.7615203857421875
-0.34000635147094727 0.14171648025512695 0.73610687255859375
-0.36421871185302734 0.10970306396484375 0.72955322265625
-0.39265727996826172 0.068831443786621094 0.7210235595703125
-0.091472625732421875 0.3678741455078125 0.7739410400390625
-0.0962677001953125 0.40676498413085938 0.7641143798828125
-0.097408294677734375 0.43541717529296875 0.7538604736328125
-0.32952737808227539 0.13654851913452148 0.72992706298828125
-0.35503482818603516 0.10449981689453125 0.7244720458984375
-0.38663673400878906 0.065268039703369141 0.71651458740234375
-0.075927734375 0.35117340087890625 0.7808074951171875
-0.072278976440429688 0.37997055053710938 0.7731475830078125
-0.069644927978515625 0.40329360961914062 0.7657012939453125
-0.37243843078613281 0.05224609375 0.71588134765625
-0.38719463348388672 0.040777444839477539 0.71160125732421875
-0.40738153457641602 0.02649688720703125 0.70919036865234375
0.676544189453125 -0.41078948974609375 0.574737548828125
0.69931411743164062 -0.40769195556640625 0.5715179443359375
0.71052169799804688 -0.40374755859375 0.57241058349609375
0.72412872314453125 -0.41429901123046875 0.579315185546875
0.73204421997070312 -0.42279815673828125 0.5819091796875
0.73948287963867188 -0.42938995361328125 0.5825347900390625
0.748321533203125 -0.42974090576171875 0.58347320556640625
0.74532699584960938 -0.42522430419921875 0.5840606689453125
0.73318862915039062 -0.42031478881835938 0.58739471435546875
0.69949722290039062 -0.41498565673828125 0.5899505615234375
0.68505477905273438 -0.41559219360351562 0.5874786376953125
0.66610336303710938 -0.41391754150390625 0.58400726318359375
0.67360115051269531 -0.4030303955078125 0.6008453369140625
0.62595748901367188 -0.389923095703125 0.610565185546875
0.56693267822265625 -0.37442779541015625 0.62081146240234375
0.46063995361328125 -0.35952377319335938 0.6328582763671875
0.41617965698242188 -0.36163902282714844 0.63385009765625
0.36995124816894531 -0.36370849609375 0.633026123046875
0.42249488830566406 -0.37983512878417969 0.61632537841796875
0.51364898681640625 -0.39452362060546875 0.60251617431640625
0.58606338500976562 -0.40450286865234375 0.59032440185546875
0.71557998657226562 -0.40045547485351562 0.58636474609375
0.71392059326171875 -0.40428543090820312 0.5984954833984375
0.71261215209960938 -0.40775680541992188 0.6114349365234375
0.7086029052734375 -0.42773818969726562 0.6158905029296875
0.70888137817382812 -0.43975067138671875 0.609832763671875
0.7156524658203125 -0.44569778442382812 0.60296630859375
0.73065185546875 -0.445343017578125 0.5948944091796875
0.735260009765625 -0.4412689208984375 0.59161376953125
0.74127960205078125 -0.43689727783203125 0.588287353515625
0.4411468505859375 -0.34156990051269531 0.64270782470703125
0.38022041320800781 -0.32520675659179688 0.65196990966796875
0.3224945068359375 -0.30814170837402344 0.65917205810546875
0.175994873046875 -0.2837677001953125 0.6728973388671875
0.0772705078125 -0.27927017211914062 0.6775054931640625
-0.0250244140625 -0.27374458312988281 0.6810455322265625
-0.0253143310546875 -0.29273223876953125 0.6737060546875
0.087131500244140625 -0.3183135986328125 0.66109466552734375
0.20401763916015625 -0.34021186828613281 0.646514892578125
0.717620849609375 -0.42298507690429688 0.629180908203125
0.72551345825195312 -0.43227005004882812 0.63165283203125
0.7371978759765625 -0.44253158569335938 0.630859375
0.73423385620117188 -0.46394729614257812 0.620452880859375
0.7276763916015625 -0.470977783203125 0.6130523681640625
0.73011016845703125 -0.47197341918945312 0.6052703857421875
0.73300552368164062 -0.46535491943359375 0.59954833984375
0.7297821044921875 -0.46099090576171875 0.6001129150390625
0.72713088989257812 -0.4547576904296875 0.5990753173828125
0.21607017517089844 -0.27006912231445312 0.67235565185546875
0.16630935668945312 -0.25038528442382812 0.677734375
0.11971282958984375 -0.23260688781738281 0.68210601806640625
-0.032777786254882812 -0.20851898193359375 0.6931304931640625
-0.14749908447265625 -0.1999664306640625 0.69842529296875
-0.26143836975097656 -0.19505500793457031 0.70148468017578125
-0.32283973693847656 -0.20725631713867188 0.69925689697265625
-0.27182388305664062 -0.22571945190429688 0.69611358642578125
-0.20764923095703125 -0.24637603759765625 0.6905670166015625
0.76214218139648438 -0.46347427368164062 0.6197967529296875
0.77203369140625 -0.47124481201171875 0.6141357421875
0.77507781982421875 -0.47628021240234375 0.60858154296875
0.76246261596679688 -0.4828338623046875 0.602813720703125
0.75370407104492188 -0.480804443359375 0.6003265380859375
0.74382781982421875 -0.47089004516601562 0.5989990234375
0.74390411376953125 -0.46358489990234375 0.596710205078125
0.745361328125 -0.46865463256835938 0.59710693359375
0.74160003662109375 -0.4691162109375 0.597747802734375
0.038244247436523438 -0.20423126220703125 0.6871795654296875
-0.001705169677734375 -0.19455909729003906 0.68866729736328125
-0.043001174926757812 -0.18795013427734375 0.6890716552734375
-0.20318031311035156 -0.172760009765625 0.696502685546875
-0.31330108642578125 -0.16827392578125 0.70121002197265625
-0.4110870361328125 -0.16804313659667969 0.70383453369140625
-0.46358871459960938 -0.16974258422851562 0.70473480224609375
-0.43467330932617188 -0.17244911193847656 0.70455169677734375
-0.40232658386230469 -0.1800079345703125 0.7037506103515625
0.75040054321289062 -0.46756744384765625 0.606170654296875
0.71855545043945312 -0.452850341796875 0.6090240478515625
0.67692947387695312 -0.43093109130859375 0.6142120361328125
0.63306808471679688 -0.409515380859375 0.6203460693359375
0.62287139892578125 -0.40305328369140625 0.6246185302734375
0.60168838500976562 -0.38762664794921875 0.628509521484375
0.63078689575195312 -0.39552688598632812 0.6225433349609375
0.68018722534179688 -0.41928482055664062 0.611328125
0.7162017822265625 -0.4414215087890625 0.6033935546875
-0.14211273193359375 -0.1811370849609375 0.69037628173828125
-0.19254684448242188 -0.18401145935058594 0.69219970703125
-0.23731231689453125 -0.18977737426757812 0.6936187744140625
-0.3529052734375 -0.197174072265625 0.70093536376953125
-0.42500114440917969 -0.20126533508300781 0.70401763916015625
-0.48103713989257812 -0.20795822143554688 0.708282470703125
-0.521148681640625 -0.20697402954101562 0.70786285400390625
-0.51902389526367188 -0.19423484802246094 0.70594024658203125
-0.50666046142578125 -0.18210983276367188 0.7046051025390625
0.1667327880859375 -0.1218719482421875 0.71270751953125
0.23333740234375 -0.14973831176757812 0.6911163330078125
0.27862167358398438 -0.16818618774414062 0.671417236328125
0.33002090454101562 -0.1836395263671875 0.64703369140625
0.36505126953125 -0.19661712646484375 0.6380462646484375
0.39784622192382812 -0.21624755859375 0.6283721923828125
0.39641571044921875 -0.221038818359375 0.6413726806640625
0.36215591430664062 -0.19544219970703125 0.6627655029296875
0.32257843017578125 -0.1627960205078125 0.6850128173828125
0.25189971923828125 -0.11077880859375 0.708984375
0.2040252685546875 -0.095184326171875 0.71795654296875
0.142974853515625 -0.083587646484375 0.7278594970703125
-0.46361064910888672 -0.15386772155761719 0.7320556640625
-0.52009773254394531 -0.178955078125 0.728271484375
-0.56474065780639648 -0.20957088470458984 0.7190399169921875
-0.60178470611572266 -0.25146198272705078 0.70761871337890625
-0.60574531555175781 -0.26071453094482422 0.7076416015625
-0.60705661773681641 -0.26706504821777344 0.7082672119140625
-0.56873798370361328 -0.24300956726074219 0.7245941162109375
-0.52188968658447266 -0.2176055908203125 0.735382080078125
-0.46960067749023438 -0.19837379455566406 0.7408905029296875
-0.41958045959472656 -0.18121528625488281 0.741058349609375
-0.41433334350585938 -0.17093658447265625 0.7377166748046875
-0.407958984375 -0.15785408020019531 0.732818603515625
0.4281768798828125 -0.25186920166015625 0.619842529296875
0.42137908935546875 -0.256988525390625 0.6212158203125
0.40462493896484375 -0.25115966796875 0.62237548828125
0.3484649658203125 -0.2105255126953125 0.650177001953125
0.31642913818359375 -0.18074798583984375 0.676361083984375
0.28509521484375 -0.14208984375 0.6976318359375
0.2806243896484375 -0.12836456298828125 0.707763671875
0.29469680786132812 -0.13906097412109375 0.7031097412109375
0.29633712768554688 -0.13736724853515625 0.701141357421875
-0.6087651252746582 -0.26769542694091797 0.69139862060546875
-0.60751968622207642 -0.29417800903320312 0.67626953125
-0.59507954120635986 -0.31736040115356445 0.6628570556640625
-0.58130133152008057 -0.35145330429077148 0.64583587646484375
-0.58590960502624512 -0.36353206634521484 0.64011383056640625
-0.58684909343719482 -0.37015008926391602 0.6376800537109375
-0.6066584587097168 -0.3493189811706543 0.65059661865234375
-0.62069606781005859 -0.32420778274536133 0.6678009033203125
-0.61969184875488281 -0.29838180541992188 0.6877593994140625
0.3446502685546875 -0.1827239990234375 0.613037109375
0.30735015869140625 -0.114532470703125 0.6021728515625
0.2633209228515625 -0.0215606689453125 0.592803955078125
0.1887664794921875 0.09964752197265625 0.635040283203125
0.16455841064453125 0.1164093017578125 0.671905517578125
0.14337158203125 0.1366729736328125 0.701080322265625
0.16298675537109375 0.06969451904296875 0.718719482421875
0.198486328125 -0.0035552978515625 0.718658447265625
0.22977447509765625 -0.06027984619140625 0.717559814453125
-0.54806327819824219 -0.34601497650146484 0.649169921875
-0.52376461029052734 -0.34867668151855469 0.6510009765625
-0.5051884651184082 -0.34542083740234375 0.65848541259765625
-0.50401639938354492 -0.36070823669433594 0.66403961181640625
-0.51083636283874512 -0.38671684265136719 0.65839385986328125
-0.51729464530944824 -0.40553665161132812 0.65146636962890625
-0.51352715492248535 -0.41592121124267578 0.6324920654296875
-0.52494287490844727 -0.40609931945800781 0.62722015380859375
-0.5491490364074707 -0.38997840881347656 0.628692626953125
0.15948486328125 0.22054290771484375 0.607025146484375
0.105499267578125 0.35010528564453125 0.63330078125
0.05724334716796875 0.464111328125 0.66058349609375
0.002124786376953125 0.53826141357421875 0.7149658203125
-0.00946807861328125 0.51853179931640625 0.7385711669921875
-0.012409210205078125 0.49726104736328125 0.749267578125
0.0200653076171875 0.40973663330078125 0.7442169189453125
0.0531463623046875 0.33098602294921875 0.7367095947265625
0.09032440185546875 0.24259185791015625 0.727752685546875
-0.49368715286254883 -0.30939483642578125 0.68279266357421875
-0.49558830261230469 -0.27643775939941406 0.695709228515625
-0.49863910675048828 -0.2368011474609375 0.7044525146484375
-0.52602386474609375 -0.21285247802734375 0.71343994140625
-0.55549335479736328 -0.22850990295410156 0.71422576904296875
-0.58665752410888672 -0.23857498168945312 0.7156524658203125
-0.59989833831787109 -0.30474853515625 0.70032501220703125
-0.57446622848510742 -0.35824394226074219 0.6834564208984375
-0.54360455274581909 -0.39529800415039062 0.66353607177734375
0.00069427490234375 0.6164398193359375 0.6688690185546875
-0.008831024169921875 0.65818023681640625 0.6485137939453125
-0.012054443359375 0.68859100341796875 0.61798095703125
-0.037677764892578125 0.69039154052734375 0.6327667236328125
-0.0544281005859375 0.66257476806640625 0.67437744140625
-0.063873291015625 0.63454437255859375 0.7015838623046875
-0.055072784423828125 0.580078125 0.73712158203125
-0.044109344482421875 0.55242919921875 0.7474365234375
-0.02938079833984375 0.5182037353515625 0.7528839111328125
-0.49173355102539062 -0.15473365783691406 0.7176055908203125
-0.47769832611083984 -0.11100387573242188 0.7217254638671875
-0.45436000823974609 -0.058603286743164062 0.724151611328125
-0.43458747863769531 0.017261505126953125 0.73346710205078125
-0.45262718200683594 0.032312393188476562 0.7370147705078125
-0.47227764129638672 0.05289459228515625 0.73983001708984375
-0.54165792465209961 -0.0141143798828125 0.734954833984375
-0.57977437973022461 -0.094301223754882812 0.7286224365234375
-0.60441970825195312 -0.1690673828125 0.722412109375
-0.019115447998046875 0.73954010009765625 0.55072021484375
-0.02373504638671875 0.75876617431640625 0.520904541015625
-0.027286529541015625 0.77146148681640625 0.4995574951171875
-0.047359466552734375 0.7548065185546875 0.528656005859375
-0.066314697265625 0.73034286499023438 0.570831298828125
-0.080171585083007812 0.70782089233398438 0.60400390625
-0.084131240844726562 0.6766815185546875 0.6419525146484375
-0.07820892333984375 0.65914535522460938 0.663848876953125
-0.071010589599609375 0.63460540771484375 0.688812255859375
-0.37517070770263672 0.09268951416015625 0.73541259765625
-0.32241249084472656 0.18418312072753906 0.7373046875
-0.26431179046630859 0.27316379547119141 0.737823486328125
-0.20315742492675781 0.37697601318359375 0.73067474365234375
-0.20266342163085938 0.4001007080078125 0.72969818115234375
-0.20975112915039062 0.42362689971923828 0.728851318359375
-0.29493045806884766 0.36086463928222656 0.7351837158203125
-0.36604118347167969 0.26762771606445312 0.74249267578125
-0.43318510055541992 0.17049026489257812 0.74416351318359375
-0.018198013305664062 0.77397918701171875 0.4674072265625
-0.0048675537109375 0.7655792236328125 0.4552001953125
0.013255119323730469 0.7506103515625 0.4494781494140625
0.0082988739013671875 0.7180938720703125 0.4913787841796875
-0.019446849822998047 0.7030181884765625 0.5347900390625
-0.044590473175048828 0.69118118286132812 0.572174072265625
-0.071933746337890625 0.6852874755859375 0.6044464111328125
-0.079378128051757812 0.68856048583984375 0.6089935302734375
-0.084293365478515625 0.68950653076171875 0.6165771484375
-0.15834236145019531 0.41367816925048828 0.72534942626953125
-0.11516857147216797 0.46254730224609375 0.7143707275390625
-0.07926177978515625 0.49877452850341797 0.70383453369140625
-0.020207405090332031 0.55661201477050781 0.68274688720703125
0.0077848434448242188 0.58627700805664062 0.66869354248046875
0.025460243225097656 0.6115570068359375 0.6538238525390625
-0.019849777221679688 0.60829925537109375 0.65921783447265625
-0.082672119140625 0.56878376007080078 0.6828765869140625
-0.15025806427001953 0.51336956024169922 0.704833984375
0.049633026123046875 0.72208404541015625 0.4564208984375
0.060262203216552734 0.71307373046875 0.4726104736328125
0.0632171630859375 0.70641326904296875 0.4968414306640625
0.029793977737426758 0.6832122802734375 0.563995361328125
-0.0014488697052001953 0.66701698303222656 0.5946197509765625
-0.031922101974487305 0.65282440185546875 0.6224365234375
-0.050942420959472656 0.65363693237304688 0.6268768310546875
-0.051323413848876953 0.6640472412109375 0.6143035888671875
-0.055822372436523438 0.67240524291992188 0.6061553955078125
-0.031694412231445312 0.54098606109619141 0.6916961669921875
-0.02219390869140625 0.55046606063842773 0.6902618408203125
-0.023830413818359375 0.55181026458740234 0.69252777099609375
-0.0016603469848632812 0.57415533065795898 0.68689727783203125
0.031828880310058594 0.60300683975219727 0.6694488525390625
0.060148239135742188 0.62734770774841309 0.6539154052734375
0.092548370361328125 0.65424203872680664 0.62596893310546875
0.090317726135253906 0.65397453308105469 0.62050628662109375
0.070639610290527344 0.64740467071533203 0.62676239013671875
0.037218809127807617 0.68859100341796875 0.5666656494140625
0.012966156005859375 0.66814041137695312 0.6039276123046875
-0.0110931396484375 0.6374359130859375 0.6390380859375
-0.055635929107666016 0.58200454711914062 0.68560791015625
-0.079417943954467773 0.55890274047851562 0.7018585205078125
-0.10048484802246094 0.53973579406738281 0.71502685546875
-0.098708391189575195 0.559051513671875 0.70709228515625
-0.082064151763916016 0.5920562744140625 0.687652587890625
-0.066832304000854492 0.61992073059082031 0.66717529296875
-0.057570457458496094 0.52775764465332031 0.71273040771484375
-0.085370540618896484 0.50420093536376953 0.72400665283203125
-0.11365175247192383 0.47763442993164062 0.73553466796875
-0.11665630340576172 0.47709274291992188 0.73907470703125
-0.09112095832824707 0.50535774230957031 0.73138427734375
-0.066529750823974609 0.53321361541748047 0.7200927734375
-0.018580913543701172 0.58676242828369141 0.691162109375
0.015678882598876953 0.6150970458984375 0.67443084716796875
0.050153732299804688 0.63671970367431641 0.65363311767578125
-0.051816463470458984 0.5722503662109375 0.6834869384765625
-0.065190315246582031 0.54618453979492188 0.69586181640625
-0.074329853057861328 0.52786636352539062 0.7060394287109375
-0.099675178527832031 0.49407958984375 0.7277984619140625
-0.12352895736694336 0.46513557434082031 0.7396087646484375
-0.14914608001708984 0.43241119384765625 0.74774169921875
-0.15461587905883789 0.4269256591796875 0.7502288818359375
-0.14093875885009766 0.45853042602539062 0.742706298828125
-0.12779951095581055 0.490081787109375 0.7337646484375
-0.15526533126831055 0.42860031127929688 0.7497406005859375
-0.16578596830368042 0.4127044677734375 0.75531005859375
-0.17250216007232666 0.39867019653320312 0.756134033203125
-0.080941677093505859 0.51531791687011719 0.7153472900390625
-0.077405691146850586 0.52116203308105469 0.7167816162109375
-0.065583467483520508 0.53559494018554688 0.7134857177734375
-0.11730766296386719 0.5159454345703125 0.72369384765625
-0.11304473876953125 0.51272201538085938 0.7232513427734375
-0.10571956634521484 0.51267242431640625 0.717742919921875
-0.089798927307128906 0.537750244140625 0.70166015625
-0.081987380981445312 0.56093597412109375 0.690887451171875
-0.075242042541503906 0.58202362060546875 0.6788177490234375
-0.072211265563964844 0.60963058471679688 0.66558837890625
-0.073056221008300781 0.6207427978515625 0.665008544921875
-0.068993091583251953 0.63060760498046875 0.6589508056640625
-0.064767837524414062 0.51414632797241211 0.7152557373046875
-0.089708805084228516 0.48572397232055664 0.72963714599609375
-0.11056947708129883 0.45786213874816895 0.74015045166015625
-0.13446378707885742 0.42556667327880859 0.7518310546875
-0.14313983917236328 0.41587543487548828 0.75330352783203125
-0.15457391738891602 0.40218544006347656 0.75665283203125
-0.16130185127258301 0.39960098266601562 0.7570953369140625
-0.15751266479492188 0.41328811645507812 0.7521209716796875
-0.1499335765838623 0.42935085296630859 0.7483367919921875
-0.066051483154296875 0.61077880859375 0.6579437255859375
-0.063593864440917969 0.62110519409179688 0.64892578125
-0.062273025512695312 0.62776565551757812 0.6441802978515625
-0.066956520080566406 0.64572906494140625 0.6366729736328125
-0.071676254272460938 0.6585845947265625 0.63116455078125
-0.07171630859375 0.67022323608398438 0.6210784912109375
-0.081562042236328125 0.49354839324951172 0.71244049072265625
-0.10780620574951172 0.46111869812011719 0.72739410400390625
-0.13143062591552734 0.42926883697509766 0.7408447265625
-0.13966655731201172 0.41486620903015137 0.74951934814453125
-0.13217067718505859 0.42606854438781738 0.74861907958984375
-0.12845039367675781 0.43056440353393555 0.7476806640625
-0.06095123291015625 0.6308135986328125 0.638214111328125
-0.059488296508789062 0.62725448608398438 0.638397216796875
-0.056186676025390625 0.6220245361328125 0.6402740478515625
-0.060384750366210938 0.63233566284179688 0.64166259765625
-0.072488784790039062 0.65003585815429688 0.6407928466796875
-0.082513809204101562 0.66760635375976562 0.6385040283203125
-0.21667575836181641 0.32815933227539062 0.73868560791015625
-0.22540569305419922 0.30561256408691406 0.74701690673828125
-0.23349094390869141 0.28472900390625 0.75333404541015625
-0.21378326416015625 0.30894327163696289 0.7551116943359375
-0.18908023834228516 0.34620380401611328 0.75377655029296875
-0.16757583618164062 0.37644290924072266 0.7523956298828125
-0.04212188720703125 0.60322189331054688 0.6445465087890625
-0.03188323974609375 0.58599853515625 0.650604248046875
-0.02034759521484375 0.56438446044921875 0.660888671875
-0.02215576171875 0.55126953125 0.6835784912109375
-0.038166046142578125 0.5666656494140625 0.6991119384765625
-0.05389404296875 0.5841217041015625 0.712158203125
-0.40787315368652344 0.0083513259887695312 0.7313995361328125
-0.39558029174804688 0.015017509460449219 0.7353363037109375
-0.38427352905273438 0.023012161254882812 0.73999786376953125
-0.34515190124511719 0.088487625122070312 0.7496795654296875
-0.31129932403564453 0.15118980407714844 0.75359344482421875
-0.27605628967285156 0.21038055419921875 0.7563018798828125
0.000957489013671875 0.507720947265625 0.6823577880859375
0.011226654052734375 0.47393798828125 0.69403076171875
0.024333953857421875 0.43741607666015625 0.702484130859375
0.02741241455078125 0.4091339111328125 0.71832275390625
0.01461029052734375 0.42853546142578125 0.73095703125
0.001705169677734375 0.4506683349609375 0.7432861328125
-0.4762873649597168 -0.17923164367675781 0.7129364013671875
-0.45826244354248047 -0.16255283355712891 0.7157135009765625
-0.44334554672241211 -0.14880180358886719 0.717864990234375
-0.42345094680786133 -0.10091876983642578 0.72705841064453125
-0.41247415542602539 -0.063401222229003906 0.73271942138671875
-0.39649581909179688 -0.020583152770996094 0.7393646240234375
0.05425262451171875 0.3442840576171875 0.7171783447265625
0.072849273681640625 0.28916168212890625 0.7240753173828125
0.09329986572265625 0.23218536376953125 0.7292633056640625
0.1169586181640625 0.17098236083984375 0.73333740234375
0.11801528930664062 0.16765594482421875 0.7347412109375
0.12017440795898438 0.16216278076171875 0.7304534912109375
-0.48859500885009766 -0.30644702911376953 0.67350006103515625
-0.48275947570800781 -0.28329277038574219 0.67803192138671875
-0.47832298278808594 -0.26205635070800781 0.68146514892578125
-0.46147251129150391 -0.22612953186035156 0.69330596923828125
-0.45023059844970703 -0.20120048522949219 0.7022552490234375
-0.44147491455078125 -0.17066001892089844 0.710357666015625
0.13843536376953125 0.1196746826171875 0.7358856201171875
0.16126251220703125 0.070770263671875 0.7354583740234375
0.1806182861328125 0.0319976806640625 0.7344512939453125
0.20956802368164062 -0.0182037353515625 0.729705810546875
0.22233200073242188 -0.04131317138671875 0.7261962890625
0.23795318603515625 -0.06961822509765625 0.7224578857421875
-0.56808614730834961 -0.31443667411804199 0.6598358154296875
-0.56204986572265625 -0.29213666915893555 0.668609619140625
-0.55562520027160645 -0.27267360687255859 0.67473602294921875
-0.5314335823059082 -0.25994277000427246 0.6776275634765625
-0.51063036918640137 -0.26069355010986328 0.678131103515625
-0.49082183837890625 -0.25616312026977539 0.68042755126953125
0.20509719848632812 -0.014129638671875 0.7310791015625
0.20569229125976562 -0.02272796630859375 0.729461669921875
0.19723129272460938 -0.0190582275390625 0.7283782958984375
0.19763565063476562 -0.03034210205078125 0.7249755859375
0.22158432006835938 -0.059234619140625 0.720916748046875
0.2498321533203125 -0.09307098388671875 0.7142486572265625
-0.58317184448242188 -0.22655868530273438 0.70792388916015625
-0.56977462768554688 -0.21335983276367188 0.7098541259765625
-0.55662751197814941 -0.19863128662109375 0.7125396728515625
-0.56179517507553101 -0.21175050735473633 0.70401763916015625
-0.56652158498764038 -0.23122215270996094 0.69460296630859375
-0.56186866760253906 -0.24521350860595703 0.68712615966796875
0.14443588256835938 0.01892852783203125 0.7307281494140625
0.10245132446289062 0.04630279541015625 0.734161376953125
0.056646347045898438 0.070343017578125 0.7391357421875
0.0178375244140625 0.059604644775390625 0.7437896728515625
0.025239944458007812 0.01802825927734375 0.7447509765625
0.037145614624023438 -0.02869415283203125 0.7422637939453125
-0.41306495666503906 -0.10611152648925781 0.7383575439453125
-0.41907691955566406 -0.082746505737304688 0.7434539794921875
-0.41794872283935547 -0.0622100830078125 0.748565673828125
-0.45019125938415527 -0.081907272338867188 0.7438507080078125
-0.48630523681640625 -0.11901473999023438 0.7352294921875
-0.51889228820800781 -0.15484905242919922 0.725341796875
-0.01975250244140625 0.11449813842773438 0.745635986328125
-0.043964385986328125 0.1370849609375 0.747650146484375
-0.063312530517578125 0.15593338012695312 0.7479248046875
-0.09090423583984375 0.15494918823242188 0.750518798828125
-0.11157798767089844 0.12450790405273438 0.75128173828125
-0.14097023010253906 0.09131622314453125 0.754638671875
-0.12612533569335938 0.016841888427734375 0.749786376953125
-0.075670242309570312 -0.0106658935546875 0.745758056640625
-0.019237518310546875 -0.04022216796875 0.7409820556640625
-0.33595657348632812 -0.088459014892578125 0.7411651611328125
-0.28755378723144531 -0.050350189208984375 0.747406005859375
-0.23983669281005859 -0.009410858154296875 0.7547760009765625
-0.24538707733154297 0.054836273193359375 0.7618408203125
-0.28210639953613281 0.060703277587890625 0.76513671875
-0.30727815628051758 0.065137863159179688 0.7662506103515625
-0.34172153472900391 0.039432525634765625 0.76348876953125
-0.36240720748901367 0.012380599975585938 0.760101318359375
-0.38631248474121094 -0.01654815673828125 0.755523681640625
-0.12015342712402344 0.42333221435546875 0.7372589111328125
-0.11371517181396484 0.45514297485351562 0.730743408203125
-0.10613250732421875 0.482757568359375 0.7222747802734375
-0.164031982421875 0.38622093200683594 0.754608154296875
-0.15128660202026367 0.38907623291015625 0.75225830078125
-0.13675785064697266 0.39182662963867188 0.746826171875
-0.21313071250915527 0.30827140808105469 0.766754150390625
-0.20418906211853027 0.3290252685546875 0.7643890380859375
-0.19331550598144531 0.35202407836914062 0.76214599609375
-0.18144559860229492 0.36501502990722656 0.7626495361328125
-0.19450271129608154 0.34274482727050781 0.7654266357421875
-0.20830810070037842 0.31811332702636719 0.767486572265625
-0.12494468688964844 0.30358123779296875 0.7499847412109375
-0.12775802612304688 0.33404541015625 0.7486724853515625
-0.12770271301269531 0.36377334594726562 0.744964599609375
-0.18723440170288086 0.34053611755371094 0.7621917724609375
-0.19377613067626953 0.30291748046875 0.76385498046875
-0.19691181182861328 0.26607513427734375 0.76495361328125
-0.1761016845703125 0.24394607543945312 0.761871337890625
-0.15456676483154297 0.25702285766601562 0.75689697265625
-0.13493728637695312 0.26988983154296875 0.752685546875
-0.25705432891845703 0.1876068115234375 0.77215576171875
-0.23957967758178711 0.20125389099121094 0.7704010009765625
-0.22000026702880859 0.21617507934570312 0.7681732177734375
-0.2342827320098877 0.26292228698730469 0.771270751953125
-0.24659204483032227 0.23395729064941406 0.77215576171875
-0.25965118408203125 0.20461463928222656 0.7732086181640625
-0.19939899444580078 0.19311904907226562 0.7645721435546875
-0.19769191741943359 0.15124893188476562 0.7627105712890625
-0.19411182403564453 0.106842041015625 0.76129150390625
-0.092693328857421875 0.1995086669921875 0.748565673828125
-0.10326957702636719 0.22509384155273438 0.749420166015625
-0.11323356628417969 0.2501068115234375 0.7504730224609375
-0.2835693359375 0.14701271057128906 0.771453857421875
-0.29612445831298828 0.11932945251464844 0.7688446044921875
-0.30934572219848633 0.0918121337890625 0.7682037353515625
0.7537841796875 -0.43370437622070312 0.587066650390625
0.75855636596679688 -0.43188858032226562 0.5896453857421875
0.76061248779296875 -0.42616653442382812 0.59288787841796875
0.7562255859375 -0.41522979736328125 0.59661865234375
0.74871826171875 -0.41092300415039062 0.5977020263671875
0.7394561767578125 -0.40531539916992188 0.60003662109375
0.72615814208984375 -0.40166854858398438 0.6013946533203125
0.72257614135742188 -0.40596771240234375 0.59905242919921875
0.71810531616210938 -0.41041946411132812 0.597076416015625
0.71060943603515625 -0.39113616943359375 0.6071624755859375
0.69102668762207031 -0.381317138671875 0.61193084716796875
0.66801261901855469 -0.37345123291015625 0.61721038818359375
0.62006950378417969 -0.35990524291992188 0.6243438720703125
0.58858108520507812 -0.35930252075195312 0.6278228759765625
0.54825973510742188 -0.3578033447265625 0.63001251220703125
0.73980712890625 -0.448333740234375 0.59405517578125
0.75162506103515625 -0.444671630859375 0.593292236328125
0.75792694091796875 -0.43619155883789062 0.593994140625
0.760772705078125 -0.42763519287109375 0.595428466796875
0.76178359985351562 -0.42578506469726562 0.59543609619140625
0.76118087768554688 -0.42298507690429688 0.5951995849609375
0.61422538757324219 -0.34949493408203125 0.6275634765625
0.58258056640625 -0.33623504638671875 0.63298797607421875
0.54913520812988281 -0.3214111328125 0.63793182373046875
0.47561454772949219 -0.30194091796875 0.64789581298828125
0.42087936401367188 -0.29787826538085938 0.6534881591796875
0.35090446472167969 -0.29328727722167969 0.65990447998046875
0.74637222290039062 -0.4561614990234375 0.5954742431640625
0.74916458129882812 -0.43988800048828125 0.594696044921875
0.74344635009765625 -0.41797637939453125 0.59722900390625
0.74195098876953125 -0.4083709716796875 0.5987701416015625
0.75089645385742188 -0.41571044921875 0.596923828125
0.75574874877929688 -0.42229080200195312 0.59619140625
0.48014450073242188 -0.2892608642578125 0.64580535888671875
0.44876289367675781 -0.27718734741210938 0.64849853515625
0.42653465270996094 -0.26662063598632812 0.64963531494140625
0.3453826904296875 -0.247833251953125 0.65784454345703125
0.26570320129394531 -0.23603439331054688 0.6668853759765625
0.17646026611328125 -0.22682952880859375 0.6763458251953125
0.54252243041992188 -0.34644317626953125 0.6378631591796875
0.50639724731445312 -0.32398223876953125 0.641937255859375
0.46615982055664062 -0.3026123046875 0.6460418701171875
0.49658584594726562 -0.30578231811523438 0.6361083984375
0.56697463989257812 -0.32819366455078125 0.6245574951171875
0.6267547607421875 -0.34818267822265625 0.6152496337890625
0.69445037841796875 -0.388214111328125 0.6050872802734375
0.7130584716796875 -0.411895751953125 0.6020050048828125
0.72618484497070312 -0.43535614013671875 0.5993194580078125
0.018161773681640625 -0.19271087646484375 0.6813507080078125
0.11777877807617188 -0.20378494262695312 0.67305755615234375
0.20978355407714844 -0.21700286865234375 0.6646881103515625
0.2352294921875 -0.22170639038085938 0.659088134765625
0.1717987060546875 -0.21655654907226562 0.66419219970703125
0.10680389404296875 -0.21057510375976562 0.67034912109375
-0.026506423950195312 -0.2004241943359375 0.6821441650390625
-0.10516166687011719 -0.19824600219726562 0.6864166259765625
-0.18761062622070312 -0.1946563720703125 0.69159698486328125
0.69632720947265625 -0.37833023071289062 0.6044769287109375
0.71187973022460938 -0.38634109497070312 0.602447509765625
0.72041702270507812 -0.39115524291992188 0.6019439697265625
0.39341545104980469 -0.25374984741210938 0.649993896484375
0.36582374572753906 -0.2459259033203125 0.65160369873046875
0.33262252807617188 -0.238372802734375 0.6524200439453125
0.35993194580078125 -0.26481246948242188 0.66094970703125
0.30557632446289062 -0.2490692138671875 0.6702117919921875
0.258880615234375 -0.23376846313476562 0.678680419921875
0.19183540344238281 -0.2135467529296875 0.686920166015625
0.16283416748046875 -0.2110137939453125 0.685882568359375
0.12853431701660156 -0.20603561401367188 0.68768310546875
0.11469459533691406 -0.20811080932617188 0.6837158203125
0.15237998962402344 -0.21652984619140625 0.6773529052734375
0.2005462646484375 -0.22585678100585938 0.6703033447265625
0.30212020874023438 -0.24619293212890625 0.6578826904296875
0.34331703186035156 -0.257568359375 0.65557861328125
0.38331222534179688 -0.26992416381835938 0.651947021484375
0.1078643798828125 -0.21269607543945312 0.6725006103515625
0.16343307495117188 -0.21874237060546875 0.6685943603515625
0.21353530883789062 -0.22855758666992188 0.6652374267578125
0.040330886840820312 -0.19638442993164062 0.6920013427734375
-0.013818740844726562 -0.19196701049804688 0.694793701171875
-0.073251724243164062 -0.18771743774414062 0.6983184814453125
-0.10004997253417969 -0.19157028198242188 0.6962738037109375
-0.05745697021484375 -0.19784164428710938 0.690399169921875
-0.0094127655029296875 -0.20238494873046875 0.6840362548828125
0.57085418701171875 -0.30694961547851562 0.6208648681640625
0.60863113403320312 -0.32476425170898438 0.616302490234375
0.64124679565429688 -0.34387969970703125 0.6115570068359375
0.32901382446289062 -0.24750137329101562 0.6513824462890625
0.40192031860351562 -0.26154708862304688 0.640899658203125
0.46961593627929688 -0.27581405639648438 0.6322021484375
0.36136054992675781 -0.24509811401367188 0.647705078125
0.42441368103027344 -0.25922775268554688 0.639801025390625
0.47939872741699219 -0.27483749389648438 0.63265228271484375
0.56999015808105469 -0.30266571044921875 0.6223907470703125
0.59912109375 -0.31184768676757812 0.61971282958984375
0.61732292175292969 -0.32049560546875 0.61804962158203125
0.66178512573242188 -0.34091949462890625 0.61285400390625
0.685516357421875 -0.35476303100585938 0.6085052490234375
0.70600128173828125 -0.372528076171875 0.6045379638671875
0.48229598999023438 -0.2749481201171875 0.63988494873046875
0.5382080078125 -0.29260635375976562 0.63201904296875
0.58837699890136719 -0.3087005615234375 0.6238250732421875
0.21434402465820312 -0.21024703979492188 0.6932830810546875
0.20516395568847656 -0.20356369018554688 0.697357177734375
0.19274139404296875 -0.19442367553710938 0.7027740478515625
0.16341400146484375 -0.18163681030273438 0.708648681640625
0.15459823608398438 -0.18104171752929688 0.7103271484375
0.14745330810546875 -0.18088912963867188 0.7125244140625
0.15368843078613281 -0.18951797485351562 0.712127685546875
0.15935134887695312 -0.19440460205078125 0.7086181640625
0.15816307067871094 -0.19815444946289062 0.7050323486328125
0.15995025634765625 -0.20063400268554688 0.700347900390625
0.17134284973144531 -0.20308685302734375 0.6974029541015625
0.1868438720703125 -0.20793533325195312 0.694061279296875
-0.14830780029296875 -0.1817779541015625 0.7043609619140625
-0.15623855590820312 -0.180511474609375 0.70562744140625
-0.16403961181640625 -0.17942047119140625 0.7046966552734375
-0.21629142761230469 -0.17753219604492188 0.707550048828125
-0.25310516357421875 -0.1761322021484375 0.708465576171875
-0.28276443481445312 -0.17504119873046875 0.70941162109375
-0.29566001892089844 -0.17241287231445312 0.712677001953125
-0.28901100158691406 -0.17124176025390625 0.7126922607421875
-0.28486442565917969 -0.17195892333984375 0.715057373046875
-0.26552200317382812 -0.17511749267578125 0.7133026123046875
-0.23758697509765625 -0.17824935913085938 0.7108306884765625
-0.20094490051269531 -0.18193817138671875 0.708343505859375
0.14864730834960938 -0.1687469482421875 0.71112060546875
0.11830711364746094 -0.15348434448242188 0.716094970703125
0.083814620971679688 -0.13540267944335938 0.719482421875
0.048490524291992188 -0.1223907470703125 0.7226104736328125
0.04656219482421875 -0.1244354248046875 0.72393798828125
0.043336868286132812 -0.12390518188476562 0.7263031005859375
0.066564559936523438 -0.13729095458984375 0.7251739501953125
0.094482421875 -0.15313339233398438 0.7228546142578125
0.11909103393554688 -0.16666412353515625 0.7194976806640625
-0.31427478790283203 -0.16685104370117188 0.7125701904296875
-0.31790447235107422 -0.1599578857421875 0.7164764404296875
-0.31152725219726562 -0.14981460571289062 0.7202606201171875
-0.28987884521484375 -0.13963699340820312 0.7241668701171875
-0.28023529052734375 -0.138916015625 0.726409912109375
-0.27372169494628906 -0.13613128662109375 0.7270050048828125
-0.29076576232910156 -0.14681243896484375 0.7250823974609375
-0.29770755767822266 -0.15781784057617188 0.7211151123046875
-0.29486751556396484 -0.1665802001953125 0.7186431884765625
0.0079555511474609375 -0.10631561279296875 0.7265472412109375
-0.031768798828125 -0.0985565185546875 0.7289886474609375
-0.07108306884765625 -0.09899139404296875 0.73016357421875
-0.081478118896484375 -0.10795974731445312 0.7281646728515625
-0.0684967041015625 -0.11174774169921875 0.7279510498046875
-0.063838958740234375 -0.1112060546875 0.728118896484375
-0.042720794677734375 -0.10970306396484375 0.7292938232421875
-0.017547607421875 -0.11071014404296875 0.7286224365234375
0.008991241455078125 -0.11517333984375 0.72869873046875
-0.27795314788818359 -0.13227462768554688 0.7264404296875
-0.25250530242919922 -0.12516021728515625 0.7271728515625
-0.22630882263183594 -0.12172698974609375 0.727447509765625
-0.18312263488769531 -0.1192779541015625 0.7290802001953125
-0.16473960876464844 -0.11657333374023438 0.7285614013671875
-0.14292526245117188 -0.1134033203125 0.729034423828125
-0.16895866394042969 -0.10676193237304688 0.7325592041015625
-0.21135711669921875 -0.11270523071289062 0.7325592041015625
-0.24645233154296875 -0.12282180786132812 0.731414794921875
-0.10341072082519531 -0.11682891845703125 0.725921630859375
-0.09848785400390625 -0.12330245971679688 0.725433349609375
-0.097278594970703125 -0.12726211547851562 0.7237548828125
-0.096004486083984375 -0.1300201416015625 0.724212646484375
-0.096876144409179688 -0.13147735595703125 0.722686767578125
-0.10117149353027344 -0.13273239135742188 0.72259521484375
-0.095994949340820312 -0.12982177734375 0.7237396240234375
-0.0865325927734375 -0.125213623046875 0.7247161865234375
-0.076353073120117188 -0.11949920654296875 0.7270965576171875
-0.17238426208496094 -0.1247100830078125 0.7267608642578125
-0.14825248718261719 -0.1276702880859375 0.7249908447265625
-0.12635421752929688 -0.13190460205078125 0.7231597900390625
0.04712677001953125 -0.19322967529296875 0.695159912109375
0.056432723999023438 -0.19379806518554688 0.6942291259765625
0.069065093994140625 -0.19788360595703125 0.6923065185546875
0.13513374328613281 -0.19844436645507812 0.6999359130859375
