# XYZ point cloud file
0.11764740943908691 -0.18013793230056763 0.58910536766052246
0.13264274597167969 -0.18628108501434326 0.58724260330200195
0.14078855514526367 -0.18439686298370361 0.5892643928527832
0.13535904884338379 -0.18018311262130737 0.59070205688476562
0.11612069606781006 -0.17691409587860107 0.59055042266845703
0.11860883235931396 -0.18361532688140869 0.58730244636535645
0.14566445350646973 -0.18885254859924316 0.5874183177947998
0.079981207847595215 -0.17298269271850586 0.58990836143493652
0.092467069625854492 -0.1754075288772583 0.58955550193786621
0.085140109062194824 -0.17073014378547668 0.59122443199157715
0.068085193634033203 -0.17052048444747925 0.59034061431884766
0.074180483818054199 -0.17561593651771545 0.58815383911132812
0.088925600051879883 -0.17824557423591614 0.58780932426452637
0.095424413681030273 -0.17291709780693054 0.59087967872619629
0.075239300727844238 -0.1683574765920639 0.59162235260009766
0.060207128524780273 -0.17309939861297607 0.58862948417663574
0.16595959663391113 -0.18798589706420898 0.59064555168151855
0.15677499771118164 -0.18204712867736816 0.59195876121520996
0.15921211242675781 -0.18736839294433594 0.59011435508728027
0.17499160766601562 -0.19443237781524658 0.58900833129882812
0.17076945304870605 -0.18764352798461914 0.5912623405456543
0.16068720817565918 -0.1811378002166748 0.59244155883789062
0.15102934837341309 -0.18204760551452637 0.59146332740783691
0.16706514358520508 -0.19313275814056396 0.58836483955383301
0.18089127540588379 -0.19472956657409668 0.58975863456726074
0.038959145545959473 -0.16269615292549133 0.59168124198913574
0.047457098960876465 -0.16547410190105438 0.5912935733795166
0.049517393112182617 -0.16005831956863403 0.59287238121032715
0.031499862670898438 -0.15938481688499451 0.59198212623596191
0.027098655700683594 -0.16592532396316528 0.58995962142944336
0.036546826362609863 -0.16841888427734375 0.58954882621765137
0.057307720184326172 -0.16313329339027405 0.59250402450561523
0.042509913444519043 -0.15646436810493469 0.59311890602111816
0.018944144248962402 -0.16297990083694458 0.59026384353637695
0.17232155799865723 -0.17951595783233643 0.59298253059387207
0.15904569625854492 -0.17135095596313477 0.59364128112792969
0.1738433837890625 -0.18332898616790771 0.59247136116027832
0.18606662750244141 -0.18856489658355713 0.59219980239868164
0.16930055618286133 -0.17505538463592529 0.59351420402526855
0.15433359146118164 -0.16615843772888184 0.59390997886657715
0.16185259819030762 -0.17573761940002441 0.59330558776855469
0.18633198738098145 -0.19176077842712402 0.59140706062316895
0.18421649932861328 -0.18462121486663818 0.59296560287475586
0.014449954032897949 -0.145111083984375 0.59183883666992188
0.019261479377746582 -0.15053558349609375 0.59205865859985352
0.02670586109161377 -0.141776442527771 0.59278225898742676
0.010546565055847168 -0.13961011171340942 0.59157204627990723
0.00054532289505004883 -0.14948791265487671 0.59041643142700195
0.0057891011238098145 -0.15474027395248413 0.590484619140625
0.030938267707824707 -0.14719423651695251 0.593048095703125
0.023887991905212402 -0.13628113269805908 0.59248590469360352
-0.0038880705833435059 -0.14392101764678955 0.59022951126098633
0.11487126350402832 -0.12492179870605469 0.59330844879150391
0.10073471069335938 -0.11141681671142578 0.5928804874420166
0.10313272476196289 -0.11945676803588867 0.59295654296875
0.12889695167541504 -0.13733875751495361 0.59369325637817383
0.12615966796875 -0.13083767890930176 0.59357762336730957
0.11157703399658203 -0.11694300174713135 0.59304475784301758
0.089584112167358398 -0.10643696784973145 0.59258055686950684
0.11652541160583496 -0.13143503665924072 0.59334325790405273
0.14071297645568848 -0.14369428157806396 0.59398937225341797
-0.014407515525817871 -0.093679904937744141 0.58694267272949219
-0.0015234947204589844 -0.093904018402099609 0.58818960189819336
-0.019102334976196289 -0.083124399185180664 0.58649086952209473
-0.027941524982452393 -0.094278931617736816 0.58510947227478027
-0.0097516775131225586 -0.10368227958679199 0.58766722679138184
0.0036647319793701172 -0.10375696420669556 0.58888030052185059
-0.0068736076354980469 -0.083368062973022461 0.58776092529296875
-0.031973361968994141 -0.083739638328552246 0.58463239669799805
-0.023798286914825439 -0.10444521903991699 0.58593225479125977
0.15723609924316406 -0.16161966323852539 0.59435439109802246
0.16190385818481445 -0.16624224185943604 0.5942227840423584
0.17161464691162109 -0.17011761665344238 0.59442567825317383
0.15062761306762695 -0.15572726726531982 0.59433317184448242
0.14237761497497559 -0.15371906757354736 0.59420609474182129
0.1460731029510498 -0.1574857234954834 0.59419441223144531
0.17713427543640137 -0.17553436756134033 0.59409832954406738
0.16401028633117676 -0.16339075565338135 0.5944674015045166
0.13667941093444824 -0.14861667156219482 0.59404850006103516
0.0012747049331665039 -0.12489080429077148 0.59030318260192871
-0.013578534126281738 -0.12744379043579102 0.58878207206726074
0.0042158365249633789 -0.12964373826980591 0.59082818031311035
0.01562654972076416 -0.12345612049102783 0.59121942520141602
-0.0018475055694580078 -0.11934483051300049 0.5894768238067627
-0.016529440879821777 -0.12116456031799316 0.58790850639343262
-0.010728418827056885 -0.13297998905181885 0.58942317962646484
0.018753290176391602 -0.12740355730056763 0.59174370765686035
0.012297391891479492 -0.11859554052352905 0.59051299095153809
0.034855127334594727 -0.064389422535896301 0.59027457237243652
0.03009796142578125 -0.056530535221099854 0.58986949920654297
0.027709603309631348 -0.063277393579483032 0.5899505615234375
0.041220188140869141 -0.073581025004386902 0.59072303771972656
0.042162418365478516 -0.06560014933347702 0.59050321578979492
0.036870002746582031 -0.056743655353784561 0.5900111198425293
0.023245930671691895 -0.055991828441619873 0.58963871002197266
0.033675909042358398 -0.071967869997024536 0.59037399291992188
0.049082517623901367 -0.075477957725524902 0.59105110168457031
0.004962921142578125 -0.058332920074462891 0.58888864517211914
0.012917160987854004 -0.060299456119537354 0.58929276466369629
0.00036263465881347656 -0.050889372825622559 0.58855628967285156
-0.0034482479095458984 -0.056397795677185059 0.58835887908935547
0.010552644729614258 -0.066917717456817627 0.58923125267028809
0.018537759780883789 -0.068701744079589844 0.58962535858154297
0.0084898471832275391 -0.053188681602478027 0.58894777297973633
-0.0083595514297485352 -0.048332095146179199 0.58802032470703125
0.002068638801574707 -0.065246701240539551 0.58874630928039551
0.070353269577026367 -0.10733428597450256 0.59157681465148926
0.080667734146118164 -0.11069327592849731 0.59201455116271973
0.059319972991943359 -0.095662832260131836 0.59131574630737305
0.060450553894042969 -0.10450807213783264 0.59111261367797852
0.081336498260498047 -0.1181754469871521 0.59193730354309082
0.092525720596313477 -0.12182414531707764 0.59238266944885254
0.068705558776855469 -0.098552167415618896 0.59176301956176758
0.050373554229736328 -0.093185216188430786 0.59092330932617188
0.070516109466552734 -0.1150987446308136 0.59142708778381348
0.031615257263183594 -0.097811460494995117 0.59010505676269531
0.024137258529663086 -0.087167412042617798 0.58979487419128418
0.021449089050292969 -0.096104979515075684 0.58970236778259277
0.03894805908203125 -0.10772186517715454 0.59052085876464844
0.041289329528808594 -0.099818192422389984 0.59035253524780273
0.033012151718139648 -0.089008256793022156 0.59013748168945312
0.014722943305969238 -0.085541248321533203 0.58934473991394043
0.027976870536804199 -0.1059185266494751 0.59022212028503418
0.04951179027557373 -0.1098838746547699 0.5907433032989502
0.10305142402648926 -0.13836222887039185 0.59331679344177246
0.10604619979858398 -0.14147520065307617 0.59361529350280762
0.11510586738586426 -0.14210045337677002 0.59367847442626953
0.098193645477294922 -0.13380724191665649 0.59285831451416016
0.091396808624267578 -0.1354374885559082 0.59296250343322754
0.094692468643188477 -0.13874930143356323 0.59335446357727051
0.11793327331542969 -0.14503002166748047 0.59391665458679199
0.1102745532989502 -0.13762754201889038 0.59331536293029785
0.086460113525390625 -0.13066822290420532 0.59249258041381836
0.055281519889831543 -0.12694108486175537 0.59232950210571289
0.042575836181640625 -0.12466245889663696 0.5921471118927002
0.058609127998352051 -0.13021731376647949 0.59275722503662109
0.067681193351745605 -0.12976422905921936 0.59247589111328125
0.051026701927185059 -0.1224118173122406 0.59177112579345703
0.038671970367431641 -0.12028387188911438 0.59155654907226562
0.045875072479248047 -0.12785118818283081 0.59258556365966797
0.071113348007202148 -0.13320475816726685 0.59294033050537109
0.063033461570739746 -0.12502846121788025 0.591949462890625
0.038434505462646484 -0.032874569296836853 0.59036970138549805
0.038596391677856445 -0.02863997220993042 0.58996725082397461
0.03821873664855957 -0.031423941254615784 0.59137344360351562
0.036897182464599609 -0.036437243223190308 0.59054231643676758
0.039202690124511719 -0.034649461507797241 0.58945488929748535
0.039047479629516602 -0.029935643076896667 0.58895206451416016
0.038513422012329102 -0.027503401041030884 0.59106588363647461
0.036500453948974609 -0.034577310085296631 0.59147310256958008
0.038079738616943359 -0.038898393511772156 0.58970832824707031
-0.032326579093933105 -0.021994829177856445 0.58799099922180176
-0.031951904296875 -0.020236015319824219 0.5888526439666748
-0.036218047142028809 -0.017793893814086914 0.58769559860229492
-0.033102989196777344 -0.023945093154907227 0.58712315559387207
-0.027295470237731934 -0.026141643524169922 0.58824419975280762
-0.027052521705627441 -0.024083256721496582 0.58906865119934082
-0.035786747932434082 -0.016209602355957031 0.58860206604003906
-0.036981940269470215 -0.019408702850341797 0.5868070125579834
-0.027878165245056152 -0.028574466705322266 0.58743953704833984
0.030280351638793945 -0.010842952877283096 0.58663225173950195
0.025317907333374023 -0.004431992769241333 0.58516645431518555
0.030371904373168945 -0.01013609766960144 0.58776760101318359
0.034352779388427734 -0.017410352826118469 0.58808565139770508
0.030284404754638672 -0.011411722749471664 0.58573818206787109
0.025138378143310547 -0.0047642439603805542 0.58433961868286133
0.025509119033813477 -0.003804326057434082 0.5861809253692627
0.034407377243041992 -0.016638904809951782 0.58922052383422852
0.034487009048461914 -0.018202684819698334 0.58709001541137695
-0.041509032249450684 -0.0035991668701171875 0.58592319488525391
-0.041280210018157959 -0.0024099349975585938 0.58676886558532715
-0.040809035301208496 0.0010330677032470703 0.58510231971740723
-0.04183650016784668 -0.0046153068542480469 0.58520007133483887
-0.040864825248718262 -0.0085065364837646484 0.58667230606079102
-0.040521025657653809 -0.0071787834167480469 0.58757400512695312
-0.040769577026367188 0.0021166801452636719 0.58592700958251953
-0.040948331356048584 0.00029873847961425781 0.58440876007080078
-0.041376113891601562 -0.0097076892852783203 0.5858454704284668
0.0076259374618530273 0.007420957088470459 0.58269667625427246
0.0020705461502075195 0.0079256296157836914 0.58281612396240234
0.0089434385299682617 0.0077366828918457031 0.58370542526245117
0.013658761978149414 0.0051133632659912109 0.58302879333496094
0.0059313774108886719 0.0080320239067077637 0.58169746398925781
-0.00065684318542480469 0.0085507631301879883 0.58176469802856445
0.0039480924606323242 0.0082784891128540039 0.58379912376403809
0.014465808868408203 0.0055355429649353027 0.58401894569396973
0.012695550918579102 0.0054935812950134277 0.58213233947753906
-0.03002619743347168 0.0091757774353027344 0.58333206176757812
-0.031103849411010742 0.0098905563354492188 0.58422088623046875
-0.024623632431030273 0.0091494321823120117 0.58326244354248047
-0.029061198234558105 0.0093848705291748047 0.58245992660522461
-0.034878730773925781 0.0077309608459472656 0.58371448516845703
-0.035473227500915527 0.0085773468017578125 0.5845334529876709
-0.026256442070007324 0.0099000930786132812 0.58423733711242676
-0.022617816925048828 0.0093455314636230469 0.58223843574523926
-0.034450292587280273 0.0076720714569091797 0.58296298980712891
-0.0055588483810424805 0.0014197826385498047 0.58512616157531738
-0.0064060688018798828 -0.00063848495483398438 0.58580136299133301
-0.0042240619659423828 0.0021597146987915039 0.58607196807861328
-0.0044884681701660156 0.0042957067489624023 0.58426713943481445
-0.0071929693222045898 0.0010880231857299805 0.58444476127624512
-0.0074295997619628906 -0.00034534931182861328 0.58515787124633789
-0.0056004524230957031 -6.3538551330566406e-05 0.58668851852416992
-0.0025837421417236328 0.0049364566802978516 0.58517599105834961
-0.0071618556976318359 0.0040884017944335938 0.58339691162109375
-0.011938571929931641 0.0019154548645019531 0.58513545989990234
-0.013077497482299805 0.002867579460144043 0.58605241775512695
-0.0093243122100830078 -0.00037610530853271484 0.58577775955200195
-0.010517597198486328 0.0012898445129394531 0.58444762229919434
-0.01525270938873291 0.0049443244934082031 0.58430957794189453
-0.016970276832580566 0.005877375602722168 0.58526754379272461
-0.0097924470901489258 0.00029397010803222656 0.5866546630859375
-0.0089235305786132812 -0.00025236606597900391 0.58515262603759766
-0.012909173965454102 0.0044093132019042969 0.58343505859375
0.024263858795166016 -0.04271891713142395 0.59049463272094727
0.02508997917175293 -0.045782774686813354 0.58993291854858398
0.029705047607421875 -0.041461631655693054 0.59060096740722656
0.023938894271850586 -0.040498286485671997 0.59125232696533203
0.01786494255065918 -0.043061494827270508 0.59032034873962402
0.018599867820739746 -0.046015948057174683 0.58979272842407227
0.030879735946655273 -0.04460500180721283 0.59001874923706055
0.029249429702758789 -0.039184257388114929 0.59136009216308594
0.017593860626220703 -0.040900766849517822 0.59103894233703613
-0.0056319236755371094 -0.037479043006896973 0.5892791748046875
-0.013727068901062012 -0.033997416496276855 0.58889317512512207
-0.0048166513442993164 -0.040557026863098145 0.58875775337219238
0.0026210546493530273 -0.040404558181762695 0.58966612815856934
-0.0059679746627807617 -0.035179734230041504 0.58997392654418945
-0.013898015022277832 -0.03166651725769043 0.58961987495422363
-0.013338446617126465 -0.037091732025146484 0.58825898170471191
0.0035314559936523438 -0.043343663215637207 0.58913969993591309
0.0022885799407958984 -0.038161039352416992 0.59036970138549805
0.021782755851745605 -0.034085720777511597 0.5931248664855957
0.022867798805236816 -0.036476701498031616 0.59260225296020508
0.026742935180664062 -0.033002100884914398 0.59322738647460938
0.020510435104370117 -0.031400144100189209 0.59349441528320312
0.015844941139221191 -0.034402281045913696 0.59290146827697754
0.016737580299377441 -0.036870241165161133 0.59239768981933594
0.028008937835693359 -0.035229608416557312 0.59271812438964844
0.02525019645690918 -0.030762568116188049 0.5936436653137207
0.014702677726745605 -0.031546056270599365 0.59330606460571289
-0.0062441825866699219 -0.028916358947753906 0.59180140495300293
-0.01350247859954834 -0.025663137435913086 0.59147405624389648
-0.0060784816741943359 -0.031139731407165527 0.59131026268005371
0.0014510154724121094 -0.031691312789916992 0.59222316741943359
-0.0066523551940917969 -0.02640378475189209 0.59224581718444824
-0.01321709156036377 -0.023751735687255859 0.59188604354858398
-0.013766288757324219 -0.027686953544616699 0.59097194671630859
0.0019205808639526367 -0.034095346927642822 0.59171009063720703
0.00063908100128173828 -0.028913557529449463 0.59265732765197754
-0.00069952011108398438 0.0019776225090026855 0.58935403823852539
-0.0029847621917724609 -0.00010138750076293945 0.58998990058898926
0.001173853874206543 0.00076222419738769531 0.59039640426635742
0.0014384984970092773 0.00447845458984375 0.58851718902587891
-0.0020107030868530273 0.0026433467864990234 0.58824682235717773
-0.0040816068649291992 0.00058448314666748047 0.5888674259185791
-0.0013049840927124023 -0.001602470874786377 0.59114480018615723
0.0031116008758544922 0.0031635165214538574 0.58949756622314453
8.5473060607910156e-05 0.0052406787872314453 0.58736944198608398
-0.014321208000183105 0.0034096240997314453 0.58910751342773438
-0.014747738838195801 0.002583622932434082 0.59003758430480957
-0.0098346471786499023 0.00068247318267822266 0.58986210823059082
-0.014148712158203125 0.0038037300109863281 0.58807373046875
-0.01881718635559082 0.006373286247253418 0.58831405639648438
-0.019135355949401855 0.0055449008941650391 0.5892183780670166
-0.0096349716186523438 -0.00060880184173583984 0.59090042114257812
-0.010054945945739746 0.001208186149597168 0.58878612518310547
-0.018591165542602539 0.0068490505218505859 0.58727931976318359
0.011358737945556641 0.0066893696784973145 0.58726739883422852
0.0073366165161132812 0.0072902441024780273 0.58730697631835938
0.011936306953430176 0.0049016177654266357 0.58856821060180664
0.01574397087097168 0.0046958029270172119 0.5876164436340332
0.010718107223510742 0.0077956318855285645 0.58596181869506836
0.0063723325729370117 0.0083568692207336426 0.58607816696166992
0.0082917213439941406 0.0055509805679321289 0.58852577209472656
0.015865325927734375 0.0031147599220275879 0.58884763717651367
0.0155029296875 0.0056857466697692871 0.58636784553527832
-0.03139805793762207 0.010211706161499023 0.58715152740478516
-0.030295848846435547 0.0089088678359985352 0.58817100524902344
-0.027508020401000977 0.010120630264282227 0.5872035026550293
-0.031939029693603516 0.010871648788452148 0.58616280555725098
-0.034654140472412109 0.009159088134765625 0.58740353584289551
-0.033221840858459473 0.0080099105834960938 0.58838605880737305
-0.026841163635253906 0.0088268518447875977 0.58825016021728516
-0.02770531177520752 0.010781526565551758 0.58617973327636719
-0.035559415817260742 0.0096521377563476562 0.58638906478881836
0.02889704704284668 -0.0090814605355262756 0.5911097526550293
0.024730682373046875 -0.0035195238888263702 0.589691162109375
0.027033090591430664 -0.0087538212537765503 0.5919342041015625
0.032429218292236328 -0.014740586280822754 0.59244728088378906
0.029904603958129883 -0.0092794448137283325 0.59007668495178223
0.025368213653564453 -0.0032533854246139526 0.58858489990234375
0.023573875427246094 -0.0039254873991012573 0.59065651893615723
0.030095100402832031 -0.013880029320716858 0.59311866760253906
0.033734321594238281 -0.015350982546806335 0.59148788452148438
-0.038073718547821045 -0.00031924247741699219 0.58943462371826172
-0.035636067390441895 -0.00020813941955566406 0.59017157554626465
-0.03808748722076416 0.0036191940307617188 0.58862137794494629
-0.039767026901245117 -0.00068688392639160156 0.58854269981384277
-0.037030696868896484 -0.0045480728149414062 0.5901801586151123
-0.034431099891662598 -0.0041167736053466797 0.59088778495788574
-0.036012530326843262 0.0032975673675537109 0.58937764167785645
-0.039590239524841309 0.0035803318023681641 0.58775639533996582
-0.038842439651489258 -0.0051643848419189453 0.58934545516967773
0.035354375839233398 -0.026946932077407837 0.59380722045898438
0.03582310676574707 -0.02386242151260376 0.59373903274536133
0.032711029052734375 -0.025344774127006531 0.59421682357788086
0.033591747283935547 -0.029413104057312012 0.59361982345581055
0.037039279937744141 -0.028545886278152466 0.59312748908996582
0.037490367889404297 -0.025178760290145874 0.59301280975341797
0.033093690872192383 -0.022356957197189331 0.59425997734069824
0.031321287155151367 -0.027701713144779205 0.59404277801513672
0.035190820693969727 -0.031213179230690002 0.59303045272827148
-0.029296755790710449 -0.015787839889526367 0.5910789966583252
-0.026934146881103516 -0.014878749847412109 0.59167814254760742
-0.032608985900878906 -0.012368679046630859 0.59095335006713867
-0.030757784843444824 -0.017056107521057129 0.59041571617126465
-0.025117039680480957 -0.019046783447265625 0.59111714363098145
-0.023291110992431641 -0.01799309253692627 0.59164214134216309
-0.029980778694152832 -0.01160740852355957 0.59163117408752441
-0.03430938720703125 -0.01344752311706543 0.59024882316589355
-0.02624213695526123 -0.020565271377563477 0.59051990509033203
0.014227509498596191 -0.0045253336429595947 0.59230399131774902
0.014949202537536621 -0.0085513889789581299 0.59326314926147461
0.019511222839355469 -0.0064545720815658569 0.5925137996673584
0.013384461402893066 -0.00083208084106445312 0.59116125106811523
0.0088046789169311523 -0.0026112794876098633 0.59190082550048828
0.0079629421234130859 -0.0060527324676513672 0.59279441833496094
0.021259069442749023 -0.010756880044937134 0.59353876113891602
0.017728567123413086 -0.0024853944778442383 0.59130239486694336
0.0091474056243896484 0.000518798828125 0.59085798263549805
-0.023980617523193359 0.00071382522583007812 0.59119224548339844
-0.028410792350769043 0.00025880336761474609 0.59108924865722656
-0.020878314971923828 -0.0031508207321166992 0.59205794334411621
-0.019624710083007812 0.0011444091796875 0.59116458892822266
-0.02657926082611084 0.0040614604949951172 0.59026384353637695
-0.030101776123046875 0.0035088062286376953 0.59023427963256836
-0.02622532844543457 -0.0034948587417602539 0.59186697006225586
-0.015209078788757324 -0.0026854276657104492 0.59205889701843262
-0.023041009902954102 0.0043616294860839844 0.59022212028503418
0.017582893371582031 -0.021191805601119995 0.59425878524780273
0.01044464111328125 -0.01986396312713623 0.59397578239440918
0.018393516540527344 -0.025013774633407593 0.59413528442382812
0.023808479309082031 -0.022454723715782166 0.59443473815917969
0.016611695289611816 -0.017053306102752686 0.59422540664672852
0.0086886882781982422 -0.014880537986755371 0.59384918212890625
0.011989116668701172 -0.024297595024108887 0.59388875961303711
0.023820161819458008 -0.025561943650245667 0.59426450729370117
0.023478031158447266 -0.018990188837051392 0.59445714950561523
-0.011892318725585938 -0.015964865684509277 0.59301042556762695
-0.009467005729675293 -0.019923925399780273 0.59287238121032715
-0.0047254562377929688 -0.017164230346679688 0.59333300590515137
-0.014615535736083984 -0.011680841445922852 0.5929560661315918
-0.018225908279418945 -0.014993190765380859 0.5925908088684082
-0.015550732612609863 -0.018471956253051758 0.59248733520507812
-0.0024294853210449219 -0.021666646003723145 0.59319543838500977
-0.0073982477188110352 -0.012163162231445312 0.59320521354675293
-0.020978450775146484 -0.011316418647766113 0.59259295463562012
0.00083470344543457031 0.025516152381896973 0.57720661163330078
0.0021888017654418945 0.016763687133789062 0.57918190956115723
0.010237216949462891 0.018179178237915039 0.57936191558837891
0.00037896633148193359 0.036620855331420898 0.57419252395629883
-0.0085694789886474609 0.030446767807006836 0.57556700706481934
-0.006308436393737793 0.019185543060302734 0.57856559753417969
0.010555744171142578 0.01183319091796875 0.58047676086425781
0.011362075805664062 0.026136040687561035 0.57765102386474609
-0.010422706604003906 0.045116186141967773 0.5710906982421875
-0.032719135284423828 0.025016546249389648 0.57900857925415039
-0.038676679134368896 0.018842220306396484 0.5812070369720459
-0.030078411102294922 0.017099380493164062 0.5804593563079834
-0.025614380836486816 0.029796838760375977 0.57672643661499023
-0.036733031272888184 0.034811973571777344 0.57686758041381836
-0.043384552001953125 0.02573704719543457 0.58017230033874512
-0.035918712615966797 0.013119220733642578 0.58182597160339355
-0.022842168807983398 0.019166469573974609 0.5793459415435791
-0.029120087623596191 0.043489217758178711 0.5728759765625
0.033348798751831055 -0.010899700224399567 0.58426046371459961
0.031580686569213867 -0.011243879795074463 0.58473300933837891
0.038986921310424805 -0.020417362451553345 0.58515429496765137
0.036158561706542969 -0.011094763875007629 0.58342885971069336
0.02675628662109375 -0.00078161060810089111 0.5832061767578125
0.025491237640380859 -0.0028715282678604126 0.58349895477294922
0.036623477935791016 -0.019563518464565277 0.5857386589050293
0.042218446731567383 -0.021919101476669312 0.58407974243164062
0.02951359748840332 0.0013072863221168518 0.58243036270141602
-0.04675757884979248 -0.0042486190795898438 0.58400678634643555
-0.046974480152130127 -0.011909246444702148 0.58400988578796387
-0.044223785400390625 -0.0047228336334228516 0.58434343338012695
-0.045619308948516846 0.0038163661956787109 0.58368563652038574
-0.050405800342559814 -0.0045268535614013672 0.58318972587585449
-0.050687491893768311 -0.013448476791381836 0.58295559883117676
-0.044237375259399414 -0.01121973991394043 0.58465242385864258
-0.042951762676239014 0.001827239990234375 0.58385300636291504
-0.049990296363830566 0.0057480335235595703 0.58316230773925781
0.049823522567749023 -0.042511016130447388 0.58711719512939453
0.044876337051391602 -0.039416581392288208 0.58790850639343262
0.052553892135620117 -0.048944532871246338 0.58791685104370117
0.055422544479370117 -0.045991241931915283 0.58608675003051758
0.047039031982421875 -0.036053389310836792 0.5864720344543457
0.043163537979125977 -0.033565104007720947 0.58727121353149414
0.046028614044189453 -0.045247793197631836 0.58847904205322266
0.059253454208374023 -0.052872061729431152 0.58698034286499023
0.051691532135009766 -0.039008885622024536 0.58528375625610352
-0.0430869460105896 -0.029885292053222656 0.58421063423156738
-0.040498018264770508 -0.035132169723510742 0.58454585075378418
-0.038354098796844482 -0.027761459350585938 0.58535552024841309
-0.045099437236785889 -0.024638891220092773 0.58401608467102051
-0.04891282320022583 -0.032588481903076172 0.58263635635375977
-0.047374844551086426 -0.03771662712097168 0.58290839195251465
-0.034389257431030273 -0.033046483993530273 0.58566188812255859
-0.041244626045227051 -0.022679328918457031 0.58507013320922852
-0.050039470195770264 -0.027175664901733398 0.5825493335723877
0.068239927291870117 -0.074529886245727539 0.59071159362792969
0.058920383453369141 -0.070531070232391357 0.59075093269348145
0.077003717422485352 -0.085580885410308838 0.59153389930725098
0.077455043792724609 -0.079030334949493408 0.59031057357788086
0.061270475387573242 -0.064668476581573486 0.58970308303833008
0.052457809448242188 -0.060626983642578125 0.58998012542724609
0.067084312438964844 -0.081385195255279541 0.59152317047119141
0.086827278137207031 -0.090389490127563477 0.59137821197509766
0.06985020637512207 -0.06907123327255249 0.58914041519165039
-0.031183600425720215 -0.055011272430419922 0.5856318473815918
-0.027540445327758789 -0.063415765762329102 0.58593225479125977
-0.021512150764465332 -0.054557681083679199 0.58687591552734375
-0.034485399723052979 -0.047513723373413086 0.58530902862548828
-0.041318714618682861 -0.056465625762939453 0.58392429351806641
-0.038694262504577637 -0.064507246017456055 0.58412313461303711
-0.016944408416748047 -0.063326120376586914 0.58722662925720215
-0.025784730911254883 -0.046357512474060059 0.58650088310241699
-0.043562829494476318 -0.049419403076171875 0.58358907699584961
0.098865985870361328 -0.093123078346252441 0.5854945182800293
0.1015167236328125 -0.096222519874572754 0.58247613906860352
0.08994746208190918 -0.082441210746765137 0.5835270881652832
0.093433380126953125 -0.08882296085357666 0.58779811859130859
0.10931825637817383 -0.10525310039520264 0.58745241165161133
0.1117253303527832 -0.10837936401367188 0.58468866348266602
0.092746973037719727 -0.085511684417724609 0.58028507232666016
0.08472442626953125 -0.078324198722839355 0.58612394332885742
0.10373687744140625 -0.10070061683654785 0.58943605422973633
-0.074388265609741211 -0.068603515625 0.57322263717651367
-0.074028491973876953 -0.062418222427368164 0.57303237915039062
-0.084898561239242554 -0.074929237365722656 0.56753730773925781
-0.074375271797180176 -0.075601816177368164 0.57344770431518555
-0.063177883625030518 -0.063184976577758789 0.57787895202636719
-0.063550770282745361 -0.056769132614135742 0.57763409614562988
-0.084000185132026672 -0.068941593170166016 0.56732487678527832
-0.085460513830184937 -0.081730842590332031 0.56773114204406738
-0.062447667121887207 -0.070529937744140625 0.5780491828918457
0.071314811706542969 -0.057526350021362305 0.57874202728271484
0.074385166168212891 -0.060580551624298096 0.57505273818969727
0.066496133804321289 -0.050143420696258545 0.57753849029541016
0.066709518432617188 -0.053804993629455566 0.58188629150390625
0.076483011245727539 -0.064981281757354736 0.58020877838134766
0.07944035530090332 -0.067982792854309082 0.57658243179321289
0.06978154182434082 -0.053363919258117676 0.57374477386474609
0.061934709548950195 -0.046352505683898926 0.58084726333618164
0.071699857711791992 -0.061195254325866699 0.58317995071411133
-0.072506815195083618 -0.047157764434814453 0.57239151000976562
-0.071746706962585449 -0.042058467864990234 0.57247304916381836
-0.081108912825584412 -0.053931236267089844 0.56679058074951172
-0.073048263788223267 -0.051974058151245117 0.57250189781188965
-0.063848555088043213 -0.041097402572631836 0.57693338394165039
-0.063558518886566162 -0.035756826400756836 0.57696413993835449
-0.080003812909126282 -0.048987388610839844 0.5668950080871582
-0.082067444920539856 -0.058633804321289062 0.56689572334289551
-0.063850283622741699 -0.046042680740356445 0.57708263397216797
0.051956892013549805 -0.023808121681213379 0.57445049285888672
0.050242424011230469 -0.01457667350769043 0.57305765151977539
0.045966625213623047 -0.017768234014511108 0.57841157913208008
0.056237459182739258 -0.033241331577301025 0.57551956176757812
0.056891918182373047 -0.029465258121490479 0.57014656066894531
0.056359529495239258 -0.021822154521942139 0.56868553161621094
0.042060613632202148 -0.0058906078338623047 0.577178955078125
0.051255226135253906 -0.028564661741256714 0.57922840118408203
0.060406923294067383 -0.037743121385574341 0.57139730453491211
-0.068670153617858887 -0.021471023559570312 0.57370662689208984
-0.061384081840515137 -0.012959957122802734 0.5782771110534668
-0.070661932229995728 -0.014217376708984375 0.57352113723754883
-0.076334327459335327 -0.030747890472412109 0.56797623634338379
-0.069112986326217651 -0.02906036376953125 0.57332110404968262
-0.061791598796844482 -0.021846532821655273 0.57779955863952637
-0.062693685293197632 -0.0031106472015380859 0.57835817337036133
-0.078538298606872559 -0.025112628936767578 0.5675652027130127
-0.07687029242515564 -0.037165164947509766 0.56769990921020508
0.10756373405456543 -0.14586859941482544 0.59340643882751465
0.10797715187072754 -0.14486575126647949 0.59373140335083008
0.097890257835388184 -0.14397948980331421 0.59315919876098633
0.10660862922668457 -0.14670205116271973 0.59278678894042969
0.11642575263977051 -0.14806699752807617 0.59373378753662109
0.11805295944213867 -0.14760720729827881 0.59400129318237305
0.097713947296142578 -0.14271622896194458 0.59352326393127441
0.097265005111694336 -0.14493221044540405 0.59245586395263672
0.11493587493896484 -0.14868044853210449 0.59307646751403809
0.065064430236816406 -0.13601632416248322 0.59281134605407715
0.07603919506072998 -0.13894167542457581 0.59289717674255371
0.063510298728942871 -0.13448789715766907 0.59306573867797852
0.055535793304443359 -0.1338672935962677 0.59285187721252441
0.065575242042541504 -0.13733306527137756 0.59219527244567871
0.076047778129577637 -0.14010179042816162 0.59217977523803711
0.075184226036071777 -0.13753315806388855 0.59317231178283691
0.052613973617553711 -0.13220551609992981 0.59297847747802734
0.056740760803222656 -0.13523313403129578 0.59226274490356445
0.13613557815551758 -0.15927767753601074 0.59421896934509277
0.14075803756713867 -0.16118931770324707 0.59433507919311523
0.13092422485351562 -0.15490138530731201 0.5941462516784668
0.13290667533874512 -0.15851688385009766 0.5935816764831543
0.13963031768798828 -0.16343355178833008 0.59415102005004883
0.14456939697265625 -0.16574430465698242 0.59422683715820312
0.13488864898681641 -0.15608632564544678 0.59433197975158691
0.12822508811950684 -0.15462994575500488 0.59354043006896973
0.13596653938293457 -0.16230988502502441 0.59350109100341797
0.047072649002075195 -0.13885007798671722 0.59349203109741211
0.046345710754394531 -0.13522587716579437 0.59320449829101562
0.043152332305908203 -0.13878577947616577 0.59358954429626465
0.050111532211303711 -0.143310546875 0.59372520446777344
0.048748016357421875 -0.13937711715698242 0.59284448623657227
0.048195123672485352 -0.13621719181537628 0.59263324737548828
0.042110443115234375 -0.13441739976406097 0.5932774543762207
0.046466588973999023 -0.14370179176330566 0.59386992454528809
0.051571011543273926 -0.14346519112586975 0.59303069114685059
0.13748717308044434 -0.17121177911758423 0.59315586090087891
0.14230513572692871 -0.17354536056518555 0.59325456619262695
0.14021825790405273 -0.16955757141113281 0.59358549118041992
0.13348293304443359 -0.16969740390777588 0.59242725372314453
0.13334465026855469 -0.17212289571762085 0.59270930290222168
0.13785004615783691 -0.1742890477180481 0.59283900260925293
0.14520692825317383 -0.17198741436004639 0.59369516372680664
0.13617587089538574 -0.16806596517562866 0.59294414520263672
0.12952184677124023 -0.1706695556640625 0.5920250415802002
0.06621551513671875 -0.15611675381660461 0.59348273277282715
0.0601806640625 -0.15229995548725128 0.59374117851257324
0.063344597816467285 -0.15686559677124023 0.59378576278686523
0.072645783424377441 -0.15946060419082642 0.5931398868560791
0.06693720817565918 -0.15568368136882782 0.59265232086181641
0.061152815818786621 -0.15197870135307312 0.5929408073425293
0.057015061378479004 -0.15300051867961884 0.59400773048400879
0.07013249397277832 -0.16023720800876617 0.59345269203186035
0.073076725006103516 -0.15898403525352478 0.59228897094726562
0.1169743537902832 -0.17164570093154907 0.59186196327209473
0.11959540843963623 -0.17327040433883667 0.5920257568359375
0.12279713153839111 -0.17224597930908203 0.59203886985778809
0.11436116695404053 -0.17058229446411133 0.59126639366149902
0.11092400550842285 -0.17073994874954224 0.59187984466552734
0.11268556118011475 -0.17218446731567383 0.59197044372558594
0.12619304656982422 -0.17403697967529297 0.59221243858337402
0.1196972131729126 -0.17102473974227905 0.59139013290405273
0.10883879661560059 -0.16970467567443848 0.59125328063964844
0.092130899429321289 -0.16663360595703125 0.59216856956481934
0.085711479187011719 -0.16469717025756836 0.59244775772094727
0.09138178825378418 -0.16757401823997498 0.59238219261169434
0.098464131355285645 -0.16822594404220581 0.59201622009277344
0.091494441032409668 -0.16592642664909363 0.59147047996520996
0.085477828979492188 -0.1640908420085907 0.59169149398803711
0.084272265434265137 -0.16553384065628052 0.59270930290222168
0.098515748977661133 -0.1693381667137146 0.59215474128723145
0.097390174865722656 -0.16742432117462158 0.59131026268005371
0.10409998893737793 -0.16849780082702637 0.5863344669342041
0.10788524150848389 -0.16915357112884521 0.58829021453857422
0.10887825489044189 -0.16887354850769043 0.58644199371337891
0.10051512718200684 -0.16744005680084229 0.58450031280517578
0.099113345146179199 -0.16779631376266479 0.58633804321289062
0.1028592586517334 -0.16846400499343872 0.5882875919342041
0.1127246618270874 -0.16954362392425537 0.5883634090423584
0.10539686679840088 -0.16786342859268188 0.58460831642150879
0.09536898136138916 -0.16676753759384155 0.58447670936584473
0.083038926124572754 -0.16447314620018005 0.58640456199645996
0.077385306358337402 -0.16283987462520599 0.58644819259643555
0.086776971817016602 -0.16502648591995239 0.5884101390838623
0.088564395904541016 -0.16580852866172791 0.58632993698120117
0.078706979751586914 -0.16336280107498169 0.58444094657897949
0.072952508926391602 -0.16180345416069031 0.58449363708496094
0.081098675727844238 -0.16335263848304749 0.58850979804992676
0.092299342155456543 -0.16640767455101013 0.58835649490356445
0.084415674209594727 -0.16469419002532959 0.58448338508605957
0.12150335311889648 -0.16774839162826538 0.58729386329650879
0.12558937072753906 -0.16821092367172241 0.58937335014343262
0.12427353858947754 -0.16636818647384644 0.58779191970825195
0.11782622337341309 -0.1671680212020874 0.58545446395874023
0.1177666187286377 -0.16855412721633911 0.58690071105957031
0.12178564071655273 -0.16911649703979492 0.5889279842376709
0.12835049629211426 -0.16671788692474365 0.58980464935302734
0.12061238288879395 -0.16597908735275269 0.58605790138244629
0.11419034004211426 -0.16780292987823486 0.58502840995788574
0.060108780860900879 -0.15557672083377838 0.5870821475982666
0.055017948150634766 -0.15243366360664368 0.58742856979370117
0.063467979431152344 -0.15556496381759644 0.58931517601013184
0.065759539604187012 -0.15842978656291962 0.58680295944213867
0.056327462196350098 -0.15528339147567749 0.5850224494934082
0.052028894424438477 -0.15249678492546082 0.58547282218933105
0.058030366897583008 -0.15218269824981689 0.58958721160888672
0.06929469108581543 -0.15862952172756195 0.58891844749450684
0.06151735782623291 -0.15775212645530701 0.58473300933837891
0.12353992462158203 -0.15903377532958984 0.58890151977539062
0.12694478034973145 -0.15861546993255615 0.59082150459289551
0.12005043029785156 -0.15608662366867065 0.58900570869445801
0.12018108367919922 -0.15970778465270996 0.58696484565734863
0.12546634674072266 -0.16193437576293945 0.58864617347717285
0.12916898727416992 -0.16181373596191406 0.5905921459197998
0.12311124801635742 -0.15534424781799316 0.59089756011962891
0.11697292327880859 -0.15712285041809082 0.58707594871520996
0.12192773818969727 -0.16216826438903809 0.58683156967163086
0.044802546501159668 -0.14233416318893433 0.5878748893737793
0.044815778732299805 -0.13994243741035461 0.58792328834533691
0.046982526779174805 -0.14112308621406555 0.58993077278137207
0.046955108642578125 -0.14552648365497589 0.58784699440002441
0.04296422004699707 -0.14386540651321411 0.58586430549621582
0.043266415596008301 -0.14185023307800293 0.58591818809509277
0.046726226806640625 -0.13847887516021729 0.58989548683166504
0.049348354339599609 -0.14464938640594482 0.58994364738464355
0.044974446296691895 -0.14655575156211853 0.58589601516723633
0.10049867630004883 -0.14965718984603882 0.58828568458557129
0.10292863845825195 -0.14844143390655518 0.59012770652770996
0.091503024101257324 -0.14811503887176514 0.58795738220214844
0.098152399063110352 -0.15132933855056763 0.58642315864562988
0.10841512680053711 -0.15132695436477661 0.58865261077880859
0.11097574234008789 -0.15024495124816895 0.59047079086303711
0.093829035758972168 -0.14680981636047363 0.58979058265686035
0.089354276657104492 -0.14987480640411377 0.58609485626220703
0.10586762428283691 -0.152843177318573 0.5868072509765625
0.061679720878601074 -0.14141936600208282 0.58769464492797852
0.071422100067138672 -0.14387720823287964 0.58761811256408691
0.063516736030578613 -0.13982626795768738 0.58949041366577148
0.053399205207824707 -0.13953275978565216 0.587738037109375
0.060255885124206543 -0.14355795085430145 0.58578705787658691
0.069769501686096191 -0.1458880752325058 0.58575868606567383
0.073452115058898926 -0.14238211512565613 0.58947014808654785
0.05513465404510498 -0.13787105679512024 0.58962297439575195
0.052116990089416504 -0.14174275100231171 0.58586549758911133
0.094949126243591309 -0.15982776880264282 0.58273100852966309
0.087989926338195801 -0.1588401198387146 0.58252620697021484
0.095741868019104004 -0.16303706169128418 0.58257937431335449
0.10112118721008301 -0.16066902875900269 0.58299350738525391
0.095144033432006836 -0.15654301643371582 0.58349084854125977
0.087392210960388184 -0.15536656975746155 0.58324599266052246
0.08955848217010498 -0.16218289732933044 0.58243775367736816
0.10133910179138184 -0.16370022296905518 0.58273434638977051
0.10196113586425781 -0.15762001276016235 0.58377385139465332
0.065017938613891602 -0.15426543354988098 0.58228158950805664
0.069269537925720215 -0.15816168487071991 0.58226561546325684
0.072628021240234375 -0.15605010092258453 0.5823216438293457
0.061778783798217773 -0.15016606450080872 0.58294486999511719
0.058125495910644531 -0.15263722836971283 0.58231925964355469
0.062862634658813477 -0.1566021740436554 0.58227682113647461
0.076075077056884766 -0.15973444283008575 0.58229827880859375
0.070207953453063965 -0.15213803946971893 0.58295297622680664
0.054335236549377441 -0.14846324920654297 0.58298397064208984
0.11267209053039551 -0.16302895545959473 0.58352923393249512
0.11016392707824707 -0.16242188215255737 0.58326053619384766
0.11336541175842285 -0.16462153196334839 0.5834507942199707
0.11445331573486328 -0.16199404001235962 0.58406543731689453
0.11165785789489746 -0.16031539440155029 0.5840296745300293
0.11013293266296387 -0.16465485095977783 0.58310914039611816
0.11609387397766113 -0.16372179985046387 0.5841975212097168
0.046686530113220215 -0.15050147473812103 0.58255863189697266
0.048636317253112793 -0.15239855647087097 0.58258223533630371
0.048315048217773438 -0.15073181688785553 0.58231520652770996
0.043846726417541504 -0.1483401358127594 0.58297300338745117
0.045697331428527832 -0.15018799901008606 0.58320927619934082
0.05244147777557373 -0.15388107299804688 0.58236265182495117
0.044907689094543457 -0.14739786088466644 0.58294224739074707
0.013016462326049805 0.14878225326538086 0.52297043800354004
0.010299205780029297 0.14596319198608398 0.52424240112304688
0.014842033386230469 0.14051002264022827 0.52698421478271484
0.014858722686767578 0.15083235502243042 0.52206587791442871
0.011630535125732422 0.15781092643737793 0.51831841468811035
0.0087850093841552734 0.15560305118560791 0.51934957504272461
0.012291431427001953 0.13705980777740479 0.52848625183105469
0.016499042510986328 0.14283108711242676 0.5260624885559082
0.013619780540466309 0.15957462787628174 0.51755046844482422
-0.064387671649456024 0.1172027587890625 0.54367327690124512
-0.066532537341117859 0.10961151123046875 0.54727458953857422
-0.061255171895027161 0.11694192886352539 0.54335999488830566
-0.062448982149362564 0.1253509521484375 0.53961586952209473
-0.06657487154006958 0.11745595932006836 0.54384994506835938
-0.06854575127363205 0.11027145385742188 0.54729628562927246
-0.063503488898277283 0.10865163803100586 0.54724407196044922
-0.059185884892940521 0.12587547302246094 0.53897738456726074
-0.064778231084346771 0.12516260147094727 0.54002976417541504
0.010569214820861816 0.189994215965271 0.49990296363830566
0.0074920654296875 0.18949270248413086 0.50028181076049805
0.010366439819335938 0.17835462093353271 0.50688719749450684
0.01293492317199707 0.19063866138458252 0.49953150749206543
0.011448383331298828 0.20244288444519043 0.49204874038696289
0.0083383321762084961 0.20247864723205566 0.49217820167541504
0.0073262453079223633 0.17732083797454834 0.50748825073242188
0.012623906135559082 0.17940747737884521 0.50635552406311035
0.013848781585693359 0.20259761810302734 0.49191832542419434
-0.057470902800559998 0.15318679809570312 0.52405548095703125
-0.059001237154006958 0.14341259002685547 0.52985119819641113
-0.053822845220565796 0.15598440170288086 0.52236318588256836
-0.056130781769752502 0.16336536407470703 0.51768684387207031
-0.060296714305877686 0.15126228332519531 0.52522873878479004
-0.06166452169418335 0.14207220077514648 0.53075146675109863
-0.055485118180513382 0.14543247222900391 0.52850580215454102
-0.052383840084075928 0.16691875457763672 0.51564478874206543
-0.059073746204376221 0.16074895858764648 0.51926279067993164
0.018141746520996094 0.24424445629119873 0.4635016918182373
0.015587091445922852 0.24622642993927002 0.46244645118713379
0.015239953994750977 0.22979176044464111 0.47374725341796875
0.020181655883789062 0.24225735664367676 0.46474289894104004
0.021681070327758789 0.25877201557159424 0.45275998115539551
0.01945650577545166 0.26162195205688477 0.45113849639892578
0.01239013671875 0.23102653026580811 0.47321367263793945
0.017467498779296875 0.22859978675842285 0.47444725036621094
0.023414134979248047 0.25581860542297363 0.45475983619689941
-0.053399562835693359 0.19470977783203125 0.49612212181091309
-0.054033547639846802 0.18439006805419922 0.50357699394226074
-0.049691110849380493 0.20031547546386719 0.49283742904663086
-0.053115308284759521 0.20436382293701172 0.48875689506530762
-0.056638896465301514 0.18984699249267578 0.49914002418518066
-0.057202190160751343 0.18030166625976562 0.50605010986328125
-0.050283819437026978 0.18939924240112305 0.50075268745422363
-0.049468725919723511 0.21067428588867188 0.48492622375488281
-0.056396126747131348 0.19872522354125977 0.49232149124145508
0.022899150848388672 0.11936116218566895 0.5364997386932373
0.021149158477783203 0.11434021592140198 0.5386052131652832
0.027523040771484375 0.11306558549404144 0.53861522674560547
0.024048566818237305 0.12235209345817566 0.53556990623474121
0.019587993621826172 0.12590581178665161 0.53375601768493652
0.017486095428466797 0.1213533878326416 0.53574085235595703
0.026163578033447266 0.10760127007961273 0.54087400436401367
0.028415441513061523 0.11620965600013733 0.53771114349365234
0.020899295806884766 0.1287272572517395 0.5327754020690918
-0.074438869953155518 0.089613914489746094 0.556060791015625
-0.078585207462310791 0.082959651947021484 0.55835962295532227
-0.071984216570854187 0.086847305297851562 0.55677890777587891
-0.071328669786453247 0.096018791198730469 0.55343532562255859
-0.076117336750030518 0.091258525848388672 0.55587100982666016
-0.080121397972106934 0.084846973419189453 0.55820631980895996
-0.076442733407020569 0.0797576904296875 0.55923628807067871
-0.06866561621427536 0.093813419342041016 0.55390095710754395
-0.073107391595840454 0.097361564636230469 0.55329632759094238
0.052880048751831055 0.092397749423980713 0.54145050048828125
0.053456544876098633 0.086408019065856934 0.54322242736816406
0.063718795776367188 0.086160898208618164 0.54122495651245117
0.052475452423095703 0.096639752388000488 0.54053926467895508
0.042647600173950195 0.099497199058532715 0.54111099243164062
0.042476415634155273 0.093554884195327759 0.54314184188842773
0.065043926239013672 0.080105781555175781 0.54272842407226562
0.062724590301513672 0.090839266777038574 0.5402674674987793
0.042767047882080078 0.10327804088592529 0.54018592834472656
-0.10079395771026611 0.058602809906005859 0.56228160858154297
-0.1103975772857666 0.050439834594726562 0.56172823905944824
-0.10017400979995728 0.054481983184814453 0.56288051605224609
-0.091856151819229126 0.067250251770019531 0.56170392036437988
-0.10128819942474365 0.061632156372070312 0.5619959831237793
-0.11042267084121704 0.053927898406982422 0.56152963638305664
-0.11045569181442261 0.046116352081298828 0.56199264526367188
-0.090619832277297974 0.063416481018066406 0.56256771087646484
-0.092804074287414551 0.069861888885498047 0.56142926216125488
0.090234279632568359 0.083640575408935547 0.53409385681152344
0.093359470367431641 0.078023433685302734 0.5347590446472168
0.09650421142578125 0.089675664901733398 0.5285944938659668
0.087847709655761719 0.088889360427856445 0.53321695327758789
0.082863569259643555 0.081040859222412109 0.53789043426513672
0.085488796234130859 0.075176239013671875 0.53878593444824219
0.10000848770141602 0.084472417831420898 0.52896690368652344
0.093855381011962891 0.094706058502197266 0.52790069580078125
0.080822229385375977 0.08630669116973877 0.53692865371704102
-0.1366046667098999 0.035833358764648438 0.55448365211486816
-0.1440589427947998 0.034173011779785156 0.55057740211486816
-0.13873922824859619 0.030818939208984375 0.55363941192626953
-0.12864410877227783 0.038904190063476562 0.55769896507263184
-0.13516509532928467 0.040113449096679688 0.55494952201843262
-0.1421666145324707 0.038610458374023438 0.55124735832214355
-0.14679241180419922 0.029011726379394531 0.5493166446685791
-0.13010287284851074 0.034079551696777344 0.55721569061279297
-0.12765562534332275 0.042940616607666016 0.55787301063537598
0.11130237579345703 0.12732744216918945 0.50090265274047852
