# XYZ point cloud file
0.4523773193359375 -0.26807022094726562 0.62975311279296875
0.44703292846679688 -0.26967620849609375 0.63372039794921875
0.48803329467773438 -0.28543472290039062 0.62921905517578125
0.47223281860351562 -0.27593231201171875 0.62708282470703125
0.46198272705078125 -0.27089691162109375 0.62683868408203125
0.43115615844726562 -0.261199951171875 0.6331024169921875
0.47328567504882812 -0.282806396484375 0.6318511962890625
0.4931488037109375 -0.28789138793945312 0.62545013427734375
0.73462677001953125 -0.4063873291015625 0.5911865234375
0.73949050903320312 -0.41243743896484375 0.5907440185546875
0.7352447509765625 -0.407684326171875 0.589874267578125
0.72960281372070312 -0.40118026733398438 0.588653564453125
0.73185348510742188 -0.40301895141601562 0.5911407470703125
0.73640060424804688 -0.41035079956054688 0.591156005859375
0.73957061767578125 -0.41381454467773438 0.5917816162109375
0.73048782348632812 -0.4008331298828125 0.588714599609375
0.72646331787109375 -0.39910125732421875 0.589080810546875
0.57413864135742188 -0.32813262939453125 0.61904144287109375
0.54605865478515625 -0.31380081176757812 0.6222076416015625
0.56542587280273438 -0.32721328735351562 0.6217498779296875
0.60038375854492188 -0.34075927734375 0.6147918701171875
0.57525253295898438 -0.3270263671875 0.6166229248046875
0.54806137084960938 -0.3135833740234375 0.62042999267578125
0.53580093383789062 -0.31234359741210938 0.625732421875
0.5939178466796875 -0.33951187133789062 0.61676025390625
0.60015487670898438 -0.33905029296875 0.61217498779296875
0.7126312255859375 -0.39288711547851562 0.592742919921875
0.7174072265625 -0.39757156372070312 0.593017578125
0.72063064575195312 -0.39683151245117188 0.592315673828125
0.7069549560546875 -0.38785934448242188 0.5923004150390625
0.70260238647460938 -0.38730621337890625 0.59590911865234375
0.7067413330078125 -0.3911590576171875 0.59516143798828125
0.72606658935546875 -0.40198135375976562 0.59173583984375
0.71506500244140625 -0.39197540283203125 0.5899810791015625
0.69730377197265625 -0.38275146484375 0.59405517578125
0.66233444213867188 -0.36864089965820312 0.60312652587890625
0.64464187622070312 -0.3612213134765625 0.6062774658203125
0.66197967529296875 -0.3707733154296875 0.60455322265625
0.67758941650390625 -0.37590789794921875 0.60010528564453125
0.6588287353515625 -0.3661651611328125 0.601104736328125
0.64142608642578125 -0.35786056518554688 0.60479736328125
0.642120361328125 -0.36313629150390625 0.60836029052734375
0.67899322509765625 -0.37800216674804688 0.60103607177734375
0.67327880859375 -0.37303543090820312 0.59796905517578125
0.67990493774414062 -0.36861801147460938 0.5831298828125
0.6909332275390625 -0.37561798095703125 0.5864410400390625
0.6895904541015625 -0.37112045288085938 0.58123779296875
0.66915512084960938 -0.36017990112304688 0.579559326171875
0.66936874389648438 -0.36357498168945312 0.58489990234375
0.68097686767578125 -0.37147903442382812 0.5883026123046875
0.699737548828125 -0.3787689208984375 0.5843963623046875
0.679534912109375 -0.36340713500976562 0.5787506103515625
0.65710830688476562 -0.35724639892578125 0.5825347900390625
0.62680435180664062 -0.348602294921875 0.59326171875
0.60916900634765625 -0.34164047241210938 0.596435546875
0.64088058471679688 -0.35499954223632812 0.5963592529296875
0.64286422729492188 -0.35410308837890625 0.5906982421875
0.61037826538085938 -0.34049224853515625 0.5911865234375
0.59041976928710938 -0.33371734619140625 0.593902587890625
0.6240692138671875 -0.34818267822265625 0.5987396240234375
0.65653610229492188 -0.36208343505859375 0.592620849609375
0.62775421142578125 -0.34680938720703125 0.5872344970703125
0.70919036865234375 -0.377960205078125 0.578125
0.71788787841796875 -0.38693618774414062 0.5821533203125
0.71282958984375 -0.3793792724609375 0.578125
0.70127105712890625 -0.37145233154296875 0.5747222900390625
0.70441436767578125 -0.37621307373046875 0.5789337158203125
0.71290206909179688 -0.38479995727539062 0.58270263671875
0.72008514404296875 -0.38711166381835938 0.582489013671875
0.705596923828125 -0.37241363525390625 0.5751953125
0.69622802734375 -0.36907958984375 0.575439453125
0.54221343994140625 -0.31392288208007812 0.6082000732421875
0.51807785034179688 -0.30406951904296875 0.61106109619140625
0.55773162841796875 -0.31964874267578125 0.61004638671875
0.56602859497070312 -0.32528305053710938 0.603057861328125
0.52416610717773438 -0.3090972900390625 0.6054840087890625
0.50342941284179688 -0.30059051513671875 0.60906219482421875
0.53232192993164062 -0.30784988403320312 0.61385345458984375
0.58180618286132812 -0.33097076416015625 0.6067047119140625
0.54706192016601562 -0.31747817993164062 0.601806640625
0.70490264892578125 -0.3744049072265625 0.5798797607421875
0.7098846435546875 -0.38048553466796875 0.58367919921875
0.69661712646484375 -0.36783981323242188 0.5806884765625
0.69954681396484375 -0.3670501708984375 0.5754547119140625
0.71031951904296875 -0.37818145751953125 0.578155517578125
0.7159881591796875 -0.38410186767578125 0.582763671875
0.70062255859375 -0.3736419677734375 0.58441162109375
0.6918182373046875 -0.36383819580078125 0.5765838623046875
0.70438385009765625 -0.37120819091796875 0.5752105712890625
0.45650100708007812 -0.27587890625 0.6180267333984375
0.451934814453125 -0.2713165283203125 0.6185455322265625
0.4658355712890625 -0.27699661254882812 0.62218475341796875
0.4727935791015625 -0.28340530395507812 0.61754608154296875
0.449554443359375 -0.27524566650390625 0.6159515380859375
0.44655227661132812 -0.2730255126953125 0.61578369140625
0.4586029052734375 -0.27259445190429688 0.62133026123046875
0.4833984375 -0.2858734130859375 0.62081146240234375
0.46326065063476562 -0.28192901611328125 0.61395263671875
0.65193939208984375 -0.34148406982421875 0.5849456787109375
0.65655517578125 -0.34497833251953125 0.588592529296875
0.62803268432617188 -0.32953262329101562 0.588714599609375
0.64757537841796875 -0.33785247802734375 0.582244873046875
0.67043304443359375 -0.35184860229492188 0.5828857421875
0.67440032958984375 -0.35575485229492188 0.5869903564453125
0.63315582275390625 -0.33284378051757812 0.5921478271484375
0.62409210205078125 -0.32759475708007812 0.585052490234375
0.66649627685546875 -0.348602294921875 0.57940673828125
0.52315521240234375 -0.29132843017578125 0.6049041748046875
0.56211471557617188 -0.30437469482421875 0.598663330078125
0.52836227416992188 -0.29210662841796875 0.6084136962890625
0.48736190795898438 -0.28067398071289062 0.6119384765625
0.52020263671875 -0.29147720336914062 0.6023101806640625
0.55837631225585938 -0.3043212890625 0.5951690673828125
0.56772232055664062 -0.30535888671875 0.60198974609375
0.49200057983398438 -0.2792205810546875 0.6143798828125
0.48452377319335938 -0.28076553344726562 0.6080474853515625
0.6468963623046875 -0.34102630615234375 0.5766143798828125
0.62804412841796875 -0.33456802368164062 0.5806732177734375
0.6518096923828125 -0.34680557250976562 0.576324462890625
0.66226959228515625 -0.3460540771484375 0.5746612548828125
0.64449310302734375 -0.33747100830078125 0.577178955078125
0.6231231689453125 -0.32893753051757812 0.5804443359375
0.63520431518554688 -0.34124755859375 0.5791473388671875
0.66495513916015625 -0.349945068359375 0.574676513671875
0.66133880615234375 -0.34431838989257812 0.5758514404296875
0.55057144165039062 -0.3101043701171875 0.5923309326171875
0.57050323486328125 -0.3201141357421875 0.590850830078125
0.57854461669921875 -0.31869888305664062 0.58807373046875
0.533935546875 -0.29983139038085938 0.59539794921875
0.52309799194335938 -0.3018951416015625 0.597564697265625
0.54639434814453125 -0.3138885498046875 0.5955352783203125
0.5945892333984375 -0.3281097412109375 0.586761474609375
0.56689834594726562 -0.3101959228515625 0.5904693603515625
0.50224685668945312 -0.29246902465820312 0.601470947265625
0.6875457763671875 -0.359527587890625 0.5710601806640625
0.68187713623046875 -0.35611343383789062 0.57183837890625
0.6899566650390625 -0.36077117919921875 0.5706939697265625
0.690155029296875 -0.35969924926757812 0.57171630859375
0.68383026123046875 -0.35717391967773438 0.572601318359375
0.68360137939453125 -0.35857772827148438 0.572174072265625
0.6944580078125 -0.36283493041992188 0.5713348388671875
0.47304916381835938 -0.28944778442382812 0.6066131591796875
0.48467254638671875 -0.29441452026367188 0.6052093505859375
0.48025131225585938 -0.29108810424804688 0.605010986328125
0.4576873779296875 -0.28295516967773438 0.6100616455078125
0.46952056884765625 -0.28795242309570312 0.6088104248046875
0.502655029296875 -0.30041122436523438 0.602264404296875
0.4605560302734375 -0.28243637084960938 0.608795166015625
-0.10390853881835938 0.21930694580078125 0.7440032958984375
-0.10662460327148438 0.2139434814453125 0.743316650390625
-0.09549713134765625 0.20015716552734375 0.7440032958984375
-0.10202789306640625 0.2240753173828125 0.7443695068359375
-0.11007308959960938 0.241424560546875 0.744171142578125
-0.114715576171875 0.23561859130859375 0.7449951171875
-0.09821319580078125 0.19258880615234375 0.7426910400390625
-0.09424591064453125 0.20525360107421875 0.744171142578125
-0.10822296142578125 0.24388885498046875 0.7446746826171875
-0.30136489868164062 0.095245361328125 0.7644805908203125
-0.3124542236328125 0.07494354248046875 0.7644805908203125
-0.29261398315429688 0.09993743896484375 0.7658538818359375
-0.28878021240234375 0.11695098876953125 0.76666259765625
-0.30624008178710938 0.09222412109375 0.763641357421875
-0.31868362426757812 0.0726165771484375 0.7618865966796875
-0.30451583862304688 0.0764007568359375 0.764312744140625
-0.2801361083984375 0.12358856201171875 0.7675018310546875
-0.29511642456054688 0.11328887939453125 0.7657623291015625
-0.11972427368164062 0.3137664794921875 0.7399444580078125
-0.12465286254882812 0.3120574951171875 0.7401275634765625
-0.11880874633789062 0.2877960205078125 0.74334716796875
-0.11669921875 0.31539154052734375 0.740325927734375
-0.11980819702148438 0.34133148193359375 0.7389678955078125
-0.12413787841796875 0.34073638916015625 0.7381744384765625
-0.12376022338867188 0.28534698486328125 0.7428741455078125
-0.11560440063476562 0.289794921875 0.743438720703125
-0.1167144775390625 0.3415985107421875 0.737518310546875
-0.252532958984375 0.18920135498046875 0.768463134765625
-0.26453018188476562 0.164398193359375 0.7689208984375
-0.243621826171875 0.1999664306640625 0.76947021484375
-0.23880386352539062 0.21492767333984375 0.768798828125
-0.25870132446289062 0.18088531494140625 0.7689361572265625
-0.27087020874023438 0.1579437255859375 0.7680816650390625
-0.25521087646484375 0.173614501953125 0.76934814453125
-0.230865478515625 0.22601318359375 0.7694091796875
-0.24602127075195312 0.20508575439453125 0.768341064453125
-0.10850143432617188 0.42620086669921875 0.72210693359375
-0.11159896850585938 0.4296722412109375 0.721221923828125
-0.11378097534179688 0.39754486083984375 0.7277374267578125
-0.10721969604492188 0.422698974609375 0.721893310546875
-0.10337066650390625 0.4540557861328125 0.7135467529296875
-0.104827880859375 0.458892822265625 0.71527099609375
-0.11673355102539062 0.40052032470703125 0.7293548583984375
-0.11128616333007812 0.39593505859375 0.7279510498046875
-0.10244369506835938 0.448699951171875 0.7129974365234375
-0.19952011108398438 0.2882537841796875 0.763397216796875
-0.21264266967773438 0.26427459716796875 0.7658233642578125
-0.19176864624023438 0.3025970458984375 0.7633056640625
-0.18813705444335938 0.30959320068359375 0.76300048828125
-0.20769119262695312 0.27443695068359375 0.7654571533203125
-0.2206268310546875 0.2521820068359375 0.76727294921875
-0.20499420166015625 0.2782745361328125 0.765350341796875
-0.17879486083984375 0.32567596435546875 0.7608795166015625
-0.19640731811523438 0.29450225830078125 0.763641357421875
-0.06305694580078125 0.1470794677734375 0.741668701171875
-0.0617828369140625 0.1362152099609375 0.74102783203125
-0.04500579833984375 0.1309661865234375 0.7416839599609375
-0.06421661376953125 0.15435791015625 0.7458648681640625
-0.0756378173828125 0.16452789306640625 0.7435760498046875
-0.07628631591796875 0.1539459228515625 0.7411041259765625
-0.04264068603515625 0.11853790283203125 0.7387847900390625
-0.04796600341796875 0.13802337646484375 0.743804931640625
-0.07646942138671875 0.1699981689453125 0.7442779541015625
-0.35359573364257812 0.0147247314453125 0.755767822265625
-0.37152099609375 -0.00594329833984375 0.7510833740234375
-0.348297119140625 0.01384735107421875 0.7580413818359375
-0.33870697021484375 0.03557586669921875 0.7578887939453125
-0.35934066772460938 0.01459503173828125 0.753875732421875
-0.37706756591796875 -0.00666046142578125 0.7505035400390625
-0.3675994873046875 -0.0077362060546875 0.75225830078125
-0.33176422119140625 0.03429412841796875 0.7597808837890625
-0.34433746337890625 0.03411102294921875 0.7565155029296875
0.0458831787109375 0.06452178955078125 0.732147216796875
0.0580291748046875 0.0502777099609375 0.7274627685546875
0.0801239013671875 0.0391845703125 0.7304840087890625
0.03614044189453125 0.0744476318359375 0.737640380859375
0.01093292236328125 0.08953857421875 0.736480712890625
0.01892852783203125 0.07525634765625 0.7321014404296875
0.09542083740234375 0.023223876953125 0.7239227294921875
0.06757354736328125 0.05159759521484375 0.736480712890625
0.003021240234375 0.0989227294921875 0.7412261962890625
-0.44994735717773438 -0.0923309326171875 0.732025146484375
-0.47826385498046875 -0.1233673095703125 0.721343994140625
-0.45054244995117188 -0.0961151123046875 0.73309326171875
-0.42063140869140625 -0.06072235107421875 0.74066162109375
-0.45057296752929688 -0.0895233154296875 0.728759765625
-0.47763824462890625 -0.1183624267578125 0.7207183837890625
-0.48105621337890625 -0.127899169921875 0.72467041015625
-0.41921615600585938 -0.065582275390625 0.741302490234375
-0.42357254028320312 -0.0590057373046875 0.738006591796875
0.1342620849609375 0.0012054443359375 0.734710693359375
0.15320587158203125 -0.01784515380859375 0.726898193359375
0.13588714599609375 0.0078887939453125 0.7358551025390625
0.1186981201171875 0.01648712158203125 0.7415618896484375
0.1253204345703125 0.0029296875 0.73291015625
0.1447601318359375 -0.01409912109375 0.7257537841796875
0.1533660888671875 -0.0100555419921875 0.7303314208984375
0.12017822265625 0.02405548095703125 0.7433624267578125
0.109954833984375 0.0201873779296875 0.738861083984375
-0.52425765991210938 -0.183868408203125 0.694976806640625
-0.52278518676757812 -0.19449234008789062 0.68988037109375
-0.52941513061523438 -0.19194793701171875 0.6958770751953125
-0.51752090454101562 -0.16895675659179688 0.703460693359375
-0.51893234252929688 -0.1777801513671875 0.6958465576171875
-0.51816558837890625 -0.18820953369140625 0.68896484375
-0.528289794921875 -0.20222091674804688 0.6896820068359375
-0.52223968505859375 -0.17548370361328125 0.704833984375
-0.51340866088867188 -0.16326904296875 0.702880859375
0.10750579833984375 0.08521270751953125 0.7391204833984375
0.118560791015625 0.07253265380859375 0.733642578125
0.09149932861328125 0.12783050537109375 0.7368927001953125
0.0973052978515625 0.0983428955078125 0.74249267578125
0.12114715576171875 0.0511627197265625 0.7391357421875
0.13494873046875 0.034912109375 0.7337646484375
0.0995025634765625 0.11746978759765625 0.7328643798828125
0.08409881591796875 0.13823699951171875 0.7409820556640625
0.10906219482421875 0.06551361083984375 0.7445831298828125
-0.4866943359375 -0.20476531982421875 0.682403564453125
-0.47092056274414062 -0.20116043090820312 0.684234619140625
-0.4904327392578125 -0.21505355834960938 0.6810302734375
-0.5018463134765625 -0.20478439331054688 0.68353271484375
-0.48247528076171875 -0.19568634033203125 0.6826171875
-0.46639251708984375 -0.19136428833007812 0.6851043701171875
-0.47409439086914062 -0.21212005615234375 0.6829071044921875
-0.50659561157226562 -0.21480941772460938 0.6817169189453125
-0.49805831909179688 -0.19626617431640625 0.6825408935546875
0.04302978515625 0.27553558349609375 0.7231597900390625
0.04454803466796875 0.27626800537109375 0.7216339111328125
0.0283050537109375 0.32347869873046875 0.714996337890625
0.03932952880859375 0.27616119384765625 0.723388671875
0.058135986328125 0.22455596923828125 0.7295989990234375
0.06142425537109375 0.2225341796875 0.727203369140625
0.02974700927734375 0.32773590087890625 0.713653564453125
0.027130126953125 0.32077789306640625 0.715911865234375
0.0544586181640625 0.22928619384765625 0.7298126220703125
-0.42817306518554688 -0.15807342529296875 0.70257568359375
-0.4160919189453125 -0.13311767578125 0.71112060546875
-0.43317031860351562 -0.16825103759765625 0.7026519775390625
-0.4410858154296875 -0.17793655395507812 0.6939697265625
-0.42330551147460938 -0.14754104614257812 0.703643798828125
-0.41089248657226562 -0.12388229370117188 0.71136474609375
-0.42150497436523438 -0.14266204833984375 0.71044921875
-0.44533538818359375 -0.18873977661132812 0.693572998046875
-0.43672561645507812 -0.16677093505859375 0.696929931640625
-0.0008392333984375 0.44263458251953125 0.686126708984375
-0.00197601318359375 0.45305633544921875 0.6854705810546875
-0.00916290283203125 0.4741058349609375 0.676116943359375
-0.00244903564453125 0.43521881103515625 0.689056396484375
0.00728607177734375 0.4075164794921875 0.696197509765625
0.0065765380859375 0.4158172607421875 0.6954498291015625
-0.0103302001953125 0.48628997802734375 0.6737518310546875
-0.01015472412109375 0.46491241455078125 0.6812744140625
0.00653839111328125 0.4012298583984375 0.6986083984375
-0.37989425659179688 -0.04573822021484375 0.731689453125
-0.36403656005859375 -0.009838104248046875 0.73699951171875
-0.3871307373046875 -0.050609588623046875 0.7319488525390625
-0.392425537109375 -0.0771331787109375 0.7253875732421875
-0.37437820434570312 -0.040882110595703125 0.7316741943359375
-0.36008453369140625 -0.0072174072265625 0.7364044189453125
-0.37006378173828125 -0.013668060302734375 0.737335205078125
-0.39917373657226562 -0.08446502685546875 0.725494384765625
-0.38755035400390625 -0.070659637451171875 0.725494384765625
-0.03705596923828125 0.54228973388671875 0.6555938720703125
-0.0357666015625 0.55837249755859375 0.6460723876953125
-0.04718780517578125 0.55478668212890625 0.6538543701171875
-0.04012298583984375 0.5282440185546875 0.667388916015625
-0.027099609375 0.524627685546875 0.660003662109375
-0.0271759033203125 0.5388031005859375 0.6547088623046875
-0.04520416259765625 0.5726470947265625 0.642059326171875
-0.0503692626953125 0.54016876220703125 0.666229248046875
-0.02938079833984375 0.51264190673828125 0.6678619384765625
-0.29431915283203125 0.12319183349609375 0.748687744140625
-0.267181396484375 0.16930770874023438 0.750396728515625
-0.29376220703125 0.13162994384765625 0.7488250732421875
-0.32075119018554688 0.0758514404296875 0.746246337890625
-0.29562759399414062 0.116455078125 0.7454681396484375
-0.27093887329101562 0.15752029418945312 0.7487030029296875
-0.26403427124023438 0.18252944946289062 0.7525634765625
-0.32346725463867188 0.079860687255859375 0.7469940185546875
-0.3200225830078125 0.071559906005859375 0.7444000244140625
-0.062282562255859375 0.57927703857421875 0.6465301513671875
-0.06056976318359375 0.5968017578125 0.6340484619140625
-0.06353759765625 0.5826416015625 0.643890380859375
-0.065723419189453125 0.5640716552734375 0.6584930419921875
-0.059864044189453125 0.57321929931640625 0.6489410400390625
-0.0577850341796875 0.591796875 0.6376495361328125
-0.06229400634765625 0.60077667236328125 0.6319122314453125
-0.066547393798828125 0.56940460205078125 0.653289794921875
-0.063373565673828125 0.5582427978515625 0.6625518798828125
-0.20135116577148438 0.28094100952148438 0.7538299560546875
-0.18550491333007812 0.30690765380859375 0.7548828125
-0.19139862060546875 0.30339813232421875 0.752044677734375
-0.22052001953125 0.24917221069335938 0.75396728515625
-0.2105712890625 0.26334762573242188 0.75299072265625
-0.19546127319335938 0.2899627685546875 0.7542572021484375
-0.1736297607421875 0.33111190795898438 0.7537689208984375
-0.2117462158203125 0.26903533935546875 0.753875732421875
-0.22866439819335938 0.2337188720703125 0.7512969970703125
-0.067676544189453125 0.57682037353515625 0.6501007080078125
-0.066654205322265625 0.592529296875 0.6416168212890625
-0.071033477783203125 0.56812286376953125 0.6581268310546875
-0.070560455322265625 0.56421661376953125 0.6570587158203125
-0.066387176513671875 0.58249664306640625 0.6443328857421875
-0.064022064208984375 0.59918212890625 0.636077880859375
-0.069133758544921875 0.58316802978515625 0.650238037109375
-0.073696136474609375 0.5558624267578125 0.6636962890625
-0.06827545166015625 0.5694732666015625 0.653594970703125
-0.15654373168945312 0.35401153564453125 0.7534942626953125
-0.15347671508789062 0.35886383056640625 0.7549896240234375
-0.14342880249023438 0.3780517578125 0.7499847412109375
-0.16279983520507812 0.34365081787109375 0.7532806396484375
-0.16747283935546875 0.3354949951171875 0.75518798828125
-0.16481781005859375 0.34014892578125 0.7569427490234375
-0.14027786254882812 0.383544921875 0.75054931640625
-0.150177001953125 0.36789703369140625 0.75152587890625
-0.17360305786132812 0.3249969482421875 0.75634765625
-0.084613800048828125 0.52426910400390625 0.6853179931640625
-0.084217071533203125 0.53411102294921875 0.682403564453125
-0.090396881103515625 0.50421905517578125 0.695220947265625
-0.086212158203125 0.513885498046875 0.6888885498046875
-0.079875946044921875 0.541534423828125 0.6745758056640625
-0.0787200927734375 0.55389404296875 0.671539306640625
-0.090755462646484375 0.51186370849609375 0.694183349609375
-0.091297149658203125 0.4951171875 0.69769287109375
-0.0816802978515625 0.5303497314453125 0.6795654296875
-0.1598663330078125 0.3516998291015625 0.7571563720703125
-0.16672134399414062 0.34146881103515625 0.7591705322265625
-0.14886474609375 0.37224578857421875 0.7547149658203125
-0.15598297119140625 0.35832977294921875 0.7545013427734375
-0.1707763671875 0.33415985107421875 0.758392333984375
-0.17659378051757812 0.32379913330078125 0.760040283203125
-0.15709686279296875 0.36026763916015625 0.7560882568359375
-0.1434478759765625 0.38014984130859375 0.7523193359375
-0.16614532470703125 0.33863067626953125 0.7576141357421875
-0.085262298583984375 0.4949188232421875 0.6931915283203125
-0.087169647216796875 0.49964141845703125 0.6928558349609375
-0.08829498291015625 0.478485107421875 0.69915771484375
-0.08271026611328125 0.49091339111328125 0.690460205078125
-0.082599639892578125 0.50848388671875 0.6859283447265625
-0.083110809326171875 0.51430511474609375 0.68756103515625
-0.090801239013671875 0.48200225830078125 0.699676513671875
-0.08454132080078125 0.47620391845703125 0.6953277587890625
-0.080478668212890625 0.50470733642578125 0.687255859375
-0.19141006469726562 0.29573822021484375 0.7613677978515625
-0.19588470458984375 0.2890167236328125 0.762176513671875
-0.18657302856445312 0.30614471435546875 0.7599029541015625
-0.1883392333984375 0.30037689208984375 0.7594451904296875
-0.19485855102539062 0.28870391845703125 0.76190185546875
-0.1992950439453125 0.28246307373046875 0.7649688720703125
-0.191436767578125 0.29772186279296875 0.7620697021484375
-0.18296051025390625 0.31073760986328125 0.7593841552734375
-0.19275665283203125 0.2920684814453125 0.7611541748046875
-0.07343292236328125 0.53656768798828125 0.670928955078125
-0.073230743408203125 0.54354095458984375 0.6702423095703125
-0.076053619384765625 0.53050994873046875 0.6763153076171875
-0.07262420654296875 0.53119659423828125 0.6725311279296875
-0.0706024169921875 0.54094696044921875 0.6680450439453125
-0.0709991455078125 0.54866790771484375 0.6645660400390625
-0.076442718505859375 0.537109375 0.67413330078125
-0.07556915283203125 0.52423095703125 0.6764984130859375
-0.069454193115234375 0.535736083984375 0.6685028076171875
-0.18967437744140625 0.2964935302734375 0.7586517333984375
-0.18727493286132812 0.30078125 0.7577362060546875
-0.1839141845703125 0.3066558837890625 0.757293701171875
-0.19443893432617188 0.28821563720703125 0.758209228515625
-0.19439315795898438 0.28733062744140625 0.7610321044921875
-0.19115829467773438 0.29271697998046875 0.7592926025390625
-0.181854248046875 0.311767578125 0.75799560546875
-0.1892547607421875 0.29754638671875 0.7569732666015625
-0.19854736328125 0.27962493896484375 0.758148193359375
-0.06771087646484375 0.53815460205078125 0.6729278564453125
-0.068817138671875 0.54347991943359375 0.6715545654296875
-0.068737030029296875 0.54254913330078125 0.6678466796875
-0.065196990966796875 0.53427886962890625 0.6719818115234375
-0.0652618408203125 0.53266143798828125 0.675811767578125
-0.067104339599609375 0.5384521484375 0.6768341064453125
-0.069477081298828125 0.54843902587890625 0.6671905517578125
-0.065952301025390625 0.53652191162109375 0.6681060791015625
-0.062358856201171875 0.529144287109375 0.673370361328125
-0.22499465942382812 0.23546600341796875 0.7527313232421875
-0.21149444580078125 0.25714111328125 0.7552490234375
-0.22182464599609375 0.24086380004882812 0.7516937255859375
-0.23991775512695312 0.2082061767578125 0.7501983642578125
-0.22663497924804688 0.23148727416992188 0.754486083984375
-0.21465682983398438 0.2530059814453125 0.756866455078125
-0.20842361450195312 0.26520156860351562 0.7557525634765625
-0.23766326904296875 0.21283721923828125 0.74884033203125
-0.24072647094726562 0.20659637451171875 0.7510528564453125
-0.03924560546875 0.50555419921875 0.675201416015625
-0.041717529296875 0.51079559326171875 0.6760711669921875
-0.05092620849609375 0.51773834228515625 0.6779022216796875
-0.034881591796875 0.5033111572265625 0.6687164306640625
-0.02654266357421875 0.4909515380859375 0.671844482421875
-0.0295867919921875 0.49539947509765625 0.675811767578125
-0.05301666259765625 0.52166748046875 0.68096923828125
-0.047332763671875 0.51468658447265625 0.671722412109375
-0.02191925048828125 0.48705291748046875 0.66455078125
-0.29561233520507812 0.10880661010742188 0.74658203125
-0.2760009765625 0.14450454711914062 0.7454986572265625
-0.2963104248046875 0.10774993896484375 0.7449798583984375
-0.3156890869140625 0.07057952880859375 0.74627685546875
-0.29417800903320312 0.11031341552734375 0.74810791015625
-0.27475738525390625 0.14617156982421875 0.7497406005859375
-0.27637481689453125 0.14549636840820312 0.745880126953125
-0.31710052490234375 0.06917572021484375 0.7422027587890625
-0.3128509521484375 0.07445526123046875 0.748626708984375
0.0035400390625 0.42157745361328125 0.6810302734375
-0.00035858154296875 0.4246826171875 0.687896728515625
-0.0046234130859375 0.44789886474609375 0.6751251220703125
0.00817108154296875 0.41967010498046875 0.672882080078125
0.0108184814453125 0.3936004638671875 0.6890869140625
0.00756072998046875 0.3940582275390625 0.69537353515625
-0.00856781005859375 0.4514923095703125 0.680999755859375
-0.00016021728515625 0.4453582763671875 0.66705322265625
0.0161590576171875 0.391143798828125 0.678985595703125
-0.36246871948242188 -0.02454376220703125 0.735260009765625
-0.34906005859375 0.003662109375 0.73980712890625
-0.3665771484375 -0.030338287353515625 0.733551025390625
-0.37427520751953125 -0.05030059814453125 0.7311553955078125
-0.3580474853515625 -0.01740264892578125 0.7386322021484375
-0.34549713134765625 0.007747650146484375 0.7430419921875
-0.35268020629882812 8.392333984375e-05 0.73779296875
-0.37807464599609375 -0.056285858154296875 0.7274322509765625
-0.36943817138671875 -0.041606903076171875 0.7330780029296875
0.03974151611328125 0.28792572021484375 0.7093048095703125
0.03790283203125 0.28298187255859375 0.7183074951171875
0.02950286865234375 0.32634735107421875 0.70294189453125
0.04225921630859375 0.29412078857421875 0.7010040283203125
0.05120086669921875 0.24915313720703125 0.718170166015625
0.0500335693359375 0.2422943115234375 0.725341796875
0.0264434814453125 0.32393646240234375 0.7111358642578125
0.03265380859375 0.32891845703125 0.693603515625
0.05291748046875 0.25689697265625 0.70819091796875
-0.40819168090820312 -0.11734390258789062 0.7135009765625
-0.39639663696289062 -0.09687042236328125 0.7187042236328125
-0.41408538818359375 -0.12784576416015625 0.708984375
-0.42062759399414062 -0.1351776123046875 0.70794677734375
-0.40204238891601562 -0.10784149169921875 0.7191009521484375
-0.39043426513671875 -0.087276458740234375 0.723175048828125
-0.40196990966796875 -0.10528945922851562 0.7163238525390625
-0.426666259765625 -0.14670562744140625 0.7032012939453125
-0.41372299194335938 -0.12538909912109375 0.713104248046875
0.08284759521484375 0.1338348388671875 0.7358856201171875
0.08490753173828125 0.12230682373046875 0.7415924072265625
0.07331085205078125 0.17037200927734375 0.7299652099609375
0.082305908203125 0.144744873046875 0.7280426025390625
0.09107208251953125 0.10245513916015625 0.7400970458984375
0.09295654296875 0.0918731689453125 0.745208740234375
0.0744171142578125 0.159088134765625 0.7372894287109375
0.07306671142578125 0.17996978759765625 0.7216949462890625
0.08942413330078125 0.11357879638671875 0.7335052490234375
-0.46279144287109375 -0.16753005981445312 0.6941986083984375
-0.44738388061523438 -0.16132354736328125 0.69805908203125
-0.4710540771484375 -0.17676925659179688 0.68988037109375
-0.4774627685546875 -0.17082977294921875 0.69366455078125
-0.45413970947265625 -0.15774154663085938 0.6993560791015625
-0.43977737426757812 -0.15027618408203125 0.7039794921875
-0.4553375244140625 -0.170989990234375 0.69305419921875
-0.48543930053710938 -0.18025970458984375 0.6882476806640625
-0.46825790405273438 -0.1613616943359375 0.698516845703125
0.09503936767578125 0.05498504638671875 0.7425537109375
0.0985870361328125 0.04454803466796875 0.745513916015625
0.09716796875 0.063446044921875 0.743560791015625
0.0932159423828125 0.06622314453125 0.7372589111328125
0.08708953857421875 0.05648040771484375 0.740692138671875
0.09085845947265625 0.04443359375 0.7438812255859375
0.10134124755859375 0.0510711669921875 0.7472381591796875
0.09568023681640625 0.07370758056640625 0.7386474609375
0.08522796630859375 0.06635284423828125 0.7358856201171875
-0.49871063232421875 -0.158966064453125 0.7018280029296875
-0.49705123901367188 -0.16689300537109375 0.6964111328125
-0.5073089599609375 -0.164886474609375 0.6961212158203125
-0.49415206909179688 -0.14609146118164062 0.705535888671875
-0.48907470703125 -0.15142059326171875 0.7045135498046875
-0.48731613159179688 -0.15882110595703125 0.7012786865234375
-0.5052642822265625 -0.17444229125976562 0.6914520263671875
-0.50204086303710938 -0.1519927978515625 0.703765869140625
-0.485198974609375 -0.13971328735351562 0.7095947265625
0.02492523193359375 0.09957122802734375 0.74078369140625
0.025634765625 0.0906524658203125 0.742034912109375
0.05117034912109375 0.0801544189453125 0.7398223876953125
0.02602386474609375 0.1066436767578125 0.736968994140625
-0.0027618408203125 0.118560791015625 0.7421875
-0.0030975341796875 0.111602783203125 0.7434539794921875
0.05345916748046875 0.07128143310546875 0.742584228515625
0.051025390625 0.08895111083984375 0.7365875244140625
0.00018310546875 0.1259765625 0.7381744384765625
-0.44264984130859375 -0.0797576904296875 0.7298431396484375
-0.46519851684570312 -0.10588836669921875 0.7220306396484375
-0.4479217529296875 -0.08329010009765625 0.7285003662109375
-0.42070388793945312 -0.0522613525390625 0.7384033203125
-0.43750762939453125 -0.0751190185546875 0.7315826416015625
-0.45833969116210938 -0.1008758544921875 0.7235260009765625
-0.47172164916992188 -0.1107330322265625 0.7205047607421875
-0.42451095581054688 -0.055694580078125 0.73626708984375
-0.41497802734375 -0.04796600341796875 0.7387237548828125
-0.05936431884765625 0.1695556640625 0.743072509765625
-0.06353759765625 0.16309356689453125 0.74676513671875
-0.04589080810546875 0.15325164794921875 0.742828369140625
-0.05489349365234375 0.17597198486328125 0.7405853271484375
-0.069671630859375 0.18689727783203125 0.74267578125
-0.07326507568359375 0.17989349365234375 0.7441253662109375
-0.04931640625 0.14833831787109375 0.746429443359375
-0.04131317138671875 0.16017913818359375 0.7407989501953125
-0.06449127197265625 0.1925201416015625 0.73883056640625
-0.36013412475585938 0.0180511474609375 0.7530975341796875
-0.37726593017578125 -0.0029754638671875 0.7493133544921875
-0.36251068115234375 0.015167236328125 0.7529296875
-0.344451904296875 0.037872314453125 0.7569122314453125
-0.35620498657226562 0.0228118896484375 0.754486083984375
-0.37317657470703125 0.00054931640625 0.750396728515625
-0.37980270385742188 -0.00543975830078125 0.7476654052734375
-0.34705734252929688 0.03527069091796875 0.7552947998046875
-0.3409576416015625 0.04090118408203125 0.7584381103515625
-0.097759246826171875 0.41783905029296875 0.7174530029296875
-0.10216522216796875 0.418121337890625 0.7216796875
-0.1005859375 0.39478302001953125 0.721954345703125
-0.093181610107421875 0.41780853271484375 0.712188720703125
-0.09502410888671875 0.44022369384765625 0.7113494873046875
-0.09838104248046875 0.44122314453125 0.7139892578125
-0.10509490966796875 0.39411163330078125 0.724822998046875
-0.095478057861328125 0.39571380615234375 0.7179412841796875
-0.09003448486328125 0.439208984375 0.70648193359375
-0.2195892333984375 0.24901580810546875 0.767669677734375
-0.22941207885742188 0.2324676513671875 0.7674560546875
-0.21787643432617188 0.2552947998046875 0.7660369873046875
-0.20949935913085938 0.26558685302734375 0.7646942138671875
-0.21980667114257812 0.2466583251953125 0.7675323486328125
-0.22925949096679688 0.230224609375 0.7689971923828125
-0.2288360595703125 0.23667144775390625 0.76641845703125
-0.20746612548828125 0.271392822265625 0.7642822265625
-0.21126174926757812 0.2612152099609375 0.7666473388671875
-0.10329055786132812 0.32418060302734375 0.7347412109375
-0.10940170288085938 0.31967926025390625 0.737396240234375
-0.10206985473632812 0.30141448974609375 0.735198974609375
-0.09629058837890625 0.32781219482421875 0.729949951171875
-0.1038818359375 0.3473358154296875 0.7307891845703125
-0.10924148559570312 0.34476470947265625 0.733551025390625
-0.10821151733398438 0.29674530029296875 0.7399139404296875
-0.09466552734375 0.3059234619140625 0.7312774658203125
-0.0975799560546875 0.3506317138671875 0.726470947265625
-0.26326751708984375 0.17230987548828125 0.7675628662109375
-0.27402877807617188 0.150970458984375 0.7688446044921875
-0.26455307006835938 0.1724853515625 0.766754150390625
-0.25136566162109375 0.1935272216796875 0.7684173583984375
-0.26074600219726562 0.17337799072265625 0.7698974609375
-0.271881103515625 0.15191650390625 0.7689361572265625
-0.27568435668945312 0.15145111083984375 0.767364501953125
-0.2520599365234375 0.195098876953125 0.766845703125
-0.24991607666015625 0.19243621826171875 0.769378662109375
-0.09004974365234375 0.238677978515625 0.7402191162109375
-0.0955047607421875 0.23357391357421875 0.7430419921875
-0.08361053466796875 0.22113800048828125 0.74029541015625
-0.08324432373046875 0.245513916015625 0.7365570068359375
-0.094818115234375 0.25848388671875 0.7393341064453125
-0.100860595703125 0.252777099609375 0.7431640625
-0.089141845703125 0.21480560302734375 0.74462890625
-0.07773590087890625 0.227783203125 0.736846923828125
-0.088134765625 0.26432037353515625 0.7360687255859375
-0.30685043334960938 0.0934295654296875 0.7637176513671875
-0.31876754760742188 0.074249267578125 0.7628173828125
-0.30941009521484375 0.09127044677734375 0.763580322265625
-0.29674911499023438 0.11121368408203125 0.765655517578125
-0.30403900146484375 0.09575653076171875 0.7660675048828125
-0.3148956298828125 0.07721710205078125 0.7644805908203125
-0.32178115844726562 0.071319580078125 0.761016845703125
-0.29841995239257812 0.11114501953125 0.7647705078125
-0.2930908203125 0.114044189453125 0.766082763671875
-0.043731689453125 0.56282806396484375 0.641204833984375
-0.054706573486328125 0.544586181640625 0.666778564453125
-0.031032562255859375 0.59030914306640625 0.6225433349609375
-0.03513336181640625 0.57994842529296875 0.6139678955078125
-0.05295562744140625 0.5421905517578125 0.655975341796875
-0.062694549560546875 0.5259246826171875 0.6799163818359375
-0.043140411376953125 0.5725555419921875 0.6505584716796875
-0.02231597900390625 0.60846710205078125 0.589080810546875
-0.0444183349609375 0.5602569580078125 0.629913330078125
-0.0583038330078125 0.533111572265625 0.6801910400390625
-0.051334381103515625 0.5457763671875 0.6779632568359375
-0.066375732421875 0.5177154541015625 0.6966705322265625
-0.0607757568359375 0.52861785888671875 0.67413330078125
-0.053661346435546875 0.5479278564453125 0.6585540771484375
-0.049518585205078125 0.55875396728515625 0.6617584228515625
-0.05780029296875 0.53252410888671875 0.694976806640625
-0.0702972412109375 0.51214599609375 0.6945648193359375
-0.054302215576171875 0.54453277587890625 0.6517486572265625
0.02399444580078125 0.70052337646484375 0.5213165283203125
0.01322174072265625 0.68235015869140625 0.5557861328125
0.042499542236328125 0.72837066650390625 0.477783203125
0.03078460693359375 0.718902587890625 0.483062744140625
0.00390625 0.664825439453125 0.561737060546875
-0.007518768310546875 0.64577484130859375 0.595947265625
0.0324859619140625 0.71068572998046875 0.5108184814453125
0.04730987548828125 0.7426605224609375 0.4445037841796875
0.011920928955078125 0.68431854248046875 0.5211029052734375
0.00978851318359375 0.63455963134765625 0.64190673828125
0.03530120849609375 0.661956787109375 0.6206512451171875
0.00980377197265625 0.62316131591796875 0.6539306640625
-0.01612091064453125 0.60129547119140625 0.66033935546875
0.002246856689453125 0.640869140625 0.6313323974609375
0.024810791015625 0.6671142578125 0.6139068603515625
0.037456512451171875 0.6524200439453125 0.631591796875
-0.0184478759765625 0.58908843994140625 0.673187255859375
-0.020660400390625 0.60901641845703125 0.64654541015625
0.062175750732421875 0.7685699462890625 0.363037109375
0.050594329833984375 0.74941253662109375 0.39501953125
0.0549468994140625 0.77851104736328125 0.3394317626953125
0.0659332275390625 0.78481292724609375 0.3374176025390625
0.062412261962890625 0.75955963134765625 0.3933258056640625
0.053127288818359375 0.74063873291015625 0.4269256591796875
0.042743682861328125 0.75957489013671875 0.3730926513671875
0.060211181640625 0.79494476318359375 0.31646728515625
0.0655517578125 0.77286529541015625 0.370574951171875
0.057201385498046875 0.6950836181640625 0.5887451171875
0.0363922119140625 0.6884002685546875 0.5946044921875
0.06728363037109375 0.68540573120117188 0.59765625
0.062969207763671875 0.6936798095703125 0.59100341796875
0.036472320556640625 0.6987457275390625 0.58587646484375
0.016143798828125 0.68985748291015625 0.5932769775390625
0.04852294921875 0.6785888671875 0.601959228515625
0.07125091552734375 0.68231964111328125 0.5994873046875
0.045413970947265625 0.6952362060546875 0.5882720947265625
0.025234222412109375 0.8090362548828125 0.32958984375
0.009075164794921875 0.79419708251953125 0.36761474609375
0.02008056640625 0.81185150146484375 0.340087890625
0.038524627685546875 0.8180084228515625 0.3014678955078125
0.03412628173828125 0.8019256591796875 0.325897216796875
0.019298553466796875 0.7841949462890625 0.3612213134765625
0.0015869140625 0.7975006103515625 0.3822021484375
0.0352325439453125 0.819091796875 0.30535888671875
0.044940948486328125 0.811492919921875 0.30108642578125
-0.10569000244140625 0.5950469970703125 0.65557861328125
-0.16803741455078125 0.53520965576171875 0.68121337890625
-0.092983245849609375 0.58533859252929688 0.6643829345703125
-0.0478973388671875 0.6409912109375 0.6310882568359375
-0.11295318603515625 0.603607177734375 0.6474761962890625
-0.17316436767578125 0.54671478271484375 0.6724395751953125
-0.15625 0.5228424072265625 0.6892852783203125
-0.035617828369140625 0.63114547729492188 0.640289306640625
-0.059505462646484375 0.6450653076171875 0.62689208984375
0.02735137939453125 0.7834014892578125 0.3878021240234375
0.00374603271484375 0.77199554443359375 0.4441680908203125
0.03302764892578125 0.7613983154296875 0.413238525390625
0.05133056640625 0.7906036376953125 0.3290557861328125
0.02202606201171875 0.798492431640625 0.3679962158203125
-6.103515625e-05 0.78668975830078125 0.4201202392578125
0.00792694091796875 0.75029754638671875 0.4747772216796875
0.05957794189453125 0.7684326171875 0.347930908203125
0.04296875 0.80544281005859375 0.315338134765625
-0.37117767333984375 0.28705978393554688 0.7255859375
-0.4336090087890625 0.19496917724609375 0.7286834716796875
-0.3574371337890625 0.27277374267578125 0.735321044921875
-0.30304718017578125 0.37668609619140625 0.7174072265625
-0.38280868530273438 0.30196380615234375 0.713165283203125
-0.44587326049804688 0.21138763427734375 0.714569091796875
-0.42050552368164062 0.1788482666015625 0.7373504638671875
-0.29023361206054688 0.3643951416015625 0.7252655029296875
-0.31200027465820312 0.390472412109375 0.7042236328125
0.04106903076171875 0.6792755126953125 0.5108795166015625
0.01094818115234375 0.66915130615234375 0.5829925537109375
0.047027587890625 0.63800811767578125 0.5331878662109375
0.07300567626953125 0.687164306640625 0.4315185546875
0.03931427001953125 0.7096710205078125 0.4782867431640625
0.010406494140625 0.6988677978515625 0.548797607421875
0.01576995849609375 0.6266937255859375 0.606353759765625
0.07990264892578125 0.64661407470703125 0.451416015625
0.0699005126953125 0.717742919921875 0.4036102294921875
-0.57434844970703125 -0.0527496337890625 0.72052001953125
-0.59937286376953125 -0.124755859375 0.7165374755859375
-0.56407928466796875 -0.07364654541015625 0.727874755859375
-0.5372161865234375 0.024509429931640625 0.72357177734375
-0.5817413330078125 -0.027347564697265625 0.706634521484375
-0.60536956787109375 -0.09851837158203125 0.70269775390625
-0.59000015258789062 -0.146636962890625 0.7218170166015625
-0.52540969848632812 0.00396728515625 0.7320404052734375
-0.5459442138671875 0.046844482421875 0.70867919921875
0.13355255126953125 0.3751220703125 0.507354736328125
0.10413360595703125 0.36109161376953125 0.57421875
0.18714141845703125 0.2474822998046875 0.4862060546875
0.1649169921875 0.393280029296875 0.42962646484375
0.0903472900390625 0.488128662109375 0.52960205078125
0.05998992919921875 0.47626495361328125 0.6004638671875
0.15906524658203125 0.2326507568359375 0.549163818359375
0.21543121337890625 0.2711944580078125 0.41363525390625
0.123870849609375 0.5016937255859375 0.4476318359375
-0.57733917236328125 -0.31013107299804688 0.68475341796875
-0.552093505859375 -0.344329833984375 0.6663970947265625
-0.572357177734375 -0.32608413696289062 0.6905670166015625
-0.59967041015625 -0.25803756713867188 0.6999664306640625
-0.58409881591796875 -0.28882598876953125 0.671142578125
-0.5583648681640625 -0.3269805908203125 0.653594970703125
-0.54834747314453125 -0.35645675659179688 0.67108154296875
-0.5922088623046875 -0.27682113647460938 0.706634521484375
-0.60588836669921875 -0.2330169677734375 0.6872711181640625
0.34482574462890625 -0.0875091552734375 0.5050048828125
0.32103729248046875 -0.1062469482421875 0.556488037109375
0.3845367431640625 -0.1590576171875 0.524688720703125
0.3672027587890625 -0.0599212646484375 0.44793701171875
0.29742431640625 0.00592041015625 0.487701416015625
0.2723541259765625 -0.0116424560546875 0.540252685546875
0.36220550537109375 -0.17681121826171875 0.569366455078125
0.40546417236328125 -0.1341094970703125 0.47314453125
0.32186126708984375 0.0346221923828125 0.425140380859375
-0.52358245849609375 -0.346038818359375 0.636688232421875
-0.53713226318359375 -0.3294830322265625 0.642486572265625
-0.53049468994140625 -0.352325439453125 0.6403350830078125
-0.5199737548828125 -0.35683441162109375 0.639190673828125
-0.5179290771484375 -0.34075927734375 0.62896728515625
-0.5277557373046875 -0.3268585205078125 0.6338653564453125
-0.5482635498046875 -0.3351287841796875 0.6423187255859375
-0.5236663818359375 -0.36447906494140625 0.6427154541015625
-0.51958465576171875 -0.3499298095703125 0.6284027099609375
0.45050811767578125 -0.2490997314453125 0.5626220703125
0.43827056884765625 -0.2633209228515625 0.588592529296875
0.45037078857421875 -0.25052642822265625 0.569671630859375
0.46053314208984375 -0.233795166015625 0.533660888671875
0.43799591064453125 -0.2377471923828125 0.55303955078125
0.42236328125 -0.2526397705078125 0.586090087890625
0.44254302978515625 -0.261322021484375 0.59222412109375
0.45516204833984375 -0.23586273193359375 0.548614501953125
0.45294189453125 -0.218017578125 0.516845703125
-0.58154296875 -0.2768707275390625 0.68243408203125
-0.57920074462890625 -0.25732421875 0.699859619140625
-0.5970611572265625 -0.27889251708984375 0.681915283203125
-0.572296142578125 -0.2946929931640625 0.665740966796875
-0.56684112548828125 -0.2754669189453125 0.67840576171875
-0.56618499755859375 -0.25640106201171875 0.6981964111328125
-0.59246826171875 -0.2586669921875 0.6992034912109375
-0.58812713623046875 -0.2981414794921875 0.6668243408203125
-0.5574951171875 -0.29299163818359375 0.662322998046875
0.10479736328125 -0.23618316650390625 0.6643524169921875
0.02533721923828125 -0.2271728515625 0.6640777587890625
0.08068084716796875 -0.23407745361328125 0.6690216064453125
0.1806640625 -0.2465362548828125 0.66339111328125
0.13092041015625 -0.23809051513671875 0.6571044921875
0.05258941650390625 -0.22887420654296875 0.6571197509765625
-0.00070953369140625 -0.2259063720703125 0.6678466796875
0.15639495849609375 -0.24456787109375 0.668304443359375
0.2060699462890625 -0.24829864501953125 0.65545654296875
-0.2202911376953125 -0.21758270263671875 0.6708831787109375
-0.2591094970703125 -0.21856689453125 0.67095947265625
-0.1410980224609375 -0.21936798095703125 0.6677703857421875
-0.1814727783203125 -0.219085693359375 0.666778564453125
-0.2913360595703125 -0.21923065185546875 0.6744842529296875
-0.33032989501953125 -0.220703125 0.6747283935546875
-0.1754913330078125 -0.217926025390625 0.66949462890625
-0.10589599609375 -0.219879150390625 0.6628265380859375
-0.25203704833984375 -0.21944427490234375 0.672821044921875
0.22965240478515625 -0.2421112060546875 0.62664794921875
0.15323638916015625 -0.23355865478515625 0.628204345703125
0.19197845458984375 -0.23830413818359375 0.638153076171875
0.3050079345703125 -0.25284576416015625 0.624908447265625
0.27272796630859375 -0.24503326416015625 0.6131591796875
0.19727325439453125 -0.2390899658203125 0.6150360107421875
0.11540985107421875 -0.23150634765625 0.6392822265625
0.26760101318359375 -0.2510223388671875 0.6374664306640625
0.3463287353515625 -0.25638580322265625 0.6128082275390625
-0.07574462890625 -0.22168731689453125 0.6435089111328125
-0.1098480224609375 -0.2210693359375 0.653350830078125
-0.00031280517578125 -0.22460174560546875 0.6364898681640625
-0.0372161865234375 -0.22776031494140625 0.6332855224609375
-0.15157318115234375 -0.2205352783203125 0.6499481201171875
-0.18194580078125 -0.21811676025390625 0.65972900390625
-0.0369110107421875 -0.22081756591796875 0.6475372314453125
0.04178619384765625 -0.23102569580078125 0.625091552734375
-0.1185455322265625 -0.2255401611328125 0.6418609619140625
0.43309783935546875 -0.28078460693359375 0.5773468017578125
0.37059783935546875 -0.2796173095703125 0.580718994140625
0.37668609619140625 -0.2647552490234375 0.587615966796875
0.489959716796875 -0.28419876098632812 0.5782623291015625
0.48905181884765625 -0.30046463012695312 0.57080078125
0.4332733154296875 -0.300933837890625 0.57379150390625
0.30693817138671875 -0.261322021484375 0.59002685546875
0.44065093994140625 -0.2701416015625 0.588043212890625
0.5370025634765625 -0.30145263671875 0.5707855224609375
0.131439208984375 -0.274078369140625 0.6073760986328125
0.065673828125 -0.25414657592773438 0.6143035888671875
0.22039031982421875 -0.2768707275390625 0.5960845947265625
0.200958251953125 -0.29635238647460938 0.602447509765625
0.0330963134765625 -0.26755523681640625 0.620697021484375
-0.0270843505859375 -0.2503814697265625 0.62713623046875
0.15264892578125 -0.2565765380859375 0.6043701171875
0.29105377197265625 -0.29958343505859375 0.5907135009765625
0.0997467041015625 -0.29050827026367188 0.6170654296875
0.6224517822265625 -0.35984420776367188 0.56427001953125
