# XYZ point cloud file
-0.09375 0.67138671875 0.646759033203125
-0.0814208984375 0.668212890625 0.6778564453125
0.124755859375 0.75677490234375 0.60076904296875
0.127197265625 0.78338623046875 0.5596160888671875
0.1138916015625 0.80194091796875 0.535064697265625
0.064453125 0.80706787109375 0.5093841552734375
0.025146484375 0.79779052734375 0.5104827880859375
-0.023193359375 0.783447265625 0.5199432373046875
-0.11767578125 0.7232666015625 0.582733154296875
-0.08642578125 0.7557373046875 0.579986572265625
-0.0595703125 0.7857666015625 0.58868408203125
-0.0150146484375 0.8109130859375 0.599365234375
0.00439453125 0.8052978515625 0.62225341796875
0.0115966796875 0.7908935546875 0.644378662109375
0.177978515625 0.76373291015625 0.55724334716796875
0.182373046875 0.7940673828125 0.52297210693359375
0.171875 0.8179931640625 0.5025634765625
0.1466064453125 0.8192138671875 0.4754638671875
0.132080078125 0.82061767578125 0.4791717529296875
0.115234375 0.8167724609375 0.4921722412109375
-0.05078125 0.8201904296875 0.5833740234375
-0.0687255859375 0.8204345703125 0.58599853515625
-0.0985107421875 0.8270263671875 0.5950927734375
-0.117431640625 0.834716796875 0.62200927734375
-0.1102294921875 0.8409423828125 0.64227294921875
-0.114501953125 0.8369140625 0.65777587890625
0.1444091796875 0.8016357421875 0.57053375244140625
0.1444091796875 0.81256103515625 0.5250244140625
0.1309814453125 0.82342529296875 0.47282791137695312
0.099609375 0.83770751953125 0.4495697021484375
0.1162109375 0.83453369140625 0.459991455078125
0.13427734375 0.8375244140625 0.4714508056640625
-0.1595458984375 0.7947998046875 0.611175537109375
-0.2034912109375 0.748046875 0.61334228515625
-0.25341796875 0.689208984375 0.62139892578125
-0.34912109375 0.6053466796875 0.66656494140625
-0.36328125 0.6104736328125 0.698974609375
-0.3717041015625 0.619384765625 0.721160888671875
0.2142333984375 0.71246337890625 0.54154777526855469
0.2230224609375 0.72821044921875 0.49710464477539062
0.210205078125 0.740234375 0.44146347045898438
0.177490234375 0.7847900390625 0.38454246520996094
0.148681640625 0.81182861328125 0.39347648620605469
0.119873046875 0.82940673828125 0.40712738037109375
-0.4063720703125 0.498291015625 0.6324462890625
-0.4852294921875 0.3994140625 0.63751220703125
-0.5460205078125 0.3028564453125 0.6444091796875
-0.607666015625 0.2113037109375 0.6822509765625
-0.6324462890625 0.2149658203125 0.71649169921875
-0.6419677734375 0.2125244140625 0.733154296875
0.289306640625 0.52166748046875 0.49071502685546875
0.294921875 0.5389404296875 0.44416427612304688
0.300537109375 0.5567626953125 0.3979949951171875
0.272216796875 0.637451171875 0.35721206665039062
0.252685546875 0.6845703125 0.3668060302734375
0.233642578125 0.7227783203125 0.37156105041503906
-0.646240234375 0.128173828125 0.64056396484375
-0.6878662109375 0.0517578125 0.6385498046875
-0.7100830078125 -0.0328369140625 0.62628173828125
-0.719970703125 -0.1357421875 0.64263916015625
-0.7513427734375 -0.1416015625 0.6727294921875
-0.7672119140625 -0.1434326171875 0.68231201171875
0.3525390625 0.15185546875 0.46199512481689453
0.35888671875 0.1915283203125 0.43237876892089844
0.357177734375 0.2239990234375 0.39520072937011719
0.34033203125 0.354248046875 0.3177032470703125
0.328857421875 0.4359130859375 0.30825042724609375
0.303955078125 0.51220703125 0.32209396362304688
-0.660888671875 -0.2249755859375 0.594482421875
-0.597900390625 -0.330078125 0.56097412109375
-0.52392578125 -0.4200439453125 0.53265380859375
-0.45947265625 -0.499267578125 0.5450439453125
-0.4705810546875 -0.510009765625 0.5760498046875
-0.481689453125 -0.5157470703125 0.58331298828125
0.35107421875 -0.0462646484375 0.65444183349609375
0.35205078125 -0.0125732421875 0.63782501220703125
0.346923828125 0.0301513671875 0.61096954345703125
0.350341796875 0.1068115234375 0.52725982666015625
0.359130859375 0.1483154296875 0.46194839477539062
0.352783203125 0.2109375 0.39768409729003906
-0.4210205078125 -0.5277099609375 0.49969482421875
-0.402587890625 -0.5572509765625 0.4923095703125
-0.420166015625 -0.56298828125 0.4979248046875
-0.48046875 -0.5565185546875 0.5419921875
-0.515380859375 -0.552734375 0.5582275390625
-0.552001953125 -0.555419921875 0.569580078125
0.305908203125 -0.0654296875 0.751434326171875
0.29150390625 -0.046875 0.7495269775390625
0.275146484375 -0.02490234375 0.7451171875
0.280517578125 0.009765625 0.7082061767578125
0.293212890625 0.02490234375 0.67401123046875
0.324951171875 0.03955078125 0.6371917724609375
-0.4910888671875 -0.5504150390625 0.52862548828125
-0.5284423828125 -0.52294921875 0.55120849609375
-0.556396484375 -0.4810791015625 0.585205078125
-0.578369140625 -0.4400634765625 0.6368408203125
-0.5933837890625 -0.4349365234375 0.642242431640625
-0.61279296875 -0.4339599609375 0.649383544921875
0.2469482421875 -0.3577880859375 0.6431884765625
0.1845703125 -0.3531494140625 0.627532958984375
0.1163330078125 -0.343017578125 0.61492919921875
0.0010986328125 -0.3416748046875 0.63507080078125
-0.0477294921875 -0.3289794921875 0.65838623046875
-0.0987548828125 -0.31884765625 0.6619873046875
-0.070068359375 -0.3092041015625 0.677001953125
-0.000244140625 -0.3076171875 0.695159912109375
0.06201171875 -0.2919921875 0.716461181640625
0.156005859375 -0.305908203125 0.73529052734375
0.208740234375 -0.3243408203125 0.7147216796875
0.24951171875 -0.33544921875 0.69677734375
-0.265625 -0.3616943359375 0.65863037109375
-0.3216552734375 -0.3665771484375 0.6600341796875
-0.3779296875 -0.361083984375 0.658721923828125
-0.3797607421875 -0.3544921875 0.652496337890625
-0.3099365234375 -0.3421630859375 0.652984619140625
-0.2294921875 -0.3280029296875 0.658782958984375
-0.0133056640625 -0.344482421875 0.608062744140625
-0.0849609375 -0.3470458984375 0.616424560546875
-0.149658203125 -0.35888671875 0.628570556640625
0.4642333984375 -0.41693115234375 0.460906982421875
0.4066162109375 -0.414306640625 0.445709228515625
0.341552734375 -0.407470703125 0.434783935546875
0.2171630859375 -0.3819580078125 0.476715087890625
0.1571044921875 -0.3592529296875 0.522247314453125
0.10400390625 -0.35205078125 0.572540283203125
0.364013671875 -0.3800048828125 0.624176025390625
0.4144287109375 -0.390625 0.57745361328125
0.4700927734375 -0.408935546875 0.537933349609375
-0.08984375 -0.35784912109375 0.538848876953125
-0.1270751953125 -0.35882568359375 0.580780029296875
-0.1636962890625 -0.3597412109375 0.611846923828125
0.2012939453125 -0.38726806640625 0.44476318359375
0.121826171875 -0.38543701171875 0.456024169921875
0.0347900390625 -0.3712158203125 0.487274169921875
0.6220703125 -0.55810546875 0.43060302734375
0.5947265625 -0.570068359375 0.4222412109375
0.5537109375 -0.583740234375 0.4219512939453125
0.45458984375 -0.53497314453125 0.400421142578125
0.397216796875 -0.475830078125 0.39410400390625
0.3358154296875 -0.4345703125 0.399505615234375
0.55810546875 -0.44970703125 0.450225830078125
0.5931396484375 -0.473388671875 0.43255615234375
0.6280517578125 -0.51605224609375 0.42974853515625
0.0653076171875 -0.46343994140625 0.4793701171875
0.021728515625 -0.41546630859375 0.471954345703125
-0.0184326171875 -0.387451171875 0.4852294921875
0.4305419921875 -0.5662841796875 0.434539794921875
0.3436279296875 -0.556884765625 0.454833984375
0.239990234375 -0.53192138671875 0.478363037109375
0.659423828125 -0.57696533203125 0.4843292236328125
0.6710205078125 -0.5965576171875 0.5228271484375
0.677490234375 -0.60205078125 0.56103515625
0.62939453125 -0.65008544921875 0.542877197265625
0.5859375 -0.64776611328125 0.50140380859375
0.5477294921875 -0.6221923828125 0.4614410400390625
0.29168701171875 -0.5748291015625 0.60784912109375
0.2291259765625 -0.56829833984375 0.5643157958984375
0.170166015625 -0.5517578125 0.527618408203125
0.683837890625 -0.52191162109375 0.613494873046875
0.6700439453125 -0.51904296875 0.6557159423828125
0.6578369140625 -0.52667236328125 0.6840972900390625
0.662353515625 -0.5350341796875 0.4775543212890625
0.6729736328125 -0.52130126953125 0.5178070068359375
0.68212890625 -0.5203857421875 0.55780029296875
-0.2686767578125 -0.42840576171875 0.5640869140625
-0.160400390625 -0.448486328125 0.541839599609375
-0.023681640625 -0.47650146484375 0.524200439453125
-0.238037109375 -0.4415283203125 0.666229248046875
-0.30615234375 -0.43145751953125 0.629638671875
-0.3341064453125 -0.41680908203125 0.5888671875
0.705078125 -0.4903564453125 0.642486572265625
0.712158203125 -0.49658203125 0.67694091796875
0.6998291015625 -0.4912109375 0.7043609619140625
0.6927490234375 -0.50726318359375 0.582489013671875
0.6953125 -0.4962158203125 0.588409423828125
0.6922607421875 -0.490234375 0.593994140625
-0.4130859375 -0.35113525390625 0.58245849609375
-0.4080810546875 -0.360107421875 0.5758056640625
-0.3746337890625 -0.38934326171875 0.57330322265625
-0.424560546875 -0.330810546875 0.684326171875
-0.458740234375 -0.33660888671875 0.650115966796875
-0.4501953125 -0.34222412109375 0.614044189453125
0.618896484375 -0.4154052734375 0.72271728515625
0.6741943359375 -0.4403076171875 0.7179412841796875
0.71337890625 -0.441650390625 0.7027740478515625
0.65283203125 -0.45660400390625 0.640350341796875
0.62646484375 -0.440185546875 0.667694091796875
0.5880126953125 -0.422119140625 0.6976318359375
-0.4036865234375 -0.37200927734375 0.65045166015625
-0.4039306640625 -0.35247802734375 0.631195068359375
-0.4071044921875 -0.3450927734375 0.616943359375
-0.446044921875 -0.30645751953125 0.70672607421875
-0.448486328125 -0.337646484375 0.689605712890625
-0.430419921875 -0.36346435546875 0.675445556640625
0.639892578125 -0.4605712890625 0.57928466796875
0.6015625 -0.44573974609375 0.550567626953125
0.5638427734375 -0.43505859375 0.520416259765625
0.361328125 -0.359619140625 0.687408447265625
0.4176025390625 -0.3701171875 0.702789306640625
0.4793701171875 -0.3797607421875 0.716400146484375
-0.3687744140625 -0.3753662109375 0.66796875
-0.32861328125 -0.3673095703125 0.657806396484375
-0.2744140625 -0.3687744140625 0.646575927734375
-0.15771484375 -0.36309814453125 0.537872314453125
-0.2598876953125 -0.35748291015625 0.55499267578125
-0.3470458984375 -0.34649658203125 0.57537841796875
0.173583984375 -0.2833251953125 0.75872802734375
0.227294921875 -0.275390625 0.7708740234375
0.291748046875 -0.2667236328125 0.775848388671875
0.401123046875 -0.3111572265625 0.77850341796875
0.442626953125 -0.3350830078125 0.765777587890625
0.49609375 -0.3680419921875 0.746673583984375
-0.41796875 -0.3897705078125 0.681854248046875
-0.4207763671875 -0.3935546875 0.693328857421875
-0.42919921875 -0.397705078125 0.699249267578125
-0.4423828125 -0.3919677734375 0.693450927734375
-0.4512939453125 -0.3922119140625 0.680938720703125
-0.4471435546875 -0.38037109375 0.66790771484375
0.429931640625 -0.292724609375 0.7806396484375
0.503662109375 -0.3145751953125 0.774932861328125
0.5577392578125 -0.3348388671875 0.7625885009765625
-0.4560546875 -0.3541259765625 0.73345947265625
-0.4471435546875 -0.379638671875 0.725616455078125
-0.438232421875 -0.386962890625 0.717071533203125
0.38427734375 -0.2188720703125 0.7875518798828125
0.337158203125 -0.203125 0.791656494140625
0.28271484375 -0.1922607421875 0.792236328125
0.221923828125 -0.1436767578125 0.788787841796875
0.218505859375 -0.126708984375 0.78570556640625
0.2099609375 -0.11865234375 0.785186767578125
0.215576171875 -0.123779296875 0.78851318359375
0.248046875 -0.1368408203125 0.7940216064453125
0.275390625 -0.150634765625 0.7962188720703125
-0.3924560546875 -0.3057861328125 0.756591796875
-0.4031982421875 -0.310791015625 0.750335693359375
-0.421875 -0.3177490234375 0.733734130859375
-0.4609375 -0.345947265625 0.714599609375
-0.470458984375 -0.357177734375 0.713775634765625
-0.4796142578125 -0.3697509765625 0.70147705078125
-0.4381103515625 -0.3621826171875 0.726715087890625
-0.4254150390625 -0.3544921875 0.736175537109375
-0.4163818359375 -0.3472900390625 0.748870849609375
0.315673828125 -0.2559814453125 0.787017822265625
0.283447265625 -0.230224609375 0.7921142578125
0.2529296875 -0.20263671875 0.7943115234375
-0.45458984375 -0.3818359375 0.7086181640625
-0.447021484375 -0.38427734375 0.704681396484375
-0.4422607421875 -0.393310546875 0.70538330078125
0.19482421875 -0.0684814453125 0.7818603515625
0.203857421875 -0.07763671875 0.782073974609375
0.216796875 -0.0865478515625 0.7820892333984375
0.19482421875 -0.086669921875 0.78045654296875
0.181396484375 -0.0792236328125 0.78509521484375
0.181640625 -0.07177734375 0.77618408203125
-0.4493408203125 -0.304931640625 0.719451904296875
-0.436767578125 -0.307373046875 0.7314453125
-0.4443359375 -0.323486328125 0.72491455078125
-0.4302978515625 -0.283447265625 0.7447509765625
-0.44189453125 -0.287109375 0.738250732421875
-0.448486328125 -0.3013916015625 0.724822998046875
0.1982421875 -0.0538330078125 0.7736053466796875
0.214599609375 -0.03564453125 0.76531982421875
0.233642578125 -0.0308837890625 0.75445556640625
-0.5474853515625 -0.3873291015625 0.66357421875
-0.5189208984375 -0.35009765625 0.6956787109375
-0.482177734375 -0.326171875 0.710693359375
-0.573486328125 -0.572509765625 -0.1297607421875
-0.423828125 -0.575927734375 -0.16632080078125
-0.2373046875 -0.547607421875 -0.21142578125
0.060302734375 -0.405517578125 -0.2696533203125
0.13671875 -0.34619140625 -0.25299072265625
0.2001953125 -0.296142578125 -0.2191162109375
0.1318359375 -0.394775390625 -0.09765625
0.032958984375 -0.4791259765625 -0.02008056640625
-0.058349609375 -0.5223388671875 0.05694580078125
-0.277099609375 -0.5433349609375 0.08648681640625
-0.428955078125 -0.5389404296875 0.02227783203125
-0.572998046875 -0.5357666015625 -0.038818359375
-0.772216796875 -0.5428466796875 -0.13458251953125
-0.795654296875 -0.549560546875 -0.1671142578125
-0.7841796875 -0.5633544921875 -0.19000244140625
-0.697998046875 -0.6142578125 -0.22711181640625
-0.6279296875 -0.6201171875 -0.24334716796875
-0.543212890625 -0.61669921875 -0.26019287109375
-0.361572265625 -0.566650390625 -0.278564453125
-0.27099609375 -0.542236328125 -0.2735595703125
-0.153564453125 -0.5078125 -0.2725830078125
-0.83837890625 -0.374267578125 0.10443115234375
-0.825927734375 -0.4342041015625 0.017578125
-0.781982421875 -0.489501953125 -0.04443359375
-0.207763671875 -0.5338134765625 0.223876953125
-0.262451171875 -0.5025634765625 0.3162841796875
-0.298583984375 -0.45947265625 0.4093017578125
-0.435791015625 -0.3824462890625 0.435791015625
-0.581298828125 -0.3624267578125 0.3575439453125
-0.716796875 -0.34375 0.2762451171875
-0.873779296875 -0.3367919921875 0.1561279296875
-0.888671875 -0.3546142578125 0.1226806640625
-0.876953125 -0.38134765625 0.09954833984375
-0.83251953125 -0.448486328125 -0.029541015625
-0.8095703125 -0.4879150390625 -0.1165771484375
-0.78125 -0.5380859375 -0.17620849609375
-0.53369140625 -0.2877197265625 0.5333251953125
-0.66064453125 -0.2852783203125 0.44281005859375
-0.74951171875 -0.3031005859375 0.3280029296875
-0.270263671875 -0.3472900390625 0.5849609375
-0.213623046875 -0.2967529296875 0.650054931640625
-0.129638671875 -0.264892578125 0.70233154296875
-0.13525390625 -0.2615966796875 0.6973876953125
-0.228759765625 -0.271240234375 0.660369873046875
-0.3212890625 -0.281494140625 0.62677001953125
-0.499755859375 -0.30859375 0.58001708984375
-0.576171875 -0.326416015625 0.55889892578125
-0.632568359375 -0.3575439453125 0.55072021484375
-0.750244140625 -0.3936767578125 0.44610595703125
-0.804931640625 -0.3878173828125 0.334228515625
-0.828125 -0.40234375 0.2115478515625
-0.189208984375 -0.3114013671875 0.6583251953125
-0.244384765625 -0.309326171875 0.65679931640625
-0.319091796875 -0.3045654296875 0.63238525390625
0.008056640625 -0.25634765625 0.742645263671875
0.04638671875 -0.270263671875 0.742828369140625
0.082763671875 -0.27490234375 0.746551513671875
-0.46484375 -0.36767578125 0.645782470703125
-0.516845703125 -0.3848876953125 0.635284423828125
-0.57177734375 -0.3775634765625 0.6048583984375
0.05419921875 -0.2244873046875 0.76788330078125
0.12451171875 -0.198974609375 0.77801513671875
0.16943359375 -0.176025390625 0.788818359375
-0.521728515625 -0.392822265625 0.675262451171875
-0.5582275390625 -0.4044189453125 0.63861083984375
-0.6064453125 -0.4073486328125 0.604736328125
0.3544921875 0.4617919921875 0.10550117492675781
0.34228515625 0.4044189453125 0.19521522521972656
0.35009765625 0.3397216796875 0.27453422546386719
0.346923828125 0.0965576171875 0.55464935302734375
0.365234375 0.1077880859375 0.5226898193359375
0.392333984375 0.097412109375 0.50152587890625
0.431884765625 0.182861328125 0.3511962890625
0.4189453125 0.2969970703125 0.2200775146484375
0.38818359375 0.417724609375 0.10694122314453125
-0.5562744140625 -0.5382080078125 0.17529296875
-0.469970703125 -0.590576171875 0.168212890625
-0.4176025390625 -0.6170654296875 0.1741943359375
-0.4056396484375 -0.6129150390625 0.2806396484375
-0.415283203125 -0.5977783203125 0.375732421875
-0.428955078125 -0.5767822265625 0.44708251953125
-0.48583984375 -0.4866943359375 0.446044921875
-0.5308837890625 -0.4794921875 0.3668212890625
-0.5875244140625 -0.4774169921875 0.27685546875
0.150390625 -0.3236083984375 -0.35076904296875
0.2841796875 -0.1240234375 -0.42022705078125
0.320556640625 0.1156005859375 -0.4638671875
0.29345703125 0.5203857421875 -0.43231201171875
0.279052734375 0.6527099609375 -0.41192626953125
0.2587890625 0.7591552734375 -0.403533935546875
0.311767578125 0.5377197265625 -0.376373291015625
0.33251953125 0.2288818359375 -0.330352783203125
0.305908203125 -0.0421142578125 -0.25994873046875
-0.291748046875 -0.5350341796875 -0.33349609375
-0.149169921875 -0.4521484375 -0.40362548828125
-0.023681640625 -0.3349609375 -0.4940185546875
0.148681640625 -0.0604248046875 -0.58294677734375
0.224853515625 0.0711669921875 -0.5574951171875
0.2734375 0.2154541015625 -0.51177978515625
0.301513671875 0.7904052734375 -0.279510498046875
0.279052734375 0.8157958984375 -0.276092529296875
0.210693359375 0.8421630859375 -0.250152587890625
0.14599609375 0.8505859375 -0.235076904296875
0.15966796875 0.84765625 -0.255645751953125
0.16943359375 0.86279296875 -0.26776123046875
0.270263671875 0.8638916015625 -0.3189239501953125
0.3642578125 0.8197021484375 -0.33783721923828125
0.421875 0.794921875 -0.3475799560546875
0.445068359375 0.747314453125 -0.31964874267578125
0.408203125 0.7255859375 -0.3027191162109375
0.3515625 0.7391357421875 -0.28729248046875
0.24658203125 0.8409423828125 -0.26214599609375
0.192626953125 0.8907470703125 -0.28009033203125
0.11669921875 0.915771484375 -0.313812255859375
-0.0185546875 0.928466796875 -0.332275390625
-0.084228515625 0.951171875 -0.27911376953125
-0.162109375 0.9595947265625 -0.2227783203125
-0.127685546875 0.9698486328125 -0.14697265625
-0.01904296875 0.95849609375 -0.15460205078125
0.063720703125 0.918212890625 -0.176055908203125
0.184326171875 0.852783203125 -0.213714599609375
0.229736328125 0.8236083984375 -0.221710205078125
0.275390625 0.7940673828125 -0.2445068359375
0.489013671875 0.8145751953125 -0.32270050048828125
0.47119140625 0.8582763671875 -0.305419921875
0.41162109375 0.9315185546875 -0.30171966552734375
0.280517578125 0.975830078125 -0.27239990234375
0.22802734375 0.9403076171875 -0.2389984130859375
0.175537109375 0.9066162109375 -0.218414306640625
0.109130859375 0.8323974609375 -0.30535888671875
0.09912109375 0.7779541015625 -0.4063720703125
0.086669921875 0.7020263671875 -0.51220703125
0.06787109375 0.71728515625 -0.52423095703125
0.063720703125 0.79638671875 -0.46441650390625
0.05615234375 0.8536376953125 -0.413330078125
0.21533203125 0.597900390625 -0.423583984375
0.1416015625 0.7677001953125 -0.364013671875
0.106201171875 0.854736328125 -0.29241943359375
0.219970703125 1.11572265625 -0.352203369140625
0.1591796875 1.138427734375 -0.37420654296875
0.185302734375 1.04638671875 -0.3945159912109375
0.096435546875 0.03369140625 -0.67022705078125
0.0888671875 0.2498779296875 -0.71209716796875
0.072509765625 0.4488525390625 -0.68133544921875
0.105224609375 0.85595703125 0.13017654418945312
0.146728515625 0.8094482421875 0.22312164306640625
0.178466796875 0.7806396484375 0.30383110046386719
0.271240234375 0.62109375 0.27984237670898438
0.253662109375 0.6534423828125 0.2129669189453125
0.23681640625 0.704345703125 0.13465499877929688
0.18994140625 0.80810546875 0.059080123901367188
0.156005859375 0.8421630859375 0.0506744384765625
0.1171875 0.8763427734375 0.034954071044921875
-0.7188720703125 0.2349853515625 0.32012939453125
-0.745361328125 0.15673828125 0.34033203125
-0.7679443359375 0.0712890625 0.3634033203125
-0.727783203125 -0.0635986328125 0.43963623046875
-0.69677734375 -0.0902099609375 0.51580810546875
-0.6939697265625 -0.108154296875 0.57147216796875
-0.602294921875 0.2142333984375 0.58837890625
-0.6075439453125 0.227294921875 0.51513671875
-0.642333984375 0.2655029296875 0.41815185546875
0.108642578125 1.0096435546875 -0.26885032653808594
0.075927734375 0.985107421875 -0.18731880187988281
0.061767578125 0.946044921875 -0.08571624755859375
0.206787109375 0.8135986328125 -0.030803680419921875
0.20703125 0.875 -0.1212615966796875
0.221435546875 0.9195556640625 -0.19356536865234375
0.229248046875 0.98974609375 -0.27104568481445312
0.201416015625 1.0140380859375 -0.29166030883789062
0.184326171875 1.0235595703125 -0.31490325927734375
-0.798583984375 0.511962890625 -0.23114013671875
-0.869384765625 0.407958984375 -0.18817138671875
-0.93701171875 0.2860107421875 -0.130859375
-0.9632568359375 0.1202392578125 0.02880859375
-0.9114990234375 0.0743408203125 0.14813232421875
-0.8438720703125 0.01806640625 0.25732421875
-0.7412109375 0.3995361328125 0.16302490234375
-0.76513671875 0.4869384765625 0.01239013671875
-0.762451171875 0.5693359375 -0.1317138671875
0.34033203125 1.0244140625 -0.42139434814453125
0.284423828125 1.014892578125 -0.40555000305175781
0.225830078125 1.0126953125 -0.37502098083496094
0.260009765625 1.0050048828125 -0.32303237915039062
0.28515625 1.033203125 -0.374725341796875
0.305908203125 1.0765380859375 -0.41477584838867188
0.337890625 1.107666015625 -0.44351959228515625
0.34619140625 1.1007080078125 -0.43910980224609375
0.354248046875 1.076904296875 -0.43524169921875
-0.484619140625 0.43310546875 -0.6182861328125
-0.591064453125 0.333251953125 -0.59075927734375
-0.69775390625 0.2275390625 -0.542236328125
-0.86279296875 0.1513671875 -0.415283203125
-0.92333984375 0.177001953125 -0.3134765625
-0.971923828125 0.177490234375 -0.2069091796875
-0.641357421875 0.6383056640625 -0.377197265625
-0.556884765625 0.6248779296875 -0.47509765625
-0.46826171875 0.592529296875 -0.558349609375
0.3720703125 1.1917724609375 -0.42738151550292969
0.397216796875 1.129150390625 -0.42333793640136719
0.400146484375 1.076171875 -0.42615890502929688
0.325439453125 1.1517333984375 -0.47043228149414062
0.327880859375 1.1923828125 -0.48125648498535156
0.320068359375 1.2218017578125 -0.48130416870117188
0.320556640625 1.2586669921875 -0.4730072021484375
0.323974609375 1.2728271484375 -0.46198272705078125
0.320556640625 1.269287109375 -0.44818687438964844
-0.224609375 0.023681640625 -0.7166748046875
-0.317626953125 -0.05419921875 -0.68853759765625
-0.413818359375 -0.11328125 -0.650634765625
-0.540771484375 -0.0994873046875 -0.62054443359375
-0.614013671875 -0.0269775390625 -0.60076904296875
-0.69775390625 0.0440673828125 -0.5592041015625
-0.298828125 0.46484375 -0.673583984375
-0.22509765625 0.3741455078125 -0.71148681640625
-0.167236328125 0.2579345703125 -0.726806640625
0.293701171875 1.2200927734375 -0.46780967712402344
0.281005859375 1.1624755859375 -0.44139862060546875
0.281982421875 1.04345703125 -0.3853302001953125
0.285400390625 0.8280029296875 -0.29913330078125
0.2626953125 0.8321533203125 -0.3104705810546875
0.26611328125 0.8389892578125 -0.329132080078125
0.22314453125 1.0869140625 -0.397430419921875
0.21875 1.230224609375 -0.4306488037109375
0.268798828125 1.2772216796875 -0.4378509521484375
-0.13916015625 -0.0306396484375 -0.72216796875
-0.162109375 -0.181396484375 -0.67169189453125
-0.205078125 -0.3277587890625 -0.59429931640625
-0.33935546875 -0.4951171875 -0.4976806640625
-0.407958984375 -0.5277099609375 -0.4794921875
-0.47216796875 -0.55224609375 -0.4666748046875
-0.53369140625 -0.4586181640625 -0.50732421875
-0.521484375 -0.3463134765625 -0.55535888671875
-0.502197265625 -0.2352294921875 -0.5994873046875
0.24609375 0.8719482421875 -0.358734130859375
0.24560546875 0.876708984375 -0.371002197265625
0.247802734375 0.864990234375 -0.386199951171875
0.335693359375 1.09375 -0.35485076904296875
0.337890625 1.1549072265625 -0.38563919067382812
0.326416015625 1.207275390625 -0.40793228149414062
-0.069580078125 0.24169921875 -0.73956298828125
-0.015625 0.3673095703125 -0.72119140625
0.0322265625 0.491455078125 -0.67584228515625
-0.0185546875 -0.267333984375 -0.57470703125
-0.10791015625 -0.3408203125 -0.5518798828125
-0.191650390625 -0.403076171875 -0.53143310546875
0.457763671875 0.8570556640625 -0.36209297180175781
0.427490234375 0.92626953125 -0.3865814208984375
0.4033203125 0.9873046875 -0.41010665893554688
-0.285888671875 0.645751953125 -0.59600830078125
-0.18505859375 0.7568359375 -0.5321044921875
-0.083251953125 0.8431396484375 -0.45361328125
0.16650390625 0.935546875 -0.2930755615234375
0.15966796875 0.966796875 -0.31592369079589844
0.154296875 0.99072265625 -0.327484130859375
-0.624267578125 0.721435546875 -0.25714111328125
-0.518798828125 0.8209228515625 -0.2293701171875
-0.3935546875 0.9012451171875 -0.19061279296875
0.0625 0.932861328125 -0.2072601318359375
-0.010009765625 0.9554443359375 -0.1143798828125
-0.046142578125 0.948974609375 -0.00383758544921875
-0.02001953125 0.9300537109375 0.08101654052734375
0.010498046875 0.9306640625 0.05118560791015625
0.047607421875 0.9241943359375 0.031179428100585938
-0.6512451171875 0.4019775390625 0.30413818359375
-0.58544921875 0.4947509765625 0.31402587890625
-0.4991455078125 0.590087890625 0.32525634765625
-0.43115234375 0.7581787109375 0.20458984375
-0.412841796875 0.8448486328125 0.0655517578125
-0.35400390625 0.914794921875 -0.0662841796875
-0.023193359375 0.8968505859375 0.209686279296875
0.018310546875 0.8643798828125 0.30036163330078125
0.052001953125 0.8507080078125 0.3671417236328125
-0.3355712890625 0.5736083984375 0.57421875
-0.3563232421875 0.5802001953125 0.519775390625
-0.3868408203125 0.615234375 0.43853759765625
0.003173828125 0.9150390625 -0.124969482421875
-0.084716796875 0.9241943359375 0.005340576171875
-0.125 0.8963623046875 0.169586181640625
-0.120849609375 0.876708984375 0.25537109375
-0.1025390625 0.8992919921875 0.1915435791015625
-0.081787109375 0.91357421875 0.148590087890625
-0.324951171875 0.74609375 0.32977294921875
-0.246826171875 0.798583984375 0.323883056640625
-0.182373046875 0.8265380859375 0.328033447265625
0.03759765625 0.838134765625 0.4229888916015625
-0.005859375 0.8223876953125 0.441436767578125
-0.0423583984375 0.7998046875 0.4769287109375
-0.15771484375 0.6961669921875 0.55908203125
-0.1925048828125 0.6771240234375 0.56744384765625
-0.24169921875 0.6546630859375 0.583648681640625
-0.1241455078125 0.812255859375 0.409820556640625
-0.111572265625 0.7939453125 0.44921875
-0.0989990234375 0.776611328125 0.4845733642578125
-0.15966796875 0.7061767578125 0.54620361328125
-0.1663818359375 0.733154296875 0.494964599609375
-0.155517578125 0.781005859375 0.444671630859375
-0.142578125 0.7799072265625 0.45855712890625
-0.148681640625 0.7384033203125 0.500823974609375
-0.1529541015625 0.705810546875 0.538116455078125
0.317138671875 0.6046142578125 -0.0054340362548828125
0.275390625 0.6624755859375 -0.004150390625
0.24658203125 0.7164306640625 0.023622512817382812
-0.7828369140625 -0.1427001953125 0.32708740234375
-0.766357421875 -0.260498046875 0.27618408203125
-0.724609375 -0.374267578125 0.2352294921875
0.341064453125 0.58642578125 -0.044164657592773438
0.33740234375 0.6490478515625 -0.11205863952636719
0.33349609375 0.7060546875 -0.16789054870605469
0.29931640625 0.8448486328125 -0.27334213256835938
0.2685546875 0.893798828125 -0.282012939453125
0.26416015625 0.931640625 -0.27474212646484375
-0.99853515625 0.01025390625 -0.076171875
-0.97705078125 -0.140869140625 -0.07861328125
-0.926513671875 -0.2806396484375 -0.0928955078125
-0.802490234375 -0.421875 -0.03277587890625
-0.76025390625 -0.4393310546875 0.04266357421875
-0.706298828125 -0.4521484375 0.111083984375
0.33642578125 0.845947265625 -0.29452896118164062
0.318359375 0.896240234375 -0.33579444885253906
0.317138671875 0.9305419921875 -0.36202049255371094
0.29541015625 1.0238037109375 -0.41446876525878906
0.298583984375 1.0743408203125 -0.44415664672851562
0.2998046875 1.10009765625 -0.45407867431640625
-0.839599609375 -0.028076171875 -0.45458984375
-0.85205078125 -0.1627197265625 -0.41778564453125
-0.84033203125 -0.2845458984375 -0.3831787109375
-0.85791015625 -0.3580322265625 -0.3099365234375
-0.87939453125 -0.3538818359375 -0.24981689453125
-0.874755859375 -0.3702392578125 -0.190185546875
0.320068359375 0.9996337890625 -0.39105987548828125
0.302001953125 1.0037841796875 -0.38535308837890625
0.30419921875 0.9683837890625 -0.36110687255859375
-0.608642578125 -0.5030517578125 -0.45831298828125
-0.69091796875 -0.44287109375 -0.44329833984375
-0.759033203125 -0.401611328125 -0.41107177734375
0.07470703125 -0.1219482421875 0.7529296875
0.0322265625 -0.181884765625 0.761932373046875
-0.002197265625 -0.2156982421875 0.75634765625
-0.176513671875 -0.402587890625 0.54351806640625
-0.087890625 -0.3878173828125 0.5582275390625
0.007568359375 -0.363037109375 0.565277099609375
0.081787109375 -0.2623291015625 0.634735107421875
0.092529296875 -0.190185546875 0.678466796875
0.115966796875 -0.110107421875 0.707611083984375
-0.65771484375 -0.5146484375 0.318115234375
-0.664306640625 -0.5147705078125 0.21148681640625
-0.6572265625 -0.51513671875 0.10491943359375
-0.70263671875 -0.4993896484375 0.0269775390625
-0.744873046875 -0.47607421875 0.04547119140625
-0.79296875 -0.4473876953125 0.06396484375
-0.7041015625 -0.423095703125 0.51324462890625
-0.706787109375 -0.44970703125 0.47528076171875
-0.689208984375 -0.4752197265625 0.447265625
0.400146484375 -0.19970703125 0.571746826171875
0.402587890625 -0.123291015625 0.568695068359375
0.424072265625 -0.039306640625 0.546417236328125
0.371826171875 0.0101318359375 0.5902099609375
0.298583984375 -0.0103759765625 0.646148681640625
0.213134765625 -0.0223388671875 0.687103271484375
0.15234375 -0.3001708984375 0.558746337890625
0.229736328125 -0.2869873046875 0.55731201171875
0.309326171875 -0.2783203125 0.55645751953125
-0.48876953125 -0.5848388671875 -0.0491943359375
-0.546142578125 -0.5633544921875 -0.03021240234375
-0.60107421875 -0.53955078125 -0.0155029296875
-0.584228515625 -0.5472412109375 0.34857177734375
-0.51318359375 -0.5771484375 0.28350830078125
-0.4443359375 -0.613037109375 0.22528076171875
-0.411376953125 -0.6209716796875 0.10565185546875
-0.4267578125 -0.610107421875 0.0537109375
-0.437255859375 -0.6082763671875 -0.0003662109375
0.227783203125 0.0142822265625 0.72662353515625
0.202880859375 0.011474609375 0.72357177734375
0.177001953125 -0.0064697265625 0.721038818359375
-0.609375 -0.507080078125 0.48638916015625
-0.5789794921875 -0.4864501953125 0.53717041015625
-0.5675048828125 -0.4656982421875 0.58837890625
0.22265625 -0.0240478515625 0.7527618408203125
0.20556640625 -0.0548095703125 0.7676544189453125
0.197509765625 -0.078125 0.776092529296875
0.169921875 -0.1336669921875 0.787017822265625
0.14013671875 -0.0980224609375 0.77410888671875
0.1220703125 -0.0712890625 0.75848388671875
-0.64111328125 -0.4664306640625 0.53558349609375
-0.602783203125 -0.4317626953125 0.60406494140625
-0.548583984375 -0.399169921875 0.657806396484375
-0.494873046875 -0.3446044921875 0.701446533203125
-0.529541015625 -0.3660888671875 0.6689453125
-0.558349609375 -0.408935546875 0.65008544921875
0.326171875 0.5682373046875 -0.182159423828125
0.34375 0.28076171875 -0.0533447265625
0.373046875 0.0162353515625 0.0826416015625
0.33984375 -0.1673583984375 0.169891357421875
0.3134765625 -0.169677734375 0.1363525390625
0.27685546875 -0.192626953125 0.09393310546875
0.300048828125 -0.0126953125 -0.0694580078125
0.31298828125 0.2646484375 -0.1767578125
0.294677734375 0.5648193359375 -0.26849365234375
-0.337890625 -0.5389404296875 -0.4459228515625
-0.416259765625 -0.5933837890625 -0.3900146484375
-0.48583984375 -0.6221923828125 -0.34967041015625
-0.547607421875 -0.62841796875 -0.3121337890625
-0.525634765625 -0.6414794921875 -0.31402587890625
-0.50634765625 -0.660400390625 -0.30364990234375
-0.49267578125 -0.69384765625 -0.340576171875
-0.502685546875 -0.680908203125 -0.3692626953125
-0.510009765625 -0.6424560546875 -0.40936279296875
0.260498046875 -0.2159423828125 -0.031341552734375
0.262451171875 -0.2059326171875 -0.0926513671875
0.25634765625 -0.2188720703125 -0.1363525390625
-0.4677734375 -0.608154296875 -0.30035400390625
-0.49755859375 -0.62255859375 -0.307861328125
-0.52880859375 -0.62744140625 -0.3118896484375
0.369140625 -0.302978515625 0.330474853515625
0.36376953125 -0.3453369140625 0.4307861328125
0.372802734375 -0.336669921875 0.512054443359375
0.09375 -0.371826171875 0.468475341796875
0.12646484375 -0.3880615234375 0.3504638671875
0.174560546875 -0.3526611328125 0.21917724609375
-0.60693359375 -0.591796875 -0.25115966796875
-0.629150390625 -0.5584716796875 -0.18682861328125
-0.642333984375 -0.5369873046875 -0.0938720703125
-0.44775390625 -0.6129150390625 -0.131103515625
-0.460693359375 -0.6275634765625 -0.19464111328125
-0.47265625 -0.6575927734375 -0.25482177734375
-0.01611328125 -0.5157470703125 0.16192626953125
0.078857421875 -0.4703369140625 0.15362548828125
0.16943359375 -0.390380859375 0.125457763671875
-0.61083984375 -0.609619140625 -0.27471923828125
-0.65869140625 -0.606201171875 -0.25067138671875
-0.70068359375 -0.595458984375 -0.22979736328125
0.512451171875 1.0782470703125 -0.4459686279296875
0.51513671875 1.094970703125 -0.4507904052734375
0.52197265625 1.1185302734375 -0.448486328125
0.492431640625 1.1270751953125 -0.44954681396484375
0.474853515625 1.09912109375 -0.44365692138671875
0.452392578125 1.0733642578125 -0.43401336669921875
0.421875 1.0179443359375 -0.41942024230957031
0.442138671875 0.9945068359375 -0.40942573547363281
0.44091796875 0.9677734375 -0.40178298950195312
0.455810546875 0.9814453125 -0.40507125854492188
0.477783203125 1.0086669921875 -0.421783447265625
0.4990234375 1.0364990234375 -0.43342208862304688
-0.895751953125 -0.5965576171875 -0.37322998046875
-0.8951416015625 -0.5657958984375 -0.37493896484375
-0.893798828125 -0.544189453125 -0.36505126953125
-0.879150390625 -0.504150390625 -0.35760498046875
-0.871826171875 -0.4786376953125 -0.365966796875
-0.850830078125 -0.4705810546875 -0.38580322265625
-0.824951171875 -0.4927978515625 -0.4110107421875
-0.8223876953125 -0.522216796875 -0.4139404296875
-0.8035888671875 -0.5560302734375 -0.412109375
-0.8358154296875 -0.5914306640625 -0.39862060546875
-0.868408203125 -0.5897216796875 -0.38995361328125
-0.889404296875 -0.604736328125 -0.38543701171875
0.468017578125 1.193359375 -0.4420318603515625
0.4970703125 1.1859130859375 -0.44591522216796875
0.513916015625 1.173828125 -0.44945526123046875
0.51025390625 1.08251953125 -0.449066162109375
0.498779296875 1.1004638671875 -0.45432281494140625
0.476318359375 1.1160888671875 -0.4541473388671875
0.45703125 1.1298828125 -0.4508209228515625
0.450927734375 1.140625 -0.44811248779296875
0.441650390625 1.1597900390625 -0.440460205078125
-0.725341796875 -0.725830078125 -0.3543701171875
-0.7767333984375 -0.7293701171875 -0.3612060546875
-0.815185546875 -0.7408447265625 -0.365478515625
-0.8365478515625 -0.7354736328125 -0.37347412109375
-0.8563232421875 -0.703857421875 -0.38128662109375
-0.8785400390625 -0.6651611328125 -0.38128662109375
-0.7396240234375 -0.6512451171875 -0.39080810546875
-0.6993408203125 -0.688720703125 -0.3763427734375
-0.664794921875 -0.718505859375 -0.35552978515625
0.320556640625 1.0933837890625 -0.42418670654296875
0.34130859375 1.1451416015625 -0.4384613037109375
0.376708984375 1.1744384765625 -0.43701934814453125
0.42724609375 1.1033935546875 -0.45154571533203125
0.39501953125 1.0721435546875 -0.4439544677734375
0.380859375 1.0120849609375 -0.41893768310546875
0.366455078125 0.939208984375 -0.38967514038085938
0.354736328125 0.958740234375 -0.39481353759765625
0.3388671875 0.9820556640625 -0.396484375
-0.9666748046875 -0.81640625 -0.42474365234375
-0.980712890625 -0.828125 -0.4254150390625
-0.98095703125 -0.843505859375 -0.421875
-0.9310302734375 -0.8363037109375 -0.40557861328125
-0.8858642578125 -0.810546875 -0.389892578125
-0.848876953125 -0.7880859375 -0.37786865234375
-0.694091796875 -0.74267578125 -0.35357666015625
-0.759521484375 -0.7530517578125 -0.3712158203125
-0.8541259765625 -0.776611328125 -0.40069580078125
0.310302734375 0.47607421875 -0.12568283081054688
0.305908203125 0.7117919921875 -0.24386787414550781
0.31005859375 0.888916015625 -0.33582305908203125
0.365966796875 0.807373046875 -0.32306194305419922
0.362548828125 0.6402587890625 -0.23970794677734375
0.370361328125 0.4420166015625 -0.1403350830078125
0.387451171875 0.2091064453125 -0.0156402587890625
0.37890625 0.2030029296875 -0.0056915283203125
0.35302734375 0.1978759765625 0.00107574462890625
-0.9190673828125 -0.874267578125 -0.43975830078125
-0.9127197265625 -0.87890625 -0.4346923828125
-0.8958740234375 -0.884033203125 -0.42962646484375
-0.9407958984375 -0.9107666015625 -0.444580078125
-0.9765625 -0.906982421875 -0.442626953125
-0.9852294921875 -0.8902587890625 -0.43975830078125
-0.9927978515625 -0.8411865234375 -0.454345703125
-1.011962890625 -0.8719482421875 -0.466796875
-0.9920654296875 -0.8843994140625 -0.4625244140625
0.4814453125 -0.533203125 0.388275146484375
0.41748046875 -0.3358154296875 0.27386474609375
0.358642578125 -0.083251953125 0.1452178955078125
0.433837890625 0.01025390625 0.08199310302734375
0.484375 -0.178466796875 0.1871490478515625
0.534423828125 -0.3218994140625 0.283477783203125
0.595458984375 -0.47412109375 0.3977203369140625
0.585693359375 -0.5396728515625 0.4376068115234375
0.588134765625 -0.604736328125 0.4663543701171875
-0.453857421875 -0.7093505859375 -0.31951904296875
-0.467529296875 -0.7216796875 -0.313232421875
-0.481201171875 -0.733642578125 -0.31353759765625
-0.5931396484375 -0.79052734375 -0.35272216796875
-0.6954345703125 -0.83203125 -0.38824462890625
-0.7950439453125 -0.8687744140625 -0.41107177734375
-0.81982421875 -0.8472900390625 -0.42486572265625
-0.6954345703125 -0.8065185546875 -0.391845703125
-0.5560302734375 -0.758056640625 -0.36395263671875
0.657470703125 -0.626708984375 0.626007080078125
0.646728515625 -0.687744140625 0.6036376953125
0.615478515625 -0.7047119140625 0.5538330078125
0.6376953125 -0.4591064453125 0.4255218505859375
0.66796875 -0.455322265625 0.4696044921875
0.661376953125 -0.421630859375 0.4969635009765625
0.65673828125 -0.4095458984375 0.550689697265625
0.643798828125 -0.459716796875 0.591033935546875
0.64404296875 -0.505615234375 0.61529541015625
-0.29345703125 -0.6434326171875 -0.141357421875
-0.30224609375 -0.6534423828125 -0.1370849609375
-0.3128662109375 -0.6651611328125 -0.1387939453125
-0.335693359375 -0.681640625 -0.19256591796875
-0.36376953125 -0.69580078125 -0.2301025390625
-0.4263916015625 -0.72021484375 -0.27880859375
-0.3511962890625 -0.6790771484375 -0.29266357421875
-0.299560546875 -0.65380859375 -0.24444580078125
-0.280517578125 -0.6455078125 -0.1961669921875
0.581298828125 -0.3701171875 0.32269287109375
0.556884765625 -0.3243408203125 0.289337158203125
0.537353515625 -0.294189453125 0.266265869140625
0.5673828125 -0.3133544921875 0.2961883544921875
0.59619140625 -0.328369140625 0.336669921875
0.60595703125 -0.3135986328125 0.3638458251953125
0.6279296875 -0.304443359375 0.4026031494140625
0.632080078125 -0.314697265625 0.434783935546875
0.64013671875 -0.3419189453125 0.469573974609375
-0.34423828125 -0.6859130859375 -0.17303466796875
-0.358642578125 -0.6951904296875 -0.19305419921875
-0.3792724609375 -0.7093505859375 -0.2139892578125
-0.4083251953125 -0.7352294921875 -0.25982666015625
-0.442138671875 -0.759033203125 -0.29364013671875
-0.485595703125 -0.7906494140625 -0.3309326171875
-0.542724609375 -0.808349609375 -0.35479736328125
-0.52734375 -0.7894287109375 -0.33905029296875
-0.516845703125 -0.7716064453125 -0.33074951171875
0.392822265625 0.2357177734375 -0.03678131103515625
0.3779296875 0.2530517578125 -0.043731689453125
0.360595703125 0.26123046875 -0.0515289306640625
0.37744140625 0.101318359375 0.02954864501953125
0.424072265625 -0.0579833984375 0.108062744140625
0.46435546875 -0.1826171875 0.1833953857421875
-0.618896484375 -0.8692626953125 -0.39300537109375
-0.68505859375 -0.9013671875 -0.41815185546875
-0.7509765625 -0.9295654296875 -0.4346923828125
-0.8253173828125 -0.9326171875 -0.44354248046875
-0.83984375 -0.9217529296875 -0.4373779296875
-0.857666015625 -0.9058837890625 -0.433349609375
0.371337890625 0.918212890625 -0.37301254272460938
0.35595703125 0.90869140625 -0.36672782897949219
0.33935546875 0.8988037109375 -0.35617256164550781
0.316162109375 0.7799072265625 -0.28845596313476562
0.3173828125 0.6312255859375 -0.22021102905273438
0.3291015625 0.45947265625 -0.139862060546875
-0.8486328125 -0.9578857421875 -0.4490966796875
-0.87109375 -0.9578857421875 -0.45526123046875
-0.8751220703125 -0.9483642578125 -0.44671630859375
-0.8929443359375 -0.9166259765625 -0.4329833984375
-0.9227294921875 -0.8978271484375 -0.4300537109375
-0.9462890625 -0.883544921875 -0.42596435546875
0.4423828125 1.11572265625 -0.45717620849609375
0.434326171875 1.1083984375 -0.45064163208007812
0.412109375 1.1092529296875 -0.44809722900390625
0.374267578125 1.0931396484375 -0.43439102172851562
0.355712890625 1.0491943359375 -0.41600799560546875
0.330810546875 0.9891357421875 -0.38874912261962891
-0.84130859375 -0.91796875 -0.42376708984375
-0.811767578125 -0.904052734375 -0.4083251953125
-0.7890625 -0.884033203125 -0.39862060546875
-0.80029296875 -0.8416748046875 -0.3848876953125
-0.819580078125 -0.8140869140625 -0.3836669921875
-0.83056640625 -0.7852783203125 -0.37628173828125
0.496337890625 1.0498046875 -0.43815231323242188
0.483642578125 1.0411376953125 -0.43365478515625
0.472900390625 1.0357666015625 -0.42555999755859375
0.4580078125 1.06103515625 -0.43267822265625
0.442626953125 1.086669921875 -0.4393463134765625
0.427978515625 1.1085205078125 -0.44283294677734375
-0.7764892578125 -0.8448486328125 -0.38739013671875
-0.7960205078125 -0.820068359375 -0.38690185546875
-0.80419921875 -0.7869873046875 -0.38909912109375
-0.8406982421875 -0.7236328125 -0.38623046875
-0.8663330078125 -0.6888427734375 -0.383056640625
-0.88134765625 -0.6551513671875 -0.380126953125
0.454345703125 0.92919921875 -0.37963676452636719
0.443115234375 0.917724609375 -0.37289619445800781
0.456787109375 0.8983154296875 -0.36145114898681641
0.4677734375 0.9251708984375 -0.37593364715576172
0.460693359375 0.9595947265625 -0.39194202423095703
0.466064453125 0.9952392578125 -0.40733432769775391
-0.822265625 -0.72216796875 -0.382568359375
-0.82275390625 -0.69580078125 -0.37738037109375
-0.8203125 -0.673828125 -0.37158203125
-0.8353271484375 -0.627197265625 -0.35931396484375
-0.8558349609375 -0.5985107421875 -0.35223388671875
-0.8668212890625 -0.5635986328125 -0.349365234375
0.4521484375 0.13330078125 0.3124237060546875
0.45849609375 0.10888671875 0.358306884765625
0.450439453125 0.07666015625 0.4183349609375
0.444580078125 -0.2476806640625 0.548583984375
0.48046875 -0.2078857421875 0.51556396484375
0.483154296875 -0.172607421875 0.4732666015625
0.471435546875 -0.07568359375 0.408843994140625
0.45703125 -0.017578125 0.39239501953125
0.448486328125 0.056640625 0.3526153564453125
-0.42529296875 -0.6319580078125 -0.04547119140625
-0.41259765625 -0.6336669921875 -0.0634765625
-0.4091796875 -0.6385498046875 -0.08233642578125
-0.386474609375 -0.64453125 -0.08502197265625
-0.39453125 -0.6319580078125 -0.0626220703125
-0.404296875 -0.6212158203125 -0.05364990234375
-0.404052734375 -0.627197265625 0.09234619140625
-0.419677734375 -0.623779296875 0.0384521484375
-0.43359375 -0.62451171875 -0.0006103515625
0.46044921875 -0.3472900390625 0.572540283203125
0.52294921875 -0.406494140625 0.597320556640625
0.5810546875 -0.48046875 0.615966796875
0.61279296875 -0.3135986328125 0.5010986328125
0.565673828125 -0.263916015625 0.4825897216796875
0.527587890625 -0.1990966796875 0.4545440673828125
-0.369140625 -0.65966796875 -0.119384765625
-0.35009765625 -0.663330078125 -0.12261962890625
-0.335205078125 -0.6690673828125 -0.1298828125
-0.3167724609375 -0.647705078125 -0.12542724609375
-0.35400390625 -0.640625 -0.1065673828125
-0.391845703125 -0.6258544921875 -0.08892822265625
0.415283203125 0.2978515625 0.1658172607421875
0.388916015625 0.4521484375 0.03122711181640625
0.36376953125 0.604248046875 -0.10314178466796875
-0.69873046875 -0.5074462890625 -0.0823974609375
-0.589599609375 -0.564453125 -0.06072998046875
-0.505859375 -0.5997314453125 -0.04315185546875
0.389404296875 1.0125732421875 -0.407470703125
0.362548828125 0.977294921875 -0.38578605651855469
0.350341796875 0.962646484375 -0.37413597106933594
0.349853515625 0.9105224609375 -0.34677505493164062
0.34912109375 0.87451171875 -0.327178955078125
0.37060546875 0.8458251953125 -0.31107330322265625
0.394775390625 0.8614501953125 -0.32625961303710938
0.409423828125 0.8857421875 -0.35166358947753906
0.4208984375 0.92138671875 -0.37126922607421875
-0.85888671875 -0.5216064453125 -0.34393310546875
-0.83251953125 -0.5179443359375 -0.33349609375
-0.8115234375 -0.5216064453125 -0.3187255859375
-0.7958984375 -0.4910888671875 -0.3118896484375
-0.804931640625 -0.4637451171875 -0.31658935546875
-0.81640625 -0.4334716796875 -0.32977294921875
-0.7978515625 -0.4305419921875 -0.37298583984375
-0.797119140625 -0.4503173828125 -0.387939453125
-0.80859375 -0.459716796875 -0.39581298828125
0.609375 -0.270263671875 0.383514404296875
0.57763671875 -0.2537841796875 0.3773956298828125
0.5673828125 -0.2332763671875 0.3639678955078125
0.5478515625 -0.192138671875 0.356475830078125
0.53173828125 -0.1646728515625 0.36993408203125
0.5126953125 -0.1478271484375 0.38671875
-0.391845703125 -0.6668701171875 -0.15728759765625
-0.388916015625 -0.68115234375 -0.1796875
-0.3883056640625 -0.6971435546875 -0.20806884765625
-0.3797607421875 -0.7076416015625 -0.22198486328125
-0.3779296875 -0.713134765625 -0.2200927734375
-0.3797607421875 -0.718994140625 -0.2191162109375
0.541015625 -0.1900634765625 0.328338623046875
0.533447265625 -0.15771484375 0.3048248291015625
0.52587890625 -0.117919921875 0.27935791015625
0.50634765625 -0.03466796875 0.249481201171875
0.48876953125 -0.0009765625 0.241790771484375
0.462890625 0.0648193359375 0.229583740234375
0.45068359375 0.051025390625 0.270721435546875
0.46337890625 -0.011962890625 0.320404052734375
0.478271484375 -0.068359375 0.3614044189453125
-0.410400390625 -0.6495361328125 -0.12579345703125
-0.430908203125 -0.6510009765625 -0.141357421875
-0.44775390625 -0.6441650390625 -0.15301513671875
-0.46044921875 -0.6573486328125 -0.1920166015625
-0.445556640625 -0.6865234375 -0.21331787109375
-0.442138671875 -0.7081298828125 -0.23297119140625
-0.423095703125 -0.71923828125 -0.24969482421875
-0.407470703125 -0.71875 -0.24267578125
-0.3988037109375 -0.7156982421875 -0.2371826171875
0.475341796875 0.1346435546875 0.1224517822265625
0.447998046875 0.16650390625 0.110626220703125
0.429443359375 0.198974609375 0.0968017578125
0.423583984375 0.226318359375 0.09185791015625
0.423583984375 0.2052001953125 0.120941162109375
0.42626953125 0.1802978515625 0.154144287109375
0.513916015625 -0.0179443359375 0.21038818359375
0.50048828125 0.038818359375 0.1806182861328125
0.490478515625 0.0875244140625 0.1486663818359375
-0.484130859375 -0.7174072265625 -0.27191162109375
-0.47021484375 -0.719970703125 -0.2645263671875
-0.45361328125 -0.720947265625 -0.25531005859375
-0.50146484375 -0.648193359375 -0.20880126953125
-0.509521484375 -0.65087890625 -0.23284912109375
-0.519775390625 -0.6552734375 -0.24920654296875
-0.515869140625 -0.67529296875 -0.26361083984375
-0.503173828125 -0.6912841796875 -0.26739501953125
