# XYZ point cloud file
-0.35248565673828125 -0.02530670166015625 0.711395263671875
-0.35540008544921875 -0.0299835205078125 0.71404266357421875
-0.3220062255859375 -0.00078582763671875 0.72881317138671875
-0.32324981689453125 0.0027923583984375 0.7260284423828125
0.0726776123046875 -0.0444183349609375 0.7065887451171875
0.0913543701171875 -0.0590057373046875 0.69818115234375
0.0752716064453125 -0.037872314453125 0.709320068359375
0.0556182861328125 -0.03204345703125 0.7130279541015625
0.061981201171875 -0.0422515869140625 0.7037506103515625
0.08154296875 -0.0567626953125 0.6968994140625
0.0939483642578125 -0.0522308349609375 0.7005462646484375
0.05877685546875 -0.0247650146484375 0.71566009521484375
0.0460357666015625 -0.030059814453125 0.71121978759765625
-0.3822479248046875 -0.0596771240234375 0.69109344482421875
-0.3848724365234375 -0.0675048828125 0.685699462890625
-0.38674163818359375 -0.06375885009765625 0.6923828125
-0.37587738037109375 -0.05113983154296875 0.696441650390625
-0.37859344482421875 -0.05648040771484375 0.68924713134765625
-0.38060760498046875 -0.06319427490234375 0.6847991943359375
-0.3899078369140625 -0.0722808837890625 0.68712615966796875
-0.38066864013671875 -0.05477142333984375 0.6987457275390625
-0.37340545654296875 -0.0478668212890625 0.69519805908203125
0.0550079345703125 0.036407470703125 0.7105255126953125
0.0674285888671875 0.0267486572265625 0.7055511474609375
0.0419921875 0.0769805908203125 0.708160400390625
0.0433349609375 0.0458221435546875 0.7146453857421875
0.065765380859375 0.0030364990234375 0.710723876953125
0.08111572265625 -0.00897216796875 0.7048797607421875
0.051666259765625 0.0691070556640625 0.70458984375
0.0329132080078125 0.08447265625 0.71044921875
0.0519256591796875 0.0143890380859375 0.7161407470703125
-0.381805419921875 -0.081451416015625 0.67874908447265625
-0.379669189453125 -0.08188629150390625 0.680328369140625
-0.386993408203125 -0.088165283203125 0.67824554443359375
-0.38339996337890625 -0.07807159423828125 0.6792144775390625
-0.3773193359375 -0.07559967041015625 0.67862701416015625
-0.3748321533203125 -0.075286865234375 0.68141937255859375
-0.38497161865234375 -0.08977508544921875 0.6800384521484375
-0.38909149169921875 -0.0843963623046875 0.67913818359375
-0.3790130615234375 -0.072998046875 0.6792144775390625
0.0018310546875 0.2168426513671875 0.691070556640625
0.0050201416015625 0.2195587158203125 0.688751220703125
-0.0087890625 0.261993408203125 0.6811065673828125
-0.00250244140625 0.21612548828125 0.6922149658203125
0.01397705078125 0.1687164306640625 0.69805908203125
0.0192413330078125 0.16851806640625 0.69610595703125
-0.006591796875 0.2684173583984375 0.6804351806640625
-0.0123291015625 0.2597198486328125 0.6834869384765625
0.0092620849609375 0.1712646484375 0.699432373046875
-0.3693695068359375 -0.06072998046875 0.6961822509765625
-0.36362457275390625 -0.04627227783203125 0.70323944091796875
-0.3759307861328125 -0.06848907470703125 0.696868896484375
-0.3740997314453125 -0.07210540771484375 0.68991851806640625
-0.36348724365234375 -0.05419158935546875 0.696868896484375
-0.3582305908203125 -0.0400390625 0.7041168212890625
-0.37061309814453125 -0.05329132080078125 0.70421600341796875
-0.3802337646484375 -0.08001708984375 0.68889617919921875
-0.3685760498046875 -0.0655364990234375 0.6904144287109375
-0.0291900634765625 0.37872314453125 0.6492156982421875
-0.0281219482421875 0.3903656005859375 0.6473541259765625
-0.0335845947265625 0.40936279296875 0.63643646240234375
-0.0313262939453125 0.3697509765625 0.6527252197265625
-0.024261474609375 0.3442230224609375 0.6608428955078125
-0.0228271484375 0.353912353515625 0.659149169921875
-0.0326080322265625 0.4226531982421875 0.6358795166015625
-0.0361480712890625 0.398895263671875 0.641998291015625
-0.02655029296875 0.336669921875 0.6629486083984375
-0.3403472900390625 0.01043701171875 0.72338104248046875
-0.328460693359375 0.0341644287109375 0.7275543212890625
-0.3457183837890625 0.006195068359375 0.72309112548828125
-0.34954833984375 -0.0106353759765625 0.71756744384765625
-0.335205078125 0.0135955810546875 0.72185516357421875
-0.32425689697265625 0.03610992431640625 0.72580718994140625
-0.3329925537109375 0.03270721435546875 0.72802734375
-0.356048583984375 -0.01573944091796875 0.71848297119140625
-0.343994140625 -0.00621795654296875 0.71662139892578125
-0.05157470703125 0.4740447998046875 0.61565399169921875
-0.04779052734375 0.4922027587890625 0.60245513916015625
-0.05898284912109375 0.48602294921875 0.61380767822265625
-0.05780029296875 0.458343505859375 0.62934112548828125
-0.04461669921875 0.45745849609375 0.6193084716796875
-0.0417938232421875 0.474273681640625 0.61154937744140625
-0.05399322509765625 0.505462646484375 0.59862518310546875
-0.0656585693359375 0.468994140625 0.62998199462890625
-0.04949951171875 0.44305419921875 0.62944793701171875
-0.27501678466796875 0.12699127197265625 0.73372650146484375
-0.2561492919921875 0.15947723388671875 0.73476409912109375
-0.27452850341796875 0.13466644287109375 0.73632049560546875
-0.2948455810546875 0.0938262939453125 0.73256683349609375
-0.2753143310546875 0.1207427978515625 0.73120880126953125
-0.25800323486328125 0.14990997314453125 0.73174285888671875
-0.25322723388671875 0.17089080810546875 0.7360382080078125
-0.29651641845703125 0.0975189208984375 0.73432159423828125
-0.2933807373046875 0.090911865234375 0.73107147216796875
-0.06899261474609375 0.506927490234375 0.6034088134765625
-0.062957763671875 0.52838134765625 0.58837890625
-0.06934356689453125 0.5107574462890625 0.59940338134765625
-0.074859619140625 0.489532470703125 0.61962127685546875
-0.06755828857421875 0.502044677734375 0.6082763671875
-0.06137847900390625 0.522735595703125 0.59172821044921875
-0.06417083740234375 0.5306854248046875 0.58571624755859375
-0.07517242431640625 0.4936981201171875 0.61322021484375
-0.07460784912109375 0.483917236328125 0.6248016357421875
-0.2108306884765625 0.23928070068359375 0.73421478271484375
-0.20041656494140625 0.25914764404296875 0.73235321044921875
-0.203765869140625 0.258270263671875 0.73249053955078125
-0.2239990234375 0.21579742431640625 0.73400115966796875
-0.21642303466796875 0.22420501708984375 0.73370361328125
-0.20612335205078125 0.2436065673828125 0.7345123291015625
-0.19203948974609375 0.27970123291015625 0.72924041748046875
-0.21744537353515625 0.2328643798828125 0.73500823974609375
-0.228515625 0.20220947265625 0.7330169677734375
-0.076629638671875 0.49993896484375 0.60593414306640625
-0.07244110107421875 0.51808929443359375 0.59597015380859375
-0.08171844482421875 0.48859405517578125 0.6144561767578125
-0.0808258056640625 0.485015869140625 0.6164398193359375
-0.072723388671875 0.507293701171875 0.60059356689453125
-0.06836700439453125 0.5264892578125 0.58929443359375
-0.07753753662109375 0.50572967529296875 0.60478973388671875
-0.08583831787109375 0.47434234619140625 0.62392425537109375
-0.07753753662109375 0.4918060302734375 0.61199951171875
-0.18053436279296875 0.29267120361328125 0.72917938232421875
-0.17775726318359375 0.29483795166015625 0.7303009033203125
-0.17142486572265625 0.314117431640625 0.72476959228515625
-0.184844970703125 0.28631591796875 0.73020172119140625
-0.1873931884765625 0.27489471435546875 0.732025146484375
-0.18564605712890625 0.2777252197265625 0.7325897216796875
-0.1688995361328125 0.31601715087890625 0.72515106201171875
-0.1758270263671875 0.30750274658203125 0.7266387939453125
-0.19191741943359375 0.2693328857421875 0.73464202880859375
-0.10143280029296875 0.43622589111328125 0.64978790283203125
-0.10013580322265625 0.44747161865234375 0.6463470458984375
-0.109405517578125 0.41341400146484375 0.66353607177734375
-0.10400390625 0.42575836181640625 0.65644073486328125
-0.09389495849609375 0.45711517333984375 0.63741302490234375
-0.0914459228515625 0.46993255615234375 0.6315155029296875
-0.10868072509765625 0.42232513427734375 0.660247802734375
-0.1109771728515625 0.40473175048828125 0.66716766357421875
-0.09720611572265625 0.444549560546875 0.64434051513671875
-0.180419921875 0.28144073486328125 0.73427581787109375
-0.183990478515625 0.27079010009765625 0.73657989501953125
-0.17266845703125 0.298492431640625 0.72977447509765625
-0.17789459228515625 0.2889404296875 0.73195648193359375
-0.187042236328125 0.2661285400390625 0.73690032958984375
-0.19043731689453125 0.2566680908203125 0.73867034912109375
-0.1771240234375 0.28630828857421875 0.7330780029296875
-0.16934967041015625 0.3077239990234375 0.727325439453125
-0.18498992919921875 0.27286529541015625 0.73464202880859375
-0.105377197265625 0.40573883056640625 0.6617584228515625
-0.10622406005859375 0.41078948974609375 0.6623992919921875
-0.109405517578125 0.38896942138671875 0.669189453125
-0.103546142578125 0.40240478515625 0.65972137451171875
-0.10092926025390625 0.42133331298828125 0.654266357421875
-0.1013336181640625 0.4269561767578125 0.6534881591796875
-0.11194610595703125 0.3924407958984375 0.67064666748046875
-0.1069488525390625 0.387115478515625 0.6654510498046875
-0.09967041015625 0.4163818359375 0.6537017822265625
-0.20044708251953125 0.23598480224609375 0.7411651611328125
-0.2026824951171875 0.229400634765625 0.74335479736328125
-0.19728851318359375 0.24343109130859375 0.7393341064453125
-0.19947052001953125 0.24092864990234375 0.73961639404296875
-0.203155517578125 0.23033905029296875 0.74190521240234375
-0.20482635498046875 0.22394561767578125 0.74556732177734375
-0.20017242431640625 0.2352142333984375 0.74182891845703125
-0.1961212158203125 0.24910736083984375 0.7384185791015625
-0.2016448974609375 0.23453521728515625 0.74143218994140625
-0.08821868896484375 0.45465087890625 0.63510894775390625
-0.087188720703125 0.46240234375 0.63158416748046875
-0.09186553955078125 0.44561767578125 0.64093017578125
-0.0880126953125 0.447601318359375 0.63639068603515625
-0.08480072021484375 0.460296630859375 0.6300201416015625
-0.0839996337890625 0.4683380126953125 0.62744140625
-0.09099578857421875 0.4537200927734375 0.63767242431640625
-0.0923919677734375 0.4391937255859375 0.64220428466796875
-0.08513641357421875 0.4539947509765625 0.63155364990234375
-0.20157623291015625 0.2426300048828125 0.7371826171875
-0.19971466064453125 0.24488067626953125 0.7375946044921875
-0.197998046875 0.25099945068359375 0.73600006103515625
-0.2050628662109375 0.23740386962890625 0.737060546875
-0.20426177978515625 0.23589324951171875 0.73822784423828125
-0.20233154296875 0.23748016357421875 0.73882293701171875
-0.1959991455078125 0.25286865234375 0.73546600341796875
-0.20178985595703125 0.24560546875 0.73572540283203125
-0.20757293701171875 0.2309722900390625 0.73787689208984375
-0.082366943359375 0.4595947265625 0.63793182373046875
-0.08240509033203125 0.4664154052734375 0.63727569580078125
-0.082489013671875 0.4630126953125 0.63182830810546875
-0.080718994140625 0.45599365234375 0.6358489990234375
-0.08147430419921875 0.455322265625 0.6439208984375
-0.08153533935546875 0.4607391357421875 0.6439971923828125
-0.08194732666015625 0.4699859619140625 0.62999725341796875
-0.08124542236328125 0.45782470703125 0.63137054443359375
-0.07886505126953125 0.45159912109375 0.6392822265625
-0.22552490234375 0.200653076171875 0.73291015625
-0.216827392578125 0.2162628173828125 0.73516082763671875
-0.22365570068359375 0.20543670654296875 0.73149871826171875
-0.23513031005859375 0.1815643310546875 0.73134613037109375
-0.226593017578125 0.19744873046875 0.73541259765625
-0.218902587890625 0.2119140625 0.73722076416015625
-0.2144622802734375 0.22255706787109375 0.7345123291015625
-0.2342529296875 0.1854095458984375 0.73024749755859375
-0.23590850830078125 0.1801910400390625 0.7340545654296875
-0.060882568359375 0.432373046875 0.63794708251953125
-0.0623931884765625 0.4377593994140625 0.64084625244140625
-0.07021331787109375 0.4420318603515625 0.6427459716796875
-0.056854248046875 0.4300384521484375 0.63091278076171875
-0.0505218505859375 0.4191741943359375 0.63446807861328125
-0.052703857421875 0.4240875244140625 0.6390228271484375
-0.07212066650390625 0.4471893310546875 0.64473724365234375
-0.06743621826171875 0.4394073486328125 0.6366424560546875
-0.0464324951171875 0.4156494140625 0.62639617919921875
-0.27477264404296875 0.1134490966796875 0.7313995361328125
-0.2600250244140625 0.13828277587890625 0.729766845703125
-0.275482177734375 0.1139373779296875 0.72959136962890625
-0.2899017333984375 0.08866119384765625 0.73224639892578125
-0.27356719970703125 0.114288330078125 0.7336273193359375
-0.25970458984375 0.1381378173828125 0.73372650146484375
-0.260223388671875 0.1393585205078125 0.72840118408203125
-0.29106903076171875 0.08768463134765625 0.729583740234375
-0.28844451904296875 0.08971405029296875 0.73413848876953125
-0.028717041015625 0.3545684814453125 0.6445159912109375
-0.0317840576171875 0.3572998046875 0.65151214599609375
-0.03386688232421875 0.37957763671875 0.63671875
-0.0238189697265625 0.352142333984375 0.6338348388671875
-0.023834228515625 0.3263397216796875 0.652099609375
-0.0269012451171875 0.328216552734375 0.660308837890625
-0.0372161865234375 0.3842010498046875 0.6439666748046875
-0.0297698974609375 0.376495361328125 0.62799835205078125
-0.019256591796875 0.3253631591796875 0.6424102783203125
-0.32520294189453125 0.0228729248046875 0.72576904296875
-0.31633758544921875 0.04248046875 0.72887420654296875
-0.32831573486328125 0.0203857421875 0.7225341796875
-0.333038330078125 0.00614166259765625 0.7206573486328125
-0.32254791259765625 0.0263214111328125 0.73001861572265625
-0.31400299072265625 0.04437255859375 0.73259735107421875
-0.31810760498046875 0.0395050048828125 0.72658538818359375
-0.335968017578125 0.00258636474609375 0.7180023193359375
-0.330596923828125 0.0098724365234375 0.72516632080078125
-0.0038909912109375 0.2259063720703125 0.677337646484375
-0.00567626953125 0.2214508056640625 0.6858673095703125
-0.0113067626953125 0.2617340087890625 0.67022705078125
-0.0009765625 0.2306671142578125 0.66650390625
0.0050811767578125 0.188323974609375 0.6848602294921875
0.0048065185546875 0.1814727783203125 0.6937408447265625
-0.0139312744140625 0.259857177734375 0.6775665283203125
-0.0077667236328125 0.2646331787109375 0.6586761474609375
0.006927490234375 0.195159912109375 0.6754608154296875
-0.35120391845703125 -0.03630828857421875 0.70589447021484375
-0.3459930419921875 -0.02353668212890625 0.71136474609375
-0.35475921630859375 -0.04213714599609375 0.70113372802734375
-0.3560943603515625 -0.04676055908203125 0.69992828369140625
-0.34769439697265625 -0.03049468994140625 0.71051025390625
-0.342620849609375 -0.018280029296875 0.71584320068359375
-0.3493499755859375 -0.0290679931640625 0.70706939697265625
-0.3596343994140625 -0.05278778076171875 0.69582366943359375
-0.35227203369140625 -0.04030609130859375 0.70589447021484375
0.028228759765625 0.0770263671875 0.70660400390625
0.03021240234375 0.066619873046875 0.712890625
0.021331787109375 0.1119384765625 0.7004241943359375
0.0281982421875 0.0866851806640625 0.6978302001953125
0.0333099365234375 0.047088623046875 0.7115936279296875
0.035614013671875 0.0365753173828125 0.716949462890625
0.0227813720703125 0.101959228515625 0.706756591796875
0.021759033203125 0.1217193603515625 0.6910552978515625
0.0324859619140625 0.0572357177734375 0.70379638671875
-0.3649749755859375 -0.0601654052734375 0.688995361328125
-0.36281585693359375 -0.05854034423828125 0.69156646728515625
-0.36888885498046875 -0.06523895263671875 0.68383026123046875
-0.36716461181640625 -0.05994415283203125 0.6862945556640625
-0.361480712890625 -0.05509185791015625 0.6947021484375
-0.3588714599609375 -0.0530242919921875 0.6974945068359375
-0.36643218994140625 -0.0642852783203125 0.68653106689453125
-0.371124267578125 -0.06386566162109375 0.68244171142578125
-0.363677978515625 -0.05548858642578125 0.6919097900390625
0.0322418212890625 0.0012969970703125 0.71512603759765625
0.03558349609375 -0.0090179443359375 0.71865081787109375
0.036285400390625 0.008575439453125 0.71477508544921875
0.03125 0.0112457275390625 0.70953369140625
0.0231170654296875 0.0013580322265625 0.71360015869140625
0.027069091796875 -0.0080108642578125 0.71747589111328125
0.0395965576171875 -0.0022430419921875 0.7196044921875
0.0348663330078125 0.018951416015625 0.7097015380859375
0.022430419921875 0.0108642578125 0.71013641357421875
-0.3674774169921875 -0.04814910888671875 0.6938323974609375
-0.3692626953125 -0.05323028564453125 0.68903350830078125
-0.37093353271484375 -0.05060577392578125 0.69014739990234375
-0.36334228515625 -0.04100799560546875 0.698455810546875
-0.36388397216796875 -0.044952392578125 0.697235107421875
-0.365692138671875 -0.05033111572265625 0.6931610107421875
-0.3728485107421875 -0.05617523193359375 0.68614959716796875
-0.3667144775390625 -0.04334259033203125 0.69582366943359375
-0.35974884033203125 -0.03824615478515625 0.7023162841796875
-0.0341796875 0.0407867431640625 0.71495819091796875
-0.03363037109375 0.03460693359375 0.7169036865234375
-0.0105438232421875 0.0236053466796875 0.7130584716796875
-0.032745361328125 0.0481719970703125 0.7119293212890625
-0.05757904052734375 0.0594329833984375 0.71799468994140625
-0.05828857421875 0.0535888671875 0.71968841552734375
-0.00902557373046875 0.015228271484375 0.71533966064453125
-0.01052093505859375 0.03131103515625 0.710235595703125
-0.05530548095703125 0.0655975341796875 0.71393585205078125
-0.33429718017578125 -0.00780487060546875 0.7193145751953125
-0.34624481201171875 -0.0203094482421875 0.71178436279296875
-0.3363800048828125 -0.0089263916015625 0.71802520751953125
-0.322296142578125 0.005828857421875 0.72669219970703125
-0.3319091796875 -0.0051422119140625 0.720611572265625
-0.34325408935546875 -0.018310546875 0.71427154541015625
-0.3489227294921875 -0.02205657958984375 0.70960235595703125
-0.32427215576171875 0.0041961669921875 0.72449493408203125
-0.3199310302734375 0.0080718994140625 0.72766876220703125
-0.10279083251953125 0.1071929931640625 0.721923828125
-0.10633087158203125 0.1024017333984375 0.7248077392578125
-0.09296417236328125 0.09228515625 0.72148895263671875
-0.0984649658203125 0.1127471923828125 0.716827392578125
-0.11061859130859375 0.12213134765625 0.72040557861328125
-0.11386871337890625 0.11663818359375 0.7241363525390625
-0.09592437744140625 0.0867767333984375 0.724517822265625
-0.088226318359375 0.097991943359375 0.71733856201171875
-0.105804443359375 0.1279296875 0.71552276611328125
-0.2913055419921875 0.042510986328125 0.740447998046875
-0.3004302978515625 0.0311737060546875 0.7363128662109375
-0.292724609375 0.0411376953125 0.74016571044921875
-0.28371429443359375 0.053314208984375 0.74376678466796875
-0.289947509765625 0.04415130615234375 0.7427825927734375
-0.29840087890625 0.03326416015625 0.738525390625
-0.3014678955078125 0.0298004150390625 0.73569488525390625
-0.284759521484375 0.051727294921875 0.74335479736328125
-0.28188323974609375 0.05545806884765625 0.74477386474609375
-0.1231231689453125 0.3282012939453125 0.6918182373046875
-0.12697601318359375 0.32744598388671875 0.69567108154296875
-0.127227783203125 0.306396484375 0.6985015869140625
-0.1187896728515625 0.329376220703125 0.68639373779296875
-0.119110107421875 0.349639892578125 0.68468475341796875
-0.12227630615234375 0.3502197265625 0.68752288818359375
-0.131378173828125 0.3044891357421875 0.7019500732421875
-0.1226959228515625 0.3082275390625 0.69297027587890625
-0.11495208740234375 0.349700927734375 0.67911529541015625
-0.2158203125 0.1964111328125 0.74872589111328125
-0.221221923828125 0.18267059326171875 0.75057220458984375
-0.2144927978515625 0.19930267333984375 0.74907684326171875
-0.2103271484375 0.20915985107421875 0.74674224853515625
-0.216339111328125 0.1944427490234375 0.75003814697265625
-0.2212371826171875 0.18218231201171875 0.75191497802734375
-0.22002410888671875 0.184539794921875 0.75049591064453125
-0.2086334228515625 0.213165283203125 0.746124267578125
-0.21148681640625 0.2059173583984375 0.7491302490234375
-0.1328887939453125 0.24176025390625 0.71199798583984375
-0.13825225830078125 0.2377471923828125 0.71600341796875
-0.13287353515625 0.2215728759765625 0.7148284912109375
-0.1270751953125 0.246368408203125 0.70473480224609375
-0.132232666015625 0.262908935546875 0.70953369140625
-0.13702392578125 0.25901031494140625 0.71298980712890625
-0.13748931884765625 0.2176055908203125 0.71929168701171875
-0.12625885009765625 0.22662353515625 0.70819854736328125
-0.1266632080078125 0.266510009765625 0.70224761962890625
-0.240264892578125 0.13826751708984375 0.752838134765625
-0.2465972900390625 0.12383270263671875 0.75356292724609375
-0.2405853271484375 0.1384429931640625 0.75298309326171875
-0.23389434814453125 0.15320587158203125 0.752349853515625
-0.23880767822265625 0.1397857666015625 0.75336456298828125
-0.24500274658203125 0.1255950927734375 0.75457763671875
-0.24663543701171875 0.1237945556640625 0.75286865234375
-0.2336883544921875 0.1538543701171875 0.75261688232421875
-0.23279571533203125 0.15411376953125 0.75313568115234375
-0.12523651123046875 0.1681976318359375 0.71839141845703125
-0.12982177734375 0.1634368896484375 0.72272491455078125
-0.1206512451171875 0.1527557373046875 0.71964263916015625
-0.119140625 0.1736602783203125 0.7123260498046875
-0.12856292724609375 0.185302734375 0.71788787841796875
-0.13372802734375 0.1798858642578125 0.72267913818359375
-0.12505340576171875 0.1470489501953125 0.72272491455078125
-0.11505889892578125 0.1581878662109375 0.71337890625
-0.12213897705078125 0.190155029296875 0.71091461181640625
-0.26430511474609375 0.086395263671875 0.7508544921875
-0.27022552490234375 0.07456207275390625 0.74849700927734375
-0.2651824951171875 0.08486175537109375 0.749481201171875
-0.25821685791015625 0.0978851318359375 0.7512664794921875
-0.26230621337890625 0.08840179443359375 0.75173187255859375
-0.2683258056640625 0.07733917236328125 0.74997711181640625
-0.27143096923828125 0.07337188720703125 0.7481689453125
-0.25926971435546875 0.09680938720703125 0.75084686279296875
-0.2569580078125 0.099822998046875 0.75199127197265625
-0.0683135986328125 0.4772491455078125 0.5993804931640625
-0.0821990966796875 0.4591064453125 0.62425994873046875
-0.05545806884765625 0.5084075927734375 0.57425689697265625
-0.05564117431640625 0.4941864013671875 0.573089599609375
-0.0782623291015625 0.45693206787109375 0.61783599853515625
-0.09095001220703125 0.4386749267578125 0.6401519775390625
-0.070068359375 0.48944854736328125 0.602813720703125
-0.041168212890625 0.526519775390625 0.5423431396484375
-0.0662689208984375 0.47420501708984375 0.5948028564453125
-0.08905029296875 0.44712066650390625 0.6432952880859375
-0.08498382568359375 0.4620513916015625 0.6427459716796875
-0.09931182861328125 0.43143463134765625 0.6588897705078125
-0.08809661865234375 0.4415435791015625 0.63921356201171875
-0.08058929443359375 0.4603729248046875 0.62648773193359375
-0.07894134521484375 0.47292327880859375 0.6299285888671875
-0.0938262939453125 0.448394775390625 0.6562652587890625
-0.099853515625 0.425628662109375 0.65731048583984375
-0.07852935791015625 0.457733154296875 0.619598388671875
0.00662994384765625 0.65596771240234375 0.43845367431640625
-0.00823211669921875 0.63748931884765625 0.474639892578125
0.03054046630859375 0.70740509033203125 0.37870025634765625
0.02099609375 0.6736907958984375 0.400482177734375
-0.01692962646484375 0.6009521484375 0.4944000244140625
-0.03256988525390625 0.5815887451171875 0.5291595458984375
0.016265869140625 0.69091796875 0.412506103515625
0.04140472412109375 0.71880340576171875 0.3468170166015625
-0.00096893310546875 0.621429443359375 0.45436859130859375
-0.03963470458984375 0.57465362548828125 0.591522216796875
-0.018768310546875 0.6201324462890625 0.56310272216796875
-0.045745849609375 0.56472015380859375 0.59966278076171875
-0.0599517822265625 0.52854156494140625 0.61519622802734375
-0.0390472412109375 0.57785797119140625 0.58693695068359375
-0.020050048828125 0.61855316162109375 0.56325531005859375
-0.0240478515625 0.61159515380859375 0.570587158203125
-0.0666961669921875 0.516876220703125 0.627105712890625
-0.057647705078125 0.5344390869140625 0.6099700927734375
0.07938385009765625 0.80779266357421875 0.21820831298828125
0.0660400390625 0.79508209228515625 0.25045013427734375
0.0854644775390625 0.82440948486328125 0.18968963623046875
0.0860595703125 0.8111724853515625 0.20114898681640625
0.06792449951171875 0.78382110595703125 0.26117706298828125
0.0550537109375 0.7707061767578125 0.29325103759765625
0.07227325439453125 0.81206512451171875 0.22241973876953125
0.09209442138671875 0.82634735107421875 0.174285888671875
0.07515716552734375 0.78768157958984375 0.24294281005859375
0.013092041015625 0.69092559814453125 0.52390289306640625
0.00557708740234375 0.68402862548828125 0.5353546142578125
0.01129913330078125 0.68840789794921875 0.52658843994140625
0.01055145263671875 0.68196868896484375 0.52496337890625
0.00609588623046875 0.679412841796875 0.53104400634765625
-0.0019073486328125 0.6721343994140625 0.54205322265625
0.0044708251953125 0.68305206298828125 0.53728485107421875
0.0074462890625 0.6780548095703125 0.5284423828125
0.00492095947265625 0.67238616943359375 0.5310211181640625
0.07967376708984375 0.8271636962890625 0.19731903076171875
0.06552886962890625 0.817779541015625 0.23567962646484375
0.07419586181640625 0.81353759765625 0.2200927734375
0.08827972412109375 0.825286865234375 0.1743316650390625
0.08477020263671875 0.83351898193359375 0.1822052001953125
0.07143402099609375 0.82355499267578125 0.2180633544921875
0.05877685546875 0.8060150146484375 0.2631988525390625
0.08480072021484375 0.81146240234375 0.187744140625
0.09186553955078125 0.8331298828125 0.1644287109375
-0.080474853515625 0.56041717529296875 0.626800537109375
-0.125244140625 0.4911041259765625 0.6625823974609375
-0.0800323486328125 0.5590362548828125 0.62987518310546875
-0.04199981689453125 0.6182708740234375 0.58998870849609375
-0.08245086669921875 0.55774688720703125 0.62468719482421875
-0.12579345703125 0.49082183837890625 0.65741729736328125
-0.124420166015625 0.48958587646484375 0.66571044921875
-0.04212188720703125 0.61681365966796875 0.59259033203125
-0.04636383056640625 0.610992431640625 0.591705322265625
0.06250762939453125 0.7541961669921875 0.2997589111328125
0.04073333740234375 0.7450408935546875 0.35967254638671875
0.0592498779296875 0.7269439697265625 0.334991455078125
0.083526611328125 0.757537841796875 0.2397613525390625
0.0650787353515625 0.77618408203125 0.2699737548828125
0.0460968017578125 0.7689971923828125 0.3242645263671875
0.03539276123046875 0.7174835205078125 0.3995819091796875
0.0830841064453125 0.73291015625 0.268951416015625
0.082794189453125 0.7772369384765625 0.218414306640625
-0.27256011962890625 0.2536773681640625 0.72882843017578125
-0.32012176513671875 0.1751861572265625 0.7358245849609375
-0.2691192626953125 0.25133514404296875 0.73246002197265625
-0.2226715087890625 0.33437347412109375 0.7144927978515625
-0.27606201171875 0.25423431396484375 0.71966552734375
-0.32407379150390625 0.176727294921875 0.72599029541015625
-0.3165740966796875 0.17224884033203125 0.73960113525390625
-0.220184326171875 0.3323822021484375 0.71805572509765625
-0.22490692138671875 0.3355560302734375 0.7071075439453125
0.04461669921875 0.637847900390625 0.4559783935546875
0.0162200927734375 0.6261749267578125 0.5323333740234375
0.04364013671875 0.5956573486328125 0.486480712890625
0.07464599609375 0.6476593017578125 0.3745880126953125
0.0498046875 0.6706695556640625 0.416961669921875
0.0222015380859375 0.66015625 0.490814208984375
0.01434326171875 0.583648681640625 0.563018798828125
0.0748748779296875 0.606353759765625 0.4028167724609375
0.077880859375 0.67828369140625 0.3392333984375
-0.43779754638671875 -0.022216796875 0.73560333251953125
-0.4678955078125 -0.07828521728515625 0.73145294189453125
-0.43442535400390625 -0.02740478515625 0.73944091796875
-0.4030303955078125 0.03688812255859375 0.73842620849609375
-0.43927764892578125 -0.01647186279296875 0.7246246337890625
-0.46881866455078125 -0.071014404296875 0.72193145751953125
-0.46498870849609375 -0.0824737548828125 0.735137939453125
-0.399993896484375 0.0324249267578125 0.7413787841796875
-0.4055023193359375 0.04168701171875 0.7275390625
0.10809326171875 0.3492431640625 0.484832763671875
0.0807342529296875 0.332275390625 0.55108642578125
0.1578216552734375 0.2368621826171875 0.4762115478515625
0.13763427734375 0.3711700439453125 0.410614013671875
0.0718841552734375 0.4521331787109375 0.4971160888671875
0.0431060791015625 0.4373779296875 0.5689849853515625
0.1318817138671875 0.2180633544921875 0.5352630615234375
0.18414306640625 0.263397216796875 0.4075775146484375
0.10247802734375 0.4698638916015625 0.4176788330078125
-0.5230712890625 -0.2154998779296875 0.70135498046875
-0.52497100830078125 -0.23828887939453125 0.68314361572265625
-0.5190582275390625 -0.214996337890625 0.70537567138671875
-0.512725830078125 -0.17833709716796875 0.7171478271484375
-0.52655792236328125 -0.2135009765625 0.69063568115234375
-0.52951812744140625 -0.24057769775390625 0.67250823974609375
-0.5198822021484375 -0.23552703857421875 0.68744659423828125
-0.509124755859375 -0.17958831787109375 0.72031402587890625
-0.5145263671875 -0.17303466796875 0.70648193359375
0.314849853515625 -0.068603515625 0.5174713134765625
0.2931976318359375 -0.0887603759765625 0.560943603515625
0.3542327880859375 -0.1365203857421875 0.5388336181640625
0.335357666015625 -0.038360595703125 0.46746826171875
0.267364501953125 0.01953125 0.4954681396484375
0.244384765625 -0.0010986328125 0.543670654296875
0.33355712890625 -0.1571502685546875 0.5772552490234375
0.37353515625 -0.1090087890625 0.4952850341796875
0.2884979248046875 0.050506591796875 0.4392852783203125
-0.49977874755859375 -0.225494384765625 0.6570281982421875
-0.49304962158203125 -0.2075042724609375 0.66326141357421875
-0.49495697021484375 -0.2179107666015625 0.6579132080078125
-0.5097808837890625 -0.24037933349609375 0.65729522705078125
-0.50716400146484375 -0.23748779296875 0.649444580078125
-0.49932861328125 -0.2205963134765625 0.65756988525390625
-0.4892578125 -0.19898223876953125 0.66201019287109375
-0.504425048828125 -0.23375701904296875 0.65937042236328125
-0.51696014404296875 -0.249664306640625 0.64946746826171875
0.413787841796875 -0.2298583984375 0.57501220703125
0.40179443359375 -0.244873046875 0.5935211181640625
0.4109344482421875 -0.2324981689453125 0.579833984375
0.424530029296875 -0.2114105224609375 0.551910400390625
0.404754638671875 -0.214752197265625 0.567138671875
0.3889617919921875 -0.233062744140625 0.5928802490234375
0.401947021484375 -0.2447967529296875 0.5950469970703125
0.4177398681640625 -0.2167816162109375 0.5649566650390625
0.41851806640625 -0.1935882568359375 0.5373382568359375
-0.47988128662109375 -0.15604400634765625 0.6998443603515625
-0.46916961669921875 -0.14022064208984375 0.7133331298828125
-0.477996826171875 -0.14665985107421875 0.69858551025390625
-0.48509979248046875 -0.17238616943359375 0.68627166748046875
-0.48282623291015625 -0.168243408203125 0.697601318359375
-0.47100067138671875 -0.1504364013671875 0.71366119384765625
-0.4678192138671875 -0.1323089599609375 0.7126312255859375
-0.4832000732421875 -0.1627044677734375 0.68430328369140625
-0.48956298828125 -0.18541717529296875 0.68267059326171875
0.0857391357421875 -0.1970977783203125 0.65933990478515625
0.0159454345703125 -0.183929443359375 0.6595001220703125
0.065216064453125 -0.1971435546875 0.66481781005859375
0.1527862548828125 -0.2126617431640625 0.65962982177734375
0.107208251953125 -0.197113037109375 0.652008056640625
0.0391845703125 -0.1840972900390625 0.6529083251953125
-0.0059661865234375 -0.183502197265625 0.663604736328125
0.1332855224609375 -0.2126312255859375 0.6667327880859375
0.1740264892578125 -0.212982177734375 0.65093994140625
-0.1890411376953125 -0.16211700439453125 0.66943359375
-0.2227630615234375 -0.1634368896484375 0.671295166015625
-0.1242523193359375 -0.165740966796875 0.66553497314453125
-0.15625 -0.160736083984375 0.66577911376953125
-0.2461090087890625 -0.15949249267578125 0.6746673583984375
-0.28012847900390625 -0.161834716796875 0.67583465576171875
-0.153900146484375 -0.16632080078125 0.66800689697265625
-0.09432220458984375 -0.16611480712890625 0.66015625
-0.21189117431640625 -0.15702056884765625 0.67200469970703125
0.19048309326171875 -0.20136260986328125 0.62065887451171875
0.12358856201171875 -0.18859100341796875 0.6237335205078125
0.1586761474609375 -0.19928741455078125 0.6331939697265625
0.25726318359375 -0.21807861328125 0.61895751953125
0.2274017333984375 -0.20538330078125 0.60750579833984375
0.16118621826171875 -0.19217681884765625 0.611724853515625
0.09166717529296875 -0.18605804443359375 0.6349334716796875
0.225372314453125 -0.2151336669921875 0.63149261474609375
0.293487548828125 -0.22165679931640625 0.60584259033203125
-0.0675048828125 -0.16426849365234375 0.64276123046875
-0.0958099365234375 -0.161895751953125 0.6518402099609375
-0.005523681640625 -0.17071533203125 0.63449859619140625
-0.0353546142578125 -0.16892242431640625 0.63346099853515625
-0.1279449462890625 -0.159271240234375 0.65122222900390625
-0.1534271240234375 -0.156707763671875 0.65824127197265625
-0.03582000732421875 -0.16808319091796875 0.644622802734375
0.029510498046875 -0.17566680908203125 0.62451934814453125
-0.10040283203125 -0.1638641357421875 0.64337158203125
0.370849609375 -0.23586273193359375 0.5776214599609375
0.31290435791015625 -0.2267608642578125 0.5834808349609375
0.31882476806640625 -0.2216796875 0.585418701171875
0.42491912841796875 -0.24903106689453125 0.57447052001953125
0.42226409912109375 -0.2534027099609375 0.572296142578125
0.3692779541015625 -0.2460479736328125 0.5785675048828125
0.257110595703125 -0.21099853515625 0.59107208251953125
0.37847900390625 -0.236572265625 0.5829925537109375
0.4706573486328125 -0.263916015625 0.568634033203125
0.10669708251953125 -0.20870208740234375 0.6148223876953125
0.052154541015625 -0.19051361083984375 0.61916351318359375
0.1813812255859375 -0.2139129638671875 0.603118896484375
0.16556549072265625 -0.22972869873046875 0.612396240234375
0.02642822265625 -0.20230865478515625 0.62827301025390625
-0.0240325927734375 -0.18532562255859375 0.632293701171875
0.12369537353515625 -0.197113037109375 0.60837554931640625
0.24192047119140625 -0.2353668212890625 0.5992431640625
0.08203125 -0.22367095947265625 0.62599945068359375
0.55135345458984375 -0.30922698974609375 0.56922149658203125
0.5816802978515625 -0.325836181640625 0.57045745849609375
0.51108551025390625 -0.30587005615234375 0.57558441162109375
0.51416015625 -0.29132080078125 0.56897735595703125
0.58447265625 -0.3150177001953125 0.5655364990234375
0.6114959716796875 -0.33116912841796875 0.56684112548828125
0.54508209228515625 -0.32218170166015625 0.57675933837890625
0.4705047607421875 -0.28704071044921875 0.57534027099609375
0.5514984130859375 -0.29830169677734375 0.56510162353515625
0.32662200927734375 -0.29076385498046875 0.60934066772460938
0.40048980712890625 -0.29758453369140625 0.59612274169921875
0.3685455322265625 -0.3051300048828125 0.60953521728515625
0.24224853515625 -0.28226470947265625 0.62372207641601562
0.27812957763671875 -0.27243804931640625 0.60974884033203125
0.353302001953125 -0.2787017822265625 0.595916748046875
0.43900299072265625 -0.31255340576171875 0.59712982177734375
0.2865142822265625 -0.29587554931640625 0.62374496459960938
0.19237518310546875 -0.2645721435546875 0.624359130859375
0.6602325439453125 -0.3582000732421875 0.57656097412109375
0.67475128173828125 -0.37012481689453125 0.5780487060546875
0.63818359375 -0.33959197998046875 0.56938934326171875
0.6412353515625 -0.34592437744140625 0.575469970703125
0.67923736572265625 -0.3792266845703125 0.58509063720703125
0.69106292724609375 -0.38906097412109375 0.586181640625
0.65716552734375 -0.35297393798828125 0.570953369140625
0.61492919921875 -0.325439453125 0.56850433349609375
0.6636962890625 -0.3668975830078125 0.58397674560546875
-0.0473480224609375 -0.24704742431640625 0.66937637329101562
0.0505523681640625 -0.2602386474609375 0.65468978881835938
0.00652313232421875 -0.25670623779296875 0.66852569580078125
-0.1365509033203125 -0.23224639892578125 0.68207168579101562
-0.09735870361328125 -0.23455810546875 0.67020797729492188
-0.001739501953125 -0.24607086181640625 0.65587615966796875
0.10179901123046875 -0.2714691162109375 0.65444564819335938
-0.082366943359375 -0.2407684326171875 0.68102264404296875
-0.1778106689453125 -0.222808837890625 0.68070602416992188
0.717681884765625 -0.4208526611328125 0.6046905517578125
0.72962188720703125 -0.43393707275390625 0.605438232421875
0.7078399658203125 -0.41252899169921875 0.60001373291015625
0.69275665283203125 -0.4017486572265625 0.6027679443359375
0.72359466552734375 -0.42508697509765625 0.6078033447265625
0.73895263671875 -0.44036865234375 0.6084747314453125
0.7179718017578125 -0.4225006103515625 0.60132598876953125
0.68965911865234375 -0.39643096923828125 0.597869873046875
0.69183349609375 -0.4021148681640625 0.6070098876953125
-0.314971923828125 -0.1795196533203125 0.700531005859375
-0.27191162109375 -0.19708251953125 0.69724273681640625
-0.26502227783203125 -0.18473052978515625 0.70199966430664062
-0.343719482421875 -0.16124725341796875 0.702545166015625
-0.33950042724609375 -0.17603302001953125 0.69664764404296875
-0.29894256591796875 -0.19268035888671875 0.69350814819335938
-0.22010040283203125 -0.20404815673828125 0.69756317138671875
-0.29836273193359375 -0.16596221923828125 0.70441818237304688
-0.3654327392578125 -0.16058349609375 0.69771575927734375
0.7120513916015625 -0.42060089111328125 0.614349365234375
0.74784088134765625 -0.44513702392578125 0.61133575439453125
0.7214508056640625 -0.4246063232421875 0.6124267578125
0.6549835205078125 -0.388275146484375 0.6194610595703125
0.694793701171875 -0.41387176513671875 0.616241455078125
0.7376251220703125 -0.44159698486328125 0.61175537109375
0.74935150146484375 -0.44629669189453125 0.61095428466796875
0.67303466796875 -0.39525604248046875 0.61460113525390625
0.6313934326171875 -0.3800506591796875 0.62188720703125
-0.38358306884765625 -0.1182708740234375 0.70513153076171875
-0.3757476806640625 -0.13018798828125 0.70428466796875
-0.35630035400390625 -0.1124725341796875 0.70794677734375
-0.38671875 -0.1096954345703125 0.705657958984375
-0.39078521728515625 -0.12662506103515625 0.70073699951171875
-0.387664794921875 -0.13504791259765625 0.6997222900390625
-0.3423614501953125 -0.128662109375 0.70784759521484375
-0.36614990234375 -0.10009765625 0.70783233642578125
-0.39003753662109375 -0.12210845947265625 0.7023773193359375
0.450958251953125 -0.288726806640625 0.621917724609375
0.48333740234375 -0.29584503173828125 0.6127166748046875
0.38653564453125 -0.2620849609375 0.6203155517578125
0.4185943603515625 -0.2826690673828125 0.63130950927734375
0.5164947509765625 -0.31982421875 0.62322235107421875
0.5465240478515625 -0.32769775390625 0.61553955078125
0.420623779296875 -0.26715087890625 0.6083831787109375
0.35455322265625 -0.2570648193359375 0.63117218017578125
0.4852294921875 -0.3116302490234375 0.63095855712890625
-0.3036651611328125 -0.146728515625 0.6789703369140625
-0.24875640869140625 -0.1503143310546875 0.66979217529296875
-0.29483795166015625 -0.15081787109375 0.675201416015625
-0.34821319580078125 -0.141998291015625 0.686737060546875
-0.31111907958984375 -0.14495849609375 0.68334197998046875
-0.262969970703125 -0.14908599853515625 0.67528533935546875
-0.233154296875 -0.15514373779296875 0.66493988037109375
-0.344940185546875 -0.146514892578125 0.68383026123046875
-0.3501129150390625 -0.13983917236328125 0.6898956298828125
0.57259368896484375 -0.316162109375 0.5848846435546875
0.61669158935546875 -0.34597015380859375 0.592041015625
0.5965576171875 -0.3246612548828125 0.57918548583984375
0.52515411376953125 -0.288909912109375 0.5784149169921875
0.544647216796875 -0.3087921142578125 0.5929718017578125
0.5973968505859375 -0.3409576416015625 0.59865570068359375
0.63189697265625 -0.35031890869140625 0.5869903564453125
0.557769775390625 -0.29949188232421875 0.57239532470703125
0.49033355712890625 -0.2798614501953125 0.58666229248046875
-0.230010986328125 -0.18459320068359375 0.6697845458984375
-0.1906890869140625 -0.20203399658203125 0.6693267822265625
-0.294830322265625 -0.17967987060546875 0.68112945556640625
-0.26025390625 -0.17000579833984375 0.67132568359375
-0.14762115478515625 -0.19036865234375 0.65729522705078125
-0.10346221923828125 -0.2091217041015625 0.65656280517578125
-0.2572784423828125 -0.19504547119140625 0.6805267333984375
-0.320892333984375 -0.1654815673828125 0.68172454833984375
-0.185028076171875 -0.17481231689453125 0.65834808349609375
0.33697509765625 -0.263763427734375 0.65337371826171875
0.3979339599609375 -0.28363037109375 0.6474609375
0.361328125 -0.270111083984375 0.6484375
0.27764892578125 -0.2463226318359375 0.65818023681640625
0.315216064453125 -0.2572784423828125 0.6585845947265625
0.372955322265625 -0.2739410400390625 0.65020751953125
0.4250030517578125 -0.2934722900390625 0.64388275146484375
0.299957275390625 -0.2499237060546875 0.65087890625
0.2575836181640625 -0.24249267578125 0.6650848388671875
-0.34764862060546875 -0.1494598388671875 0.6941680908203125
-0.33310699462890625 -0.1469879150390625 0.690521240234375
-0.36295318603515625 -0.14337921142578125 0.700408935546875
-0.3616790771484375 -0.1524200439453125 0.69622802734375
-0.32486724853515625 -0.15401458740234375 0.68717193603515625
-0.3009796142578125 -0.15139007568359375 0.68524932861328125
-0.35707855224609375 -0.14109039306640625 0.6971588134765625
-0.3683624267578125 -0.1448516845703125 0.70291900634765625
-0.34833526611328125 -0.15755462646484375 0.68804168701171875
0.5989837646484375 -0.373779296875 0.62227630615234375
0.6484832763671875 -0.401641845703125 0.61594390869140625
0.6374664306640625 -0.3902435302734375 0.62075042724609375
0.5335235595703125 -0.3403472900390625 0.6302032470703125
0.5572052001953125 -0.3528594970703125 0.6232757568359375
0.6035614013671875 -0.380401611328125 0.61653900146484375
0.6876373291015625 -0.4201202392578125 0.6145172119140625
0.569244384765625 -0.355926513671875 0.62818145751953125
0.497833251953125 -0.3228302001953125 0.631378173828125
-0.3833160400390625 -0.10335540771484375 0.70890045166015625
-0.3862762451171875 -0.1031494140625 0.7075042724609375
-0.3770599365234375 -0.08614349365234375 0.70870208740234375
-0.37850189208984375 -0.10540771484375 0.71155548095703125
-0.38066864013671875 -0.1205596923828125 0.7084197998046875
-0.3842010498046875 -0.1190338134765625 0.70571136474609375
-0.37662506103515625 -0.08687591552734375 0.707855224609375
-0.3736724853515625 -0.0883331298828125 0.709686279296875
-0.375885009765625 -0.120941162109375 0.71196746826171875
0.3382415771484375 -0.22845458984375 0.6213226318359375
0.35821533203125 -0.2408599853515625 0.621917724609375
0.328643798828125 -0.219970703125 0.62371826171875
0.319305419921875 -0.216033935546875 0.6211395263671875
0.346771240234375 -0.2366180419921875 0.6207733154296875
0.37103271484375 -0.2514190673828125 0.6198577880859375
0.3421630859375 -0.230255126953125 0.6259002685546875
0.3138275146484375 -0.2098541259765625 0.6217498779296875
0.325164794921875 -0.2227325439453125 0.6204071044921875
-0.3227691650390625 -0.10240936279296875 0.725341796875
-0.336517333984375 -0.10980224609375 0.728485107421875
-0.32932281494140625 -0.10514068603515625 0.72435760498046875
-0.31366729736328125 -0.0938720703125 0.72199249267578125
-0.31647491455078125 -0.098846435546875 0.72664642333984375
-0.33014678955078125 -0.10565948486328125 0.729156494140625
-0.34276580810546875 -0.11496734619140625 0.7259368896484375
-0.3208160400390625 -0.09604644775390625 0.72088623046875
-0.30804443359375 -0.0916595458984375 0.72301483154296875
0.4399871826171875 -0.2893524169921875 0.6235809326171875
0.4756622314453125 -0.31036376953125 0.62360382080078125
0.4021759033203125 -0.2698974609375 0.6306304931640625
0.408416748046875 -0.271881103515625 0.6243896484375
0.467926025390625 -0.3080291748046875 0.61822509765625
0.510345458984375 -0.331390380859375 0.61789703369140625
0.4303131103515625 -0.286834716796875 0.6311187744140625
0.37738037109375 -0.255706787109375 0.63018798828125
0.4315185546875 -0.286956787109375 0.619384765625
-0.35211181640625 -0.10872650146484375 0.719329833984375
-0.356414794921875 -0.12229156494140625 0.71923828125
-0.361785888671875 -0.10874176025390625 0.71537017822265625
-0.34755706787109375 -0.095367431640625 0.71515655517578125
-0.34356689453125 -0.1085052490234375 0.72011566162109375
-0.352020263671875 -0.121246337890625 0.72197723388671875
-0.3626251220703125 -0.1223297119140625 0.716766357421875
-0.3577880859375 -0.09384918212890625 0.71375274658203125
-0.337554931640625 -0.0962677001953125 0.717681884765625
0.2669830322265625 -0.181854248046875 0.6214599609375
0.2642364501953125 -0.1845245361328125 0.6231689453125
0.2817230224609375 -0.19207763671875 0.6221160888671875
0.2690277099609375 -0.1783905029296875 0.61968994140625
0.2628326416015625 -0.1752471923828125 0.6190032958984375
0.25738525390625 -0.1774444580078125 0.62109375
0.281646728515625 -0.195648193359375 0.6223297119140625
0.281158447265625 -0.1874542236328125 0.6210174560546875
0.2676849365234375 -0.17291259765625 0.617645263671875
-0.3021087646484375 -0.0885772705078125 0.73041534423828125
-0.30381011962890625 -0.0916900634765625 0.727935791015625
-0.2939910888671875 -0.08336639404296875 0.72719573974609375
-0.30931854248046875 -0.0865478515625 0.73226165771484375
-0.31233978271484375 -0.09316253662109375 0.73264312744140625
-0.31504058837890625 -0.09661102294921875 0.73204803466796875
-0.2960052490234375 -0.08605194091796875 0.72493743896484375
-0.30168914794921875 -0.08080291748046875 0.7297210693359375
-0.3193817138671875 -0.09075927734375 0.734527587890625
0.3326568603515625 -0.195068359375 0.6004486083984375
0.298095703125 -0.18218994140625 0.6086273193359375
0.3318328857421875 -0.18914794921875 0.5970916748046875
0.3684539794921875 -0.2105865478515625 0.591583251953125
0.326507568359375 -0.1993408203125 0.6046142578125
0.291534423828125 -0.1842803955078125 0.6114044189453125
0.3007659912109375 -0.179534912109375 0.60589599609375
0.367218017578125 -0.201629638671875 0.586395263671875
0.3622894287109375 -0.218536376953125 0.599090576171875
-0.3919525146484375 -0.09766387939453125 0.7397003173828125
-0.39266204833984375 -0.10234832763671875 0.7405242919921875
-0.3568878173828125 -0.0902557373046875 0.738555908203125
-0.38873291015625 -0.09162139892578125 0.7376708984375
-0.42499542236328125 -0.11058807373046875 0.735687255859375
-0.42530059814453125 -0.1158294677734375 0.7361907958984375
-0.3614654541015625 -0.09421539306640625 0.73957061767578125
-0.3519744873046875 -0.08423614501953125 0.736297607421875
-0.42281341552734375 -0.10324859619140625 0.73386383056640625
-0.4929656982421875 -0.4581146240234375 -0.0370635986328125
-0.4332122802734375 -0.343048095703125 -0.1064910888671875
-0.413818359375 -0.378692626953125 0.0784759521484375
-0.53070068359375 -0.5218963623046875 0.030731201171875
-0.562225341796875 -0.5411224365234375 -0.1475067138671875
-0.5015106201171875 -0.4395904541015625 -0.2077484130859375
-0.358917236328125 -0.25537109375 0.0022735595703125
-0.446746826171875 -0.4521484375 0.1534576416015625
-0.6008148193359375 -0.5897216796875 -0.090362548828125
-0.6673736572265625 -0.7077484130859375 -0.3291473388671875
-0.6693267822265625 -0.730865478515625 -0.354095458984375
-0.6363372802734375 -0.665496826171875 -0.3490142822265625
-0.650543212890625 -0.6708984375 -0.2919464111328125
-0.68597412109375 -0.7107696533203125 -0.309295654296875
-0.6812744140625 -0.7243804931640625 -0.342193603515625
-0.6490936279296875 -0.706146240234375 -0.3642120361328125
-0.6072540283203125 -0.6090545654296875 -0.3243408203125
-0.6772918701171875 -0.6863250732421875 -0.2615814208984375
-0.54913330078125 -0.497894287109375 0.2590179443359375
-0.558349609375 -0.5343780517578125 0.1775054931640625
-0.452545166015625 -0.4766693115234375 0.38641357421875
