# XYZ point cloud file
-0.72314453125 -0.5228271484375 -0.29119110107421875
-0.744842529296875 -0.53271484375 -0.30023956298828125
-0.753143310546875 -0.5513916015625 -0.29273223876953125
-0.725555419921875 -0.5555419921875 -0.25800704956054688
-0.710357666015625 -0.5250244140625 -0.27557373046875
-0.7362060546875 -0.5166015625 -0.30623245239257812
0.883697509765625 0.2796630859375 -0.42699813842773438
0.870941162109375 0.26025390625 -0.42390060424804688
0.896209716796875 0.2666015625 -0.43341827392578125
0.895416259765625 0.30029296875 -0.4303436279296875
0.8726806640625 0.292236328125 -0.42125320434570312
0.8602294921875 0.2706298828125 -0.41661453247070312
0.882720947265625 0.245361328125 -0.4293670654296875
0.90802001953125 0.2874755859375 -0.43783950805664062
0.884552001953125 0.31103515625 -0.4241943359375
-0.78204345703125 -0.5185546875 -0.34801101684570312
-0.790771484375 -0.53955078125 -0.34240341186523438
-0.770050048828125 -0.523681640625 -0.33118438720703125
-0.772491455078125 -0.5037841796875 -0.35379409790039062
-0.791412353515625 -0.5150146484375 -0.36246490478515625
-0.802215576171875 -0.5355224609375 -0.35692977905273438
-0.779571533203125 -0.5428466796875 -0.32568740844726562
-0.76007080078125 -0.5050048828125 -0.33778762817382812
-0.782562255859375 -0.496826171875 -0.36863327026367188
0.93060302734375 0.3555908203125 -0.43955230712890625
0.917938232421875 0.3382568359375 -0.43614959716796875
0.942108154296875 0.3416748046875 -0.44636917114257812
0.9447021484375 0.3682861328125 -0.4441680908203125
0.92156982421875 0.3653564453125 -0.43581008911132812
0.909576416015625 0.3489990234375 -0.43136978149414062
0.931915283203125 0.325927734375 -0.44295120239257812
0.955657958984375 0.3568115234375 -0.44982147216796875
0.935150146484375 0.38232421875 -0.441314697265625
-0.826995849609375 -0.508544921875 -0.40024185180664062
-0.838287353515625 -0.527587890625 -0.39594650268554688
-0.815338134765625 -0.509033203125 -0.38809967041015625
-0.817840576171875 -0.492431640625 -0.40783309936523438
-0.840362548828125 -0.51025390625 -0.41400146484375
-0.849456787109375 -0.5274658203125 -0.40835952758789062
-0.826019287109375 -0.528076171875 -0.38310623168945312
-0.8055419921875 -0.494384765625 -0.3958587646484375
-0.83203125 -0.4945068359375 -0.42327499389648438
0.891082763671875 0.3966064453125 -0.427337646484375
0.880340576171875 0.4073486328125 -0.42339324951171875
0.875640869140625 0.3809814453125 -0.42047119140625
0.9022216796875 0.3878173828125 -0.4300994873046875
0.908599853515625 0.4129638671875 -0.43677139282226562
0.899078369140625 0.421142578125 -0.43402099609375
0.86456298828125 0.391357421875 -0.41422271728515625
0.88690185546875 0.370849609375 -0.42387008666992188
0.917633056640625 0.4033203125 -0.43870925903320312
-0.78961181640625 -0.444580078125 -0.43521881103515625
-0.77630615234375 -0.442138671875 -0.41717529296875
-0.780975341796875 -0.4288330078125 -0.44096755981445312
-0.803070068359375 -0.448486328125 -0.4524383544921875
-0.79913330078125 -0.4613037109375 -0.42657852172851562
-0.786285400390625 -0.460693359375 -0.41083145141601562
-0.766632080078125 -0.42578125 -0.42044830322265625
-0.794464111328125 -0.43505859375 -0.46023941040039062
-0.812347412109375 -0.464111328125 -0.44251632690429688
0.83563232421875 0.3238525390625 -0.39990997314453125
0.824310302734375 0.302978515625 -0.39479827880859375
0.848724365234375 0.311767578125 -0.40915679931640625
0.847900390625 0.3433837890625 -0.40648651123046875
0.8238525390625 0.3359375 -0.39025497436523438
0.81158447265625 0.3145751953125 -0.38513946533203125
0.83660888671875 0.291015625 -0.40319061279296875
0.86016845703125 0.3341064453125 -0.41451644897460938
0.83551025390625 0.355712890625 -0.39663314819335938
-0.739227294921875 -0.4462890625 -0.36764144897460938
-0.75054931640625 -0.4654541015625 -0.3641510009765625
-0.728363037109375 -0.450927734375 -0.35204315185546875
-0.729766845703125 -0.4267578125 -0.36777877807617188
-0.751312255859375 -0.4427490234375 -0.38356399536132812
-0.762542724609375 -0.4630126953125 -0.3799896240234375
-0.738800048828125 -0.469970703125 -0.34868621826171875
-0.7176513671875 -0.4322509765625 -0.35277175903320312
-0.741943359375 -0.4267578125 -0.38547897338867188
0.788360595703125 0.2403564453125 -0.38471221923828125
0.77728271484375 0.25244140625 -0.37814712524414062
0.777069091796875 0.2197265625 -0.38300323486328125
0.801300048828125 0.229248046875 -0.39099502563476562
0.800628662109375 0.26171875 -0.3874053955078125
0.78741455078125 0.2744140625 -0.38079833984375
0.765655517578125 0.230712890625 -0.37688827514648438
0.787994384765625 0.209228515625 -0.38752365112304688
0.814178466796875 0.2496337890625 -0.39444351196289062
-0.69268798828125 -0.4688720703125 -0.30937957763671875
-0.68084716796875 -0.4742431640625 -0.29819869995117188
-0.683837890625 -0.45068359375 -0.312652587890625
-0.70428466796875 -0.4630126953125 -0.32387161254882812
-0.702728271484375 -0.4873046875 -0.303985595703125
-0.6904296875 -0.4920654296875 -0.29135894775390625
-0.6707763671875 -0.45751953125 -0.30206680297851562
-0.69439697265625 -0.4449462890625 -0.32548141479492188
-0.71533203125 -0.482421875 -0.31792831420898438
0.73895263671875 0.158447265625 -0.37590408325195312
0.749725341796875 0.1497802734375 -0.37752532958984375
0.75128173828125 0.175537109375 -0.37723541259765625
0.7294921875 0.1651611328125 -0.371978759765625
0.72784423828125 0.1424560546875 -0.3733062744140625
0.7384033203125 0.1361083984375 -0.3747711181640625
0.761993408203125 0.167724609375 -0.38129425048828125
0.741363525390625 0.184814453125 -0.37348556518554688
0.7191162109375 0.14794921875 -0.36905288696289062
-0.640533447265625 -0.4892578125 -0.2668304443359375
-0.653045654296875 -0.4847412109375 -0.27528762817382812
-0.649932861328125 -0.5037841796875 -0.26033401489257812
-0.630401611328125 -0.489990234375 -0.25664138793945312
-0.63311767578125 -0.4764404296875 -0.26976776123046875
-0.645538330078125 -0.4716796875 -0.27945709228515625
-0.66290283203125 -0.5 -0.26915359497070312
-0.639678955078125 -0.5028076171875 -0.25157546997070312
-0.62274169921875 -0.4814453125 -0.2602386474609375
0.77667236328125 0.064697265625 -0.37109375
0.770599365234375 0.052490234375 -0.36289215087890625
0.793121337890625 0.0780029296875 -0.37445068359375
0.78179931640625 0.0792236328125 -0.37749481201171875
0.7633056640625 0.0537109375 -0.369293212890625
0.758819580078125 0.0443115234375 -0.362823486328125
0.7869873046875 0.0643310546875 -0.36620712280273438
0.797607421875 0.0965576171875 -0.38244247436523438
0.767913818359375 0.0657958984375 -0.37424468994140625
-0.67071533203125 -0.584228515625 -0.1853179931640625
-0.6878662109375 -0.585693359375 -0.18841552734375
-0.6650390625 -0.5887451171875 -0.17066192626953125
-0.657745361328125 -0.5816650390625 -0.18413543701171875
-0.676513671875 -0.5792236328125 -0.199249267578125
-0.69329833984375 -0.5792236328125 -0.20600128173828125
-0.68048095703125 -0.5908203125 -0.17079544067382812
-0.653289794921875 -0.58544921875 -0.17144393920898438
-0.662811279296875 -0.57568359375 -0.19528579711914062
0.85467529296875 0.1195068359375 -0.41370010375976562
0.8775634765625 0.1343994140625 -0.43136978149414062
0.8526611328125 0.1424560546875 -0.41350936889648438
0.8323974609375 0.106201171875 -0.39511871337890625
0.8558349609375 0.0977783203125 -0.4101715087890625
0.881744384765625 0.1104736328125 -0.43439483642578125
0.871734619140625 0.1591796875 -0.42805099487304688
0.83404541015625 0.126953125 -0.3991241455078125
0.83001708984375 0.086669921875 -0.3885498046875
-0.748748779296875 -0.6077880859375 -0.23209762573242188
-0.7469482421875 -0.591064453125 -0.2492828369140625
-0.770599365234375 -0.614501953125 -0.25540542602539062
-0.748687744140625 -0.6224365234375 -0.214813232421875
-0.72650146484375 -0.5992431640625 -0.21237945556640625
-0.729034423828125 -0.5843505859375 -0.23042678833007812
-0.765716552734375 -0.5936279296875 -0.27111434936523438
-0.77435302734375 -0.633056640625 -0.2412109375
-0.723724365234375 -0.60986328125 -0.19323348999023438
0.94476318359375 0.199951171875 -0.47626113891601562
0.9638671875 0.22705078125 -0.48558807373046875
0.926849365234375 0.226318359375 -0.45829010009765625
0.92413330078125 0.17626953125 -0.46318435668945312
0.96240234375 0.1766357421875 -0.49262237548828125
0.9840087890625 0.2060546875 -0.50060272216796875
0.943328857421875 0.250732421875 -0.46490097045898438
0.9095458984375 0.20166015625 -0.4520721435546875
0.9368896484375 0.151123046875 -0.4766845703125
-0.836212158203125 -0.62451171875 -0.3258514404296875
-0.81988525390625 -0.5938720703125 -0.33060836791992188
-0.855438232421875 -0.62060546875 -0.34804534912109375
-0.8505859375 -0.6514892578125 -0.32025146484375
-0.8148193359375 -0.624267578125 -0.303131103515625
-0.8021240234375 -0.593017578125 -0.31118392944335938
-0.835418701171875 -0.58984375 -0.34995269775390625
-0.873291015625 -0.6484375 -0.3459930419921875
-0.82611083984375 -0.6505126953125 -0.29413986206054688
1.0089111328125 0.313720703125 -0.49101638793945312
1.01629638671875 0.3438720703125 -0.48954010009765625
0.982330322265625 0.321044921875 -0.4740142822265625
0.996124267578125 0.283935546875 -0.49177932739257812
1.032745361328125 0.30908203125 -0.50958251953125
1.03863525390625 0.3421630859375 -0.50687789916992188
0.992431640625 0.34375 -0.47461700439453125
0.97052001953125 0.2982177734375 -0.47270965576171875
1.021575927734375 0.2734375 -0.5086822509765625
-0.896728515625 -0.5948486328125 -0.41099166870117188
-0.873138427734375 -0.5711669921875 -0.4007720947265625
-0.90203857421875 -0.5826416015625 -0.43038558959960938
-0.9169921875 -0.6171875 -0.4211273193359375
-0.88592529296875 -0.6063232421875 -0.38907623291015625
-0.863128662109375 -0.5780029296875 -0.3853302001953125
-0.881591796875 -0.5625 -0.418701171875
-0.92205810546875 -0.5999755859375 -0.44568252563476562
-0.9073486328125 -0.6326904296875 -0.39519882202148438
1.007354736328125 0.4154052734375 -0.47981643676757812
0.99713134765625 0.431884765625 -0.47762298583984375
0.986328125 0.3985595703125 -0.46546173095703125
1.014739990234375 0.3931884765625 -0.4832763671875
1.02618408203125 0.4283447265625 -0.49338912963867188
1.013519287109375 0.446044921875 -0.48797225952148438
0.97637939453125 0.4132080078125 -0.46166610717773438
0.993682861328125 0.3836669921875 -0.47114181518554688
1.03521728515625 0.405029296875 -0.49767684936523438
-0.892303466796875 -0.529296875 -0.481292724609375
-0.875946044921875 -0.5185546875 -0.45554733276367188
-0.883331298828125 -0.5079345703125 -0.49341583251953125
-0.90704345703125 -0.53369140625 -0.50330352783203125
-0.898895263671875 -0.5487060546875 -0.46642303466796875
-0.883148193359375 -0.5360107421875 -0.44578170776367188
-0.865478515625 -0.5025634765625 -0.46634674072265625
-0.895263671875 -0.5125732421875 -0.516357421875
-0.91644287109375 -0.5576171875 -0.48648834228515625
0.958770751953125 0.448486328125 -0.46326828002929688
0.9444580078125 0.4400634765625 -0.45611190795898438
0.970458984375 0.4482421875 -0.46660232543945312
0.96051025390625 0.458251953125 -0.46509552001953125
0.93914794921875 0.4476318359375 -0.4556427001953125
0.95318603515625 0.432373046875 -0.4562835693359375
0.9805908203125 0.4619140625 -0.47436141967773438
-0.845947265625 -0.463623046875 -0.50637435913085938
-0.8564453125 -0.4749755859375 -0.5066375732421875
-0.834716796875 -0.45703125 -0.49180221557617188
-0.846282958984375 -0.45947265625 -0.51799392700195312
-0.865478515625 -0.4742431640625 -0.52455520629882812
-0.84381103515625 -0.4696044921875 -0.48467636108398438
-0.82965087890625 -0.447998046875 -0.50034332275390625
0.815948486328125 -0.0523681640625 -0.38802337646484375
0.814849853515625 -0.0479736328125 -0.357818603515625
0.765899658203125 -0.0687255859375 -0.35178375244140625
0.815704345703125 -0.0352783203125 -0.41836929321289062
0.867034912109375 -0.03173828125 -0.42815017700195312
0.866607666015625 -0.0284423828125 -0.39783096313476562
0.765838623046875 -0.0640869140625 -0.31725692749023438
0.7689208984375 -0.0535888671875 -0.38496017456054688
0.86798095703125 -0.01513671875 -0.45737457275390625
-0.69964599609375 -0.6929931640625 -0.11186599731445312
-0.6494140625 -0.666259765625 -0.08632659912109375
-0.69879150390625 -0.686279296875 -0.07250213623046875
-0.750885009765625 -0.7218017578125 -0.14590835571289062
-0.700775146484375 -0.6884765625 -0.16176223754882812
-0.65338134765625 -0.6595458984375 -0.1381072998046875
-0.649200439453125 -0.657958984375 -0.046627044677734375
-0.750152587890625 -0.7137451171875 -0.10818099975585938
-0.752410888671875 -0.712646484375 -0.194488525390625
1.02056884765625 0.0906982421875 -0.51968765258789062
1.016387939453125 0.0916748046875 -0.49583053588867188
0.97125244140625 0.03759765625 -0.499053955078125
1.02239990234375 0.1077880859375 -0.54194259643554688
1.06622314453125 0.15087890625 -0.535980224609375
1.0616455078125 0.15185546875 -0.51401901245117188
0.968170166015625 0.0406494140625 -0.47199249267578125
0.971588134765625 0.0565185546875 -0.52118301391601562
1.069061279296875 0.1669921875 -0.55498123168945312
-0.906524658203125 -0.75341796875 -0.2654876708984375
-0.855987548828125 -0.7528076171875 -0.22418212890625
-0.905059814453125 -0.747802734375 -0.23537063598632812
-0.95220947265625 -0.7506103515625 -0.3055877685546875
-0.907135009765625 -0.744873046875 -0.30567169189453125
-0.856719970703125 -0.7423095703125 -0.2685394287109375
-0.854095458984375 -0.7471923828125 -0.19104766845703125
-0.9482421875 -0.744140625 -0.27923202514648438
-0.95159912109375 -0.7451171875 -0.34267425537109375
1.1446533203125 0.3675537109375 -0.52656173706054688
1.136688232421875 0.3704833984375 -0.50870513916015625
1.129180908203125 0.2943115234375 -0.53713226318359375
1.148468017578125 0.36865234375 -0.54218673706054688
1.149810791015625 0.4395751953125 -0.51465606689453125
1.142303466796875 0.442626953125 -0.49692535400390625
1.122222900390625 0.29345703125 -0.5189971923828125
1.131591796875 0.3026123046875 -0.55249786376953125
1.15264892578125 0.43505859375 -0.53093338012695312
-1.02734375 -0.6697998046875 -0.4384613037109375
-1.013275146484375 -0.706298828125 -0.39272308349609375
-1.0235595703125 -0.660400390625 -0.42194366455078125
-1.0330810546875 -0.6278076171875 -0.48429489135742188
-1.02777099609375 -0.6710205078125 -0.4599456787109375
-1.013031005859375 -0.7041015625 -0.42015838623046875
-1.008758544921875 -0.6971435546875 -0.37334442138671875
-1.029052734375 -0.616455078125 -0.4696502685546875
-1.03106689453125 -0.6322021484375 -0.50185012817382812
1.11187744140625 0.604736328125 -0.48606109619140625
1.10394287109375 0.6158447265625 -0.4644775390625
1.132415771484375 0.56103515625 -0.49275588989257812
1.119659423828125 0.5810546875 -0.50749969482421875
1.08477783203125 0.63232421875 -0.47900390625
1.07586669921875 0.647216796875 -0.45704269409179688
1.124267578125 0.573486328125 -0.47483444213867188
1.13720703125 0.54345703125 -0.5123138427734375
1.09344482421875 0.60546875 -0.50406265258789062
-0.989959716796875 -0.491455078125 -0.61218643188476562
-1.012237548828125 -0.5361328125 -0.57403564453125
-0.988983154296875 -0.4766845703125 -0.598846435546875
-0.96197509765625 -0.448486328125 -0.63933181762695312
-0.9908447265625 -0.510498046875 -0.61686325073242188
-1.0115966796875 -0.5517578125 -0.58194732666015625
-1.009490966796875 -0.5234375 -0.56041336059570312
-0.960662841796875 -0.433349609375 -0.62532806396484375
-0.963165283203125 -0.4732666015625 -0.64301681518554688
0.971038818359375 0.6290283203125 -0.44809341430664062
0.961669921875 0.6492919921875 -0.4196319580078125
1.01348876953125 0.6439208984375 -0.46201324462890625
0.9808349609375 0.5904541015625 -0.47758102416992188
0.926483154296875 0.6043701171875 -0.43592071533203125
0.91900634765625 0.626708984375 -0.40811920166015625
1.00372314453125 0.662109375 -0.43471527099609375
1.022491455078125 0.60693359375 -0.48974227905273438
0.93536376953125 0.5631103515625 -0.46570205688476562
-0.854949951171875 -0.3525390625 -0.63180923461914062
-0.8924560546875 -0.37939453125 -0.64875030517578125
-0.85699462890625 -0.3331298828125 -0.61357879638671875
-0.81964111328125 -0.3310546875 -0.60355377197265625
-0.855499267578125 -0.3863525390625 -0.63503646850585938
-0.893829345703125 -0.41162109375 -0.6516265869140625
-0.8934326171875 -0.3594970703125 -0.63095855712890625
-0.823974609375 -0.311767578125 -0.58515167236328125
-0.81829833984375 -0.364990234375 -0.6085662841796875
0.81561279296875 0.5264892578125 -0.39120864868164062
0.81243896484375 0.55126953125 -0.36161422729492188
0.84844970703125 0.552490234375 -0.40743255615234375
0.81890869140625 0.4822998046875 -0.42037582397460938
0.7847900390625 0.5008544921875 -0.37569427490234375
0.783477783203125 0.52490234375 -0.34746932983398438
0.843841552734375 0.575439453125 -0.37729644775390625
0.854034423828125 0.5087890625 -0.43764877319335938
0.7857666015625 0.4559326171875 -0.40576171875
-0.72735595703125 -0.29052734375 -0.50725555419921875
-0.75433349609375 -0.298828125 -0.54046249389648438
-0.735748291015625 -0.274169921875 -0.48765945434570312
-0.703338623046875 -0.283203125 -0.47672653198242188
-0.719085693359375 -0.3226318359375 -0.51459884643554688
-0.749359130859375 -0.3319091796875 -0.54558563232421875
-0.760955810546875 -0.281494140625 -0.52087020874023438
-0.712493896484375 -0.26806640625 -0.455169677734375
-0.6934814453125 -0.3145751953125 -0.48418426513671875
0.8211669921875 0.2044677734375 -0.46564865112304688
0.86553955078125 0.2335205078125 -0.49089431762695312
0.819183349609375 0.0966796875 -0.46008682250976562
0.779266357421875 0.1834716796875 -0.4419708251953125
0.8214111328125 0.317138671875 -0.46027374267578125
0.86236572265625 0.34326171875 -0.48254776000976562
0.867584228515625 0.1192626953125 -0.49124908447265625
0.775238037109375 0.0780029296875 -0.43370437622070312
0.784271240234375 0.2913818359375 -0.4406890869140625
-0.705322265625 -0.5228271484375 -0.37993240356445312
-0.704193115234375 -0.5992431640625 -0.301055908203125
-0.747406005859375 -0.543212890625 -0.41146469116210938
-0.708770751953125 -0.444091796875 -0.44812774658203125
-0.6688232421875 -0.5069580078125 -0.35509490966796875
-0.662139892578125 -0.5784912109375 -0.27814102172851562
-0.7493896484375 -0.62109375 -0.3325958251953125
-0.74505615234375 -0.459228515625 -0.48080825805664062
-0.67510986328125 -0.428955078125 -0.42118453979492188
1.00836181640625 0.3306884765625 -0.54793167114257812
0.9991455078125 0.4364013671875 -0.53044891357421875
1.052825927734375 0.366455078125 -0.55668258666992188
1.01605224609375 0.2301025390625 -0.55696487426757812
0.959747314453125 0.291259765625 -0.53373336791992188
0.953033447265625 0.4022216796875 -0.51750946044921875
1.043304443359375 0.4644775390625 -0.54071426391601562
1.061309814453125 0.27587890625 -0.5675201416015625
0.96533203125 0.1854248046875 -0.54145050048828125
-0.879638671875 -0.587646484375 -0.50608062744140625
-0.921112060546875 -0.5928955078125 -0.5272369384765625
-0.86822509765625 -0.5054931640625 -0.57004547119140625
-0.83599853515625 -0.573974609375 -0.4756622314453125
-0.892364501953125 -0.6602783203125 -0.431182861328125
-0.9356689453125 -0.6617431640625 -0.45906829833984375
-0.90771484375 -0.521728515625 -0.58782958984375
-0.82611083984375 -0.4906005859375 -0.54539871215820312
-0.845672607421875 -0.6485595703125 -0.39931869506835938
1.13104248046875 0.4464111328125 -0.55562973022460938
1.12982177734375 0.4930419921875 -0.54538726806640625
1.141357421875 0.4149169921875 -0.55828475952148438
1.117767333984375 0.43115234375 -0.56212615966796875
1.108245849609375 0.4990234375 -0.547393798828125
1.144439697265625 0.467529296875 -0.54494476318359375
1.124969482421875 0.370361328125 -0.56693649291992188
-0.997467041015625 -0.606689453125 -0.55530166625976562
-1.010406494140625 -0.6356201171875 -0.52763748168945312
-0.99554443359375 -0.57666015625 -0.58541107177734375
-0.98382568359375 -0.60546875 -0.5550079345703125
-0.996612548828125 -0.6531982421875 -0.5039215087890625
-1.01263427734375 -0.604248046875 -0.5554656982421875
-0.973876953125 -0.55517578125 -0.59910202026367188
0.721954345703125 0.4161376953125 -0.36318588256835938
0.707489013671875 0.3990478515625 -0.3617095947265625
0.7244873046875 0.44384765625 -0.3283233642578125
0.73870849609375 0.4410400390625 -0.3632659912109375
0.718658447265625 0.3695068359375 -0.39608001708984375
0.701995849609375 0.3526611328125 -0.4021759033203125
0.709014892578125 0.43017578125 -0.32129287719726562
0.740966796875 0.46826171875 -0.33220672607421875
0.73724365234375 0.3974609375 -0.39415740966796875
-0.64349365234375 -0.2938232421875 -0.41344070434570312
-0.657073974609375 -0.277099609375 -0.38672256469726562
-0.62994384765625 -0.2919921875 -0.40611648559570312
-0.627288818359375 -0.3218994140625 -0.4307403564453125
-0.6605224609375 -0.2896728515625 -0.42914199829101562
-0.67352294921875 -0.2724609375 -0.40525436401367188
-0.645599365234375 -0.274658203125 -0.37247848510742188
-0.61126708984375 -0.322021484375 -0.43235397338867188
-0.647064208984375 -0.3173828125 -0.44031143188476562
0.68695068359375 0.1258544921875 -0.432952880859375
0.699554443359375 0.220703125 -0.43402862548828125
0.714202880859375 0.1461181640625 -0.42516326904296875
0.67169189453125 0.0361328125 -0.41901397705078125
0.661712646484375 0.1080322265625 -0.44853591918945312
0.679229736328125 0.20068359375 -0.4496002197265625
0.72393798828125 0.243896484375 -0.4262847900390625
0.702911376953125 0.048583984375 -0.4114532470703125
0.64190673828125 0.02294921875 -0.43349075317382812
-0.575469970703125 -0.473388671875 -0.34877395629882812
-0.603240966796875 -0.482177734375 -0.33823394775390625
-0.593414306640625 -0.4183349609375 -0.39836502075195312
-0.549041748046875 -0.4676513671875 -0.36954498291015625
-0.559844970703125 -0.5274658203125 -0.28881072998046875
-0.589630126953125 -0.540283203125 -0.2715606689453125
-0.617584228515625 -0.4183349609375 -0.3955078125
-0.56903076171875 -0.414306640625 -0.41391754150390625
-0.530548095703125 -0.5150146484375 -0.31343460083007812
0.64117431640625 -0.0986328125 -0.309783935546875
0.60650634765625 -0.108154296875 -0.31595611572265625
0.6478271484375 -0.0802001953125 -0.35302352905273438
0.678985595703125 -0.0902099609375 -0.31191635131835938
0.640350341796875 -0.096435546875 -0.26616668701171875
0.604400634765625 -0.10888671875 -0.26255035400390625
0.614013671875 -0.089111328125 -0.36449432373046875
0.6846923828125 -0.073974609375 -0.3517303466796875
0.679351806640625 -0.085693359375 -0.27249526977539062
-0.525787353515625 -0.592529296875 -0.098133087158203125
-0.534332275390625 -0.5911865234375 -0.15686416625976562
-0.491119384765625 -0.5758056640625 -0.12188720703125
-0.522796630859375 -0.58642578125 -0.049163818359375
-0.564178466796875 -0.6168212890625 -0.07958984375
-0.56927490234375 -0.6109619140625 -0.13632965087890625
-0.500274658203125 -0.57275390625 -0.18577957153320312
-0.486785888671875 -0.5694580078125 -0.0648193359375
-0.56048583984375 -0.6090087890625 -0.0359344482421875
0.351898193359375 0.51806640625 0.57483291625976562
0.334320068359375 0.5194091796875 0.59418869018554688
0.318817138671875 0.5189208984375 0.61101913452148438
0.315032958984375 0.4981689453125 0.62704849243164062
0.3203125 0.4769287109375 0.63152694702148438
0.319488525390625 0.456787109375 0.63633346557617188
0.326202392578125 0.4259033203125 0.62992477416992188
0.341156005859375 0.4136962890625 0.61571502685546875
0.35888671875 0.39892578125 0.59767913818359375
0.38482666015625 0.4149169921875 0.568756103515625
0.387359619140625 0.4471435546875 0.56264877319335938
0.380950927734375 0.4814453125 0.55672454833984375
-0.497833251953125 0.05322265625 0.5859222412109375
-0.4764404296875 0.03271484375 0.6049652099609375
-0.451080322265625 0.017333984375 0.62458419799804688
-0.418548583984375 0.0294189453125 0.65567779541015625
-0.414886474609375 0.0518798828125 0.66741561889648438
-0.41162109375 0.0721435546875 0.67718887329101562
-0.42816162109375 0.09423828125 0.67338180541992188
-0.445709228515625 0.103271484375 0.66034698486328125
-0.45880126953125 0.11474609375 0.64827728271484375
-0.478271484375 0.1204833984375 0.6226959228515625
-0.490020751953125 0.1065673828125 0.6057891845703125
-0.503021240234375 0.09228515625 0.5880126953125
0.417144775390625 0.5078125 0.47909164428710938
0.401947021484375 0.5115966796875 0.50488662719726562
0.38653564453125 0.515380859375 0.52972793579101562
0.393157958984375 0.3685302734375 0.55586624145507812
0.408447265625 0.353759765625 0.53300857543945312
0.422515869140625 0.339599609375 0.50929641723632812
0.448455810546875 0.36962890625 0.47485733032226562
0.451934814453125 0.4144287109375 0.46768951416015625
0.446502685546875 0.460205078125 0.45972442626953125
-0.532470703125 -0.0146484375 0.49363327026367188
-0.5047607421875 -0.0416259765625 0.52167892456054688
-0.472381591796875 -0.0654296875 0.54690170288085938
-0.432708740234375 -0.0557861328125 0.58876800537109375
-0.42901611328125 -0.0360107421875 0.60815811157226562
-0.42547607421875 -0.01416015625 0.62648391723632812
-0.5252685546875 0.0618896484375 0.54262161254882812
-0.53448486328125 0.047607421875 0.5186309814453125
-0.5433349609375 0.0318603515625 0.49296188354492188
0.36322021484375 0.353515625 0.58786773681640625
0.343536376953125 0.3289794921875 0.59894180297851562
0.319580078125 0.30908203125 0.60947799682617188
0.29864501953125 0.2698974609375 0.60157394409179688
0.3055419921875 0.248046875 0.58200454711914062
0.311431884765625 0.2265625 0.56076431274414062
0.3568115234375 0.2249755859375 0.52501296997070312
0.3900146484375 0.2530517578125 0.51074981689453125
0.417694091796875 0.28662109375 0.49684906005859375
-0.3931884765625 -0.08203125 0.5883026123046875
-0.346954345703125 -0.0810546875 0.60292816162109375
-0.306060791015625 -0.0687255859375 0.61404800415039062
-0.26995849609375 -0.0299072265625 0.63869857788085938
-0.276519775390625 -0.01123046875 0.65575790405273438
-0.283447265625 0.0076904296875 0.670806884765625
-0.32177734375 0.0140380859375 0.67938613891601562
-0.35455322265625 0.006591796875 0.66972732543945312
-0.3892822265625 0.0029296875 0.65732192993164062
0.30572509765625 0.4188232421875 0.64840316772460938
0.293212890625 0.401611328125 0.6552276611328125
0.2762451171875 0.386474609375 0.66191864013671875
0.264495849609375 0.36083984375 0.65915298461914062
0.273895263671875 0.3406982421875 0.64821624755859375
0.282684326171875 0.315673828125 0.63563156127929688
-0.298980712890625 0.04931640625 0.69387054443359375
-0.308349609375 0.0703125 0.70214462280273438
-0.317840576171875 0.089111328125 0.70752716064453125
-0.34466552734375 0.0946044921875 0.70906829833984375
-0.36688232421875 0.087890625 0.70245361328125
-0.38897705078125 0.0850830078125 0.69293594360351562
0.237396240234375 0.3719482421875 0.6739349365234375
0.215606689453125 0.370361328125 0.67772674560546875
0.193756103515625 0.3729248046875 0.68053054809570312
0.170501708984375 0.3631591796875 0.6731719970703125
0.166656494140625 0.34326171875 0.66394805908203125
0.1619873046875 0.3199462890625 0.65277481079101562
0.1915283203125 0.287109375 0.64058303833007812
0.224853515625 0.2825927734375 0.63523101806640625
0.258514404296875 0.284423828125 0.62798309326171875
-0.263275146484375 0.0482177734375 0.68625259399414062
-0.238616943359375 0.0726318359375 0.68452072143554688
-0.218353271484375 0.1014404296875 0.6800689697265625
-0.222503662109375 0.14208984375 0.683624267578125
-0.24127197265625 0.151611328125 0.693145751953125
-0.25830078125 0.1605224609375 0.70096206665039062
-0.27886962890625 0.15087890625 0.71210098266601562
-0.29144287109375 0.1324462890625 0.71440505981445312
-0.3062744140625 0.1163330078125 0.7151031494140625
0.153594970703125 0.2744140625 0.62578582763671875
0.1494140625 0.252197265625 0.60802841186523438
0.145294189453125 0.2303466796875 0.58911895751953125
0.184417724609375 0.1976318359375 0.56666183471679688
0.229888916015625 0.193603515625 0.56023025512695312
0.273712158203125 0.1956787109375 0.55105209350585938
-0.22686767578125 -0.02197265625 0.62105560302734375
-0.1925048828125 0.0078125 0.61801528930664062
-0.16632080078125 0.04248046875 0.612884521484375
-0.16021728515625 0.0948486328125 0.62244415283203125
-0.17315673828125 0.1060791015625 0.64023971557617188
-0.188690185546875 0.119873046875 0.65742874145507812
0.127349853515625 0.31298828125 0.63814544677734375
0.099700927734375 0.33154296875 0.63256072998046875
0.075592041015625 0.3564453125 0.62550735473632812
0.04510498046875 0.3719482421875 0.6002044677734375
0.034088134765625 0.3587646484375 0.58073043823242188
0.02392578125 0.34619140625 0.5604705810546875
0.037872314453125 0.294189453125 0.55177688598632812
0.0670166015625 0.2618408203125 0.56052017211914062
0.102569580078125 0.2327880859375 0.56716537475585938
-0.136016845703125 0.1263427734375 0.59066390991210938
-0.133819580078125 0.16943359375 0.57533645629882812
-0.139678955078125 0.21044921875 0.559844970703125
-0.168426513671875 0.251220703125 0.56354522705078125
-0.182159423828125 0.25244140625 0.58427047729492188
-0.1976318359375 0.25341796875 0.60450363159179688
-0.20281982421875 0.2242431640625 0.63555908203125
-0.19647216796875 0.193603515625 0.64980697631835938
-0.197601318359375 0.1622314453125 0.6619415283203125
0.152740478515625 0.387939453125 0.67966842651367188
0.135162353515625 0.4013671875 0.6771697998046875
0.119476318359375 0.4173583984375 0.67214584350585938
0.098114013671875 0.424560546875 0.65767288208007812
0.085357666015625 0.413818359375 0.64604568481445312
0.07073974609375 0.399658203125 0.63214111328125
-0.2325439453125 0.25 0.637786865234375
-0.250946044921875 0.24658203125 0.65190887451171875
-0.26715087890625 0.2449951171875 0.66427230834960938
-0.271759033203125 0.2252197265625 0.683990478515625
-0.266754150390625 0.2061767578125 0.69393157958984375
-0.266448974609375 0.1871337890625 0.70162200927734375
0.098419189453125 0.4561767578125 0.66259384155273438
0.09320068359375 0.4765625 0.65631866455078125
0.092041015625 0.498046875 0.65123367309570312
0.0860595703125 0.5185546875 0.63307571411132812
0.074310302734375 0.5169677734375 0.61696624755859375
0.0592041015625 0.516845703125 0.5995941162109375
0.0389404296875 0.4827880859375 0.5903472900390625
0.03814697265625 0.4498291015625 0.59866714477539062
0.044342041015625 0.416748046875 0.608245849609375
-0.233795166015625 0.27880859375 0.60761260986328125
-0.2569580078125 0.301025390625 0.5924224853515625
-0.284393310546875 0.3170166015625 0.57702255249023438
-0.32257080078125 0.316650390625 0.58471298217773438
-0.330230712890625 0.30712890625 0.60401153564453125
-0.33734130859375 0.2965087890625 0.62080764770507812
-0.32421875 0.2847900390625 0.64313888549804688
-0.30718994140625 0.274169921875 0.65502548217773438
-0.292083740234375 0.259521484375 0.66444778442382812
0.0322265625 0.5135498046875 0.55885696411132812
0.022186279296875 0.5113525390625 0.53595352172851562
0.013031005859375 0.5081787109375 0.5122528076171875
-0.007171630859375 0.4609375 0.500274658203125
-0.008392333984375 0.41796875 0.5130462646484375
-0.001312255859375 0.3743896484375 0.52718353271484375
-0.176727294921875 0.2867431640625 0.52343368530273438
-0.206939697265625 0.31591796875 0.50387191772460938
-0.241790771484375 0.337646484375 0.48403549194335938
-0.287841796875 0.3480224609375 0.48905181884765625
-0.296844482421875 0.343017578125 0.51563644409179688
-0.30535888671875 0.3345947265625 0.53917312622070312
0.058563232421875 0.5445556640625 0.57164764404296875
0.07806396484375 0.570556640625 0.56537628173828125
0.1021728515625 0.59228515625 0.56041336059570312
0.12774658203125 0.613525390625 0.53294754028320312
0.125732421875 0.621337890625 0.50858688354492188
0.124176025390625 0.6253662109375 0.48326873779296875
0.08453369140625 0.6068115234375 0.462188720703125
0.051025390625 0.5784912109375 0.46852874755859375
0.02374267578125 0.5439453125 0.477874755859375
-0.3197021484375 0.3582763671875 0.44306182861328125
-0.359344482421875 0.3519287109375 0.42419052124023438
-0.401214599609375 0.340087890625 0.407440185546875
-0.440948486328125 0.3177490234375 0.4227142333984375
-0.440460205078125 0.3143310546875 0.45357131958007812
-0.438201904296875 0.3101806640625 0.4823150634765625
-0.406982421875 0.3204345703125 0.52070999145507812
-0.376495361328125 0.3284912109375 0.53348922729492188
-0.34539794921875 0.3304443359375 0.54850387573242188
0.104522705078125 0.5374755859375 0.63999176025390625
0.116180419921875 0.553466796875 0.63603591918945312
0.130645751953125 0.56689453125 0.63176727294921875
0.14569091796875 0.5830078125 0.61384201049804688
0.14068603515625 0.5902099609375 0.59737014770507812
0.135528564453125 0.5994873046875 0.577911376953125
-0.432708740234375 0.2965087890625 0.53887557983398438
-0.42999267578125 0.290283203125 0.56428146362304688
-0.4267578125 0.282470703125 0.58513641357421875
-0.404998779296875 0.2879638671875 0.60770797729492188
-0.38482666015625 0.29296875 0.61580276489257812
-0.365020751953125 0.29443359375 0.62537002563476562
0.17156982421875 0.5841064453125 0.6252593994140625
0.194488525390625 0.586669921875 0.62259674072265625
0.217742919921875 0.5869140625 0.61958694458007812
0.245391845703125 0.5880126953125 0.60475921630859375
0.25201416015625 0.5970458984375 0.588043212890625
0.2598876953125 0.6065673828125 0.56784439086914062
0.2330322265625 0.623779296875 0.54742050170898438
0.198272705078125 0.6248779296875 0.5486602783203125
0.16339111328125 0.619384765625 0.55216217041015625
-0.463287353515625 0.2840576171875 0.50428390502929688
-0.48797607421875 0.258056640625 0.5016937255859375
-0.507720947265625 0.229248046875 0.50306320190429688
-0.508392333984375 0.2001953125 0.53627777099609375
-0.4964599609375 0.2030029296875 0.5619354248046875
-0.484344482421875 0.2052001953125 0.58381271362304688
-0.4683837890625 0.2271728515625 0.59683990478515625
-0.4560546875 0.246337890625 0.59638595581054688
-0.441375732421875 0.263916015625 0.59812164306640625
0.274810791015625 0.6209716796875 0.52239990234375
0.28369140625 0.6280517578125 0.49871444702148438
0.29290771484375 0.63232421875 0.47345733642578125
0.25811767578125 0.6490478515625 0.44704818725585938
0.211669921875 0.64990234375 0.450286865234375
0.165374755859375 0.6463623046875 0.4539337158203125
-0.4771728515625 0.297119140625 0.38538742065429688
-0.509002685546875 0.2637939453125 0.3805999755859375
-0.534149169921875 0.2259521484375 0.38123321533203125
-0.545806884765625 0.1875 0.41913223266601562
-0.537994384765625 0.1937255859375 0.44866561889648438
-0.53070068359375 0.19775390625 0.47913360595703125
0.299407958984375 0.5972900390625 0.54665756225585938
0.327392578125 0.574462890625 0.54700851440429688
0.3509521484375 0.546875 0.54991912841796875
0.407989501953125 0.5447998046875 0.45001983642578125
0.37860107421875 0.5843505859375 0.44789505004882812
0.3406982421875 0.6153564453125 0.44743728637695312
-0.56488037109375 0.1395263671875 0.401275634765625
-0.56890869140625 0.0965576171875 0.41985702514648438
-0.562957763671875 0.0545654296875 0.442779541015625
-0.52490234375 0.1058349609375 0.54794692993164062
-0.5286865234375 0.1363525390625 0.53143692016601562
-0.527496337890625 0.1688232421875 0.51844024658203125
0.26116943359375 0.5709228515625 0.61877822875976562
0.279022216796875 0.55712890625 0.61954498291015625
0.295013427734375 0.53955078125 0.62163162231445312
-0.477935791015625 0.1484375 0.62381362915039062
-0.481109619140625 0.168701171875 0.61479949951171875
-0.481201171875 0.1878662109375 0.60587310791015625
0.292510986328125 0.521240234375 0.64670562744140625
0.296295166015625 0.5211181640625 0.64095687866210938
0.300537109375 0.5205078125 0.63354110717773438
0.236663818359375 0.5791015625 0.62866973876953125
0.2340087890625 0.5787353515625 0.63576889038085938
0.231719970703125 0.5777587890625 0.6414794921875
0.24676513671875 0.564453125 0.6474456787109375
0.262847900390625 0.55224609375 0.64842987060546875
0.2760009765625 0.5380859375 0.6503753662109375
-0.462738037109375 0.166748046875 0.6542205810546875
-0.467681884765625 0.1829833984375 0.64535140991210938
-0.467559814453125 0.2000732421875 0.63853073120117188
-0.469268798828125 0.21533203125 0.62648773193359375
-0.4715576171875 0.2138671875 0.61955642700195312
-0.473358154296875 0.210205078125 0.61157608032226562
-0.466094970703125 0.136962890625 0.64580535888671875
-0.463287353515625 0.1417236328125 0.652374267578125
-0.460479736328125 0.1463623046875 0.65814208984375
0.1512451171875 0.5758056640625 0.63818740844726562
0.151641845703125 0.5755615234375 0.64533615112304688
0.15234375 0.575927734375 0.65202713012695312
0.1728515625 0.577392578125 0.65447616577148438
0.1910400390625 0.581298828125 0.65092086791992188
0.210723876953125 0.579833984375 0.64942550659179688
-0.457305908203125 0.2325439453125 0.6317596435546875
-0.448516845703125 0.2476806640625 0.63088226318359375
-0.4365234375 0.261474609375 0.63289260864257812
-0.42401123046875 0.27490234375 0.62892532348632812
-0.424591064453125 0.275634765625 0.62178421020507812
-0.42449951171875 0.276123046875 0.61333084106445312
0.1007080078125 0.5198974609375 0.65505218505859375
0.1029052734375 0.5213623046875 0.66236114501953125
0.106109619140625 0.5223388671875 0.66905593872070312
0.117218017578125 0.5374755859375 0.66921234130859375
0.12530517578125 0.5518798828125 0.66489791870117188
0.139373779296875 0.5633544921875 0.66115951538085938
-0.40606689453125 0.281982421875 0.6422119140625
-0.38909912109375 0.2857666015625 0.648468017578125
-0.371124267578125 0.28564453125 0.656585693359375
-0.35076904296875 0.2882080078125 0.65876388549804688
-0.349456787109375 0.2899169921875 0.6525421142578125
-0.347259521484375 0.289794921875 0.64481735229492188
0.11126708984375 0.4407958984375 0.6755828857421875
0.113067626953125 0.444091796875 0.6822662353515625
0.115234375 0.448486328125 0.68714141845703125
0.111846923828125 0.4697265625 0.68720626831054688
0.1072998046875 0.4873046875 0.68233108520507812
0.10699462890625 0.5048828125 0.67842864990234375
-0.33642578125 0.279541015625 0.67209625244140625
-0.321044921875 0.270751953125 0.68035507202148438
-0.3077392578125 0.2584228515625 0.68946456909179688
-0.293060302734375 0.24560546875 0.69445037841796875
-0.28948974609375 0.2454833984375 0.68886566162109375
-0.286376953125 0.2447509765625 0.6825714111328125
0.174102783203125 0.3885498046875 0.6888580322265625
0.1741943359375 0.392578125 0.69488143920898438
0.175140380859375 0.397705078125 0.69962310791015625
0.158233642578125 0.412353515625 0.701995849609375
0.142822265625 0.4237060546875 0.69903182983398438
0.129913330078125 0.436767578125 0.69513320922851562
-0.290679931640625 0.2294921875 0.70607376098632812
-0.287109375 0.2135009765625 0.71442413330078125
-0.2877197265625 0.19873046875 0.72166061401367188
-0.284759521484375 0.180419921875 0.72492599487304688
-0.28118896484375 0.1776123046875 0.720550537109375
-0.2774658203125 0.173583984375 0.71442031860351562
0.253997802734375 0.3861083984375 0.67668533325195312
0.251922607421875 0.391845703125 0.68217849731445312
0.249664306640625 0.396484375 0.68750762939453125
0.229339599609375 0.3995361328125 0.69582748413085938
0.211700439453125 0.3970947265625 0.699859619140625
0.194183349609375 0.399169921875 0.70162582397460938
-0.2982177734375 0.16552734375 0.730712890625
-0.307098388671875 0.1505126953125 0.73234939575195312
-0.320068359375 0.139404296875 0.7323150634765625
-0.332366943359375 0.121337890625 0.72844314575195312
-0.33026123046875 0.1170654296875 0.7243499755859375
-0.32806396484375 0.1124267578125 0.71868896484375
0.308074951171875 0.442626953125 0.65114212036132812
0.304168701171875 0.4476318359375 0.65792465209960938
0.300201416015625 0.44970703125 0.6633758544921875
0.286773681640625 0.435791015625 0.67398834228515625
0.276580810546875 0.4219970703125 0.68041610717773438
0.2628173828125 0.4111328125 0.68572235107421875
-0.35260009765625 0.118408203125 0.72600173950195312
-0.369903564453125 0.11328125 0.71939849853515625
-0.38818359375 0.1121826171875 0.71261978149414062
-0.406646728515625 0.1070556640625 0.7007598876953125
-0.4071044921875 0.1021728515625 0.69672775268554688
-0.4075927734375 0.0966796875 0.691070556640625
0.293487548828125 0.504150390625 0.65561294555664062
0.29827880859375 0.486083984375 0.65828704833984375
0.297393798828125 0.4697265625 0.66258621215820312
-0.420684814453125 0.120849609375 0.69377899169921875
-0.43505859375 0.126708984375 0.683441162109375
-0.446197509765625 0.138671875 0.67450332641601562
0.27301025390625 0.5186767578125 0.66048812866210938
0.256103515625 0.512451171875 0.66857147216796875
0.234222412109375 0.50537109375 0.67870330810546875
0.237640380859375 0.477294921875 0.68589019775390625
0.262054443359375 0.4666748046875 0.68010711669921875
0.280364990234375 0.4591064453125 0.67359542846679688
-0.41064453125 0.184326171875 0.6888580322265625
-0.429443359375 0.171630859375 0.6806488037109375
-0.44500732421875 0.15966796875 0.6718597412109375
-0.4014892578125 0.128662109375 0.70611572265625
-0.396240234375 0.1463623046875 0.7067413330078125
-0.389312744140625 0.16845703125 0.70508193969726562
0.218109130859375 0.4586181640625 0.69497299194335938
0.2305908203125 0.4356689453125 0.69542312622070312
0.240081787109375 0.4171142578125 0.69393539428710938
-0.34271240234375 0.13916015625 0.72829437255859375
-0.351470947265625 0.1536865234375 0.72275161743164062
-0.361846923828125 0.1737060546875 0.7156982421875
0.189697265625 0.4591064453125 0.69952011108398438
0.1829833984375 0.4364013671875 0.70291519165039062
0.1790771484375 0.41845703125 0.70347213745117188
-0.304595947265625 0.18603515625 0.72513580322265625
-0.321624755859375 0.190185546875 0.72048568725585938
-0.34429931640625 0.1968994140625 0.71410369873046875
0.1663818359375 0.4774169921875 0.69525527954101562
0.145538330078125 0.467041015625 0.69524765014648438
0.1300048828125 0.4586181640625 0.69362258911132812
-0.31005859375 0.239013671875 0.70172500610351562
-0.32598876953125 0.2318115234375 0.70334625244140625
-0.34649658203125 0.221923828125 0.70276260375976562
0.1627197265625 0.5068359375 0.6887664794921875
0.1395263671875 0.513427734375 0.68378448486328125
0.122955322265625 0.51904296875 0.67948150634765625
-0.3572998046875 0.2735595703125 0.67256927490234375
-0.362884521484375 0.258544921875 0.68075180053710938
-0.36956787109375 0.238525390625 0.688690185546875
0.181396484375 0.52587890625 0.68093109130859375
0.16937255859375 0.5474853515625 0.67254638671875
0.160675048828125 0.561767578125 0.665283203125
-0.416534423828125 0.26611328125 0.64777374267578125
-0.407867431640625 0.251953125 0.66209793090820312
-0.396575927734375 0.2325439453125 0.67836761474609375
0.2113037109375 0.5267333984375 0.67729568481445312
0.219085693359375 0.5479736328125 0.66573333740234375
0.224853515625 0.563720703125 0.65622711181640625
-0.453125 0.2161865234375 0.64600372314453125
-0.43499755859375 0.213623046875 0.66018295288085938
-0.41412353515625 0.210693359375 0.67705917358398438
0.4066162109375 -0.762451171875 0.74214553833007812
0.437164306640625 -0.7562255859375 0.71837615966796875
0.466064453125 -0.7469482421875 0.693695068359375
0.497161865234375 -0.7235107421875 0.68902587890625
0.49713134765625 -0.70849609375 0.70786285400390625
0.494293212890625 -0.6937255859375 0.7263946533203125
0.4638671875 -0.6844482421875 0.76065826416015625
0.440185546875 -0.6923828125 0.77838897705078125
0.41265869140625 -0.701904296875 0.79755020141601562
0.38397216796875 -0.72509765625 0.80506515502929688
0.3818359375 -0.74169921875 0.79439926147460938
0.379150390625 -0.7569580078125 0.78022003173828125
0.355560302734375 -0.7122802734375 0.8355712890625
0.3262939453125 -0.7171630859375 0.8515777587890625
0.29803466796875 -0.72314453125 0.86505889892578125
0.26055908203125 -0.7493896484375 0.87155532836914062
0.250732421875 -0.7677001953125 0.86198806762695312
0.2413330078125 -0.7841796875 0.849151611328125
0.2685546875 -0.792724609375 0.8197021484375
0.30584716796875 -0.7867431640625 0.80392074584960938
0.339691162109375 -0.778076171875 0.78443527221679688
0.51983642578125 -0.7298583984375 0.64454269409179688
0.541534423828125 -0.722900390625 0.62319564819335938
0.56103515625 -0.712646484375 0.60372161865234375
0.57415771484375 -0.6856689453125 0.61736297607421875
0.56719970703125 -0.6702880859375 0.64582443237304688
0.555908203125 -0.650146484375 0.67441177368164062
0.53167724609375 -0.647216796875 0.70948028564453125
0.519744873046875 -0.6595458984375 0.71938323974609375
0.505523681640625 -0.667724609375 0.73089599609375
0.24853515625 -0.73046875 0.88824844360351562
0.2279052734375 -0.7303466796875 0.89637374877929688
0.210357666015625 -0.726318359375 0.90311431884765625
0.174560546875 -0.7420654296875 0.9042816162109375
0.153656005859375 -0.7677001953125 0.8956756591796875
0.13555908203125 -0.7869873046875 0.882537841796875
0.14263916015625 -0.8084716796875 0.8602447509765625
0.16986083984375 -0.8077392578125 0.85282516479492188
0.200408935546875 -0.8037109375 0.84339141845703125
0.58245849609375 -0.68212890625 0.57746505737304688
0.5855712890625 -0.6607666015625 0.57026290893554688
0.584747314453125 -0.634765625 0.5670013427734375
0.5811767578125 -0.59521484375 0.5987548828125
0.57452392578125 -0.5806884765625 0.63333511352539062
0.559326171875 -0.5609130859375 0.665802001953125
0.5426025390625 -0.56494140625 0.6969451904296875
0.545166015625 -0.5899658203125 0.69781112670898438
0.543731689453125 -0.6121826171875 0.70017242431640625
0.17999267578125 -0.7015380859375 0.9130096435546875
0.166961669921875 -0.682861328125 0.91603851318359375
0.1539306640625 -0.660400390625 0.91617965698242188
0.12091064453125 -0.670166015625 0.91182708740234375
0.09820556640625 -0.7010498046875 0.9011993408203125
0.077117919921875 -0.7236328125 0.88280868530273438
0.07049560546875 -0.7645263671875 0.86296844482421875
0.083160400390625 -0.78076171875 0.86540603637695312
0.099517822265625 -0.7958984375 0.86702346801757812
0.567596435546875 -0.5640869140625 0.56801986694335938
0.55328369140625 -0.5238037109375 0.56990814208984375
0.536468505859375 -0.4783935546875 0.57131576538085938
0.523345947265625 -0.42919921875 0.60900115966796875
0.518096923828125 -0.42578125 0.6440582275390625
0.504486083984375 -0.41796875 0.67629623413085938
0.504058837890625 -0.447021484375 0.70685577392578125
0.519012451171875 -0.4815673828125 0.70257186889648438
0.53057861328125 -0.511474609375 0.70064163208007812
0.13482666015625 -0.61474609375 0.91403961181640625
0.1251220703125 -0.5870361328125 0.90855789184570312
0.11529541015625 -0.558349609375 0.90071487426757812
0.078155517578125 -0.5416259765625 0.8818206787109375
0.05157470703125 -0.5601806640625 0.86697006225585938
0.028533935546875 -0.5740966796875 0.84545135498046875
0.02313232421875 -0.6220703125 0.82683181762695312
0.035736083984375 -0.666748046875 0.83938217163085938
0.048858642578125 -0.7034912109375 0.8475341796875
0.494171142578125 -0.3773193359375 0.57322311401367188
0.46966552734375 -0.324462890625 0.57210159301757812
0.443817138671875 -0.2774658203125 0.56905746459960938
0.420623779296875 -0.2303466796875 0.6025390625
0.414581298828125 -0.224365234375 0.63887405395507812
0.400115966796875 -0.2197265625 0.67227554321289062
0.406890869140625 -0.26123046875 0.7073974609375
0.43646240234375 -0.3123779296875 0.70822906494140625
0.46417236328125 -0.3626708984375 0.710052490234375
0.088958740234375 -0.4764404296875 0.87798309326171875
0.074310302734375 -0.4306640625 0.86399078369140625
0.056915283203125 -0.380126953125 0.84752655029296875
0.01678466796875 -0.3521728515625 0.81688690185546875
-0.0069580078125 -0.3697509765625 0.79570770263671875
-0.027618408203125 -0.3875732421875 0.76875686645507812
-0.0318603515625 -0.439208984375 0.75426483154296875
-0.019287109375 -0.4842529296875 0.77452850341796875
-0.0045166015625 -0.53076171875 0.79553985595703125
0.227630615234375 0.0745849609375 0.67705535888671875
