# XYZ point cloud file
0.21844482421875 0.5748291015625 0.64086246490478516
0.220611572265625 0.5755615234375 0.63373661041259766
0.17694091796875 0.5751953125 0.63720035552978516
0.176605224609375 0.5726318359375 0.6504669189453125
0.216644287109375 0.5723876953125 0.64640092849731445
-0.44952392578125 0.251708984375 0.61371183395385742
-0.435791015625 0.2666015625 0.61504840850830078
-0.450531005859375 0.2509765625 0.60559654235839844
-0.46124267578125 0.2354736328125 0.61360549926757812
-0.4482421875 0.2529296875 0.62031078338623047
-0.43499755859375 0.2666015625 0.62217044830322266
-0.435821533203125 0.2664794921875 0.60671043395996094
-0.462310791015625 0.2354736328125 0.60589218139648438
-0.4591064453125 0.2364501953125 0.6207122802734375
0.12542724609375 0.54638671875 0.65497684478759766
0.124725341796875 0.5455322265625 0.64741897583007812
0.114532470703125 0.53076171875 0.65925121307373047
0.12689208984375 0.546875 0.6608119010925293
0.1397705078125 0.5584716796875 0.65070724487304688
0.1392822265625 0.557861328125 0.6428532600402832
0.1129150390625 0.5296630859375 0.65238857269287109
0.116546630859375 0.5318603515625 0.66551351547241211
0.140380859375 0.55859375 0.65801572799682617
-0.38311767578125 0.29345703125 0.63115596771240234
-0.3641357421875 0.294921875 0.63984203338623047
-0.381805419921875 0.292236328125 0.62336349487304688
-0.401611328125 0.28662109375 0.62408733367919922
-0.38372802734375 0.2928466796875 0.63774013519287109
-0.365631103515625 0.294189453125 0.64655208587646484
-0.361968994140625 0.2950439453125 0.63257312774658203
-0.40130615234375 0.2877197265625 0.61570644378662109
-0.401580810546875 0.287109375 0.63069820404052734
0.105987548828125 0.4759521484375 0.67466211318969727
0.103515625 0.4735107421875 0.66793918609619141
0.110382080078125 0.45654296875 0.67915201187133789
0.1080322265625 0.4774169921875 0.67996025085449219
0.104583740234375 0.49560546875 0.66908836364746094
0.102081298828125 0.4942626953125 0.66240787506103516
0.1083984375 0.453369140625 0.67319774627685547
0.11199951171875 0.45849609375 0.68425178527832031
0.10699462890625 0.4964599609375 0.67497062683105469
-0.310943603515625 0.2730712890625 0.66702461242675781
-0.296722412109375 0.2598876953125 0.67700958251953125
-0.30780029296875 0.2720947265625 0.66027927398681641
-0.32794189453125 0.2835693359375 0.65843009948730469
-0.313446044921875 0.273193359375 0.67281007766723633
-0.299957275390625 0.2611083984375 0.68236351013183594
-0.29345703125 0.26025390625 0.67015790939331055
-0.324859619140625 0.283203125 0.65107059478759766
-0.32952880859375 0.283447265625 0.66447305679321289
0.143463134765625 0.4066162109375 0.69040679931640625
0.142822265625 0.402587890625 0.68484401702880859
0.159698486328125 0.3939208984375 0.69327449798583984
0.14404296875 0.4093017578125 0.6959376335144043
0.1297607421875 0.4207763671875 0.68738651275634766
0.128387451171875 0.417236328125 0.68088293075561523
0.159271240234375 0.389404296875 0.68735313415527344
0.1600341796875 0.3985595703125 0.69792890548706055
0.130706787109375 0.4239501953125 0.69223308563232422
-0.275604248046875 0.211669921875 0.70436668395996094
-0.275604248046875 0.1934814453125 0.71186637878417969
-0.271636962890625 0.2081298828125 0.69842529296875
-0.278839111328125 0.2281494140625 0.69619369506835938
-0.2786865234375 0.2127685546875 0.70892953872680664
-0.279571533203125 0.1953125 0.71616411209106445
-0.271575927734375 0.191162109375 0.70622444152832031
-0.27520751953125 0.2259521484375 0.68954706192016602
-0.28240966796875 0.228759765625 0.70011043548583984
0.2176513671875 0.3768310546875 0.69379758834838867
0.218536376953125 0.3712158203125 0.68756675720214844
0.237396240234375 0.3792724609375 0.69154167175292969
0.217315673828125 0.3818359375 0.69940185546875
0.197906494140625 0.3798828125 0.69540119171142578
0.197540283203125 0.3731689453125 0.68950080871582031
0.238677978515625 0.37353515625 0.68522167205810547
0.235443115234375 0.3851318359375 0.69601631164550781
0.19781494140625 0.3841552734375 0.70084095001220703
-0.298858642578125 0.142822265625 0.7228093147277832
-0.313323974609375 0.1300048828125 0.72332572937011719
-0.29547119140625 0.1392822265625 0.71741580963134766
-0.287689208984375 0.15966796875 0.72094631195068359
-0.302215576171875 0.1463623046875 0.72750949859619141
-0.315765380859375 0.1324462890625 0.72789669036865234
-0.310150146484375 0.12451171875 0.71772956848144531
-0.2838134765625 0.15478515625 0.71547842025756836
-0.291015625 0.162109375 0.72548484802246094
0.28778076171875 0.4034423828125 0.67392396926879883
0.291351318359375 0.4000244140625 0.66703414916992188
0.300811767578125 0.4195556640625 0.66818618774414062
0.285369873046875 0.408447265625 0.67921924591064453
0.273651123046875 0.3927001953125 0.67941379547119141
0.276123046875 0.3875732421875 0.67340183258056641
0.303436279296875 0.415283203125 0.66114616394042969
0.297088623046875 0.423583984375 0.67348051071166992
0.271392822265625 0.3966064453125 0.68491697311401367
-0.366912841796875 0.1048583984375 0.71060276031494141
-0.387847900390625 0.103271484375 0.70304632186889648
-0.366302490234375 0.099609375 0.70516490936279297
-0.348052978515625 0.1102294921875 0.71757984161376953
-0.36737060546875 0.1097412109375 0.71476268768310547
-0.38714599609375 0.1082763671875 0.70753383636474609
-0.387542724609375 0.0980224609375 0.6975555419921875
-0.34710693359375 0.1051025390625 0.71226692199707031
-0.348968505859375 0.114501953125 0.72200965881347656
0.313201904296875 0.4736328125 0.65039253234863281
0.31744384765625 0.471435546875 0.64427995681762695
0.308441162109375 0.49267578125 0.6472320556640625
0.309326171875 0.474609375 0.65612602233886719
0.313385009765625 0.454345703125 0.65548563003540039
0.31756591796875 0.4510498046875 0.64919567108154297
0.313232421875 0.4912109375 0.6406702995300293
0.3045654296875 0.493408203125 0.65254592895507812
0.309234619140625 0.455810546875 0.66083908081054688
-0.438140869140625 0.1173095703125 0.67226552963256836
-0.451080322265625 0.1292724609375 0.66164016723632812
-0.439849853515625 0.112548828125 0.66567325592041016
-0.42327880859375 0.1087646484375 0.6833953857421875
-0.436737060546875 0.1217041015625 0.67718410491943359
-0.44891357421875 0.1324462890625 0.6675872802734375
-0.45306396484375 0.125 0.65472888946533203
-0.424468994140625 0.103271484375 0.67760276794433594
-0.421783447265625 0.113037109375 0.68755054473876953
0.278289794921875 0.4781494140625 0.67130470275878906
0.273162841796875 0.468994140625 0.67605066299438477
0.291046142578125 0.4776611328125 0.66689777374267578
0.27099609375 0.488525390625 0.67179250717163086
0.254547119140625 0.4805908203125 0.68137216567993164
0.289794921875 0.4635009765625 0.67126655578613281
0.28631591796875 0.492919921875 0.66447544097900391
-0.41937255859375 0.14697265625 0.68808937072753906
-0.4268798828125 0.1375732421875 0.68561458587646484
-0.408233642578125 0.1485595703125 0.69505882263183594
-0.42230224609375 0.156982421875 0.6846470832824707
-0.435302734375 0.1480712890625 0.67818689346313477
-0.414306640625 0.1324462890625 0.69423675537109375
-0.404693603515625 0.1668701171875 0.69301414489746094
0.262969970703125 0.431884765625 0.68902683258056641
0.272369384765625 0.4227294921875 0.6863398551940918
0.264190673828125 0.443359375 0.68663263320922852
0.2508544921875 0.4296875 0.69355154037475586
0.259490966796875 0.4149169921875 0.69218826293945312
0.279693603515625 0.4344482421875 0.68161487579345703
0.24310302734375 0.4483642578125 0.69288492202758789
-0.36956787109375 0.1392822265625 0.71727752685546875
-0.379974365234375 0.1436767578125 0.71224117279052734
-0.36859130859375 0.1278076171875 0.71815061569213867
-0.36016845703125 0.146240234375 0.72022056579589844
-0.371337890625 0.1612548828125 0.71236896514892578
-0.384063720703125 0.12744140625 0.71143722534179688
-0.35430908203125 0.13232421875 0.72345972061157227
0.212890625 0.4134521484375 0.70442485809326172
0.202301025390625 0.4210205078125 0.7047419548034668
0.215087890625 0.400390625 0.70461273193359375
0.22186279296875 0.419677734375 0.70268726348876953
0.2100830078125 0.437744140625 0.70216226577758789
0.198760986328125 0.40380859375 0.70474720001220703
0.229522705078125 0.404052734375 0.70188140869140625
-0.3223876953125 0.1651611328125 0.72585678100585938
-0.31463623046875 0.158203125 0.72900867462158203
-0.321807861328125 0.1773681640625 0.72294187545776367
-0.3333740234375 0.162109375 0.72457408905029297
-0.326171875 0.1485595703125 0.72888469696044922
-0.3072509765625 0.1722412109375 0.72694778442382812
-0.340789794921875 0.1800537109375 0.71799516677856445
0.159912109375 0.4327392578125 0.70103549957275391
0.156097412109375 0.4447021484375 0.69977378845214844
0.152252197265625 0.4232177734375 0.70073890686035156
0.1717529296875 0.4312744140625 0.70274925231933594
0.1749267578125 0.451416015625 0.7005615234375
0.142486572265625 0.435546875 0.69822549819946289
0.166961669921875 0.41650390625 0.70276165008544922
-0.306396484375 0.2137451171875 0.7115325927734375
-0.29541015625 0.2139892578125 0.71273231506347656
-0.313690185546875 0.2225341796875 0.70690584182739258
-0.31243896484375 0.204345703125 0.71523475646972656
-0.29718017578125 0.200927734375 0.71833229064941406
-0.29876708984375 0.22802734375 0.70570659637451172
-0.330322265625 0.21240234375 0.70880508422851562
0.133392333984375 0.48046875 0.6899256706237793
0.1397705078125 0.490966796875 0.68880748748779297
0.12310791015625 0.4801025390625 0.68729019165039062
0.141204833984375 0.4715576171875 0.69383144378662109
0.1573486328125 0.4822998046875 0.6932215690612793
0.123565673828125 0.4942626953125 0.68365859985351562
0.12689208984375 0.4649658203125 0.691741943359375
-0.331939697265625 0.25830078125 0.68631410598754883
-0.324127197265625 0.2647705078125 0.68257951736450195
-0.343780517578125 0.260009765625 0.68334388732910156
-0.328338623046875 0.247802734375 0.69295597076416016
-0.314910888671875 0.2550048828125 0.69056129455566406
-0.338592529296875 0.2711181640625 0.67649078369140625
-0.3470458984375 0.241943359375 0.69127559661865234
0.147705078125 0.5322265625 0.67608022689819336
0.159149169921875 0.5347900390625 0.67623233795166016
0.138763427734375 0.53857421875 0.67277431488037109
0.146942138671875 0.5208740234375 0.68044757843017578
0.16705322265625 0.5166015625 0.68427515029907227
0.150665283203125 0.546875 0.66999626159667969
0.13140869140625 0.5257568359375 0.67634963989257812
-0.382537841796875 0.2720947265625 0.66208648681640625
-0.38311767578125 0.281494140625 0.65392732620239258
-0.390655517578125 0.2645263671875 0.66156864166259766
-0.372772216796875 0.2664794921875 0.67000246047973633
-0.368804931640625 0.2802734375 0.66144561767578125
-0.396636962890625 0.276123046875 0.64907741546630859
-0.38031005859375 0.2501220703125 0.6759033203125
0.197906494140625 0.5501708984375 0.66767311096191406
0.20892333984375 0.5443115234375 0.66912221908569336
0.196929931640625 0.55908203125 0.66121101379394531
0.188629150390625 0.544921875 0.67187690734863281
0.200439453125 0.5277099609375 0.67816734313964844
0.213226318359375 0.55810546875 0.66018867492675781
0.1807861328125 0.5592041015625 0.66394710540771484
-0.42755126953125 0.2430419921875 0.64850902557373047
-0.437164306640625 0.2474365234375 0.63953590393066406
-0.429351806640625 0.2310791015625 0.65345287322998047
-0.417236328125 0.2469482421875 0.65383720397949219
-0.42474365234375 0.2584228515625 0.64141178131103516
-0.44378662109375 0.233154296875 0.64045906066894531
-0.4114990234375 0.2288818359375 0.66725540161132812
0.253204345703125 0.5291748046875 0.6665191650390625
0.256317138671875 0.517333984375 0.6691436767578125
0.261444091796875 0.5360107421875 0.65942668914794922
0.241180419921875 0.5321044921875 0.66808414459228516
0.236663818359375 0.5137939453125 0.67635250091552734
0.270751953125 0.5230712890625 0.66091728210449219
0.247406005859375 0.5445556640625 0.65985345840454102
-0.443145751953125 0.1884765625 0.66041755676269531
-0.453521728515625 0.1868896484375 0.65194416046142578
-0.436279296875 0.1805419921875 0.66917991638183594
-0.4383544921875 0.2003173828125 0.66007757186889648
-0.452178955078125 0.2010498046875 0.64731502532958984
-0.44976806640625 0.1724853515625 0.66099071502685547
-0.420684814453125 0.1937255859375 0.67502784729003906
0.431884765625 -0.7261962890625 0.75905084609985352
0.459197998046875 -0.7177734375 0.73726701736450195
0.4320068359375 -0.708740234375 0.77421760559082031
0.401641845703125 -0.732177734375 0.78142976760864258
0.43017578125 -0.7423095703125 0.74403476715087891
0.458953857421875 -0.734375 0.71986818313598633
0.4578857421875 -0.7000732421875 0.75382900238037109
0.4024658203125 -0.7164306640625 0.79387474060058594
0.399688720703125 -0.74853515625 0.76748991012573242
0.303436279296875 -0.7540283203125 0.83891963958740234
0.308502197265625 -0.7362060546875 0.84951114654541016
0.2711181640625 -0.760498046875 0.85429143905639648
0.297821044921875 -0.77197265625 0.82651710510253906
0.337249755859375 -0.74853515625 0.82150650024414062
0.340789794921875 -0.7313232421875 0.83253622055053711
0.278961181640625 -0.741455078125 0.86365556716918945
0.26422119140625 -0.7760009765625 0.8417057991027832
0.332733154296875 -0.7650146484375 0.80846405029296875
0.5274658203125 -0.6942138671875 0.67819547653198242
0.543212890625 -0.6854248046875 0.66455650329589844
0.51971435546875 -0.6767578125 0.70285415649414062
0.50823974609375 -0.7025146484375 0.69597530364990234
0.53057861328125 -0.7108154296875 0.65371227264404297
0.548431396484375 -0.6995849609375 0.63759136199951172
0.5333251953125 -0.6663818359375 0.69090843200683594
0.502227783203125 -0.6856689453125 0.71718168258666992
0.50958251953125 -0.7193603515625 0.673553466796875
0.18585205078125 -0.7672119140625 0.88600826263427734
0.201934814453125 -0.7451171875 0.89561223983764648
0.163421630859375 -0.76513671875 0.89366912841796875
0.172332763671875 -0.7855224609375 0.87392663955688477
0.21148681640625 -0.7646484375 0.87653779983520508
0.224365234375 -0.74560546875 0.88694477081298828
0.18157958984375 -0.74267578125 0.90306615829467773
0.14642333984375 -0.7852783203125 0.88208103179931641
0.20013427734375 -0.7816162109375 0.86452102661132812
0.567169189453125 -0.6336669921875 0.64161539077758789
0.5675048828125 -0.610107421875 0.63988733291625977
0.552734375 -0.6119384765625 0.67414140701293945
0.563507080078125 -0.6541748046875 0.64658832550048828
0.57489013671875 -0.650634765625 0.60946512222290039
0.57501220703125 -0.626708984375 0.60682201385498047
0.552825927734375 -0.5887451171875 0.67271709442138672
0.550201416015625 -0.6339111328125 0.67748737335205078
0.57080078125 -0.6702880859375 0.61506748199462891
0.111419677734375 -0.7386474609375 0.90563106536865234
0.133392333984375 -0.710693359375 0.91489839553833008
0.0980224609375 -0.72021484375 0.90599250793457031
0.091339111328125 -0.76171875 0.89167070388793945
0.12628173828125 -0.751708984375 0.90337848663330078
0.148406982421875 -0.7249755859375 0.91211032867431641
0.12188720703125 -0.6907958984375 0.91501426696777344
0.078521728515625 -0.7445068359375 0.88975715637207031
0.105133056640625 -0.7735595703125 0.88943672180175781
0.546844482421875 -0.5128173828125 0.64524126052856445
0.53192138671875 -0.470947265625 0.64665889739990234
0.53265380859375 -0.498046875 0.67792510986328125
0.557342529296875 -0.5477294921875 0.64225053787231445
0.5523681640625 -0.5220947265625 0.61009502410888672
0.53558349609375 -0.479736328125 0.611328125
0.51824951171875 -0.4613037109375 0.68016147613525391
0.54290771484375 -0.531494140625 0.67677688598632812
0.563629150390625 -0.562255859375 0.60814571380615234
0.06561279296875 -0.634765625 0.89246463775634766
0.09027099609375 -0.6116943359375 0.90476226806640625
0.054595947265625 -0.5980224609375 0.88249397277832031
0.0438232421875 -0.652099609375 0.87206649780273438
0.075927734375 -0.670166015625 0.89943408966064453
0.10089111328125 -0.642333984375 0.91081333160400391
0.07977294921875 -0.5777587890625 0.896087646484375
0.033416748046875 -0.611572265625 0.86105728149414062
0.054290771484375 -0.68798828125 0.8810582160949707
0.462982177734375 -0.32421875 0.648162841796875
0.43389892578125 -0.2742919921875 0.64598178863525391
0.4498291015625 -0.318603515625 0.68192195892333984
0.48907470703125 -0.3740234375 0.65029144287109375
0.46868896484375 -0.3272705078125 0.61294937133789062
0.44195556640625 -0.2779541015625 0.61061286926269531
0.4202880859375 -0.269775390625 0.67891979217529297
0.476654052734375 -0.369384765625 0.68346548080444336
0.493743896484375 -0.3790283203125 0.61451244354248047
0.012420654296875 -0.462158203125 0.83341693878173828
0.038787841796875 -0.4449462890625 0.85171222686767578
-0.001495361328125 -0.4144287109375 0.81492996215820312
-0.0089111328125 -0.4766845703125 0.80835866928100586
0.029388427734375 -0.5101318359375 0.85208368301391602
0.053436279296875 -0.4915771484375 0.86867094039916992
0.02386474609375 -0.3966064453125 0.83470630645751953
-0.022613525390625 -0.425537109375 0.78882789611816406
0.00628662109375 -0.524169921875 0.82684516906738281
0.31475830078125 0.0872802734375 0.59466457366943359
0.32861328125 0.062255859375 0.55966377258300781
0.355377197265625 0.11279296875 0.56943893432617188
0.2974853515625 0.1180419921875 0.62762260437011719
0.27862548828125 0.06396484375 0.61956501007080078
0.295440673828125 0.0362548828125 0.57909250259399414
0.368072509765625 0.086181640625 0.53815412521362305
0.3399658203125 0.1424560546875 0.59846687316894531
0.255950927734375 0.09521484375 0.65795087814331055
-0.176361083984375 -0.109619140625 0.68470668792724609
-0.230621337890625 -0.1220703125 0.66995382308959961
-0.180206298828125 -0.1436767578125 0.65668678283691406
-0.12786865234375 -0.1016845703125 0.69635963439941406
-0.174835205078125 -0.0732421875 0.70824813842773438
-0.22998046875 -0.0904541015625 0.68975257873535156
-0.2310791015625 -0.154296875 0.64724159240722656
-0.13470458984375 -0.1351318359375 0.66530752182006836
-0.121673583984375 -0.0594482421875 0.72482872009277344
0.472747802734375 0.211181640625 0.508148193359375
0.482177734375 0.18896484375 0.48433589935302734
0.5035400390625 0.2529296875 0.49381542205810547
0.458587646484375 0.2359619140625 0.53005075454711914
0.437408447265625 0.1763916015625 0.52544498443603516
0.44854736328125 0.1519775390625 0.50016117095947266
0.513916015625 0.2303466796875 0.46966648101806641
0.489166259765625 0.276123046875 0.51502323150634766
0.423187255859375 0.2017822265625 0.54871749877929688
-0.389739990234375 -0.1484375 0.63112735748291016
-0.43988037109375 -0.14794921875 0.61663436889648438
-0.387603759765625 -0.1737060546875 0.61561489105224609
-0.339569091796875 -0.1446533203125 0.64448070526123047
-0.389068603515625 -0.12158203125 0.64360141754150391
-0.439117431640625 -0.120849609375 0.62775135040283203
-0.43853759765625 -0.171630859375 0.60126829147338867
-0.339202880859375 -0.1690673828125 0.62704944610595703
-0.339111328125 -0.11669921875 0.658966064453125
0.5723876953125 0.3848876953125 0.45066261291503906
0.58770751953125 0.3668212890625 0.42499494552612305
0.583770751953125 0.437744140625 0.44045543670654297
0.553131103515625 0.4012451171875 0.47678756713867188
0.552978515625 0.3409423828125 0.46390151977539062
0.565765380859375 0.319580078125 0.43950176239013672
0.601318359375 0.42333984375 0.41413402557373047
0.563323974609375 0.450439453125 0.46682834625244141
0.53619384765625 0.358154296875 0.48700046539306641
-0.5809326171875 -0.1285400390625 0.54094552993774414
-0.6226806640625 -0.1104736328125 0.51001882553100586
-0.583740234375 -0.1519775390625 0.5230255126953125
-0.537628173828125 -0.1385498046875 0.57050037384033203
-0.574371337890625 -0.10302734375 0.55713176727294922
-0.612091064453125 -0.0859375 0.52959251403808594
-0.627349853515625 -0.1337890625 0.49044704437255859
-0.5379638671875 -0.1630859375 0.55453205108642578
-0.5335693359375 -0.1141357421875 0.58367538452148438
0.56622314453125 0.606689453125 0.46063327789306641
0.583984375 0.605224609375 0.43749427795410156
0.54742431640625 0.657958984375 0.47957706451416016
0.544891357421875 0.603515625 0.482574462890625
0.580474853515625 0.5501708984375 0.44650554656982422
0.599365234375 0.5428466796875 0.42028474807739258
0.563751220703125 0.662109375 0.45889616012573242
0.52813720703125 0.65087890625 0.49820709228515625
0.558807373046875 0.552978515625 0.47008514404296875
-0.7171630859375 -0.021484375 0.44621849060058594
-0.7354736328125 0.016845703125 0.43345165252685547
-0.72900390625 -0.0379638671875 0.42086648941040039
-0.691864013671875 -0.0579833984375 0.46281528472900391
-0.7001953125 -0.00244140625 0.46954965591430664
-0.71624755859375 0.03076171875 0.45603466033935547
-0.748687744140625 0.003662109375 0.4086761474609375
-0.70208740234375 -0.077880859375 0.43947887420654297
-0.67620849609375 -0.035888671875 0.48411464691162109
0.471221923828125 0.7425537109375 0.52324962615966797
0.48040771484375 0.750732421875 0.50350379943847656
0.436737060546875 0.7513427734375 0.53357982635498047
0.45989990234375 0.7276611328125 0.53866910934448242
0.499786376953125 0.7266845703125 0.51160144805908203
0.5120849609375 0.7353515625 0.49244356155395508
0.443023681640625 0.7586669921875 0.51364660263061523
0.42840576171875 0.7379150390625 0.54943275451660156
0.4859619140625 0.7137451171875 0.527008056640625
-0.73626708984375 0.11669921875 0.42903614044189453
-0.7203369140625 0.1453857421875 0.43244266510009766
-0.74652099609375 0.11181640625 0.40117835998535156
-0.744232177734375 0.087646484375 0.42624139785766602
-0.721038818359375 0.11767578125 0.45132875442504883
-0.70880126953125 0.1463623046875 0.45591926574707031
-0.728973388671875 0.143798828125 0.40430402755737305
-0.756439208984375 0.0802001953125 0.40064239501953125
-0.7279052734375 0.0919189453125 0.44865131378173828
0.28619384765625 0.7711181640625 0.55584239959716797
0.292236328125 0.7760009765625 0.53183460235595703
0.229339599609375 0.77685546875 0.56012439727783203
0.28125 0.7584228515625 0.57424259185791016
0.343048095703125 0.7623291015625 0.5503692626953125
0.34857177734375 0.7679443359375 0.52794837951660156
0.236328125 0.7828369140625 0.53584909439086914
0.224578857421875 0.764404296875 0.58013534545898438
0.337982177734375 0.7520751953125 0.56636238098144531
-0.644989013671875 0.266357421875 0.44087505340576172
-0.617034912109375 0.3167724609375 0.44448471069335938
-0.64959716796875 0.265625 0.41130542755126953
-0.673858642578125 0.2213134765625 0.43823480606079102
-0.637481689453125 0.263916015625 0.46798181533813477
-0.610015869140625 0.3126220703125 0.47246074676513672
-0.62158203125 0.3133544921875 0.41373443603515625
-0.67877197265625 0.2197265625 0.40960788726806641
-0.664947509765625 0.2200927734375 0.46461009979248047
0.0711669921875 0.804931640625 0.56105518341064453
0.07537841796875 0.8126220703125 0.53624248504638672
0.0272216796875 0.8104248046875 0.55922412872314453
0.072265625 0.7884521484375 0.58155584335327148
0.120391845703125 0.793701171875 0.56293582916259766
0.12506103515625 0.8009033203125 0.53834295272827148
0.02886962890625 0.8194580078125 0.53329753875732422
0.031036376953125 0.7933349609375 0.58070993423461914
0.1182861328125 0.779052734375 0.58219432830810547
-0.55096435546875 0.4488525390625 0.44698143005371094
-0.53143310546875 0.487060546875 0.44912815093994141
-0.555816650390625 0.4520263671875 0.41677427291870117
-0.5703125 0.408935546875 0.44692850112915039
-0.5433349609375 0.4412841796875 0.47505712509155273
-0.524444580078125 0.4754638671875 0.47737598419189453
-0.535430908203125 0.491455078125 0.41795587539672852
-0.5748291015625 0.407958984375 0.41646957397460938
-0.561431884765625 0.4022216796875 0.47397136688232422
-0.068115234375 0.78369140625 0.557830810546875
-0.072509765625 0.7916259765625 0.53057003021240234
-0.08892822265625 0.75927734375 0.56127738952636719
-0.058197021484375 0.7679443359375 0.58067893981933594
-0.041961669921875 0.8006591796875 0.55734539031982422
-0.04437255859375 0.8109130859375 0.53011417388916016
-0.093994140625 0.764892578125 0.53319835662841797
-0.077239990234375 0.746826171875 0.58335590362548828
-0.032867431640625 0.783203125 0.57957077026367188
-0.460906982421875 0.5537109375 0.47510719299316406
-0.43109130859375 0.5618896484375 0.48773288726806641
-0.46026611328125 0.5625 0.44529819488525391
-0.486846923828125 0.5377197265625 0.46272039413452148
-0.4586181640625 0.5374755859375 0.50152206420898438
-0.431304931640625 0.5435791015625 0.51368474960327148
-0.4296875 0.572021484375 0.46022415161132812
-0.487518310546875 0.546875 0.43210220336914062
-0.48236083984375 0.5228271484375 0.49022293090820312
-0.112274169921875 0.641845703125 0.58335685729980469
-0.118560791015625 0.6439208984375 0.55679225921630859
-0.11346435546875 0.598388671875 0.59278297424316406
-0.09991455078125 0.63623046875 0.60527324676513672
-0.11065673828125 0.6861572265625 0.57495880126953125
-0.11767578125 0.689697265625 0.54735183715820312
-0.1199951171875 0.598388671875 0.56618022918701172
-0.1025390625 0.5933837890625 0.61324644088745117
-0.096923828125 0.6783447265625 0.59679269790649414
-0.32366943359375 0.5247802734375 0.54704618453979492
-0.286712646484375 0.5047607421875 0.5650787353515625
-0.31854248046875 0.5328369140625 0.51982498168945312
-0.360137939453125 0.5447998046875 0.52722740173339844
-0.328460693359375 0.5111083984375 0.56754016876220703
-0.291412353515625 0.4915771484375 0.58609724044799805
-0.28271484375 0.5089111328125 0.53947210311889648
-0.356292724609375 0.553955078125 0.49871826171875
-0.363616943359375 0.530029296875 0.54951858520507812
-0.1265869140625 0.49560546875 0.60681056976318359
-0.13128662109375 0.4989013671875 0.58214950561523438
-0.1375732421875 0.4735107421875 0.60710906982421875
-0.1173095703125 0.4903564453125 0.6262974739074707
-0.1190185546875 0.5233154296875 0.60467910766601562
-0.124481201171875 0.5238037109375 0.58026742935180664
-0.14105224609375 0.48046875 0.58297157287597656
-0.128662109375 0.46484375 0.62792110443115234
-0.110321044921875 0.519287109375 0.62469577789306641
-0.1964111328125 0.4615478515625 0.60106325149536133
-0.17291259765625 0.4560546875 0.60468244552612305
-0.19390869140625 0.466064453125 0.57676410675048828
-0.2222900390625 0.4698486328125 0.593505859375
-0.19805908203125 0.4505615234375 0.61954498291015625
-0.1697998046875 0.44580078125 0.62511682510375977
-0.173004150390625 0.4630126953125 0.58036231994628906
-0.21954345703125 0.47216796875 0.56778526306152344
-0.22607421875 0.4593505859375 0.61354637145996094
-0.042572021484375 0.60302734375 0.61922073364257812
-0.021087646484375 0.589111328125 0.61287593841552734
-0.035308837890625 0.6331787109375 0.61316204071044922
-0.06427001953125 0.6165771484375 0.62246036529541016
-0.04876708984375 0.5704345703125 0.62495136260986328
-0.028106689453125 0.561767578125 0.61768913269042969
-0.01239013671875 0.61376953125 0.60727500915527344
-0.057525634765625 0.651123046875 0.61553764343261719
-0.068115234375 0.5799560546875 0.62875795364379883
-0.330535888671875 0.4478759765625 0.5842747688293457
-0.36126708984375 0.4560546875 0.56919670104980469
-0.330078125 0.4254150390625 0.57816267013549805
-0.3016357421875 0.4366455078125 0.59740161895751953
-0.33099365234375 0.46923828125 0.58585357666015625
-0.363983154296875 0.4832763671875 0.57039880752563477
-0.3564453125 0.4302978515625 0.56684780120849609
-0.304962158203125 0.416748046875 0.59225940704345703
-0.2994384765625 0.4573974609375 0.60130691528320312
0.00396728515625 0.693603515625 0.60013389587402344
0.027557373046875 0.666748046875 0.59660816192626953
0.024505615234375 0.7042236328125 0.59811210632324219
-0.01898193359375 0.7218017578125 0.60068368911743164
-0.01263427734375 0.67724609375 0.60395526885986328
0.011688232421875 0.6531982421875 0.59939813613891602
0.046478271484375 0.6759033203125 0.59374618530273438
0.001953125 0.7333984375 0.59983539581298828
-0.03668212890625 0.704345703125 0.60422229766845703
-0.433685302734375 0.44970703125 0.53547763824462891
-0.4534912109375 0.4393310546875 0.52739095687866211
-0.423614501953125 0.4190673828125 0.53645515441894531
-0.412139892578125 0.4580078125 0.54491233825683594
-0.444549560546875 0.4827880859375 0.52940082550048828
-0.4656982421875 0.471435546875 0.52137279510498047
-0.441619873046875 0.4095458984375 0.52887916564941406
-0.403564453125 0.4259033203125 0.54495811462402344
-0.420440673828125 0.489501953125 0.54256725311279297
0.10467529296875 0.7135009765625 0.59513044357299805
0.140167236328125 0.710693359375 0.59452676773071289
0.089813232421875 0.741455078125 0.59828662872314453
0.074554443359375 0.7139892578125 0.59645366668701172
0.120330810546875 0.68603515625 0.58942413330078125
0.153289794921875 0.6845703125 0.58715915679931641
0.128173828125 0.7371826171875 0.59773826599121094
0.05535888671875 0.742431640625 0.59868764877319336
0.091796875 0.684326171875 0.59139728546142578
-0.503204345703125 0.380859375 0.51414203643798828
-0.5177001953125 0.4044189453125 0.50789642333984375
-0.521209716796875 0.35009765625 0.51144933700561523
-0.489990234375 0.357177734375 0.51881122589111328
-0.48681640625 0.405517578125 0.51671504974365234
-0.500030517578125 0.43212890625 0.51021289825439453
-0.536376953125 0.371826171875 0.50533199310302734
-0.50750732421875 0.329833984375 0.51642322540283203
-0.47412109375 0.379150390625 0.52151679992675781
0.278472900390625 0.6988525390625 0.5785670280456543
0.325653076171875 0.69384765625 0.57209539413452148
0.278045654296875 0.721923828125 0.58404064178466797
0.23052978515625 0.703857421875 0.58618497848510742
0.279327392578125 0.6773681640625 0.57186412811279297
0.3233642578125 0.673095703125 0.56537055969238281
0.329345703125 0.715576171875 0.57728195190429688
0.22528076171875 0.7255859375 0.59130954742431641
0.235595703125 0.6820068359375 0.57999658584594727
-0.5950927734375 0.2425537109375 0.50182056427001953
-0.610687255859375 0.2528076171875 0.49822044372558594
-0.61895751953125 0.20458984375 0.49747276306152344
-0.579132080078125 0.2332763671875 0.50271272659301758
-0.5693359375 0.281982421875 0.50508785247802734
-0.584564208984375 0.294921875 0.50031518936157227
-0.636474609375 0.2109375 0.49384021759033203
-0.60150146484375 0.197998046875 0.49942493438720703
-0.55340576171875 0.267578125 0.50772476196289062
0.426361083984375 0.6654052734375 0.54837322235107422
0.44610595703125 0.650146484375 0.54088115692138672
0.43701171875 0.68798828125 0.55053186416625977
0.40155029296875 0.67822265625 0.55616092681884766
0.415130615234375 0.64599609375 0.54570579528808594
0.433807373046875 0.629638671875 0.54007816314697266
0.457794189453125 0.672119140625 0.54107666015625
0.4093017578125 0.7003173828125 0.55980300903320312
0.3914794921875 0.6583251953125 0.55156517028808594
-0.660400390625 0.117431640625 0.4905247688293457
-0.681427001953125 0.119384765625 0.48271369934082031
-0.661529541015625 0.0955810546875 0.49212741851806641
-0.638336181640625 0.1180419921875 0.496978759765625
-0.65216064453125 0.1422119140625 0.49112892150878906
-0.673095703125 0.1431884765625 0.48561286926269531
-0.68408203125 0.0975341796875 0.48221445083618164
-0.63897705078125 0.096435546875 0.50108861923217773
-0.6318359375 0.1396484375 0.49515342712402344
0.487701416015625 0.5701904296875 0.52314043045043945
0.495697021484375 0.535400390625 0.51958656311035156
0.5050048828125 0.5841064453125 0.513824462890625
0.475006103515625 0.601318359375 0.52851009368896484
0.471954345703125 0.5562744140625 0.52979755401611328
0.47808837890625 0.5238037109375 0.52899932861328125
0.51531982421875 0.5457763671875 0.50767993927001953
0.491363525390625 0.6201171875 0.5217742919921875
0.4619140625 0.5855712890625 0.53202056884765625
-0.633544921875 0.028564453125 0.51827621459960938
-0.656646728515625 0.0205078125 0.50389862060546875
-0.6151123046875 0.006591796875 0.53405380249023438
-0.612884521484375 0.033935546875 0.53020477294921875
-0.648284912109375 0.0518798828125 0.50605678558349609
-0.671905517578125 0.0482177734375 0.49286937713623047
-0.635589599609375 -0.0040283203125 0.51963996887207031
-0.59527587890625 0.0142822265625 0.54593944549560547
-0.6259765625 0.0538330078125 0.51711034774780273
0.485565185546875 0.41748046875 0.53090286254882812
0.472198486328125 0.38037109375 0.53990316390991211
0.5078125 0.417236328125 0.5161137580871582
0.4949951171875 0.4566650390625 0.52348899841308594
0.46466064453125 0.415283203125 0.54283905029296875
0.451751708984375 0.380859375 0.5539393424987793
0.4942626953125 0.378662109375 0.52444648742675781
0.517181396484375 0.459228515625 0.50983715057373047
0.4739990234375 0.4527587890625 0.53453302383422852
-0.530120849609375 -0.0443115234375 0.59366655349731445
-0.548126220703125 -0.060546875 0.58390092849731445
-0.49249267578125 -0.0513916015625 0.61477327346801758
-0.511810302734375 -0.0296630859375 0.60263633728027344
-0.563690185546875 -0.031005859375 0.57324028015136719
-0.58209228515625 -0.04541015625 0.56058692932128906
-0.510101318359375 -0.0714111328125 0.60570430755615234
-0.4759521484375 -0.0352783203125 0.62266683578491211
-0.544921875 -0.0181884765625 0.58297634124755859
0.406524658203125 0.2828369140625 0.57828807830810547
0.3758544921875 0.2587890625 0.59474945068359375
0.424072265625 0.271728515625 0.5659027099609375
0.4329833984375 0.310302734375 0.56424713134765625
0.389862060546875 0.2908935546875 0.58804225921630859
0.3621826171875 0.2698974609375 0.60337734222412109
0.391021728515625 0.244140625 0.58406448364257812
0.452362060546875 0.3052978515625 0.55069494247436523
0.41351318359375 0.3154296875 0.57499122619628906
-0.372894287109375 -0.0545654296875 0.66605567932128906
-0.380157470703125 -0.07421875 0.66055202484130859
-0.332611083984375 -0.0465087890625 0.680816650390625
-0.3660888671875 -0.037109375 0.66966009140014648
-0.413543701171875 -0.0570068359375 0.6517186164855957
-0.42596435546875 -0.0760498046875 0.64512777328491211
-0.33575439453125 -0.065673828125 0.67704677581787109
-0.329254150390625 -0.030517578125 0.68279933929443359
-0.402069091796875 -0.0411376953125 0.65730524063110352
0.258392333984375 0.208984375 0.65816211700439453
0.216339111328125 0.2017822265625 0.67870426177978516
0.26849365234375 0.1806640625 0.6591949462890625
0.300933837890625 0.219482421875 0.63597631454467773
0.251373291015625 0.233642578125 0.65294742584228516
0.211822509765625 0.230224609375 0.66705417633056641
0.22393798828125 0.1650390625 0.68857765197753906
0.31304931640625 0.19677734375 0.63191843032836914
0.291351318359375 0.24072265625 0.63585567474365234
-0.203521728515625 0.0137939453125 0.71709012985229492
-0.188873291015625 -0.00927734375 0.72342109680175781
-0.164154052734375 0.04052734375 0.725616455078125
-0.218231201171875 0.03466796875 0.7091679573059082
-0.246002197265625 -0.0098876953125 0.70633840560913086
-0.23907470703125 -0.031982421875 0.70742988586425781
-0.139892578125 0.0133056640625 0.73964309692382812
-0.186737060546875 0.0604248046875 0.71315526962280273
-0.254974365234375 0.0101318359375 0.70261478424072266
0.10992431640625 0.207275390625 0.68793344497680664
0.11676025390625 0.2396240234375 0.67575168609619141
0.082672119140625 0.2197265625 0.67910671234130859
0.103485107421875 0.1719970703125 0.70056247711181641
0.140777587890625 0.1986083984375 0.69168376922607422
0.143890380859375 0.2325439453125 0.67919063568115234
0.095245361328125 0.2496337890625 0.67168235778808594
0.0677490234375 0.1820068359375 0.68902683258056641
0.140411376953125 0.1607666015625 0.70656204223632812
-0.0994873046875 0.1168212890625 0.7080841064453125
-0.0924072265625 0.141357421875 0.69419193267822266
-0.132293701171875 0.130615234375 0.69877433776855469
-0.1121826171875 0.0927734375 0.72004604339599609
-0.064544677734375 0.0992431640625 0.71898126602172852
-0.052642822265625 0.1297607421875 0.70091819763183594
-0.127197265625 0.15283203125 0.68745803833007812
-0.143341064453125 0.1107177734375 0.70727252960205078
-0.07830810546875 0.070068359375 0.73670291900634766
-0.05987548828125 0.4820556640625 0.63833808898925781
-0.0574951171875 0.510498046875 0.63508749008178711
-0.08331298828125 0.4827880859375 0.64293384552001953
-0.06146240234375 0.4547119140625 0.64190483093261719
-0.0380859375 0.4814453125 0.63303375244140625
-0.036834716796875 0.5078125 0.62920379638671875
-0.077728271484375 0.512939453125 0.63747119903564453
-0.08905029296875 0.4537353515625 0.64592456817626953
-0.03631591796875 0.4556884765625 0.6363372802734375
-0.222412109375 0.40087890625 0.62812423706054688
-0.21124267578125 0.4200439453125 0.63359498977661133
-0.247802734375 0.4149169921875 0.62130069732666016
-0.234130859375 0.383544921875 0.62130546569824219
-0.19921875 0.3883056640625 0.63479137420654297
-0.183013916015625 0.4093017578125 0.6401214599609375
-0.239288330078125 0.43115234375 0.62597131729125977
-0.256134033203125 0.396240234375 0.61374378204345703
-0.213623046875 0.368408203125 0.62895631790161133
-0.039093017578125 0.3714599609375 0.64674282073974609
-0.051300048828125 0.39892578125 0.64573764801025391
-0.066925048828125 0.36279296875 0.64999198913574219
-0.024749755859375 0.346923828125 0.64937114715576172
-0.012298583984375 0.3800048828125 0.64528083801269531
-0.023101806640625 0.4041748046875 0.64234161376953125
-0.082244873046875 0.393310546875 0.64930200576782227
-0.05194091796875 0.335205078125 0.65162134170532227
0.000213623046875 0.3570556640625 0.64759302139282227
-0.146209716796875 0.325927734375 0.64870834350585938
-0.1217041015625 0.3394775390625 0.65089225769042969
-0.160186767578125 0.348876953125 0.64537715911865234
-0.16656494140625 0.30908203125 0.64538002014160156
-0.131988525390625 0.30029296875 0.65149402618408203
-0.106170654296875 0.310302734375 0.65253639221191406
-0.138397216796875 0.36865234375 0.64981842041015625
-0.17938232421875 0.3304443359375 0.64118146896362305
-0.15557861328125 0.2864990234375 0.64984512329101562
0.0198974609375 0.27294921875 0.65874004364013672
0.038177490234375 0.24951171875 0.66363620758056641
0.042144775390625 0.2955322265625 0.65708351135253906
0.005035400390625 0.2979736328125 0.65457677841186523
-0.005218505859375 0.2518310546875 0.66130638122558594
0.0137939453125 0.2216796875 0.66767120361328125
0.0594482421875 0.27783203125 0.66085672378540039
0.027130126953125 0.3150634765625 0.65380573272705078
-0.022247314453125 0.279541015625 0.65569400787353516
-0.100738525390625 0.221435546875 0.66425418853759766
-0.131378173828125 0.2183837890625 0.66442108154296875
-0.09326171875 0.19482421875 0.67184543609619141
-0.06878662109375 0.2266845703125 0.66362428665161133
-0.1094970703125 0.2474365234375 0.6590876579284668
-0.13787841796875 0.239990234375 0.65898323059082031
-0.12774658203125 0.1949462890625 0.67016935348510742
-0.0552978515625 0.193359375 0.67327499389648438
-0.081268310546875 0.2559814453125 0.65895462036132812
0.41473388671875 -0.6610107421875 0.81536388397216797
0.407257080078125 -0.6478271484375 0.82783412933349609
0.39373779296875 -0.6683349609375 0.82821321487426758
0.422515869140625 -0.6751708984375 0.80207395553588867
0.43408203125 -0.6510009765625 0.80278110504150391
0.423248291015625 -0.6376953125 0.8177332878112793
0.39007568359375 -0.6536865234375 0.83763980865478516
0.397918701171875 -0.6832275390625 0.81762266159057617
0.4449462890625 -0.667236328125 0.78621292114257812
0.33001708984375 -0.6815185546875 0.8659968376159668
0.351776123046875 -0.677734375 0.8544917106628418
0.33612060546875 -0.6639404296875 0.86874103546142578
0.30816650390625 -0.6826171875 0.87796735763549805
0.321441650390625 -0.69970703125 0.86317634582519531
0.34783935546875 -0.6953125 0.84880447387695312
0.353973388671875 -0.660888671875 0.85880756378173828
0.318450927734375 -0.6654052734375 0.87848472595214844
0.296234130859375 -0.7015380859375 0.87623500823974609
0.4764404296875 -0.6231689453125 0.77554702758789062
0.458099365234375 -0.609130859375 0.7950444221496582
0.464935302734375 -0.633544921875 0.78322982788085938
0.492828369140625 -0.639404296875 0.75234889984130859
0.48370361328125 -0.6087646484375 0.76920986175537109
0.464263916015625 -0.59375 0.78958702087402344
0.449249267578125 -0.619140625 0.80146598815917969
0.4791259765625 -0.6513671875 0.76200628280639648
0.502197265625 -0.626953125 0.74476814270019531
0.25390625 -0.675537109375 0.90371990203857422
0.270263671875 -0.6790771484375 0.89666748046875
0.27081298828125 -0.652587890625 0.90240049362182617
0.239898681640625 -0.66796875 0.90960597991943359
0.236297607421875 -0.69873046875 0.9034423828125
0.254058837890625 -0.7010498046875 0.89578056335449219
0.28582763671875 -0.659423828125 0.89554262161254883
0.256927490234375 -0.6439208984375 0.9078526496887207
0.2205810546875 -0.6925048828125 0.90977764129638672
0.48553466796875 -0.5477294921875 0.76086044311523438
0.46160888671875 -0.53076171875 0.78488826751708984
0.487060546875 -0.5716552734375 0.76268482208251953
0.51055908203125 -0.568115234375 0.73491859436035156
0.4814453125 -0.5242919921875 0.76275253295898438
0.45379638671875 -0.506591796875 0.78691816329956055
0.4666748046875 -0.5552978515625 0.78407573699951172
0.510955810546875 -0.590576171875 0.73655414581298828
0.507904052734375 -0.54345703125 0.73520660400390625
0.202789306640625 -0.6160888671875 0.91613388061523438
0.213287353515625 -0.63525390625 0.91557693481445312
0.222747802734375 -0.5859375 0.91295337677001953
0.19219970703125 -0.5936279296875 0.91593837738037109
0.17987060546875 -0.64599609375 0.91874885559082031
0.192169189453125 -0.66455078125 0.91725635528564453
0.231964111328125 -0.609130859375 0.91224002838134766
0.21563720703125 -0.563232421875 0.91281604766845703
0.169342041015625 -0.6253662109375 0.91972160339355469
0.385345458984375 -0.3114013671875 0.75929832458496094
0.35595703125 -0.265869140625 0.75659275054931641
0.360870361328125 -0.31396484375 0.77828502655029297
0.412506103515625 -0.359619140625 0.76283836364746094
0.409027099609375 -0.31201171875 0.73682022094726562
0.37945556640625 -0.264404296875 0.73497676849365234
0.3326416015625 -0.267333984375 0.77399301528930664
0.387542724609375 -0.3594970703125 0.78210163116455078
0.43603515625 -0.3604736328125 0.73938560485839844
0.11993408203125 -0.392578125 0.8699188232421875
0.14630126953125 -0.3779296875 0.86825084686279297
0.104156494140625 -0.3455810546875 0.85618114471435547
0.09246826171875 -0.40869140625 0.86871433258056641
0.13446044921875 -0.4368896484375 0.88561248779296875
0.16058349609375 -0.42333984375 0.88261985778808594
0.130523681640625 -0.330322265625 0.85494089126586914
0.0775146484375 -0.3602294921875 0.85302066802978516
0.107696533203125 -0.454345703125 0.8846588134765625
0.460723876953125 -0.4559326171875 0.76442527770996094
0.46826171875 -0.4788818359375 0.76436662673950195
0.487060546875 -0.469482421875 0.73838233947753906
0.44976806640625 -0.4298095703125 0.76528501510620117
0.43316650390625 -0.4482421875 0.78767776489257812
0.43927001953125 -0.465087890625 0.78873157501220703
0.4969482421875 -0.49560546875 0.73649787902832031
0.4749755859375 -0.4371337890625 0.73958396911621094
0.423980712890625 -0.42529296875 0.78743410110473633
0.16754150390625 -0.533447265625 0.91008949279785156
0.141387939453125 -0.559326171875 0.91282510757446289
0.1754150390625 -0.552978515625 0.91370582580566406
0.192840576171875 -0.510009765625 0.90471363067626953
0.158416748046875 -0.5101318359375 0.90429210662841797
0.132171630859375 -0.531494140625 0.90653848648071289
0.150634765625 -0.581787109375 0.91693305969238281
0.200927734375 -0.5272216796875 0.90787172317504883
0.184295654296875 -0.4908447265625 0.89954996109008789
0.213775634765625 -0.1739501953125 0.78677701950073242
0.201324462890625 -0.147705078125 0.78209304809570312
0.197540283203125 -0.1810302734375 0.79413604736328125
0.2288818359375 -0.2030029296875 0.79473066329956055
0.23046875 -0.16650390625 0.77868556976318359
0.21771240234375 -0.13623046875 0.77396631240844727
0.18524169921875 -0.159912109375 0.78837966918945312
0.21209716796875 -0.210693359375 0.80130767822265625
0.247222900390625 -0.197509765625 0.78683853149414062
0.14300537109375 -0.1986083984375 0.80810260772705078
0.162109375 -0.1937255859375 0.80432415008544922
0.130706787109375 -0.1727294921875 0.80154323577880859
0.12335205078125 -0.2020263671875 0.81188726425170898
0.159088134765625 -0.227294921875 0.81715202331542969
0.17803955078125 -0.220703125 0.81151580810546875
0.14996337890625 -0.1712646484375 0.79803657531738281
0.10986328125 -0.17431640625 0.80453300476074219
0.139862060546875 -0.233642578125 0.82207393646240234
0.292755126953125 -0.3226318359375 0.81774997711181641
0.313507080078125 -0.31884765625 0.80726146697998047
0.269378662109375 -0.28173828125 0.80879688262939453
0.27294921875 -0.3270263671875 0.82578372955322266
0.3154296875 -0.3665771484375 0.82335567474365234
0.33831787109375 -0.36083984375 0.81241798400878906
0.288787841796875 -0.2747802734375 0.79920768737792969
0.251739501953125 -0.2869873046875 0.81787776947021484
0.293487548828125 -0.37158203125 0.83403968811035156
0.21484375 -0.34765625 0.851287841796875
0.194976806640625 -0.302978515625 0.83920860290527344
0.193511962890625 -0.356201171875 0.85793685913085938
0.23126220703125 -0.39208984375 0.86150932312011719
0.234771728515625 -0.33935546875 0.84271240234375
0.213470458984375 -0.2978515625 0.83315277099609375
0.175323486328125 -0.31005859375 0.84550666809082031
0.210052490234375 -0.4012451171875 0.86972427368164062
0.252166748046875 -0.384521484375 0.85199069976806641
0.360321044921875 -0.4517822265625 0.83654022216796875
0.365875244140625 -0.464599609375 0.84004020690917969
0.382537841796875 -0.447021484375 0.82299518585205078
0.350311279296875 -0.4320068359375 0.83393430709838867
0.338714599609375 -0.458251953125 0.84893131256103516
0.34521484375 -0.47216796875 0.85236644744873047
0.387481689453125 -0.4603271484375 0.82573223114013672
0.373748779296875 -0.4251708984375 0.82024812698364258
0.32806396484375 -0.4384765625 0.84510660171508789
0.269317626953125 -0.474609375 0.88075923919677734
0.24365234375 -0.4815673828125 0.88963079452514648
0.27606201171875 -0.4864501953125 0.884033203125
0.2938232421875 -0.468994140625 0.87077045440673828
0.25921630859375 -0.4564208984375 0.87527656555175781
0.23480224609375 -0.462890625 0.88446140289306641
0.251312255859375 -0.491943359375 0.89287185668945312
0.301025390625 -0.4844970703125 0.87349319458007812
0.283355712890625 -0.4498291015625 0.86668109893798828
0.21942138671875 -0.038818359375 0.76499557495117188
0.219451904296875 -0.0234375 0.76224136352539062
0.21917724609375 -0.033447265625 0.77370405197143555
0.2156982421875 -0.0550537109375 0.76779079437255859
0.22137451171875 -0.0452880859375 0.75584936141967773
0.220489501953125 -0.0289306640625 0.75290393829345703
0.21905517578125 -0.0179443359375 0.77071428298950195
0.215057373046875 -0.0489501953125 0.77622461318969727
0.21923828125 -0.062744140625 0.75980997085571289
0.039520263671875 -0.1075439453125 0.81147956848144531
0.039276123046875 -0.1007080078125 0.81885910034179688
0.02752685546875 -0.09716796875 0.81057643890380859
0.038787841796875 -0.115234375 0.80408525466918945
0.054595947265625 -0.1175537109375 0.81052494049072266
0.053619384765625 -0.1102294921875 0.81837654113769531
0.02716064453125 -0.0908203125 0.81889724731445312
0.0264892578125 -0.1043701171875 0.80207586288452148
0.054168701171875 -0.1253662109375 0.80366086959838867
0.196075439453125 0.0216064453125 0.75102710723876953
0.182586669921875 0.032470703125 0.74598503112792969
0.196624755859375 0.026123046875 0.75922775268554688
0.20758056640625 0.0086669921875 0.7546381950378418
0.196197509765625 0.0191650390625 0.7437286376953125
0.181488037109375 0.0279541015625 0.73974466323852539
0.182952880859375 0.0380859375 0.75422048568725586
0.208160400390625 0.012939453125 0.76321315765380859
0.20733642578125 0.003173828125 0.74668693542480469
0.004547119140625 -0.0552978515625 0.79294300079345703
0.0048828125 -0.052001953125 0.80172538757324219
0.00341796875 -0.0400390625 0.78496932983398438
