# XYZ point cloud file
0.2661590576171875 0.280517578125 0.630218505859375
0.2346954345703125 0.2828369140625 0.6378631591796875
0.2045745849609375 0.285888671875 0.6427001953125
-0.2466278076171875 0.1287841796875 0.6682281494140625
-0.269134521484375 0.109130859375 0.668060302734375
-0.2936248779296875 0.0919189453125 0.66650390625
-0.31640625 0.067626953125 0.66302490234375
-0.31298828125 0.0574951171875 0.661529541015625
-0.309814453125 0.0455322265625 0.6590576171875
0.402008056640625 0.3106689453125 0.5704498291015625
0.3922271728515625 0.3194580078125 0.5775909423828125
0.3843994140625 0.3284912109375 0.584228515625
0.361083984375 0.3160400390625 0.597625732421875
0.3425445556640625 0.3021240234375 0.6056060791015625
0.321319580078125 0.291259765625 0.6140899658203125
-0.3448028564453125 0.0650634765625 0.6572265625
-0.36981201171875 0.0601806640625 0.6486358642578125
-0.3953857421875 0.059326171875 0.63824462890625
-0.4219207763671875 0.0513916015625 0.623687744140625
-0.423583984375 0.040771484375 0.6204833984375
-0.42767333984375 0.029052734375 0.6154937744140625
0.4549713134765625 0.4293212890625 0.53228759765625
0.4428863525390625 0.4293212890625 0.53985595703125
0.4322662353515625 0.4295654296875 0.545623779296875
0.416656494140625 0.4044189453125 0.5579681396484375
0.4066314697265625 0.380126953125 0.567169189453125
0.3935089111328125 0.3551025390625 0.577728271484375
-0.4479217529296875 0.06494140625 0.6085052490234375
-0.4741973876953125 0.0714111328125 0.590606689453125
-0.4983062744140625 0.07763671875 0.5728759765625
-0.5263671875 0.082275390625 0.5522918701171875
-0.534027099609375 0.0753173828125 0.5475921630859375
-0.5445098876953125 0.0692138671875 0.5419769287109375
0.4375 0.53271484375 0.5234832763671875
0.4263153076171875 0.525634765625 0.529083251953125
0.4162445068359375 0.5205078125 0.534576416015625
0.4155731201171875 0.4981689453125 0.53900146484375
0.4214324951171875 0.4774169921875 0.54095458984375
0.424224853515625 0.4549560546875 0.5444488525390625
-0.5357513427734375 0.1019287109375 0.53997802734375
-0.5483245849609375 0.116455078125 0.525848388671875
-0.5565643310546875 0.1331787109375 0.5136566162109375
-0.57110595703125 0.1451416015625 0.4978179931640625
-0.581451416015625 0.1407470703125 0.490966796875
-0.594940185546875 0.1376953125 0.4824371337890625
0.3675689697265625 0.593994140625 0.5311737060546875
0.360748291015625 0.5858154296875 0.534942626953125
0.354156494140625 0.578857421875 0.539947509765625
0.3692779541015625 0.5626220703125 0.5396270751953125
0.385101318359375 0.548095703125 0.5381927490234375
0.397552490234375 0.5335693359375 0.5378570556640625
-0.5648193359375 0.1639404296875 0.494049072265625
-0.5649261474609375 0.1790771484375 0.4871978759765625
-0.5609588623046875 0.1971435546875 0.483306884765625
-0.5598602294921875 0.2144775390625 0.47613525390625
-0.56854248046875 0.21484375 0.46795654296875
-0.579071044921875 0.21484375 0.460205078125
0.2254180908203125 0.6134033203125 0.553497314453125
0.2273406982421875 0.603515625 0.55950927734375
0.227691650390625 0.59765625 0.566680908203125
0.2569122314453125 0.59033203125 0.56744384765625
0.2894134521484375 0.5863037109375 0.55950927734375
0.3210906982421875 0.5802001953125 0.5505523681640625
-0.53759765625 0.2379150390625 0.4875030517578125
-0.520050048828125 0.2611083984375 0.4942474365234375
-0.5000152587890625 0.284423828125 0.5024566650390625
-0.48321533203125 0.30810546875 0.4996795654296875
-0.487457275390625 0.31201171875 0.48919677734375
-0.4928131103515625 0.3182373046875 0.478118896484375
0.12335205078125 0.615966796875 0.553558349609375
0.1316375732421875 0.6029052734375 0.5575408935546875
0.1370849609375 0.5941162109375 0.5621490478515625
0.158416748046875 0.5916748046875 0.5691680908203125
0.1769256591796875 0.5933837890625 0.5722503662109375
0.20001220703125 0.5941162109375 0.5736541748046875
-0.46112060546875 0.3231201171875 0.5102996826171875
-0.44439697265625 0.3385009765625 0.509979248046875
-0.428680419921875 0.3504638671875 0.5092926025390625
-0.415374755859375 0.366943359375 0.502105712890625
-0.41790771484375 0.37548828125 0.494232177734375
-0.4214019775390625 0.3870849609375 0.486480712890625
0.0592193603515625 0.5848388671875 0.5616912841796875
0.0709381103515625 0.57373046875 0.5657501220703125
0.07989501953125 0.56689453125 0.5691070556640625
0.098785400390625 0.57080078125 0.5701904296875
0.111480712890625 0.578125 0.5680999755859375
0.12530517578125 0.583984375 0.56634521484375
-0.399932861328125 0.3690185546875 0.5116424560546875
-0.386322021484375 0.3753662109375 0.515716552734375
-0.3724517822265625 0.3773193359375 0.5214385986328125
-0.356475830078125 0.3870849609375 0.523193359375
-0.35546875 0.3974609375 0.517120361328125
-0.3551788330078125 0.411376953125 0.511749267578125
0.058624267578125 0.521728515625 0.58416748046875
0.0666656494140625 0.53662109375 0.5798187255859375
0.0762481689453125 0.5496826171875 0.5763092041015625
-0.3419647216796875 0.3785400390625 0.536102294921875
-0.3264007568359375 0.3751220703125 0.5444793701171875
-0.3096923828125 0.371337890625 0.5523834228515625
0.102508544921875 0.545654296875 0.57586669921875
0.097930908203125 0.5504150390625 0.5758819580078125
0.0928802490234375 0.555419921875 0.5749053955078125
0.061981201171875 0.50244140625 0.5880584716796875
0.069061279296875 0.4991455078125 0.586578369140625
0.075653076171875 0.49609375 0.5837554931640625
0.08660888671875 0.5076904296875 0.5782623291015625
0.09228515625 0.52001953125 0.57733154296875
0.0990142822265625 0.53173828125 0.5761871337890625
-0.3444671630859375 0.3525390625 0.53936767578125
-0.3315887451171875 0.3487548828125 0.543487548828125
-0.318572998046875 0.3441162109375 0.5481109619140625
-0.303466796875 0.343994140625 0.5565185546875
-0.3007965087890625 0.349853515625 0.5592498779296875
-0.298187255859375 0.357421875 0.5607452392578125
-0.358154296875 0.3724365234375 0.5322265625
-0.3579864501953125 0.3660888671875 0.53387451171875
-0.3581085205078125 0.360107421875 0.5345916748046875
0.1494598388671875 0.570556640625 0.568267822265625
0.1467132568359375 0.5760498046875 0.568572998046875
0.143829345703125 0.58203125 0.568572998046875
0.116302490234375 0.5501708984375 0.572845458984375
0.12677001953125 0.555419921875 0.5705718994140625
0.138336181640625 0.560302734375 0.5685882568359375
-0.3935089111328125 0.3453369140625 0.5204925537109375
-0.381591796875 0.35107421875 0.5247802734375
-0.369537353515625 0.3541259765625 0.5296478271484375
-0.4120635986328125 0.35546875 0.513031005859375
-0.4100494384765625 0.349853515625 0.5157470703125
-0.40838623046875 0.3446044921875 0.5169525146484375
0.22613525390625 0.5787353515625 0.570404052734375
0.2261199951171875 0.58349609375 0.5732269287109375
0.2267608642578125 0.58837890625 0.574249267578125
0.1664276123046875 0.5699462890625 0.5688018798828125
0.1830596923828125 0.572265625 0.5692901611328125
0.2025909423828125 0.5748291015625 0.5695037841796875
-0.449066162109375 0.3095703125 0.5124053955078125
-0.43402099609375 0.3228759765625 0.5142974853515625
-0.4194793701171875 0.3319091796875 0.5155029296875
-0.4761199951171875 0.3033447265625 0.512420654296875
-0.472137451171875 0.30078125 0.512969970703125
-0.468505859375 0.2982177734375 0.5114288330078125
0.3346405029296875 0.552978515625 0.539581298828125
0.339019775390625 0.559814453125 0.5425567626953125
0.3433380126953125 0.5665283203125 0.544403076171875
0.2524261474609375 0.569091796875 0.55963134765625
0.279998779296875 0.5626220703125 0.5518646240234375
0.307098388671875 0.555419921875 0.542724609375
-0.5113677978515625 0.2313232421875 0.489837646484375
-0.4975738525390625 0.2532958984375 0.4962310791015625
-0.4813079833984375 0.27587890625 0.5028228759765625
-0.5441436767578125 0.2159423828125 0.486480712890625
-0.53668212890625 0.2144775390625 0.487884521484375
-0.5293426513671875 0.212158203125 0.4871063232421875
0.38671875 0.5042724609375 0.53594970703125
0.3923797607421875 0.50927734375 0.5384979248046875
0.3994293212890625 0.513427734375 0.5394439697265625
0.3492431640625 0.5361328125 0.5323944091796875
0.3629150390625 0.525390625 0.531097412109375
0.3733062744140625 0.513671875 0.5315399169921875
-0.5328216552734375 0.1658935546875 0.4951629638671875
-0.53271484375 0.1783447265625 0.48931884765625
-0.529296875 0.1934814453125 0.4857635498046875
-0.553375244140625 0.151123046875 0.5053863525390625
-0.5455780029296875 0.1519775390625 0.5058441162109375
-0.5381317138671875 0.1522216796875 0.504364013671875
0.3998260498046875 0.4310302734375 0.548187255859375
0.4070892333984375 0.4305419921875 0.5500640869140625
0.4144134521484375 0.4307861328125 0.550994873046875
0.38812255859375 0.48486328125 0.53448486328125
0.3927154541015625 0.4686279296875 0.5366058349609375
0.394500732421875 0.4508056640625 0.54052734375
-0.510528564453125 0.117431640625 0.5325164794921875
-0.520050048828125 0.1270751953125 0.521240234375
-0.5266876220703125 0.1407470703125 0.511016845703125
-0.51348876953125 0.0943603515625 0.5546417236328125
-0.507568359375 0.0986328125 0.55267333984375
-0.5023651123046875 0.1031494140625 0.549713134765625
0.362823486328125 0.3448486328125 0.583831787109375
0.3673858642578125 0.3427734375 0.5873565673828125
0.3721771240234375 0.3402099609375 0.588836669921875
0.3888702392578125 0.4083251953125 0.5535430908203125
0.3813018798828125 0.3870849609375 0.5621337890625
0.370819091796875 0.36572265625 0.571258544921875
-0.4364013671875 0.081787109375 0.59490966796875
-0.4590911865234375 0.08837890625 0.5784912109375
-0.479461669921875 0.096435546875 0.56109619140625
-0.419525146484375 0.0673828125 0.6228485107421875
-0.417694091796875 0.072509765625 0.6194915771484375
-0.415802001953125 0.075439453125 0.61456298828125
0.290069580078125 0.300048828125 0.6156005859375
0.2919769287109375 0.2967529296875 0.61944580078125
0.2938995361328125 0.29052734375 0.6220703125
0.3441619873046875 0.3297119140625 0.5887298583984375
0.3287200927734375 0.3170166015625 0.5968017578125
0.30987548828125 0.308837890625 0.6038970947265625
-0.3491973876953125 0.08056640625 0.6385345458984375
-0.3705291748046875 0.076416015625 0.6308746337890625
-0.392059326171875 0.07568359375 0.6219482421875
-0.3218536376953125 0.0810546875 0.6611785888671875
-0.32379150390625 0.0843505859375 0.656097412109375
-0.3256683349609375 0.08837890625 0.6503448486328125
0.1819000244140625 0.302978515625 0.63690185546875
0.1803131103515625 0.3004150390625 0.641845703125
0.1786346435546875 0.2969970703125 0.6455841064453125
0.2617645263671875 0.3004150390625 0.6174163818359375
0.234771728515625 0.298828125 0.624542236328125
0.207916259765625 0.301025390625 0.62847900390625
-0.2626495361328125 0.1370849609375 0.650299072265625
-0.2823944091796875 0.120849609375 0.650634765625
-0.30419921875 0.10302734375 0.648529052734375
-0.233673095703125 0.150634765625 0.664703369140625
-0.237884521484375 0.1522216796875 0.6599273681640625
-0.241790771484375 0.15380859375 0.6544342041015625
0.123443603515625 0.328125 0.625244140625
0.12054443359375 0.32568359375 0.63104248046875
0.117889404296875 0.3226318359375 0.6353912353515625
0.1643218994140625 0.309814453125 0.6295166015625
0.1486663818359375 0.315185546875 0.626983642578125
0.1361846923828125 0.322509765625 0.62255859375
-0.2227935791015625 0.193115234375 0.6321258544921875
-0.226898193359375 0.180908203125 0.6385650634765625
-0.2342987060546875 0.1683349609375 0.6444091796875
-0.2080841064453125 0.206787109375 0.644317626953125
-0.212860107421875 0.205810546875 0.6388702392578125
-0.2173919677734375 0.2054443359375 0.63226318359375
0.060211181640625 0.4326171875 0.6060028076171875
0.066497802734375 0.4326171875 0.6024627685546875
0.0717010498046875 0.431640625 0.5976715087890625
0.0754241943359375 0.447265625 0.589447021484375
0.0760955810546875 0.462646484375 0.5856170654296875
0.079010009765625 0.478271484375 0.58209228515625
-0.2927703857421875 0.330810546875 0.5589141845703125
-0.2799835205078125 0.3223876953125 0.565093994140625
-0.2681732177734375 0.3140869140625 0.571685791015625
-0.2550201416015625 0.30712890625 0.5833587646484375
-0.251556396484375 0.3109130859375 0.588134765625
-0.247100830078125 0.314697265625 0.592071533203125
0.0829925537109375 0.368408203125 0.6227874755859375
0.087799072265625 0.369384765625 0.6180419921875
0.092376708984375 0.3697509765625 0.6117706298828125
0.0901336669921875 0.385009765625 0.6020965576171875
0.0845794677734375 0.400390625 0.599212646484375
0.079864501953125 0.4149169921875 0.5962066650390625
-0.248870849609375 0.290771484375 0.583709716796875
-0.241790771484375 0.278564453125 0.590362548828125
-0.23529052734375 0.2650146484375 0.596343994140625
-0.2259979248046875 0.253662109375 0.6092376708984375
-0.2214202880859375 0.256591796875 0.615478515625
-0.2163848876953125 0.25830078125 0.620635986328125
0.116973876953125 0.3385009765625 0.614990234375
0.109466552734375 0.347900390625 0.61181640625
0.1027984619140625 0.3585205078125 0.60870361328125
-0.2264251708984375 0.2393798828125 0.607818603515625
-0.223114013671875 0.2274169921875 0.61328125
-0.22137451171875 0.2152099609375 0.6193084716796875
-0.12139892578125 0.44287109375 0.43609619140625
-0.1255035400390625 0.451416015625 0.4621124267578125
-0.1312713623046875 0.4619140625 0.489471435546875
-0.0874176025390625 0.5445556640625 0.480133056640625
-0.074188232421875 0.5355224609375 0.4532470703125
-0.0548858642578125 0.528564453125 0.427581787109375
-0.0594482421875 0.4913330078125 0.4086761474609375
-0.08221435546875 0.466552734375 0.4130706787109375
-0.1007080078125 0.451171875 0.41357421875
-0.1382293701171875 0.434814453125 0.4089813232421875
-0.161529541015625 0.4322509765625 0.4030914306640625
-0.1919708251953125 0.434814453125 0.38970947265625
-0.223297119140625 0.4556884765625 0.399566650390625
-0.2184295654296875 0.47265625 0.42828369140625
-0.21868896484375 0.4881591796875 0.456695556640625
-0.0637054443359375 0.7154541015625 0.4410552978515625
-0.048828125 0.7030029296875 0.41827392578125
-0.0296173095703125 0.68896484375 0.4009552001953125
-0.0126953125 0.6522216796875 0.3925323486328125
-0.0114288330078125 0.61474609375 0.3956298828125
-0.0135955810546875 0.573974609375 0.400115966796875
-0.2775421142578125 0.4583740234375 0.35345458984375
-0.3066253662109375 0.4844970703125 0.3397064208984375
-0.329833984375 0.5089111328125 0.326416015625
-0.345245361328125 0.541015625 0.329437255859375
-0.34759521484375 0.5615234375 0.3478546142578125
-0.351165771484375 0.5775146484375 0.3718414306640625
0.0460968017578125 0.791748046875 0.4358978271484375
0.0583038330078125 0.7760009765625 0.4131927490234375
0.0690155029296875 0.7552490234375 0.3964080810546875
0.0569000244140625 0.7261962890625 0.3815155029296875
0.030792236328125 0.71044921875 0.380340576171875
0.005096435546875 0.6915283203125 0.384674072265625
-0.3668975830078125 0.5206298828125 0.3018646240234375
-0.39453125 0.513671875 0.2860260009765625
-0.421783447265625 0.50634765625 0.27490234375
-0.4527130126953125 0.513916015625 0.276947021484375
-0.4627685546875 0.5325927734375 0.2912445068359375
-0.471160888671875 0.5489501953125 0.31304931640625
0.2306060791015625 0.74560546875 0.451873779296875
0.2373046875 0.729248046875 0.42596435546875
0.2384490966796875 0.7047119140625 0.39984130859375
0.174530029296875 0.6929931640625 0.383544921875
0.1338653564453125 0.713134765625 0.3845672607421875
0.10009765625 0.7279052734375 0.3854827880859375
-0.45166015625 0.474853515625 0.268035888671875
-0.46380615234375 0.44091796875 0.2660980224609375
-0.4793243408203125 0.400634765625 0.2630767822265625
-0.5369720458984375 0.3631591796875 0.266876220703125
-0.5567169189453125 0.3760986328125 0.285736083984375
-0.567840576171875 0.389892578125 0.309478759765625
0.4375762939453125 0.69921875 0.4455718994140625
0.4409027099609375 0.6845703125 0.4166412353515625
0.442413330078125 0.6656494140625 0.3851776123046875
0.4012298583984375 0.6533203125 0.357513427734375
0.35211181640625 0.6624755859375 0.363311767578125
0.2959136962890625 0.6688232421875 0.368408203125
-0.5501251220703125 0.3031005859375 0.2400054931640625
-0.5862884521484375 0.259033203125 0.23040771484375
-0.6163482666015625 0.2222900390625 0.2233734130859375
-0.660430908203125 0.2037353515625 0.2480316162109375
-0.6742095947265625 0.21533203125 0.2754058837890625
-0.6850433349609375 0.2279052734375 0.3018646240234375
0.5740814208984375 0.637451171875 0.416473388671875
0.57379150390625 0.6229248046875 0.3899078369140625
0.570343017578125 0.605712890625 0.360504150390625
0.541229248046875 0.614990234375 0.3378448486328125
0.5127105712890625 0.6304931640625 0.3438568115234375
0.4809722900390625 0.6383056640625 0.347686767578125
-0.6691436767578125 0.1619873046875 0.2168426513671875
-0.6895294189453125 0.1361083984375 0.2163543701171875
-0.705169677734375 0.1080322265625 0.2193145751953125
-0.7287445068359375 0.0858154296875 0.25213623046875
-0.7433013916015625 0.09423828125 0.2794189453125
-0.7535400390625 0.1029052734375 0.3043060302734375
0.62567138671875 0.393310546875 0.3566436767578125
0.624542236328125 0.3836669921875 0.3324432373046875
0.6222381591796875 0.3739013671875 0.30328369140625
0.6195831298828125 0.426513671875 0.2767181396484375
0.6082916259765625 0.488037109375 0.2935333251953125
0.58941650390625 0.5435791015625 0.312103271484375
-0.7119140625 0.0322265625 0.2316131591796875
-0.700897216796875 -0.0125732421875 0.2428741455078125
-0.683868408203125 -0.0567626953125 0.257568359375
-0.662445068359375 -0.0889892578125 0.3199005126953125
-0.669158935546875 -0.08154296875 0.351654052734375
-0.6750640869140625 -0.07373046875 0.377288818359375
0.540252685546875 0.189453125 0.405181884765625
0.538116455078125 0.1795654296875 0.3775482177734375
0.5370635986328125 0.1676025390625 0.3441925048828125
0.570953369140625 0.19873046875 0.2857208251953125
0.59600830078125 0.2484130859375 0.2727813720703125
0.6141357421875 0.3037109375 0.266082763671875
-0.625885009765625 -0.1328125 0.308319091796875
-0.5878753662109375 -0.1553955078125 0.3387603759765625
-0.54705810546875 -0.1741943359375 0.3706512451171875
-0.4986114501953125 -0.1671142578125 0.4434661865234375
-0.4983978271484375 -0.155517578125 0.47821044921875
-0.5007781982421875 -0.146240234375 0.5067291259765625
0.4055633544921875 0.049072265625 0.460906982421875
0.404083251953125 0.0423583984375 0.4406890869140625
0.3997344970703125 0.0343017578125 0.41827392578125
0.4365234375 0.043212890625 0.36163330078125
0.4752044677734375 0.075439453125 0.3377685546875
0.509002685546875 0.111328125 0.318603515625
-0.4572906494140625 -0.1943359375 0.4246826171875
-0.410980224609375 -0.19873046875 0.44793701171875
-0.3596038818359375 -0.1998291015625 0.4699554443359375
-0.309173583984375 -0.18359375 0.5217742919921875
-0.311065673828125 -0.1749267578125 0.545257568359375
-0.3101348876953125 -0.1678466796875 0.5669403076171875
0.2122650146484375 -0.512451171875 0.462432861328125
0.18505859375 -0.5291748046875 0.4684600830078125
0.1575775146484375 -0.541015625 0.4761199951171875
0.1212310791015625 -0.52294921875 0.466064453125
0.1134185791015625 -0.5023193359375 0.4456939697265625
0.1060791015625 -0.4866943359375 0.4266510009765625
0.136932373046875 -0.4676513671875 0.3931121826171875
0.169403076171875 -0.4521484375 0.37945556640625
0.1994476318359375 -0.4296875 0.3697662353515625
0.2263336181640625 -0.417236328125 0.389892578125
0.2275238037109375 -0.43701171875 0.41375732421875
0.2316436767578125 -0.4617919921875 0.43609619140625
0.0059967041015625 -0.5113525390625 0.512420654296875
-0.0077362060546875 -0.4908447265625 0.489044189453125
-0.0214385986328125 -0.47509765625 0.46588134765625
-0.006011962890625 -0.4776611328125 0.431884765625
0.0272369384765625 -0.485107421875 0.423095703125
0.0633697509765625 -0.4844970703125 0.4155426025390625
0.1021270751953125 -0.5517578125 0.496826171875
0.0738525390625 -0.5517578125 0.508056640625
0.0469818115234375 -0.5455322265625 0.5217437744140625
0.2613983154296875 -0.6767578125 0.53662109375
0.23358154296875 -0.6904296875 0.549041748046875
0.2058563232421875 -0.7037353515625 0.5611419677734375
0.1639862060546875 -0.66845703125 0.5501708984375
0.151458740234375 -0.6273193359375 0.5290985107421875
0.139892578125 -0.5858154296875 0.5065460205078125
0.248046875 -0.5291748046875 0.475250244140625
0.259979248046875 -0.5709228515625 0.4912872314453125
0.2732391357421875 -0.617431640625 0.507354736328125
0.0507965087890625 -0.657470703125 0.603118896484375
0.0410308837890625 -0.6158447265625 0.5803680419921875
0.0307464599609375 -0.57470703125 0.557891845703125
0.1494903564453125 -0.7109375 0.5879669189453125
0.1207122802734375 -0.7098388671875 0.6021270751953125
0.091217041015625 -0.706787109375 0.6157379150390625
0.3282470703125 -0.7904052734375 0.629119873046875
0.299896240234375 -0.797607421875 0.6518402099609375
0.26971435546875 -0.8052978515625 0.673095703125
0.2246246337890625 -0.799072265625 0.6613311767578125
0.2086944580078125 -0.7750244140625 0.631103515625
0.193450927734375 -0.746337890625 0.602996826171875
0.30572509765625 -0.7015380859375 0.5424346923828125
0.3226318359375 -0.7381591796875 0.56341552734375
0.3395233154296875 -0.7650146484375 0.5841827392578125
0.09344482421875 -0.79541015625 0.715179443359375
0.0831298828125 -0.767822265625 0.6850128173828125
0.071807861328125 -0.7344970703125 0.656982421875
0.207550048828125 -0.8114013671875 0.7080230712890625
0.173431396484375 -0.8125 0.7221221923828125
0.139129638671875 -0.810302734375 0.7335357666015625
0.3706512451171875 -0.791748046875 0.6284942626953125
0.384033203125 -0.791259765625 0.65057373046875
0.394805908203125 -0.7830810546875 0.671661376953125
0.2729644775390625 -0.8023681640625 0.764312744140625
0.2635040283203125 -0.811767578125 0.742584228515625
0.2526397705078125 -0.814208984375 0.718841552734375
0.132568359375 -0.8087158203125 0.8221435546875
0.1233978271484375 -0.8162841796875 0.79864501953125
0.1144256591796875 -0.8187255859375 0.7721710205078125
0.453887939453125 -0.7518310546875 0.5498504638671875
0.4698028564453125 -0.753173828125 0.56536865234375
0.4809722900390625 -0.749755859375 0.588409423828125
0.38299560546875 -0.7757568359375 0.5832672119140625
0.4079132080078125 -0.767822265625 0.56280517578125
0.427581787109375 -0.7568359375 0.5478668212890625
0.0137939453125 -0.804443359375 0.7708892822265625
0.038360595703125 -0.80908203125 0.762939453125
0.069000244140625 -0.810791015625 0.7541351318359375
0.014129638671875 -0.8009033203125 0.8465423583984375
0.0029144287109375 -0.806884765625 0.8211669921875
-0.000885009765625 -0.804443359375 0.7960052490234375
0.432159423828125 -0.6251220703125 0.5123138427734375
0.459320068359375 -0.6356201171875 0.5343780517578125
0.4827880859375 -0.6431884765625 0.5619659423828125
0.43634033203125 -0.73095703125 0.5291900634765625
0.42791748046875 -0.6995849609375 0.5169219970703125
0.416717529296875 -0.66162109375 0.5064544677734375
-0.0332489013671875 -0.727783203125 0.7235107421875
-0.0229339599609375 -0.7603759765625 0.746002197265625
-0.01226806640625 -0.7840576171875 0.7644195556640625
-0.0379791259765625 -0.71484375 0.8228759765625
-0.04608154296875 -0.7066650390625 0.7811279296875
-0.0475311279296875 -0.697265625 0.7393951416015625
0.3762969970703125 -0.4390869140625 0.4936981201171875
0.4083251953125 -0.4482421875 0.522003173828125
0.4347686767578125 -0.4573974609375 0.556060791015625
0.3876495361328125 -0.5728759765625 0.4905853271484375
0.372406005859375 -0.5260009765625 0.483001708984375
0.3578033447265625 -0.48046875 0.4782562255859375
-0.05816650390625 -0.564697265625 0.6413726806640625
-0.0517578125 -0.6060791015625 0.660797119140625
-0.0453948974609375 -0.6492919921875 0.6810302734375
-0.0703582763671875 -0.5535888671875 0.7643585205078125
-0.0743255615234375 -0.5419921875 0.7144622802734375
-0.0720977783203125 -0.5323486328125 0.6652679443359375
0.3730621337890625 -0.62255859375 0.4950103759765625
0.34442138671875 -0.6328125 0.5004730224609375
0.3165435791015625 -0.6451416015625 0.51068115234375
0.26336669921875 -0.472412109375 0.4532470703125
0.2883453369140625 -0.4556884765625 0.4536285400390625
0.31475830078125 -0.4434814453125 0.4593048095703125
-0.04986572265625 -0.5203857421875 0.5900115966796875
-0.0300140380859375 -0.524169921875 0.5666656494140625
-0.0064697265625 -0.529541015625 0.5489501953125
0.0296783447265625 -0.6922607421875 0.641510009765625
0.0012969970703125 -0.6876220703125 0.656158447265625
-0.0225372314453125 -0.6871337890625 0.6754150390625
0.248138427734375 -0.375244140625 0.3745880126953125
0.2659454345703125 -0.3443603515625 0.391357421875
0.2824249267578125 -0.31689453125 0.41461181640625
0.310089111328125 -0.325439453125 0.448883056640625
0.3209075927734375 -0.3602294921875 0.4566650390625
0.33184814453125 -0.3973388671875 0.4640350341796875
-0.0716552734375 -0.48388671875 0.6025238037109375
-0.0791473388671875 -0.449951171875 0.5851898193359375
-0.0855712890625 -0.4178466796875 0.5697174072265625
-0.0821990966796875 -0.406982421875 0.5192718505859375
-0.0711822509765625 -0.4268798828125 0.4879150390625
-0.05560302734375 -0.4471435546875 0.46258544921875
0.32269287109375 -0.284912109375 0.4728546142578125
0.3447418212890625 -0.2781982421875 0.5039520263671875
0.36212158203125 -0.2757568359375 0.53863525390625
-0.0994415283203125 -0.3822021484375 0.683258056640625
-0.10113525390625 -0.382568359375 0.64044189453125
-0.09771728515625 -0.3865966796875 0.5973968505859375
0.302642822265625 -0.1727294921875 0.52655029296875
0.2953948974609375 -0.180908203125 0.495758056640625
0.287384033203125 -0.191162109375 0.460205078125
0.2857818603515625 -0.1700439453125 0.4268798828125
0.2846527099609375 -0.1441650390625 0.4396209716796875
0.280792236328125 -0.1236572265625 0.4514312744140625
0.2671051025390625 -0.1162109375 0.4832000732421875
0.2657623291015625 -0.1180419921875 0.5045318603515625
0.266815185546875 -0.1124267578125 0.528228759765625
-0.1036376953125 -0.21337890625 0.606201171875
-0.1081085205078125 -0.2200927734375 0.582305908203125
-0.1175384521484375 -0.2227783203125 0.5599212646484375
-0.135498046875 -0.239501953125 0.53338623046875
-0.1340789794921875 -0.259033203125 0.5252838134765625
-0.12933349609375 -0.28173828125 0.515838623046875
-0.11053466796875 -0.2958984375 0.5550537109375
-0.10699462890625 -0.285888671875 0.593597412109375
-0.104461669921875 -0.2777099609375 0.6275482177734375
0.29278564453125 -0.273193359375 0.437530517578125
0.285797119140625 -0.251708984375 0.432861328125
0.281982421875 -0.2314453125 0.42529296875
-0.1060028076171875 -0.3328857421875 0.521392822265625
-0.099456787109375 -0.351318359375 0.5331268310546875
-0.094879150390625 -0.3701171875 0.54437255859375
0.2730560302734375 -0.05615234375 0.486724853515625
0.268646240234375 -0.054443359375 0.5013275146484375
0.26580810546875 -0.0469970703125 0.521514892578125
0.269012451171875 -0.0936279296875 0.4708709716796875
0.2652587890625 -0.0810546875 0.4759979248046875
0.269805908203125 -0.067138671875 0.4777984619140625
-0.1418304443359375 -0.1865234375 0.5489654541015625
-0.1327362060546875 -0.1956787109375 0.5469207763671875
-0.1320037841796875 -0.2076416015625 0.5441741943359375
-0.134735107421875 -0.1619873046875 0.592529296875
-0.1395111083984375 -0.171875 0.572601318359375
-0.1461334228515625 -0.1778564453125 0.558624267578125
0.2921295166015625 -0.042236328125 0.46875
0.318572998046875 -0.02392578125 0.45281982421875
0.3507843017578125 -0.00537109375 0.4305419921875
-0.24774169921875 -0.187255859375 0.52197265625
-0.20770263671875 -0.180908203125 0.53607177734375
-0.1736907958984375 -0.1785888671875 0.544403076171875
0.0193939208984375 -0.5404052734375 -0.529937744140625
0.0301055908203125 -0.497314453125 -0.58935546875
0.0440216064453125 -0.439697265625 -0.6445465087890625
0.135284423828125 -0.34033203125 -0.691009521484375
0.2042083740234375 -0.3095703125 -0.672698974609375
0.2671051025390625 -0.280517578125 -0.646148681640625
0.3003082275390625 -0.3173828125 -0.585418701171875
0.2872161865234375 -0.3670654296875 -0.5481109619140625
0.279632568359375 -0.4010009765625 -0.5035400390625
0.2184906005859375 -0.4696044921875 -0.4574737548828125
0.1540069580078125 -0.5078125 -0.46484375
0.0842132568359375 -0.54541015625 -0.4682769775390625
-0.0568389892578125 -0.5869140625 -0.4464263916015625
-0.12298583984375 -0.590576171875 -0.42181396484375
-0.18243408203125 -0.5870361328125 -0.3970794677734375
-0.22955322265625 -0.5574951171875 -0.4376373291015625
-0.22344970703125 -0.52734375 -0.492340087890625
-0.2185211181640625 -0.48828125 -0.542022705078125
-0.1561279296875 -0.425048828125 -0.6268768310546875
-0.087127685546875 -0.4071044921875 -0.6588134765625
-0.0139312744140625 -0.3890380859375 -0.6833343505859375
0.014312744140625 -0.614990234375 -0.22027587890625
0.0098724365234375 -0.6109619140625 -0.3090972900390625
0.010589599609375 -0.596923828125 -0.39007568359375
0.2689056396484375 -0.4503173828125 -0.3909149169921875
0.261474609375 -0.46630859375 -0.318695068359375
0.255615234375 -0.474365234375 -0.240997314453125
0.1997833251953125 -0.515380859375 -0.150634765625
0.143768310546875 -0.5531005859375 -0.145538330078125
0.0829620361328125 -0.5850830078125 -0.13775634765625
-0.0386199951171875 -0.6160888671875 -0.1086273193359375
-0.09625244140625 -0.615478515625 -0.090423583984375
-0.1497039794921875 -0.6075439453125 -0.0715484619140625
-0.213104248046875 -0.6026611328125 -0.1459808349609375
-0.2239532470703125 -0.6026611328125 -0.229248046875
-0.232086181640625 -0.5936279296875 -0.3068389892578125
0.061614990234375 -0.5340576171875 0.17974853515625
0.0469207763671875 -0.561767578125 0.08349609375
0.03338623046875 -0.587158203125 -0.0205230712890625
0.2470855712890625 -0.4613037109375 -0.062042236328125
0.2459259033203125 -0.44091796875 0.0323944091796875
0.2455291748046875 -0.4161376953125 0.1263427734375
0.204345703125 -0.4378662109375 0.22149658203125
0.1625213623046875 -0.47119140625 0.23193359375
0.119232177734375 -0.4947509765625 0.24530029296875
0.0284423828125 -0.515380859375 0.2714691162109375
-0.0170135498046875 -0.51318359375 0.2816314697265625
-0.0620574951171875 -0.5020751953125 0.2939605712890625
-0.1304779052734375 -0.510498046875 0.22076416015625
-0.1550750732421875 -0.54443359375 0.1298980712890625
-0.1777496337890625 -0.5748291015625 0.035980224609375
0.0956573486328125 -0.4765625 0.38580322265625
0.090301513671875 -0.4801025390625 0.3585205078125
0.08367919921875 -0.490478515625 0.3184967041015625
0.232574462890625 -0.3892822265625 0.2832183837890625
0.2275390625 -0.39111328125 0.319061279296875
0.2260894775390625 -0.395751953125 0.3452606201171875
-0.045623779296875 -0.46044921875 0.42291259765625
-0.0579071044921875 -0.46044921875 0.3993377685546875
-0.075592041015625 -0.4649658203125 0.3672027587890625
0.2628021240234375 -0.334716796875 0.2784423828125
0.2708740234375 -0.2916259765625 0.3247528076171875
0.277984619140625 -0.247314453125 0.367218017578125
-0.1192779541015625 -0.352294921875 0.460845947265625
-0.117156982421875 -0.3916015625 0.4196014404296875
-0.114471435546875 -0.4310302734375 0.373291015625
0.653533935546875 0.3369140625 0.1057586669921875
0.641082763671875 0.3433837890625 0.16192626953125
0.6300048828125 0.3525390625 0.2173004150390625
0.5531005859375 0.1290283203125 0.2454376220703125
0.5695037841796875 0.100341796875 0.179534912109375
0.586578369140625 0.06689453125 0.1066436767578125
0.636199951171875 0.109130859375 0.0326995849609375
0.6567535400390625 0.1842041015625 0.03460693359375
0.667572021484375 0.2596435546875 0.040557861328125
-0.6569366455078125 -0.2144775390625 0.0604095458984375
-0.631317138671875 -0.2598876953125 0.0913543701171875
-0.59759521484375 -0.3038330078125 0.1229248046875
-0.538818359375 -0.2994384765625 0.2194976806640625
-0.5251922607421875 -0.2568359375 0.2860107421875
-0.5126953125 -0.2161865234375 0.3458404541015625
-0.6594696044921875 -0.115234375 0.2266387939453125
-0.662689208984375 -0.134521484375 0.165435791015625
-0.668914794921875 -0.15087890625 0.10137939453125
0.082733154296875 -0.277587890625 -0.745574951171875
0.1041717529296875 -0.176513671875 -0.787628173828125
0.123565673828125 -0.0657958984375 -0.81707763671875
0.2245635986328125 0.0845947265625 -0.80889892578125
0.30230712890625 0.109130859375 -0.7723388671875
0.371734619140625 0.1304931640625 -0.7310333251953125
0.409515380859375 0.0311279296875 -0.689422607421875
0.3800506591796875 -0.0758056640625 -0.673919677734375
0.350006103515625 -0.17333984375 -0.6499481201171875
-0.214447021484375 -0.3758544921875 -0.643280029296875
-0.214080810546875 -0.3011474609375 -0.6923980712890625
-0.21533203125 -0.214111328125 -0.7329559326171875
-0.1370391845703125 -0.077880859375 -0.78997802734375
-0.0489959716796875 -0.03466796875 -0.8159942626953125
0.0445709228515625 0.0089111328125 -0.830047607421875
-0.041168212890625 0.6837158203125 -0.3069000244140625
-0.0693511962890625 0.689208984375 -0.224578857421875
-0.0929107666015625 0.686279296875 -0.1432342529296875
-0.0210113525390625 0.7093505859375 -0.0332794189453125
0.0687713623046875 0.7406005859375 -0.01336669921875
0.1551971435546875 0.762451171875 -0.002288818359375
0.2466583251953125 0.7894287109375 -0.0661163330078125
0.2645416259765625 0.7960205078125 -0.1342620849609375
0.2855072021484375 0.7913818359375 -0.203704833984375
0.2393035888671875 0.765625 -0.2938995361328125
0.160552978515625 0.7442626953125 -0.3229522705078125
0.0775146484375 0.7078857421875 -0.355133056640625
-0.096588134765625 0.6181640625 -0.4163055419921875
-0.181640625 0.56494140625 -0.440704345703125
-0.258148193359375 0.5062255859375 -0.462310791015625
-0.349395751953125 0.4661865234375 -0.410003662109375
-0.373016357421875 0.47314453125 -0.338165283203125
-0.3932952880859375 0.46923828125 -0.2633514404296875
-0.3507537841796875 0.5113525390625 -0.1519317626953125
-0.27886962890625 0.5687255859375 -0.120147705078125
-0.197235107421875 0.622314453125 -0.0871124267578125
0.0870819091796875 0.5374755859375 -0.62457275390625
0.055908203125 0.5936279296875 -0.5500030517578125
0.02288818359375 0.635986328125 -0.469940185546875
0.3369293212890625 0.753173828125 -0.3389434814453125
0.3633880615234375 0.7149658203125 -0.4046783447265625
0.388458251953125 0.6614990234375 -0.4674072265625
0.3467559814453125 0.575439453125 -0.5673828125
0.27569580078125 0.54833984375 -0.612762451171875
0.1976165771484375 0.5098876953125 -0.65594482421875
0.021759033203125 0.4212646484375 -0.7095184326171875
-0.0708465576171875 0.37255859375 -0.716949462890625
-0.1580352783203125 0.32177734375 -0.714385986328125
-0.2525634765625 0.337646484375 -0.6628570556640625
-0.27386474609375 0.3885498046875 -0.6097869873046875
-0.29791259765625 0.4234619140625 -0.5480194091796875
0.144256591796875 0.1651611328125 -0.820465087890625
0.14166259765625 0.2763671875 -0.79205322265625
0.130523681640625 0.377685546875 -0.7484283447265625
0.425262451171875 0.4962158203125 -0.584564208984375
0.4364166259765625 0.3848876953125 -0.6324310302734375
0.4384307861328125 0.2669677734375 -0.6683197021484375
-0.2168121337890625 -0.0189208984375 -0.7691802978515625
-0.218902587890625 0.087890625 -0.7622833251953125
-0.2245941162109375 0.185302734375 -0.7425994873046875
0.4443511962890625 0.598388671875 0.230010986328125
0.4437408447265625 0.6075439453125 0.2740936279296875
0.44378662109375 0.623291015625 0.3148193359375
0.5626068115234375 0.5711669921875 0.2937774658203125
0.5602569580078125 0.5584716796875 0.256805419921875
0.559967041015625 0.55029296875 0.2177276611328125
0.534698486328125 0.5748291015625 0.1858062744140625
0.50750732421875 0.586669921875 0.1862335205078125
0.4781951904296875 0.594482421875 0.1838531494140625
-0.605010986328125 0.1358642578125 0.0448760986328125
-0.6276702880859375 0.1114501953125 0.051239013671875
-0.646759033203125 0.08447265625 0.0577850341796875
-0.6709747314453125 0.05029296875 0.109954833984375
-0.682525634765625 0.0560302734375 0.1536712646484375
-0.6976776123046875 0.0645751953125 0.1909027099609375
-0.6268310546875 0.177001953125 0.185028076171875
-0.61090087890625 0.167236328125 0.1465301513671875
-0.5949554443359375 0.16064453125 0.0993499755859375
0.4552459716796875 0.6800537109375 0.024139404296875
0.449981689453125 0.650634765625 0.0792694091796875
0.4470672607421875 0.6220703125 0.132568359375
0.5693206787109375 0.563232421875 0.133819580078125
0.5783843994140625 0.5802001953125 0.091064453125
0.5880126953125 0.5994873046875 0.04541015625
0.5692596435546875 0.6473388671875 -0.0035858154296875
0.537261962890625 0.6712646484375 -0.014373779296875
0.50262451171875 0.689453125 -0.0248870849609375
-0.575958251953125 0.192626953125 -0.252197265625
-0.605377197265625 0.1514892578125 -0.2351837158203125
-0.6322479248046875 0.110595703125 -0.2150421142578125
-0.6583709716796875 0.061767578125 -0.131195068359375
-0.6588897705078125 0.0574951171875 -0.063751220703125
-0.6595611572265625 0.0521240234375 0.0006866455078125
-0.5711212158203125 0.177001953125 -0.025848388671875
-0.5639495849609375 0.197998046875 -0.1025238037109375
-0.5559234619140625 0.21923828125 -0.18182373046875
0.50323486328125 0.715087890625 -0.1999664306640625
0.4871368408203125 0.7230224609375 -0.1430816650390625
0.4738006591796875 0.7213134765625 -0.0878753662109375
0.60992431640625 0.617919921875 -0.051422119140625
0.620880126953125 0.6158447265625 -0.101776123046875
0.6316375732421875 0.6046142578125 -0.1527099609375
0.6190032958984375 0.6240234375 -0.2128753662109375
0.5911102294921875 0.65380859375 -0.2278289794921875
0.5587005615234375 0.6751708984375 -0.2447967529296875
-0.517791748046875 0.164794921875 -0.5003662109375
-0.5527496337890625 0.1182861328125 -0.4781646728515625
-0.58447265625 0.075439453125 -0.45330810546875
-0.623626708984375 0.0445556640625 -0.3724212646484375
-0.6364898681640625 0.056884765625 -0.317718505859375
-0.6474151611328125 0.064208984375 -0.2594757080078125
-0.533111572265625 0.2418212890625 -0.33038330078125
-0.5171356201171875 0.2410888671875 -0.39666748046875
-0.5006103515625 0.2303466796875 -0.4575958251953125
0.572357177734375 0.5885009765625 -0.4166717529296875
0.5575103759765625 0.6373291015625 -0.3669586181640625
0.5399627685546875 0.6724853515625 -0.312591552734375
0.654693603515625 0.5587158203125 -0.257965087890625
0.6645050048828125 0.5260009765625 -0.306488037109375
0.6691741943359375 0.4910888671875 -0.34979248046875
0.6600341796875 0.474365234375 -0.3980255126953125
0.641845703125 0.4903564453125 -0.421478271484375
0.6157379150390625 0.5067138671875 -0.4433746337890625
-0.4671630859375 0.0115966796875 -0.6496429443359375
-0.5036163330078125 -0.02490234375 -0.6215667724609375
-0.5347747802734375 -0.0533447265625 -0.5918426513671875
-0.567352294921875 -0.05078125 -0.5454864501953125
-0.582305908203125 -0.024169921875 -0.5148773193359375
-0.5958099365234375 0.0040283203125 -0.473602294921875
-0.46527099609375 0.1875 -0.567352294921875
-0.4504241943359375 0.153564453125 -0.6135101318359375
-0.436859130859375 0.1114501953125 -0.6497650146484375
0.6761932373046875 0.4156494140625 -0.3927154541015625
0.6812591552734375 0.3486328125 -0.406524658203125
0.6830291748046875 0.2718505859375 -0.420623779296875
0.651824951171875 0.165283203125 -0.46905517578125
0.62457275390625 0.15283203125 -0.5022430419921875
0.5975799560546875 0.1483154296875 -0.5334930419921875
0.5835418701171875 0.2486572265625 -0.5518035888671875
0.5909271240234375 0.34912109375 -0.5308837890625
0.590728759765625 0.4434814453125 -0.5009002685546875
-0.4229583740234375 -0.0120849609375 -0.6805877685546875
-0.4209136962890625 -0.09033203125 -0.6760406494140625
-0.4183197021484375 -0.169189453125 -0.6586761474609375
-0.4551544189453125 -0.2691650390625 -0.5950927734375
-0.4945220947265625 -0.2840576171875 -0.556854248046875
-0.5331573486328125 -0.292724609375 -0.520538330078125
-0.5692596435546875 -0.2283935546875 -0.514862060546875
-0.5648651123046875 -0.167236328125 -0.5386810302734375
-0.55975341796875 -0.1124267578125 -0.5555572509765625
0.5428009033203125 0.1485595703125 -0.5909423828125
0.51300048828125 0.153076171875 -0.6207733154296875
0.4772796630859375 0.15234375 -0.6533355712890625
0.4618988037109375 0.587158203125 -0.503631591796875
0.5085601806640625 0.5703125 -0.4872894287109375
0.548492431640625 0.5479736328125 -0.473907470703125
-0.388671875 0.106689453125 -0.68841552734375
-0.3463134765625 0.1607666015625 -0.6972198486328125
-0.2962799072265625 0.215576171875 -0.7034454345703125
-0.28009033203125 -0.1595458984375 -0.7289581298828125
-0.3318634033203125 -0.193359375 -0.6979217529296875
-0.375274658203125 -0.2235107421875 -0.665435791015625
0.3741607666015625 0.76611328125 -0.2616424560546875
0.43023681640625 0.7479248046875 -0.2605743408203125
0.479339599609375 0.7247314453125 -0.2602386474609375
-0.450439453125 0.2647705078125 -0.516693115234375
-0.415557861328125 0.323974609375 -0.5107421875
-0.3746185302734375 0.385986328125 -0.49822998046875
0.30438232421875 0.76513671875 -0.0044403076171875
0.3643035888671875 0.7490234375 -0.01568603515625
0.4173431396484375 0.7266845703125 -0.02850341796875
-0.5191192626953125 0.2843017578125 -0.2541656494140625
-0.4903411865234375 0.337890625 -0.23834228515625
-0.4554595947265625 0.3956298828125 -0.2137298583984375
0.2292938232421875 0.7374267578125 0.067413330078125
0.2285919189453125 0.6971435546875 0.129913330078125
0.2313995361328125 0.6583251953125 0.1878814697265625
0.3039093017578125 0.6298828125 0.2240753173828125
0.3600311279296875 0.622802734375 0.2071075439453125
0.40570068359375 0.61279296875 0.193115234375
-0.5570526123046875 0.1981201171875 0.051910400390625
-0.529052734375 0.2391357421875 0.0690765380859375
-0.492431640625 0.2835693359375 0.09320068359375
-0.4391021728515625 0.35546875 0.0580596923828125
-0.4310150146484375 0.390380859375 -0.0170440673828125
-0.422882080078125 0.4256591796875 -0.1000823974609375
0.2380828857421875 0.61865234375 0.28216552734375
0.2387542724609375 0.623046875 0.317108154296875
0.2365875244140625 0.64013671875 0.3466949462890625
-0.4845733642578125 0.3245849609375 0.2324981689453125
-0.4690704345703125 0.314697265625 0.2067108154296875
-0.4566192626953125 0.3155517578125 0.1716766357421875
-0.1217498779296875 0.63916015625 0.027008056640625
-0.1280517578125 0.6007080078125 0.110382080078125
-0.1301422119140625 0.5606689453125 0.1971893310546875
-0.025360107421875 0.5660400390625 0.2730865478515625
0.0679931640625 0.5980224609375 0.261444091796875
0.15625 0.619140625 0.25146484375
-0.3861083984375 0.3792724609375 0.1554107666015625
-0.3128509521484375 0.42919921875 0.1938018798828125
-0.230438232421875 0.47705078125 0.236053466796875
0.157806396484375 0.6358642578125 0.3703155517578125
0.093536376953125 0.6029052734375 0.373046875
0.0316162109375 0.5645751953125 0.3826751708984375
-0.300689697265625 0.4212646484375 0.3271484375
-0.364898681640625 0.4014892578125 0.2954864501953125
-0.430908203125 0.3790283203125 0.2694549560546875
-0.070098876953125 0.51806640625 0.33172607421875
-0.0407867431640625 0.5179443359375 0.3578033447265625
-0.0263671875 0.5189208984375 0.3807220458984375
-0.2293548583984375 0.4332275390625 0.3495635986328125
-0.21441650390625 0.4443359375 0.33203125
-0.187591552734375 0.468505859375 0.31396484375
-0.127777099609375 0.484375 0.339752197265625
-0.1234283447265625 0.463623046875 0.367095947265625
-0.1198883056640625 0.448486328125 0.390228271484375
0.650421142578125 0.4014892578125 0.08306884765625
0.6259613037109375 0.4622802734375 0.117401123046875
0.5945587158203125 0.51318359375 0.1511077880859375
-0.6756744384765625 0.0015869140625 0.0521697998046875
-0.6822509765625 -0.052001953125 0.0417938232421875
-0.68304443359375 -0.1102294921875 0.0354156494140625
0.6746368408203125 0.3359375 0.0125274658203125
0.6813201904296875 0.3414306640625 -0.02435302734375
0.6872100830078125 0.3477783203125 -0.0609893798828125
0.678955078125 0.4307861328125 -0.07098388671875
0.656524658203125 0.502197265625 -0.0402069091796875
0.6290435791015625 0.563720703125 -0.01611328125
-0.6701812744140625 0.0111083984375 -0.1866455078125
-0.6781768798828125 -0.0489501953125 -0.1791839599609375
-0.6806793212890625 -0.1109619140625 -0.1736907958984375
-0.677825927734375 -0.1749267578125 -0.1120147705078125
-0.6790771484375 -0.173583984375 -0.063385009765625
-0.67779541015625 -0.172607421875 -0.0144805908203125
0.6976776123046875 0.3724365234375 -0.1368255615234375
0.701416015625 0.3759765625 -0.1696319580078125
0.705352783203125 0.369384765625 -0.20501708984375
0.695526123046875 0.4034423828125 -0.2331085205078125
0.6804046630859375 0.466552734375 -0.2185821533203125
0.66326904296875 0.529541015625 -0.207672119140625
-0.6265716552734375 -0.0255126953125 -0.3984222412109375
-0.637298583984375 -0.084716796875 -0.3762969970703125
-0.64483642578125 -0.1402587890625 -0.3575439453125
-0.660552978515625 -0.171630859375 -0.3025970458984375
-0.6676788330078125 -0.163330078125 -0.2626495361328125
-0.672943115234375 -0.16650390625 -0.219512939453125
0.7104034423828125 0.335693359375 -0.2923126220703125
0.707122802734375 0.3043212890625 -0.3373565673828125
0.70001220703125 0.2596435546875 -0.38360595703125
-0.602447509765625 -0.251708984375 -0.460845947265625
-0.6221923828125 -0.220947265625 -0.4298553466796875
-0.638336181640625 -0.1998291015625 -0.3916778564453125
0.3459014892578125 -0.2384033203125 0.154266357421875
0.3133087158203125 -0.292236328125 0.1643524169921875
0.2817840576171875 -0.33935546875 0.186431884765625
0.292724609375 -0.4293212890625 -0.1613922119140625
0.3303680419921875 -0.3826904296875 -0.16680908203125
0.3651275634765625 -0.3385009765625 -0.17205810546875
0.39642333984375 -0.279052734375 -0.096771240234375
0.3954315185546875 -0.248779296875 -0.0159759521484375
0.3936614990234375 -0.211669921875 0.0638580322265625
-0.31195068359375 -0.4210205078125 0.1893463134765625
-0.324005126953125 -0.4603271484375 0.111541748046875
-0.3317718505859375 -0.4932861328125 0.0316009521484375
-0.306060791015625 -0.532470703125 -0.0483856201171875
-0.2733001708984375 -0.5540771484375 -0.0482940673828125
-0.2381439208984375 -0.57373046875 -0.0508575439453125
-0.1560516357421875 -0.454345703125 0.28936767578125
-0.200164794921875 -0.43115234375 0.274658203125
-0.2419891357421875 -0.40234375 0.270050048828125
0.5515289306640625 -0.1427001953125 -0.1260528564453125
0.56402587890625 -0.1024169921875 -0.078216552734375
0.58270263671875 -0.05029296875 -0.02996826171875
0.54974365234375 -0.0316162109375 0.0567169189453125
0.4976043701171875 -0.076416015625 0.0860443115234375
0.4431915283203125 -0.1209716796875 0.1168060302734375
0.4351348876953125 -0.260498046875 -0.177703857421875
0.4720916748046875 -0.227783203125 -0.1782684326171875
0.50946044921875 -0.199951171875 -0.1781463623046875
-0.451568603515625 -0.490234375 -0.0361480712890625
-0.41290283203125 -0.4949951171875 -0.042724609375
-0.3751220703125 -0.503173828125 -0.046630859375
-0.3655853271484375 -0.3636474609375 0.2435302734375
-0.4285736083984375 -0.359619140625 0.2159576416015625
-0.489990234375 -0.357666015625 0.18829345703125
-0.5255584716796875 -0.39794921875 0.1061248779296875
-0.506561279296875 -0.433837890625 0.063690185546875
-0.4938507080078125 -0.461181640625 0.0206451416015625
0.3989105224609375 -0.017822265625 0.33953857421875
0.4014434814453125 -0.058837890625 0.2834625244140625
0.3984375 -0.107666015625 0.2238616943359375
-0.305938720703125 -0.31396484375 0.3400115966796875
-0.3108367919921875 -0.2684326171875 0.394805908203125
-0.3092803955078125 -0.231201171875 0.445831298828125
0.3519134521484375 -0.030029296875 0.404510498046875
0.3204498291015625 -0.062744140625 0.4209442138671875
0.2943115234375 -0.0877685546875 0.44049072265625
0.297210693359375 -0.1927490234375 0.36102294921875
0.3199310302734375 -0.182373046875 0.304473876953125
0.3484039306640625 -0.1763916015625 0.239593505859375
-0.237060546875 -0.341552734375 0.3483428955078125
-0.193115234375 -0.326171875 0.4047088623046875
-0.1531982421875 -0.3179931640625 0.454071044921875
