# XYZ point cloud file
1.0960617065429688 0.0140380859375 -0.39990234375
-1.0473251342773438 -0.43304443359375 -0.4654541015625
-1.0342025756835938 -0.429443359375 -0.46142578125
-1.0453033447265625 -0.39617919921875 -0.510498046875
-1.0599441528320312 -0.4390869140625 -0.47210693359375
-1.0401229858398438 -0.46527099609375 -0.417388916015625
-1.0277099609375 -0.46038818359375 -0.414642333984375
-1.0327911376953125 -0.39599609375 -0.5042724609375
-1.057647705078125 -0.4010009765625 -0.519195556640625
-1.0525283813476562 -0.47247314453125 -0.423187255859375
0.97011566162109375 -0.133056640625 -0.363555908203125
1.0141067504882812 -0.09222412109375 -0.380828857421875
0.9649658203125 -0.122314453125 -0.35943603515625
0.9229736328125 -0.1636962890625 -0.33990478515625
0.97621917724609375 -0.1439208984375 -0.371917724609375
1.0225830078125 -0.10052490234375 -0.388153076171875
1.0059814453125 -0.08538818359375 -0.376983642578125
0.9202880859375 -0.151611328125 -0.33642578125
0.92571258544921875 -0.177734375 -0.348968505859375
-0.9647369384765625 -0.5205078125 -0.274200439453125
-0.957061767578125 -0.510986328125 -0.2779541015625
-0.99837493896484375 -0.510009765625 -0.320953369140625
-0.9726409912109375 -0.5308837890625 -0.276519775390625
-0.92539215087890625 -0.52117919921875 -0.227325439453125
-0.92020416259765625 -0.5111083984375 -0.232574462890625
-0.98844146728515625 -0.5013427734375 -0.32318115234375
-1.0084686279296875 -0.51953125 -0.323150634765625
-0.93065643310546875 -0.5333251953125 -0.228302001953125
0.77556610107421875 -0.20306396484375 -0.2357177734375
0.823699951171875 -0.197509765625 -0.273651123046875
0.78200531005859375 -0.18707275390625 -0.235687255859375
0.730377197265625 -0.20599365234375 -0.202392578125
0.77037811279296875 -0.22052001953125 -0.242767333984375
0.82080078125 -0.2139892578125 -0.281341552734375
0.8272857666015625 -0.18133544921875 -0.27227783203125
0.7397003173828125 -0.18890380859375 -0.20343017578125
0.722686767578125 -0.2236328125 -0.208251953125
-0.78755950927734375 -0.49017333984375 -0.100921630859375
-0.79138946533203125 -0.4805908203125 -0.1097412109375
-0.8349609375 -0.507080078125 -0.13897705078125
-0.78491973876953125 -0.5023193359375 -0.10064697265625
-0.74160003662109375 -0.4735107421875 -0.070098876953125
-0.74846649169921875 -0.4637451171875 -0.0794677734375
-0.83573150634765625 -0.49639892578125 -0.146392822265625
-0.835174560546875 -0.51849365234375 -0.139068603515625
-0.736358642578125 -0.48504638671875 -0.068756103515625
0.80269622802734375 -0.1553955078125 -0.263519287109375
0.84058380126953125 -0.15191650390625 -0.294525146484375
0.80912017822265625 -0.151123046875 -0.277740478515625
0.76799774169921875 -0.1558837890625 -0.235565185546875
0.795684814453125 -0.16302490234375 -0.2510986328125
0.83612823486328125 -0.15875244140625 -0.283538818359375
0.84503173828125 -0.14886474609375 -0.307464599609375
0.77599334716796875 -0.15130615234375 -0.25054931640625
0.7589569091796875 -0.16375732421875 -0.22198486328125
-0.80635833740234375 -0.468017578125 -0.160186767578125
-0.8114776611328125 -0.4686279296875 -0.17938232421875
-0.84210968017578125 -0.48126220703125 -0.195159912109375
-0.80098724365234375 -0.4688720703125 -0.141265869140625
-0.77234649658203125 -0.452392578125 -0.132965087890625
-0.77916717529296875 -0.45416259765625 -0.153656005859375
-0.84496307373046875 -0.481201171875 -0.213653564453125
-0.83971405029296875 -0.4833984375 -0.17669677734375
-0.76454925537109375 -0.453125 -0.11309814453125
0.956085205078125 -0.1064453125 -0.372589111328125
0.99066925048828125 -0.07440185546875 -0.3883056640625
0.9560394287109375 -0.104736328125 -0.381683349609375
0.91835784912109375 -0.12921142578125 -0.351837158203125
0.9577178955078125 -0.10931396484375 -0.364501953125
0.99393463134765625 -0.07598876953125 -0.381256103515625
0.9893798828125 -0.07489013671875 -0.39691162109375
0.91959381103515625 -0.12689208984375 -0.362335205078125
0.91783905029296875 -0.13360595703125 -0.3431396484375
-0.9416351318359375 -0.49774169921875 -0.310791015625
-0.9395599365234375 -0.498291015625 -0.325042724609375
-0.9675445556640625 -0.49066162109375 -0.349578857421875
-0.9449462890625 -0.499267578125 -0.29736328125
-0.91139984130859375 -0.49639892578125 -0.27142333984375
-0.91075897216796875 -0.49688720703125 -0.287353515625
-0.9646453857421875 -0.4913330078125 -0.361328125
-0.972503662109375 -0.49169921875 -0.338714599609375
-0.91294097900390625 -0.4984130859375 -0.25579833984375
1.064544677734375 0.05560302734375 -0.400543212890625
1.07672119140625 0.105224609375 -0.397186279296875
1.0605621337890625 0.0484619140625 -0.409210205078125
1.0460891723632812 0.007568359375 -0.4013671875
1.0709075927734375 0.0631103515625 -0.394012451171875
1.083770751953125 0.11602783203125 -0.390289306640625
1.0724258422851562 0.09490966796875 -0.40618896484375
1.04266357421875 0.003173828125 -0.409393310546875
1.0517196655273438 0.011474609375 -0.39471435546875
-1.00616455078125 -0.432861328125 -0.46441650390625
-1.0018157958984375 -0.43731689453125 -0.469940185546875
-1.0051727294921875 -0.40582275390625 -0.5001220703125
-1.0129241943359375 -0.4295654296875 -0.4608154296875
-1.0006256103515625 -0.4569091796875 -0.426361083984375
-0.99639129638671875 -0.4598388671875 -0.434173583984375
-1.0011215209960938 -0.41192626953125 -0.50347900390625
-1.0117874145507812 -0.40045166015625 -0.499114990234375
-1.0071868896484375 -0.4559326171875 -0.41998291015625
1.0717315673828125 0.22802734375 -0.3826904296875
1.0560760498046875 0.2554931640625 -0.3758544921875
1.0681838989257812 0.20904541015625 -0.3924560546875
1.0802764892578125 0.19305419921875 -0.3878173828125
1.0773544311523438 0.247802734375 -0.3741455078125
1.0608291625976562 0.2763671875 -0.366546630859375
1.0538482666015625 0.2353515625 -0.3863525390625
1.0763015747070312 0.1768798828125 -0.397430419921875
1.0868911743164062 0.21026611328125 -0.379486083984375
-0.9681396484375 -0.31884765625 -0.582275390625
-0.9659423828125 -0.3304443359375 -0.58038330078125
-0.94615936279296875 -0.29241943359375 -0.5958251953125
-0.972076416015625 -0.3074951171875 -0.586334228515625
-0.98569488525390625 -0.34625244140625 -0.560089111328125
-0.98260498046875 -0.3558349609375 -0.559783935546875
-0.94475555419921875 -0.30584716796875 -0.593658447265625
-0.94872283935546875 -0.27978515625 -0.600830078125
-0.9906463623046875 -0.3369140625 -0.562774658203125
0.97423553466796875 0.28302001953125 -0.342498779296875
0.94167327880859375 0.27801513671875 -0.329071044921875
0.9749755859375 0.26116943359375 -0.354278564453125
1.0061492919921875 0.28253173828125 -0.355712890625
0.97550201416015625 0.30596923828125 -0.332366943359375
0.941070556640625 0.300537109375 -0.31787109375
0.94347381591796875 0.25592041015625 -0.341949462890625
1.0054397583007812 0.260986328125 -0.3673095703125
1.0088119506835938 0.30523681640625 -0.345794677734375
-0.86812591552734375 -0.2344970703125 -0.57342529296875
-0.86894989013671875 -0.25018310546875 -0.57232666015625
-0.84262847900390625 -0.222900390625 -0.549530029296875
-0.867523193359375 -0.218505859375 -0.577728271484375
-0.8950653076171875 -0.25042724609375 -0.591461181640625
-0.89519500732421875 -0.265625 -0.58966064453125
-0.84418487548828125 -0.23876953125 -0.549774169921875
-0.841278076171875 -0.2064208984375 -0.552459716796875
-0.8954315185546875 -0.2344970703125 -0.596527099609375
0.85945892333984375 0.24951171875 -0.28924560546875
0.855377197265625 0.268798828125 -0.27813720703125
0.8387298583984375 0.23712158203125 -0.2789306640625
0.86432647705078125 0.2305908203125 -0.3023681640625
0.8836212158203125 0.26025390625 -0.3017578125
0.880706787109375 0.28094482421875 -0.290618896484375
0.83368682861328125 0.254638671875 -0.2677001953125
0.84371185302734375 0.2193603515625 -0.291748046875
0.8874969482421875 0.24017333984375 -0.314788818359375
-0.7826080322265625 -0.2010498046875 -0.470489501953125
-0.76824951171875 -0.19793701171875 -0.446746826171875
-0.77877044677734375 -0.18402099609375 -0.469818115234375
-0.79930877685546875 -0.20538330078125 -0.496673583984375
-0.7854766845703125 -0.2174072265625 -0.4742431640625
-0.77196502685546875 -0.21453857421875 -0.451141357421875
-0.7635345458984375 -0.18121337890625 -0.4447021484375
-0.7963714599609375 -0.18902587890625 -0.496612548828125
-0.80194854736328125 -0.22186279296875 -0.49969482421875
0.5883941650390625 -0.1412353515625 -0.098907470703125
0.56851959228515625 -0.15753173828125 -0.081939697265625
0.58013916015625 -0.170166015625 -0.1251220703125
0.60161590576171875 -0.1282958984375 -0.117034912109375
0.60373687744140625 -0.1007080078125 -0.0733642578125
0.5878448486328125 -0.11041259765625 -0.045684814453125
0.55615234375 -0.1920166015625 -0.117523193359375
0.59775543212890625 -0.1524658203125 -0.13812255859375
0.61269378662109375 -0.093994140625 -0.096771240234375
-0.59130096435546875 -0.36724853515625 -0.01812744140625
-0.5847930908203125 -0.39031982421875 -0.037506103515625
-0.57273101806640625 -0.37255859375 0.005218505859375
-0.60504150390625 -0.33935546875 -0.00390625
-0.60340118408203125 -0.36346435546875 -0.043060302734375
-0.60106658935546875 -0.383544921875 -0.057281494140625
-0.5627288818359375 -0.39910888671875 -0.023193359375
-0.5897369384765625 -0.33831787109375 0.03076171875
-0.61334991455078125 -0.33843994140625 -0.034637451171875
0.62001800537109375 -0.2059326171875 -0.158477783203125
0.60398101806640625 -0.22576904296875 -0.1629638671875
0.65076446533203125 -0.2061767578125 -0.1636962890625
0.63753509521484375 -0.1864013671875 -0.163848876953125
0.5957794189453125 -0.20111083984375 -0.154327392578125
0.57447052001953125 -0.22479248046875 -0.157012939453125
0.638397216796875 -0.22607421875 -0.168731689453125
0.66605377197265625 -0.18731689453125 -0.167877197265625
0.61585235595703125 -0.18017578125 -0.161773681640625
-0.62857818603515625 -0.43341064453125 -0.048797607421875
-0.66048431396484375 -0.444091796875 -0.0457763671875
-0.61460113525390625 -0.444580078125 -0.047576904296875
-0.60378265380859375 -0.42266845703125 -0.0531005859375
-0.6444091796875 -0.42376708984375 -0.06011962890625
-0.67366790771484375 -0.43597412109375 -0.05633544921875
-0.6499176025390625 -0.45501708984375 -0.044586181640625
-0.5842437744140625 -0.4346923828125 -0.050567626953125
-0.6219482421875 -0.41278076171875 -0.06744384765625
0.66660308837890625 0.08941650390625 -0.03680419921875
0.660552978515625 0.08941650390625 -0.001007080078125
0.64612579345703125 0.0155029296875 -0.04229736328125
0.66922760009765625 0.088134765625 -0.067657470703125
0.68096923828125 0.1658935546875 -0.030120849609375
0.6743011474609375 0.16436767578125 0.004852294921875
0.63774871826171875 0.01507568359375 -0.00506591796875
0.64905548095703125 0.015380859375 -0.07257080078125
0.6852569580078125 0.16680908203125 -0.062744140625
-0.6680145263671875 -0.2178955078125 -0.0533447265625
-0.64612579345703125 -0.26422119140625 -0.0223388671875
-0.66492462158203125 -0.21148681640625 -0.009490966796875
-0.68621826171875 -0.16741943359375 -0.08746337890625
-0.667205810546875 -0.222900390625 -0.09161376953125
-0.6474151611328125 -0.26922607421875 -0.0589599609375
-0.63912200927734375 -0.25714111328125 0.022705078125
-0.684967041015625 -0.16162109375 -0.041259765625
-0.68502044677734375 -0.1722412109375 -0.129638671875
0.7595367431640625 0.23980712890625 -0.239471435546875
0.74431610107421875 0.22357177734375 -0.23260498046875
0.76500701904296875 0.23077392578125 -0.238311767578125
0.77735137939453125 0.2586669921875 -0.244964599609375
0.7545013427734375 0.24334716796875 -0.246856689453125
0.73854827880859375 0.23187255859375 -0.237335205078125
0.7498779296875 0.21185302734375 -0.233612060546875
0.78252410888671875 0.24993896484375 -0.24322509765625
0.77274322509765625 0.26141357421875 -0.253662109375
-0.70294952392578125 -0.15679931640625 -0.393280029296875
-0.71051025390625 -0.16650390625 -0.386383056640625
-0.69258880615234375 -0.1622314453125 -0.37298583984375
-0.69474029541015625 -0.15191650390625 -0.40460205078125
-0.7158050537109375 -0.1517333984375 -0.414154052734375
-0.72341156005859375 -0.16082763671875 -0.40625
-0.6995391845703125 -0.17327880859375 -0.367401123046875
-0.68459320068359375 -0.15350341796875 -0.3839111328125
-0.7077484130859375 -0.1480712890625 -0.4263916015625
0.6891326904296875 -0.1556396484375 -0.207305908203125
0.7106781005859375 -0.15570068359375 -0.206512451171875
0.7028045654296875 -0.15411376953125 -0.224884033203125
0.673492431640625 -0.15423583984375 -0.212432861328125
0.67351531982421875 -0.160400390625 -0.190643310546875
0.69683837890625 -0.1619873046875 -0.19085693359375
0.722137451171875 -0.15228271484375 -0.223968505859375
0.688568115234375 -0.15447998046875 -0.231292724609375
0.65496826171875 -0.15618896484375 -0.193450927734375
-0.6928558349609375 -0.42340087890625 -0.118316650390625
-0.70563507080078125 -0.4288330078125 -0.1380615234375
-0.71424102783203125 -0.4306640625 -0.11187744140625
-0.677520751953125 -0.42010498046875 -0.09765625
-0.6758880615234375 -0.41741943359375 -0.1297607421875
-0.69072723388671875 -0.42486572265625 -0.149017333984375
-0.72510528564453125 -0.4345703125 -0.13232421875
-0.70203399658203125 -0.429443359375 -0.092071533203125
-0.6580963134765625 -0.410888671875 -0.108642578125
0.66004180908203125 -0.13336181640625 -0.2301025390625
0.66292572021484375 -0.1212158203125 -0.23455810546875
0.64231109619140625 -0.12713623046875 -0.210601806640625
0.65920257568359375 -0.143798828125 -0.225189208984375
0.67761993408203125 -0.1390380859375 -0.248321533203125
0.6809234619140625 -0.1282958984375 -0.25201416015625
0.64546966552734375 -0.112060546875 -0.21612548828125
0.640655517578125 -0.1396484375 -0.204864501953125
0.67676544189453125 -0.14703369140625 -0.244384765625
-0.65843963623046875 -0.39801025390625 -0.16650390625
-0.64087677001953125 -0.3856201171875 -0.149993896484375
-0.6592254638671875 -0.39007568359375 -0.178680419921875
-0.6762542724609375 -0.41064453125 -0.18255615234375
-0.659759521484375 -0.40545654296875 -0.1552734375
-0.64122772216796875 -0.39434814453125 -0.13592529296875
-0.64138031005859375 -0.37640380859375 -0.16436767578125
-0.67760467529296875 -0.4036865234375 -0.192535400390625
-0.6768341064453125 -0.41595458984375 -0.172607421875
0.67446136474609375 -0.0853271484375 -0.257904052734375
0.66290283203125 -0.07647705078125 -0.250457763671875
0.670806884765625 -0.096923828125 -0.248626708984375
0.6884307861328125 -0.09100341796875 -0.2667236328125
0.6775360107421875 -0.0767822265625 -0.267974853515625
0.668212890625 -0.06939697265625 -0.26373291015625
0.65641021728515625 -0.08514404296875 -0.236236572265625
0.68695068359375 -0.1025390625 -0.26068115234375
0.6888580322265625 -0.0819091796875 -0.273193359375
-0.66259765625 -0.37005615234375 -0.22607421875
-0.662078857421875 -0.37548828125 -0.208740234375
-0.64954376220703125 -0.3577880859375 -0.224609375
-0.6626434326171875 -0.3656005859375 -0.241912841796875
-0.67667388916015625 -0.38006591796875 -0.230377197265625
-0.67836761474609375 -0.38836669921875 -0.216827392578125
-0.646331787109375 -0.36090087890625 -0.202545166015625
-0.6521148681640625 -0.35546875 -0.2430419921875
-0.6743011474609375 -0.37353515625 -0.244140625
0.6736907958984375 -0.0081787109375 -0.246490478515625
0.68878173828125 0.0225830078125 -0.2490234375
0.6670684814453125 -0.00213623046875 -0.228118896484375
0.66225433349609375 -0.037109375 -0.24432373046875
0.680938720703125 -0.011474609375 -0.262054443359375
0.6959228515625 0.01458740234375 -0.263824462890625
0.6829376220703125 0.03399658203125 -0.231353759765625
0.654052734375 -0.0372314453125 -0.225189208984375
0.66948699951171875 -0.036376953125 -0.261199951171875
-0.65052032470703125 -0.3095703125 -0.257049560546875
-0.64623260498046875 -0.3011474609375 -0.239013671875
-0.6612396240234375 -0.2928466796875 -0.276153564453125
-0.65575408935546875 -0.317138671875 -0.27301025390625
-0.6430511474609375 -0.3271484375 -0.2403564453125
-0.6381378173828125 -0.322998046875 -0.217926025390625
-0.6570587158203125 -0.281494140625 -0.261688232421875
-0.66658782958984375 -0.3018798828125 -0.289703369140625
-0.6481781005859375 -0.3304443359375 -0.25946044921875
0.73175811767578125 0.10333251953125 -0.25372314453125
0.7247467041015625 0.119384765625 -0.2412109375
0.71881103515625 0.07916259765625 -0.25299072265625
0.73919677734375 0.09027099609375 -0.265625
0.74452972412109375 0.12554931640625 -0.254638671875
0.736785888671875 0.14105224609375 -0.242950439453125
0.71244049072265625 0.094970703125 -0.238677978515625
0.7261199951171875 0.06744384765625 -0.265594482421875
0.75206756591796875 0.1116943359375 -0.26568603515625
-0.69210052490234375 -0.2471923828125 -0.32708740234375
-0.6828460693359375 -0.26055908203125 -0.311859130859375
-0.6866302490234375 -0.23175048828125 -0.3204345703125
-0.701141357421875 -0.2359619140625 -0.341278076171875
-0.698516845703125 -0.2613525390625 -0.33441162109375
-0.68869781494140625 -0.2733154296875 -0.320526123046875
-0.6778411865234375 -0.24639892578125 -0.303070068359375
-0.69469451904296875 -0.22021484375 -0.336181640625
-0.70775604248046875 -0.2491455078125 -0.34765625
0.78621673583984375 0.18743896484375 -0.259674072265625
0.778472900390625 0.20294189453125 -0.249481201171875
0.7712554931640625 0.16796875 -0.25653076171875
0.79328155517578125 0.1717529296875 -0.2711181640625
0.80220794677734375 0.2056884765625 -0.2635498046875
0.7952423095703125 0.22186279296875 -0.25372314453125
0.76355743408203125 0.18280029296875 -0.247100830078125
0.778961181640625 0.154052734375 -0.2679443359375
0.8089752197265625 0.190185546875 -0.275787353515625
-0.73134613037109375 -0.2083740234375 -0.387542724609375
-0.7203826904296875 -0.21661376953125 -0.371307373046875
-0.724517822265625 -0.19366455078125 -0.38446044921875
-0.74274444580078125 -0.20263671875 -0.405029296875
-0.73699188232421875 -0.2232666015625 -0.392425537109375
-0.72696685791015625 -0.2305908203125 -0.376495361328125
-0.7132415771484375 -0.20135498046875 -0.3675537109375
-0.736724853515625 -0.187255859375 -0.40203857421875
-0.74813079833984375 -0.21807861328125 -0.410247802734375
0.71575164794921875 0.18994140625 -0.19549560546875
0.707916259765625 0.17376708984375 -0.180572509765625
0.7173309326171875 0.1617431640625 -0.21185302734375
0.72309112548828125 0.2003173828125 -0.210296630859375
0.71390533447265625 0.22503662109375 -0.1776123046875
0.70885467529296875 0.21502685546875 -0.15435791015625
0.70732879638671875 0.14111328125 -0.203094482421875
0.72620391845703125 0.17828369140625 -0.220611572265625
0.718963623046875 0.22637939453125 -0.202178955078125
-0.68276214599609375 -0.173828125 -0.304443359375
-0.68190765380859375 -0.19683837890625 -0.308563232421875
-0.6813812255859375 -0.1822509765625 -0.2764892578125
-0.68393707275390625 -0.14544677734375 -0.3028564453125
-0.68379974365234375 -0.169677734375 -0.329376220703125
-0.68609619140625 -0.18780517578125 -0.32928466796875
-0.677001953125 -0.2076416015625 -0.285186767578125
-0.68683624267578125 -0.1507568359375 -0.26812744140625
-0.680450439453125 -0.1474609375 -0.33404541015625
0.66362762451171875 0.04541015625 -0.153656005859375
0.66622161865234375 0.06573486328125 -0.12493896484375
0.6456146240234375 -0.0086669921875 -0.15228271484375
0.661712646484375 0.02569580078125 -0.18145751953125
0.6814727783203125 0.1004638671875 -0.158660888671875
0.68480682373046875 0.1334228515625 -0.1273193359375
0.64705657958984375 0.00347900390625 -0.126007080078125
0.6456451416015625 -0.02264404296875 -0.17840576171875
0.6788330078125 0.07269287109375 -0.18695068359375
-0.65142059326171875 -0.260009765625 -0.17742919921875
-0.637359619140625 -0.2933349609375 -0.1461181640625
-0.65789794921875 -0.243896484375 -0.1531982421875
-0.6654815673828125 -0.22723388671875 -0.2109375
-0.646575927734375 -0.2763671875 -0.19891357421875
-0.63495635986328125 -0.30474853515625 -0.170196533203125
-0.64147186279296875 -0.2823486328125 -0.119476318359375
-0.673553466796875 -0.20220947265625 -0.19085693359375
-0.6590576171875 -0.2484130859375 -0.229248046875
0.61820220947265625 -0.1044921875 -0.1580810546875
0.61454010009765625 -0.111083984375 -0.147491455078125
0.61981201171875 -0.1124267578125 -0.172332763671875
0.62169647216796875 -0.08685302734375 -0.155029296875
0.6194000244140625 -0.0863037109375 -0.136199951171875
0.61597442626953125 -0.126220703125 -0.1644287109375
0.6244964599609375 -0.0936279296875 -0.175567626953125
-0.61660003662109375 -0.35516357421875 -0.102691650390625
-0.61838531494140625 -0.3638916015625 -0.11541748046875
-0.614013671875 -0.35760498046875 -0.086517333984375
-0.61865997314453125 -0.34326171875 -0.1077880859375
-0.6208343505859375 -0.35076904296875 -0.129852294921875
-0.61632537841796875 -0.371826171875 -0.098876953125
-0.617919921875 -0.33978271484375 -0.085235595703125
0.808319091796875 0.1383056640625 -0.307464599609375
0.804290771484375 0.14788818359375 -0.295928955078125
0.79427337646484375 0.12152099609375 -0.303802490234375
0.8126678466796875 0.12884521484375 -0.31866455078125
0.8232879638671875 0.153076171875 -0.31304931640625
0.81920623779296875 0.16339111328125 -0.301483154296875
0.79009246826171875 0.1304931640625 -0.292022705078125
0.79846954345703125 0.11151123046875 -0.314666748046875
0.82831573486328125 0.14324951171875 -0.323638916015625
-0.74646759033203125 -0.25823974609375 -0.415435791015625
-0.73699188232421875 -0.26373291015625 -0.399688720703125
-0.74423980712890625 -0.24810791015625 -0.407379150390625
-0.756622314453125 -0.254638671875 -0.432708740234375
-0.74964141845703125 -0.26898193359375 -0.422607421875
-0.7401885986328125 -0.27374267578125 -0.406585693359375
-0.7345733642578125 -0.254150390625 -0.3912353515625
-0.754425048828125 -0.244140625 -0.4248046875
-0.76021575927734375 -0.26470947265625 -0.439666748046875
0.75489044189453125 0.06317138671875 -0.29962158203125
0.75093841552734375 0.07080078125 -0.288604736328125
0.7417449951171875 0.04248046875 -0.2991943359375
0.7590484619140625 0.05584716796875 -0.309326171875
0.7677001953125 0.08380126953125 -0.299591064453125
0.76389312744140625 0.0914306640625 -0.28863525390625
0.73760223388671875 0.0498046875 -0.28857421875
0.7456207275390625 0.03509521484375 -0.308441162109375
0.7721405029296875 0.07513427734375 -0.3099365234375
-0.70978546142578125 -0.28973388671875 -0.35992431640625
-0.70032501220703125 -0.30084228515625 -0.34832763671875
-0.7074127197265625 -0.28173828125 -0.351470947265625
-0.718719482421875 -0.2801513671875 -0.372222900390625
-0.71289825439453125 -0.2977294921875 -0.36676025390625
-0.70349884033203125 -0.3077392578125 -0.355224609375
-0.69759368896484375 -0.29241943359375 -0.33966064453125
-0.716461181640625 -0.27105712890625 -0.364044189453125
-0.72186279296875 -0.288818359375 -0.3790283203125
0.6966552734375 -0.02276611328125 -0.29815673828125
0.69235992431640625 -0.01806640625 -0.287872314453125
0.68465423583984375 -0.0413818359375 -0.297698974609375
0.7012786865234375 -0.02728271484375 -0.306640625
0.71178436279296875 -0.00042724609375 -0.298797607421875
0.70742034912109375 0.00439453125 -0.288543701171875
0.68035125732421875 -0.0382080078125 -0.28765869140625
0.6901092529296875 -0.0439453125 -0.30548095703125
0.71567535400390625 -0.0067138671875 -0.307464599609375
-0.66660308837890625 -0.3336181640625 -0.31170654296875
-0.65833282470703125 -0.34356689453125 -0.300628662109375
-0.66371917724609375 -0.32818603515625 -0.30120849609375
-0.677642822265625 -0.32159423828125 -0.323455810546875
-0.67035675048828125 -0.3382568359375 -0.319061279296875
-0.66277313232421875 -0.3477783203125 -0.308563232421875
-0.65526580810546875 -0.3392333984375 -0.289154052734375
-0.67488861083984375 -0.3154296875 -0.313812255859375
-0.68125152587890625 -0.32861328125 -0.33074951171875
0.6864013671875 -0.07098388671875 -0.29681396484375
0.68280792236328125 -0.0703125 -0.287750244140625
0.695526123046875 -0.07647705078125 -0.296966552734375
0.69139862060546875 -0.07177734375 -0.304931640625
0.67972564697265625 -0.06512451171875 -0.297119140625
0.67575836181640625 -0.064697265625 -0.28692626953125
0.6920013427734375 -0.0750732421875 -0.288330078125
0.7003326416015625 -0.07659912109375 -0.305084228515625
0.68541717529296875 -0.06488037109375 -0.30462646484375
-0.6658477783203125 -0.3668212890625 -0.281463623046875
-0.6764984130859375 -0.37408447265625 -0.27716064453125
-0.6636199951171875 -0.36383056640625 -0.270355224609375
-0.65802764892578125 -0.360107421875 -0.285736083984375
-0.6697235107421875 -0.369384765625 -0.291046142578125
-0.68039703369140625 -0.3768310546875 -0.2864990234375
-0.67375946044921875 -0.3709716796875 -0.267425537109375
-0.655487060546875 -0.35650634765625 -0.27386474609375
-0.66241455078125 -0.36285400390625 -0.294921875
0.7153472900390625 -0.1036376953125 -0.29608154296875
0.7095184326171875 -0.099853515625 -0.286285400390625
0.717041015625 -0.11712646484375 -0.29498291015625
0.7211456298828125 -0.10504150390625 -0.304718017578125
0.7113037109375 -0.0916748046875 -0.296844482421875
0.7061767578125 -0.08984375 -0.288116455078125
0.71063995361328125 -0.1129150390625 -0.284515380859375
0.7227783203125 -0.11865234375 -0.30426025390625
0.7166290283203125 -0.0924072265625 -0.3052978515625
-0.7037506103515625 -0.40374755859375 -0.255035400390625
-0.70827484130859375 -0.41455078125 -0.24542236328125
-0.69788360595703125 -0.3968505859375 -0.246185302734375
-0.6967010498046875 -0.391845703125 -0.264190673828125
-0.7086181640625 -0.4083251953125 -0.264007568359375
-0.71347808837890625 -0.4193115234375 -0.25433349609375
-0.7022247314453125 -0.4078369140625 -0.2359619140625
-0.69211578369140625 -0.38726806640625 -0.25543212890625
-0.7012786865234375 -0.396484375 -0.27313232421875
0.707275390625 -0.15264892578125 -0.291046142578125
0.70137786865234375 -0.1495361328125 -0.279327392578125
0.70439910888671875 -0.1595458984375 -0.287567138671875
0.712921142578125 -0.15380859375 -0.29937744140625
0.71195220947265625 -0.1424560546875 -0.293243408203125
0.70563507080078125 -0.139404296875 -0.28125
0.698638916015625 -0.1568603515625 -0.276397705078125
0.70958709716796875 -0.15997314453125 -0.29547119140625
0.717803955078125 -0.14404296875 -0.3018798828125
-0.70599365234375 -0.437744140625 -0.22100830078125
-0.7045135498046875 -0.441162109375 -0.21368408203125
-0.69989013671875 -0.43115234375 -0.2105712890625
-0.7086334228515625 -0.4317626953125 -0.22845458984375
-0.7109832763671875 -0.4412841796875 -0.229949951171875
-0.7092437744140625 -0.44482421875 -0.221893310546875
-0.69860076904296875 -0.43499755859375 -0.20306396484375
-0.70218658447265625 -0.4256591796875 -0.217926025390625
-0.71364593505859375 -0.43603515625 -0.237457275390625
0.72249603271484375 -0.1591796875 -0.26971435546875
0.71866607666015625 -0.15716552734375 -0.2568359375
0.739471435546875 -0.15496826171875 -0.268310546875
0.7259063720703125 -0.15911865234375 -0.28057861328125
0.71092987060546875 -0.162353515625 -0.27587890625
0.70648956298828125 -0.16009521484375 -0.2633056640625
0.7361297607421875 -0.15362548828125 -0.255218505859375
0.74245452880859375 -0.155029296875 -0.27947998046875
0.715179443359375 -0.16204833984375 -0.2850341796875
-0.72447967529296875 -0.44451904296875 -0.186676025390625
-0.7412109375 -0.44696044921875 -0.1826171875
-0.72087860107421875 -0.4404296875 -0.172515869140625
-0.712493896484375 -0.4442138671875 -0.1954345703125
-0.7271728515625 -0.44781494140625 -0.19903564453125
-0.7434234619140625 -0.448974609375 -0.19677734375
-0.738494873046875 -0.442626953125 -0.167999267578125
-0.70824432373046875 -0.439208984375 -0.182586669921875
-0.7162017822265625 -0.44696044921875 -0.205352783203125
0.8771820068359375 0.1888427734375 -0.340087890625
0.8730316162109375 0.2000732421875 -0.328521728515625
0.85733795166015625 0.17864990234375 -0.32904052734375
0.8821258544921875 0.1788330078125 -0.35009765625
0.8993377685546875 0.1973876953125 -0.3533935546875
0.895111083984375 0.2088623046875 -0.3424072265625
0.85308074951171875 0.1900634765625 -0.317352294921875
0.86234283447265625 0.16864013671875 -0.33892822265625
0.9041900634765625 0.187255859375 -0.3624267578125
-0.79363250732421875 -0.25665283203125 -0.495391845703125
-0.77978515625 -0.25347900390625 -0.472442626953125
-0.790924072265625 -0.24505615234375 -0.488067626953125
-0.80916595458984375 -0.26123046875 -0.51776123046875
-0.79734039306640625 -0.26605224609375 -0.500579833984375
-0.78369140625 -0.26348876953125 -0.4786376953125
-0.7772369384765625 -0.24249267578125 -0.46466064453125
-0.8065643310546875 -0.250244140625 -0.51165771484375
-0.8128814697265625 -0.2705078125 -0.522735595703125
0.98281097412109375 0.21514892578125 -0.389495849609375
0.979827880859375 0.226318359375 -0.37908935546875
0.95343017578125 0.2113037109375 -0.37677001953125
0.98514556884765625 0.2060546875 -0.397125244140625
1.0115127563476562 0.21649169921875 -0.400787353515625
1.0090713500976562 0.22808837890625 -0.39111328125
0.94957733154296875 0.2225341796875 -0.36669921875
0.95672607421875 0.20166015625 -0.384979248046875
1.012359619140625 0.20703125 -0.407684326171875
-0.87419891357421875 -0.28741455078125 -0.583404541015625
-0.85013580322265625 -0.27587890625 -0.563690185546875
-0.8723297119140625 -0.2774658203125 -0.578857421875
-0.8991241455078125 -0.30145263671875 -0.598236083984375
-0.876068115234375 -0.29571533203125 -0.58648681640625
-0.852813720703125 -0.28485107421875 -0.567474365234375
-0.847747802734375 -0.2662353515625 -0.558380126953125
-0.89775848388671875 -0.2919921875 -0.594329833984375
-0.89990234375 -0.30908203125 -0.600128173828125
1.0697555541992188 0.17169189453125 -0.422119140625
1.0686492919921875 0.1812744140625 -0.413330078125
1.0562057495117188 0.19366455078125 -0.4169921875
1.0679092407226562 0.16326904296875 -0.42681884765625
1.0775375366210938 0.14300537109375 -0.426239013671875
1.0765609741210938 0.15167236328125 -0.4180908203125
1.05499267578125 0.20440673828125 -0.408660888671875
1.0545883178710938 0.184814453125 -0.422088623046875
1.0752792358398438 0.1356201171875 -0.4310302734375
-0.9668121337890625 -0.35784912109375 -0.58905029296875
-0.94713592529296875 -0.33685302734375 -0.60089111328125
-0.9662017822265625 -0.35052490234375 -0.585479736328125
-0.98278045654296875 -0.38079833984375 -0.57061767578125
-0.96512603759765625 -0.36309814453125 -0.58917236328125
-0.9462127685546875 -0.3428955078125 -0.60089111328125
-0.9462890625 -0.32879638671875 -0.59759521484375
-0.982330322265625 -0.3739013671875 -0.566802978515625
-0.9810028076171875 -0.38507080078125 -0.571319580078125
1.061981201171875 0.0302734375 -0.43536376953125
1.0609664916992188 0.03472900390625 -0.427764892578125
1.073638916015625 0.0706787109375 -0.433380126953125
1.0597000122070312 0.02783203125 -0.438934326171875
1.04437255859375 -0.0103759765625 -0.434356689453125
1.0433502197265625 -0.00677490234375 -0.427276611328125
1.0726470947265625 0.0772705078125 -0.42535400390625
1.0713272094726562 0.066650390625 -0.437286376953125
1.0421905517578125 -0.01123046875 -0.4381103515625
-1.001220703125 -0.45294189453125 -0.489410400390625
-1.0008010864257812 -0.42962646484375 -0.5203857421875
-1.0006103515625 -0.448974609375 -0.48358154296875
-0.995941162109375 -0.47314453125 -0.45733642578125
-0.998443603515625 -0.45379638671875 -0.49267578125
-0.99819183349609375 -0.431884765625 -0.522369384765625
-1.000244140625 -0.42510986328125 -0.514862060546875
-0.995269775390625 -0.46929931640625 -0.450714111328125
-0.9928131103515625 -0.473388671875 -0.4617919921875
0.96012115478515625 -0.10943603515625 -0.4112548828125
0.95868682861328125 -0.10791015625 -0.40283203125
0.992645263671875 -0.081298828125 -0.423797607421875
0.95906829833984375 -0.10650634765625 -0.41644287109375
0.9250335693359375 -0.13031005859375 -0.394256591796875
0.9235992431640625 -0.1292724609375 -0.384979248046875
0.99146270751953125 -0.07958984375 -0.41571044921875
0.99112701416015625 -0.0794677734375 -0.428131103515625
0.9246063232421875 -0.12799072265625 -0.400360107421875
-0.9410247802734375 -0.506591796875 -0.359954833984375
-0.9651641845703125 -0.50006103515625 -0.39202880859375
-0.94036865234375 -0.5050048828125 -0.349853515625
-0.91262054443359375 -0.5057373046875 -0.328338623046875
-0.938629150390625 -0.505126953125 -0.36883544921875
-0.9623260498046875 -0.498779296875 -0.39910888671875
-0.96453094482421875 -0.49761962890625 -0.383026123046875
-0.912139892578125 -0.50311279296875 -0.316192626953125
-0.9108123779296875 -0.50469970703125 -0.338531494140625
0.81993865966796875 -0.1514892578125 -0.31646728515625
0.81764984130859375 -0.15032958984375 -0.304840087890625
0.8539581298828125 -0.14947509765625 -0.344696044921875
0.8218536376953125 -0.14996337890625 -0.32647705078125
0.78891754150390625 -0.150390625 -0.2916259765625
0.78604888916015625 -0.14971923828125 -0.2791748046875
0.85198211669921875 -0.14886474609375 -0.33331298828125
0.855072021484375 -0.14715576171875 -0.353302001953125
0.79109954833984375 -0.14910888671875 -0.30230712890625
-0.81966400146484375 -0.476318359375 -0.22894287109375
-0.85088348388671875 -0.4886474609375 -0.2598876953125
-0.8182373046875 -0.47369384765625 -0.21435546875
-0.78980255126953125 -0.463134765625 -0.203216552734375
-0.81989288330078125 -0.4764404296875 -0.24322509765625
-0.85054779052734375 -0.4884033203125 -0.27325439453125
-0.84967803955078125 -0.4866943359375 -0.246856689453125
-0.78787994384765625 -0.46014404296875 -0.188079833984375
-0.79106903076171875 -0.46405029296875 -0.218231201171875
0.75359344482421875 -0.08917236328125 -0.322601318359375
0.73946380615234375 -0.09808349609375 -0.31781005859375
0.75667572021484375 -0.10198974609375 -0.3211669921875
0.7696990966796875 -0.07757568359375 -0.326171875
0.74761199951171875 -0.07696533203125 -0.3223876953125
0.7345123291015625 -0.0860595703125 -0.318206787109375
0.74176788330078125 -0.11126708984375 -0.31683349609375
0.77347564697265625 -0.09027099609375 -0.32513427734375
0.7630767822265625 -0.06512451171875 -0.325897216796875
-0.7359619140625 -0.4085693359375 -0.291656494140625
-0.74205780029296875 -0.41943359375 -0.281494140625
-0.7241058349609375 -0.41009521484375 -0.2822265625
-0.727203369140625 -0.39691162109375 -0.3001708984375
-0.74886322021484375 -0.4053955078125 -0.30157470703125
-0.75597381591796875 -0.41595458984375 -0.2916259765625
-0.72983551025390625 -0.4210205078125 -0.27239990234375
-0.71601104736328125 -0.39862060546875 -0.290924072265625
-0.73940277099609375 -0.39349365234375 -0.30999755859375
0.818939208984375 -0.03228759765625 -0.3404541015625
0.8024749755859375 -0.04754638671875 -0.335357666015625
0.82514190673828125 -0.04632568359375 -0.342376708984375
0.8350982666015625 -0.0150146484375 -0.346405029296875
0.810943603515625 -0.0184326171875 -0.338592529296875
0.79515838623046875 -0.034912109375 -0.334320068359375
0.80785369873046875 -0.061279296875 -0.33575439453125
0.8418731689453125 -0.0299072265625 -0.349761962890625
0.8267822265625 -0.0013427734375 -0.343170166015625
-0.7873992919921875 -0.39105224609375 -0.343505859375
-0.79669952392578125 -0.40435791015625 -0.334991455078125
-0.77553558349609375 -0.395263671875 -0.32794189453125
-0.7767791748046875 -0.377685546875 -0.3505859375
-0.79837799072265625 -0.38531494140625 -0.360137939453125
-0.80860137939453125 -0.40020751953125 -0.35198974609375
-0.78411865234375 -0.40740966796875 -0.318359375
-0.76476287841796875 -0.3826904296875 -0.335205078125
-0.787353515625 -0.3721923828125 -0.366607666015625
0.8792724609375 0.0355224609375 -0.35906982421875
0.8652801513671875 0.01812744140625 -0.355712890625
0.88948822021484375 0.01947021484375 -0.36419677734375
0.894134521484375 0.05157470703125 -0.361907958984375
0.87027740478515625 0.049560546875 -0.355224609375
0.85643768310546875 0.03228759765625 -0.3521728515625
0.8736572265625 0.00244140625 -0.3604736328125
0.90444183349609375 0.03656005859375 -0.367584228515625
0.88470458984375 0.06536865234375 -0.35833740234375
-0.8292236328125 -0.3687744140625 -0.410400390625
-0.84228515625 -0.384765625 -0.405059814453125
-0.81952667236328125 -0.375 -0.39434814453125
-0.81722259521484375 -0.35455322265625 -0.4156494140625
-0.839019775390625 -0.36322021484375 -0.42535400390625
-0.8530120849609375 -0.37847900390625 -0.419891357421875
-0.8319854736328125 -0.39068603515625 -0.388153076171875
-0.8077545166015625 -0.36090087890625 -0.399658203125
-0.8267974853515625 -0.34912109375 -0.4312744140625
0.93788909912109375 0.09405517578125 -0.3697509765625
0.9225921630859375 0.08087158203125 -0.366851806640625
0.948638916015625 0.08056640625 -0.375213623046875
0.95473480224609375 0.10528564453125 -0.3743896484375
0.92960357666015625 0.10772705078125 -0.367218017578125
0.91379547119140625 0.09417724609375 -0.3643798828125
0.933624267578125 0.0675048828125 -0.3719482421875
0.96364593505859375 0.09222412109375 -0.378753662109375
0.94768524169921875 0.11932373046875 -0.372344970703125
-0.87113189697265625 -0.351318359375 -0.463714599609375
-0.8842620849609375 -0.365234375 -0.45916748046875
-0.8594207763671875 -0.35345458984375 -0.4515380859375
-0.85958099365234375 -0.33831787109375 -0.4713134765625
-0.8834075927734375 -0.3507080078125 -0.47833251953125
-0.8949432373046875 -0.3636474609375 -0.473541259765625
-0.87358856201171875 -0.36834716796875 -0.44683837890625
-0.84764862060546875 -0.34014892578125 -0.45794677734375
-0.87277984619140625 -0.337890625 -0.48712158203125
0.904449462890625 0.14544677734375 -0.36492919921875
0.89591217041015625 0.15771484375 -0.36224365234375
0.88671875 0.13397216796875 -0.357818603515625
0.9136199951171875 0.13250732421875 -0.366302490234375
0.92354583740234375 0.15606689453125 -0.37213134765625
0.91620635986328125 0.1671142578125 -0.3717041015625
0.876953125 0.14654541015625 -0.353302001953125
0.896392822265625 0.12066650390625 -0.360626220703125
0.93192291259765625 0.14483642578125 -0.3719482421875
-0.823577880859375 -0.2998046875 -0.4954833984375
-0.8108978271484375 -0.3001708984375 -0.478424072265625
-0.81227874755859375 -0.288330078125 -0.50067138671875
-0.837371826171875 -0.3017578125 -0.514068603515625
-0.8361053466796875 -0.3133544921875 -0.488525390625
-0.8237152099609375 -0.313720703125 -0.47247314453125
-0.79924774169921875 -0.2874755859375 -0.48175048828125
-0.82723236083984375 -0.28997802734375 -0.52105712890625
-0.84963226318359375 -0.31365966796875 -0.506317138671875
0.83880615234375 0.09136962890625 -0.34173583984375
0.82427215576171875 0.07568359375 -0.338409423828125
0.85018157958984375 0.07720947265625 -0.347412109375
0.85379791259765625 0.1068115234375 -0.346099853515625
0.828094482421875 0.10498046875 -0.33544921875
0.8134613037109375 0.0889892578125 -0.332061767578125
0.83567047119140625 0.06048583984375 -0.34375
0.86470794677734375 0.09295654296875 -0.351531982421875
0.8432769775390625 0.12054443359375 -0.339813232421875
-0.7780609130859375 -0.30950927734375 -0.427947998046875
-0.79144287109375 -0.32501220703125 -0.4249267578125
-0.76769256591796875 -0.31488037109375 -0.412078857421875
-0.765411376953125 -0.29400634765625 -0.42901611328125
-0.7878265380859375 -0.30517578125 -0.444305419921875
-0.8014678955078125 -0.3204345703125 -0.441162109375
-0.7816314697265625 -0.3311767578125 -0.40869140625
-0.75543212890625 -0.29949951171875 -0.413299560546875
-0.77593994140625 -0.2899169921875 -0.445709228515625
0.78197479248046875 0.02294921875 -0.328582763671875
0.77254486083984375 0.03546142578125 -0.32379150390625
0.76728057861328125 0.0042724609375 -0.3267822265625
0.79198455810546875 0.00823974609375 -0.33282470703125
0.79604339599609375 0.0411376953125 -0.331939697265625
0.78617095947265625 0.0537109375 -0.325927734375
0.75868988037109375 0.0167236328125 -0.322265625
0.7768402099609375 -0.00927734375 -0.329498291015625
0.80692291259765625 0.02685546875 -0.336181640625
-0.7384796142578125 -0.3345947265625 -0.36767578125
-0.727996826171875 -0.34210205078125 -0.35467529296875
-0.7271728515625 -0.320556640625 -0.3707275390625
-0.74889373779296875 -0.326904296875 -0.38189697265625
-0.75140380859375 -0.34912109375 -0.362396240234375
-0.740325927734375 -0.35601806640625 -0.348388671875
-0.7172393798828125 -0.328857421875 -0.357879638671875
-0.73681640625 -0.31256103515625 -0.3841552734375
-0.761932373046875 -0.34246826171875 -0.377685546875
0.72209930419921875 -0.047119140625 -0.319488525390625
0.7313232421875 -0.0556640625 -0.321258544921875
0.73696136474609375 -0.03021240234375 -0.321990966796875
0.713714599609375 -0.039794921875 -0.3167724609375
0.70906829833984375 -0.060302734375 -0.316070556640625
0.71800994873046875 -0.0667724609375 -0.3172607421875
0.74591827392578125 -0.0416259765625 -0.3238525390625
0.7283782958984375 -0.02166748046875 -0.318817138671875
0.70209503173828125 -0.053466796875 -0.314056396484375
-0.69385528564453125 -0.36297607421875 -0.32012939453125
-0.705413818359375 -0.3568115234375 -0.330718994140625
-0.7050018310546875 -0.3739013671875 -0.314788818359375
-0.68369293212890625 -0.3675537109375 -0.309844970703125
-0.68379974365234375 -0.35345458984375 -0.322845458984375
-0.6951751708984375 -0.345947265625 -0.334197998046875
-0.7169036865234375 -0.36883544921875 -0.32464599609375
-0.69437408447265625 -0.3770751953125 -0.30511474609375
-0.6748809814453125 -0.35955810546875 -0.313079833984375
0.7440032958984375 -0.1407470703125 -0.307373046875
0.7365264892578125 -0.15020751953125 -0.299224853515625
0.76192474365234375 -0.13092041015625 -0.30908203125
0.7514801025390625 -0.12841796875 -0.313812255859375
0.729949951171875 -0.14801025390625 -0.30682373046875
0.7242279052734375 -0.1552734375 -0.29998779296875
0.7538909912109375 -0.142822265625 -0.300201416015625
0.76883697509765625 -0.11822509765625 -0.3165283203125
0.736297607421875 -0.13726806640625 -0.31158447265625
-0.739532470703125 -0.4434814453125 -0.24151611328125
-0.7555084228515625 -0.442626953125 -0.24639892578125
-0.73456573486328125 -0.4471435546875 -0.22637939453125
-0.72661590576171875 -0.4443359375 -0.23895263671875
-0.7433319091796875 -0.43756103515625 -0.256072998046875
-0.75899505615234375 -0.43426513671875 -0.263763427734375
-0.75081634521484375 -0.4471435546875 -0.22802734375
-0.72296905517578125 -0.44775390625 -0.226806640625
-0.7302703857421875 -0.4388427734375 -0.25030517578125
0.82842254638671875 -0.1075439453125 -0.342498779296875
0.85358428955078125 -0.09857177734375 -0.359222412109375
0.82952880859375 -0.0850830078125 -0.343597412109375
0.80454254150390625 -0.11480712890625 -0.326995849609375
0.82624053955078125 -0.1273193359375 -0.339630126953125
0.85511016845703125 -0.1214599609375 -0.3607177734375
0.8511505126953125 -0.0731201171875 -0.356597900390625
0.808502197265625 -0.09527587890625 -0.331939697265625
0.79927825927734375 -0.13189697265625 -0.3201904296875
-0.8146514892578125 -0.45025634765625 -0.29205322265625
-0.81034088134765625 -0.434814453125 -0.30841064453125
-0.83615875244140625 -0.4541015625 -0.3165283203125
-0.81755828857421875 -0.46319580078125 -0.274993896484375
-0.79381561279296875 -0.44525146484375 -0.2718505859375
-0.7930450439453125 -0.43267822265625 -0.29034423828125
-0.82785797119140625 -0.43524169921875 -0.330291748046875
-0.84302520751953125 -0.47125244140625 -0.30169677734375
-0.7931671142578125 -0.454833984375 -0.252960205078125
0.93021392822265625 -0.05401611328125 -0.397796630859375
0.9543914794921875 -0.031982421875 -0.40478515625
0.91501617431640625 -0.0272216796875 -0.384307861328125
0.9051055908203125 -0.07293701171875 -0.387481689453125
0.94422149658203125 -0.0780029296875 -0.40899658203125
0.97168731689453125 -0.05499267578125 -0.417938232421875
0.93560791015625 -0.00677490234375 -0.389556884765625
0.8943023681640625 -0.04437255859375 -0.37689208984375
0.91460418701171875 -0.09844970703125 -0.3966064453125
-0.8980255126953125 -0.454345703125 -0.388702392578125
-0.87783050537109375 -0.427978515625 -0.393798828125
-0.915191650390625 -0.44891357421875 -0.411163330078125
-0.9167327880859375 -0.47869873046875 -0.382781982421875
-0.87863922119140625 -0.4564208984375 -0.36566162109375
-0.8621368408203125 -0.4324951171875 -0.373931884765625
-0.8920135498046875 -0.422607421875 -0.412811279296875
-0.9369964599609375 -0.47271728515625 -0.408203125
-0.89363861083984375 -0.4793701171875 -0.3572998046875
1.0093765258789062 0.04205322265625 -0.41229248046875
1.020416259765625 0.06854248046875 -0.411834716796875
0.98522186279296875 0.0538330078125 -0.397003173828125
0.994140625 0.01666259765625 -0.4119873046875
1.0325851440429688 0.03399658203125 -0.426513671875
1.04388427734375 0.0657958984375 -0.42572021484375
0.9969482421875 0.073974609375 -0.398468017578125
0.97074127197265625 0.03338623046875 -0.395782470703125
1.01654052734375 0.002685546875 -0.425933837890625
-0.9481201171875 -0.42083740234375 -0.474365234375
-0.923675537109375 -0.4013671875 -0.465240478515625
-0.95153045654296875 -0.408447265625 -0.494293212890625
-0.9716033935546875 -0.4373779296875 -0.4844970703125
-0.9410400390625 -0.43194580078125 -0.453857421875
-0.91503143310546875 -0.40802001953125 -0.44879150390625
-0.929351806640625 -0.39276123046875 -0.48199462890625
-0.97310638427734375 -0.4205322265625 -0.5084228515625
-0.964996337890625 -0.452392578125 -0.459259033203125
1.0219268798828125 0.13751220703125 -0.406982421875
1.013671875 0.15496826171875 -0.404754638671875
0.99744415283203125 0.126953125 -0.39410400390625
1.0265274047851562 0.1163330078125 -0.409149169921875
1.0435943603515625 0.1466064453125 -0.419158935546875
1.0337905883789062 0.16644287109375 -0.41607666015625
0.9906158447265625 0.14215087890625 -0.392242431640625
1.0028152465820312 0.1103515625 -0.396728515625
1.0490188598632812 0.122802734375 -0.42181396484375
-0.93210601806640625 -0.36090087890625 -0.54290771484375
-0.9145355224609375 -0.3563232421875 -0.51873779296875
-0.91864013671875 -0.3453369140625 -0.55413818359375
-0.94770050048828125 -0.36590576171875 -0.566162109375
-0.942901611328125 -0.378173828125 -0.529205322265625
-0.924713134765625 -0.37060546875 -0.50872802734375
-0.9029998779296875 -0.3416748046875 -0.529205322265625
-0.9319915771484375 -0.3470458984375 -0.57794189453125
-0.96074676513671875 -0.38470458984375 -0.55010986328125
0.97934722900390625 0.18017578125 -0.396453857421875
0.96392059326171875 0.173828125 -0.38916015625
0.99060821533203125 0.17645263671875 -0.399932861328125
0.98309326171875 0.188232421875 -0.400299072265625
0.96080780029296875 0.183349609375 -0.390472412109375
0.97229766845703125 0.1656494140625 -0.389190673828125
1.0028152465820312 0.1876220703125 -0.407379150390625
-0.87807464599609375 -0.31072998046875 -0.566192626953125
-0.8892822265625 -0.318359375 -0.566925048828125
-0.86634063720703125 -0.3072509765625 -0.552215576171875
-0.8779449462890625 -0.30682373046875 -0.57696533203125
-0.89599609375 -0.317626953125 -0.58392333984375
-0.877288818359375 -0.31622314453125 -0.54559326171875
-0.85992431640625 -0.2999267578125 -0.560516357421875
0.76513671875 -0.25982666015625 -0.31365966796875
0.7642974853515625 -0.25396728515625 -0.283172607421875
0.71497344970703125 -0.26129150390625 -0.28094482421875
0.76940155029296875 -0.24627685546875 -0.34442138671875
0.81905364990234375 -0.25115966796875 -0.349273681640625
0.81792449951171875 -0.24627685546875 -0.321319580078125
0.7145233154296875 -0.25531005859375 -0.2489013671875
0.72014617919921875 -0.24847412109375 -0.31488037109375
0.82303619384765625 -0.2369384765625 -0.377655029296875
-0.78453826904296875 -0.5389404296875 -0.16802978515625
-0.7338104248046875 -0.520263671875 -0.140838623046875
-0.784027099609375 -0.53021240234375 -0.1326904296875
-0.83805084228515625 -0.55322265625 -0.20458984375
-0.78375244140625 -0.53436279296875 -0.21746826171875
-0.734222412109375 -0.51641845703125 -0.191070556640625
-0.7330322265625 -0.5118408203125 -0.103271484375
-0.83731842041015625 -0.545166015625 -0.170318603515625
-0.83535003662109375 -0.54693603515625 -0.25140380859375
0.99056243896484375 -0.16912841796875 -0.428009033203125
0.98641204833984375 -0.16632080078125 -0.40606689453125
