# XYZ point cloud file
0.39520263671875 -0.74334716796875 0.716766357421875
0.4176025390625 -0.7547607421875 0.6788330078125
0.436248779296875 -0.74822998046875 0.662994384765625
0.42352294921875 -0.71173095703125 0.712158203125
0.3911895751953125 -0.7252197265625 0.73626708984375
0.39556884765625 -0.75958251953125 0.696380615234375
0.069915771484375 -0.75628662109375 0.88531494140625
0.0864410400390625 -0.73699951171875 0.893829345703125
0.048004150390625 -0.752685546875 0.8916015625
0.0548248291015625 -0.773193359375 0.873565673828125
0.0948333740234375 -0.75787353515625 0.87750244140625
0.1082611083984375 -0.7406005859375 0.886016845703125
0.0671234130859375 -0.732666015625 0.899810791015625
0.0302276611328125 -0.76922607421875 0.878936767578125
0.08258056640625 -0.77392578125 0.865234375
0.4610595703125 -0.689208984375 0.665283203125
0.4640960693359375 -0.66558837890625 0.662933349609375
0.4486541748046875 -0.66668701171875 0.695159912109375
0.4550628662109375 -0.7069091796875 0.670013427734375
0.4675140380859375 -0.70648193359375 0.63507080078125
0.4698638916015625 -0.68310546875 0.631622314453125
0.4505767822265625 -0.6419677734375 0.69305419921875
0.44329833984375 -0.68658447265625 0.69830322265625
0.4613800048828125 -0.72430419921875 0.64117431640625
0.0013580322265625 -0.7176513671875 0.898651123046875
0.0247802734375 -0.69329833984375 0.907501220703125
-0.009490966796875 -0.69744873046875 0.89801025390625
-0.0205078125 -0.737548828125 0.884765625
0.013671875 -0.73297119140625 0.8983154296875
0.0365447998046875 -0.71038818359375 0.906402587890625
0.01495361328125 -0.67303466796875 0.906951904296875
-0.0308990478515625 -0.7176513671875 0.882537841796875
-0.007659912109375 -0.75177001953125 0.8843994140625
0.45062255859375 -0.56890869140625 0.662261962890625
0.4399871826171875 -0.52587890625 0.662139892578125
0.4378204345703125 -0.552490234375 0.692474365234375
0.458953857421875 -0.6051025390625 0.662384033203125
0.4555206298828125 -0.57989501953125 0.6304931640625
0.4449005126953125 -0.5341796875 0.6292724609375
0.4276275634765625 -0.51397705078125 0.692657470703125
0.4453582763671875 -0.586669921875 0.692840576171875
0.4638671875 -0.61981201171875 0.62994384765625
-0.0325927734375 -0.6129150390625 0.87890625
-0.0070343017578125 -0.593017578125 0.89117431640625
-0.039764404296875 -0.5745849609375 0.866973876953125
-0.05517578125 -0.62725830078125 0.858154296875
-0.0257568359375 -0.64508056640625 0.888214111328125
-0.000823974609375 -0.62298583984375 0.899078369140625
-0.0140228271484375 -0.55682373046875 0.881103515625
-0.06201171875 -0.5867919921875 0.844818115234375
-0.048065185546875 -0.6617431640625 0.869415283203125
0.3892059326171875 -0.3758544921875 0.65283203125
0.3682708740234375 -0.32208251953125 0.64727783203125
0.375885009765625 -0.3677978515625 0.68463134765625
0.4086761474609375 -0.42572021484375 0.656829833984375
0.3948516845703125 -0.38104248046875 0.619232177734375
0.374908447265625 -0.32794189453125 0.613250732421875
0.355072021484375 -0.31488037109375 0.67926025390625
0.39569091796875 -0.419677734375 0.688201904296875
0.413848876953125 -0.43194580078125 0.62322998046875
-0.0643157958984375 -0.43841552734375 0.81158447265625
-0.0383453369140625 -0.4241943359375 0.829498291015625
-0.072540283203125 -0.3880615234375 0.78985595703125
-0.0864410400390625 -0.44842529296875 0.786041259765625
-0.05609130859375 -0.48516845703125 0.831573486328125
-0.0298004150390625 -0.47222900390625 0.849151611328125
-0.0472564697265625 -0.3760986328125 0.80950927734375
-0.093841552734375 -0.39849853515625 0.763397216796875
-0.078460693359375 -0.49566650390625 0.807952880859375
0.287689208984375 0.04412841796875 0.573516845703125
0.300048828125 0.015380859375 0.54144287109375
0.330535888671875 0.0640869140625 0.550537109375
0.272613525390625 0.07757568359375 0.6033935546875
0.2489776611328125 0.0269775390625 0.595733642578125
0.2636871337890625 -0.00384521484375 0.559295654296875
0.342071533203125 0.03485107421875 0.522308349609375
0.3180084228515625 0.0948486328125 0.576812744140625
0.2296295166015625 0.06201171875 0.630584716796875
-0.20928955078125 -0.07562255859375 0.63720703125
-0.261688232421875 -0.08123779296875 0.6231689453125
-0.2151641845703125 -0.107421875 0.612396240234375
-0.162353515625 -0.07147216796875 0.65216064453125
-0.20477294921875 -0.04052734375 0.65936279296875
-0.2589874267578125 -0.04937744140625 0.640899658203125
-0.2659454345703125 -0.10992431640625 0.6011962890625
-0.170623779296875 -0.10418701171875 0.623077392578125
-0.152374267578125 -0.03155517578125 0.67852783203125
0.4554290771484375 0.14105224609375 0.497039794921875
0.46484375 0.11663818359375 0.474578857421875
0.490814208984375 0.17291259765625 0.48284912109375
0.44354248046875 0.16717529296875 0.51708984375
0.4172821044921875 0.11285400390625 0.512054443359375
0.4269561767578125 0.08758544921875 0.48822021484375
0.4996795654296875 0.14990234375 0.46173095703125
0.478271484375 0.197509765625 0.502349853515625
0.4055328369140625 0.13995361328125 0.533111572265625
-0.41796875 -0.0843505859375 0.577117919921875
-0.4663848876953125 -0.0789794921875 0.558929443359375
-0.4189910888671875 -0.10760498046875 0.56298828125
-0.367431640625 -0.08673095703125 0.592529296875
-0.4153289794921875 -0.058837890625 0.588348388671875
-0.463348388671875 -0.05364990234375 0.56951904296875
-0.466827392578125 -0.1019287109375 0.545806884765625
-0.369171142578125 -0.11212158203125 0.576812744140625
-0.3656005859375 -0.05902099609375 0.60516357421875
0.5717620849609375 0.2900390625 0.44036865234375
0.585296630859375 0.27020263671875 0.416839599609375
0.5874176025390625 0.33837890625 0.43048095703125
0.5537109375 0.30859375 0.46234130859375
0.54931640625 0.24774169921875 0.45404052734375
0.560760498046875 0.22686767578125 0.431915283203125
0.603424072265625 0.3199462890625 0.4061279296875
0.5676116943359375 0.35308837890625 0.4534912109375
0.53387451171875 0.2685546875 0.474212646484375
-0.59796142578125 -0.04486083984375 0.476531982421875
-0.6357574462890625 -0.0234375 0.444793701171875
-0.6027374267578125 -0.0665283203125 0.459320068359375
-0.5568695068359375 -0.060791015625 0.507720947265625
-0.589324951171875 -0.021484375 0.491790771484375
-0.6239013671875 -0.00146484375 0.4627685546875
-0.642852783203125 -0.04522705078125 0.425445556640625
-0.5595245361328125 -0.08319091796875 0.492828369140625
-0.5503692626953125 -0.03594970703125 0.520721435546875
0.5875091552734375 0.50506591796875 0.444488525390625
0.605804443359375 0.50042724609375 0.42236328125
0.5743255615234375 0.55853271484375 0.458465576171875
0.5664215087890625 0.5057373046875 0.46368408203125
0.5957794189453125 0.4473876953125 0.4332275390625
0.6138153076171875 0.43829345703125 0.40966796875
0.5911407470703125 0.55926513671875 0.438995361328125
0.5541229248046875 0.55377197265625 0.474822998046875
0.5735626220703125 0.45428466796875 0.454742431640625
-0.71710205078125 0.07843017578125 0.371978759765625
-0.7310791015625 0.1195068359375 0.35809326171875
-0.730316162109375 0.0635986328125 0.3480224609375
-0.6960906982421875 0.03900146484375 0.39141845703125
-0.6986541748046875 0.0928955078125 0.394989013671875
-0.7118682861328125 0.1280517578125 0.381500244140625
-0.744598388671875 0.10809326171875 0.3331298828125
-0.7080230712890625 0.02069091796875 0.36767578125
-0.6797027587890625 0.05706787109375 0.412933349609375
0.506317138671875 0.65045166015625 0.49383544921875
0.5166778564453125 0.65625 0.474884033203125
0.4735107421875 0.66363525390625 0.4998779296875
0.4938201904296875 0.639892578125 0.506927490234375
0.5327911376953125 0.63214111328125 0.4844970703125
0.5463104248046875 0.63677978515625 0.466705322265625
0.4816741943359375 0.66876220703125 0.480316162109375
0.4637451171875 0.65313720703125 0.51470947265625
0.51739501953125 0.62054443359375 0.4974365234375
-0.722412109375 0.21343994140625 0.348236083984375
-0.704498291015625 0.23931884765625 0.351837158203125
-0.7318572998046875 0.2093505859375 0.3206787109375
-0.7334442138671875 0.18597412109375 0.346771240234375
-0.708160400390625 0.2139892578125 0.372711181640625
-0.6930999755859375 0.23944091796875 0.3768310546875
-0.711639404296875 0.23681640625 0.323486328125
-0.7455291748046875 0.18109130859375 0.320465087890625
-0.716644287109375 0.18890380859375 0.37030029296875
0.331390380859375 0.7005615234375 0.5106201171875
0.3385467529296875 0.705078125 0.487579345703125
0.2756195068359375 0.7159423828125 0.510345458984375
0.3248748779296875 0.69061279296875 0.527557373046875
0.38470458984375 0.68597412109375 0.50799560546875
0.3911285400390625 0.69110107421875 0.486419677734375
0.2831878662109375 0.72027587890625 0.487335205078125
0.269378662109375 0.70538330078125 0.5286865234375
0.3782501220703125 0.67657470703125 0.5247802734375
-0.61993408203125 0.3463134765625 0.362884521484375
-0.58807373046875 0.3902587890625 0.364837646484375
-0.6236114501953125 0.3443603515625 0.333831787109375
-0.65179443359375 0.306884765625 0.3592529296875
-0.612823486328125 0.3460693359375 0.389251708984375
-0.5811309814453125 0.38726806640625 0.39190673828125
-0.5914306640625 0.38690185546875 0.335693359375
-0.655517578125 0.30364990234375 0.330657958984375
-0.64410400390625 0.3050537109375 0.385772705078125
0.1257171630859375 0.7637939453125 0.50213623046875
0.1309814453125 0.769775390625 0.477325439453125
0.084228515625 0.774658203125 0.49859619140625
0.1243743896484375 0.74932861328125 0.522796630859375
0.1712188720703125 0.7484130859375 0.506500244140625
0.1780548095703125 0.75360107421875 0.482513427734375
0.0877838134765625 0.78216552734375 0.473236083984375
0.085906982421875 0.758544921875 0.51953125
0.1674041748046875 0.7364501953125 0.525970458984375
-0.508941650390625 0.5115966796875 0.3663330078125
-0.4864959716796875 0.54425048828125 0.36749267578125
-0.511566162109375 0.51300048828125 0.335235595703125
-0.531768798828125 0.47503662109375 0.365570068359375
-0.5026397705078125 0.5030517578125 0.393463134765625
-0.4818878173828125 0.53240966796875 0.39593505859375
-0.4886932373046875 0.54718017578125 0.33642578125
-0.535369873046875 0.47393798828125 0.335662841796875
-0.525665283203125 0.4688720703125 0.39337158203125
-0.01177978515625 0.76416015625 0.49285888671875
-0.0146026611328125 0.7724609375 0.46466064453125
-0.034088134765625 0.743896484375 0.494781494140625
-0.003509521484375 0.75048828125 0.51556396484375
0.01611328125 0.776611328125 0.49310302734375
0.0148773193359375 0.7847900390625 0.4658203125
-0.038787841796875 0.75152587890625 0.467437744140625
-0.024566650390625 0.73065185546875 0.517730712890625
0.0219879150390625 0.7598876953125 0.515411376953125
-0.412261962890625 0.59918212890625 0.393524169921875
-0.382904052734375 0.59967041015625 0.409576416015625
-0.4102020263671875 0.6082763671875 0.3636474609375
-0.4393463134765625 0.5889892578125 0.38079833984375
-0.41253662109375 0.582275390625 0.42041015625
-0.3851165771484375 0.5838623046875 0.435089111328125
-0.3794708251953125 0.609375 0.380523681640625
-0.438201904296875 0.595947265625 0.35040283203125
-0.4378814697265625 0.57330322265625 0.408660888671875
-0.0700836181640625 0.63714599609375 0.51654052734375
-0.0752105712890625 0.640380859375 0.490509033203125
-0.0753021240234375 0.594970703125 0.527008056640625
-0.0594482421875 0.63079833984375 0.5380859375
-0.0626220703125 0.67919921875 0.50689697265625
-0.0682830810546875 0.6812744140625 0.480804443359375
-0.079742431640625 0.5958251953125 0.50152587890625
-0.065643310546875 0.58935546875 0.547760009765625
-0.051849365234375 0.6702880859375 0.52886962890625
-0.2863616943359375 0.55255126953125 0.47296142578125
-0.2533416748046875 0.52618408203125 0.49383544921875
-0.2800140380859375 0.5576171875 0.44769287109375
-0.3203125 0.575927734375 0.45074462890625
-0.2922515869140625 0.54107666015625 0.4937744140625
-0.25921630859375 0.51666259765625 0.514068603515625
-0.2479095458984375 0.530029296875 0.46917724609375
-0.3144683837890625 0.5828857421875 0.423858642578125
-0.3249053955078125 0.56243896484375 0.47271728515625
-0.09783935546875 0.4976806640625 0.5439453125
-0.101226806640625 0.49859619140625 0.519683837890625
-0.110504150390625 0.4779052734375 0.54486083984375
-0.0897979736328125 0.491943359375 0.563323974609375
-0.0879669189453125 0.52227783203125 0.54095458984375
-0.0917510986328125 0.52374267578125 0.51654052734375
-0.1132049560546875 0.48114013671875 0.5205078125
-0.1039276123046875 0.4698486328125 0.565887451171875
-0.0789794921875 0.519287109375 0.56011962890625
-0.168792724609375 0.47125244140625 0.534454345703125
-0.146087646484375 0.46527099609375 0.540313720703125
-0.1658477783203125 0.47430419921875 0.510772705078125
-0.1938934326171875 0.48260498046875 0.525238037109375
-0.1725006103515625 0.46234130859375 0.553466796875
-0.14532470703125 0.45526123046875 0.560760498046875
-0.1455230712890625 0.4693603515625 0.51654052734375
-0.1900787353515625 0.4864501953125 0.501373291015625
-0.1989593505859375 0.47442626953125 0.5438232421875
-0.0070953369140625 0.5885009765625 0.556121826171875
0.0124359130859375 0.5721435546875 0.55194091796875
0.003662109375 0.61505126953125 0.549957275390625
-0.0265350341796875 0.6043701171875 0.55780029296875
-0.0159149169921875 0.55938720703125 0.562896728515625
0.002960205078125 0.54754638671875 0.55792236328125
0.0239410400390625 0.5938720703125 0.546417236328125
-0.0169525146484375 0.63665771484375 0.5504150390625
-0.03436279296875 0.5716552734375 0.56512451171875
-0.30291748046875 0.4794921875 0.511383056640625
-0.329559326171875 0.49176025390625 0.496337890625
-0.3052215576171875 0.457275390625 0.5076904296875
-0.2756195068359375 0.46514892578125 0.5277099609375
-0.3004913330078125 0.50213623046875 0.51239013671875
-0.3296661376953125 0.5172119140625 0.495880126953125
-0.3287200927734375 0.465087890625 0.49383544921875
-0.28076171875 0.446044921875 0.521820068359375
-0.2704620361328125 0.48492431640625 0.5302734375
0.0485076904296875 0.66754150390625 0.53863525390625
0.0688323974609375 0.63739013671875 0.535675048828125
0.0686187744140625 0.67535400390625 0.53753662109375
0.0284271240234375 0.69940185546875 0.538360595703125
0.03106689453125 0.65521240234375 0.5411376953125
0.052001953125 0.62725830078125 0.5379638671875
0.0874176025390625 0.64385986328125 0.53436279296875
0.049652099609375 0.708251953125 0.5374755859375
0.0098876953125 0.6854248046875 0.540313720703125
-0.3983917236328125 0.4976806640625 0.4588623046875
-0.4174957275390625 0.49017333984375 0.450897216796875
-0.3910980224609375 0.46673583984375 0.461700439453125
-0.3773040771484375 0.50146484375 0.469879150390625
-0.4051971435546875 0.529541015625 0.453155517578125
-0.426361083984375 0.521728515625 0.443878173828125
-0.4092559814453125 0.4598388671875 0.453948974609375
-0.3720855712890625 0.4708251953125 0.471435546875
-0.3824615478515625 0.53155517578125 0.46441650390625
0.1475677490234375 0.671875 0.539398193359375
0.1819305419921875 0.66436767578125 0.53948974609375
0.13604736328125 0.70111083984375 0.540679931640625
0.117828369140625 0.67633056640625 0.538604736328125
0.159820556640625 0.64312744140625 0.535675048828125
0.19146728515625 0.6378173828125 0.535888671875
0.173248291015625 0.69207763671875 0.541900634765625
0.103363037109375 0.70733642578125 0.539276123046875
0.132659912109375 0.64697265625 0.53497314453125
-0.47265625 0.4395751953125 0.43695068359375
-0.4838104248046875 0.46533203125 0.429901123046875
-0.4931793212890625 0.4146728515625 0.43487548828125
-0.4619903564453125 0.4149169921875 0.44219970703125
-0.4543914794921875 0.46063232421875 0.440216064453125
-0.4650726318359375 0.489013671875 0.4326171875
-0.5047149658203125 0.43768310546875 0.42816162109375
-0.4820404052734375 0.3929443359375 0.439910888671875
-0.4442901611328125 0.4332275390625 0.4449462890625
0.3150634765625 0.63555908203125 0.53448486328125
0.361053466796875 0.6246337890625 0.530303955078125
0.3170318603515625 0.65716552734375 0.5390625
0.2673797607421875 0.64727783203125 0.537933349609375
0.31353759765625 0.6153564453125 0.528564453125
0.35540771484375 0.6046142578125 0.52459716796875
0.3661956787109375 0.645263671875 0.535003662109375
0.2652587890625 0.66937255859375 0.540924072265625
0.2702178955078125 0.6239013671875 0.53228759765625
-0.5730438232421875 0.3179931640625 0.425506591796875
-0.5878753662109375 0.33074951171875 0.420806884765625
-0.6003875732421875 0.28582763671875 0.422332763671875
-0.5584259033203125 0.30633544921875 0.427947998046875
-0.543914794921875 0.352294921875 0.42901611328125
-0.5574798583984375 0.3681640625 0.4232177734375
-0.616790771484375 0.2943115234375 0.41656494140625
-0.584197998046875 0.2762451171875 0.4248046875
-0.530914306640625 0.337158203125 0.432586669921875
0.45440673828125 0.58428955078125 0.514251708984375
0.4716339111328125 0.566162109375 0.50927734375
0.467254638671875 0.60418701171875 0.516845703125
0.4314422607421875 0.5992431640625 0.52008056640625
0.4420623779296875 0.565673828125 0.51141357421875
0.4576568603515625 0.54815673828125 0.50799560546875
0.4862518310546875 0.58624267578125 0.509765625
0.442230224609375 0.61907958984375 0.523223876953125
0.420806884765625 0.581298828125 0.515777587890625
-0.648468017578125 0.2039794921875 0.41558837890625
-0.67010498046875 0.2081298828125 0.40692138671875
-0.65228271484375 0.18212890625 0.417510986328125
-0.6276397705078125 0.2000732421875 0.423095703125
-0.639434814453125 0.22564697265625 0.416046142578125
-0.6592864990234375 0.23199462890625 0.409088134765625
-0.674957275390625 0.18658447265625 0.40704345703125
-0.630340576171875 0.179931640625 0.427337646484375
-0.619659423828125 0.2220458984375 0.4210205078125
0.504974365234375 0.48211669921875 0.49774169921875
0.5095367431640625 0.44635009765625 0.497283935546875
0.523834228515625 0.4927978515625 0.489532470703125
0.4964141845703125 0.51531982421875 0.500518798828125
0.4875335693359375 0.4715576171875 0.503631591796875
0.4915771484375 0.4384765625 0.5048828125
0.5292816162109375 0.452392578125 0.48663330078125
0.5139312744140625 0.52996826171875 0.494873046875
0.4801788330078125 0.50091552734375 0.50396728515625
-0.6334075927734375 0.113037109375 0.447052001953125
-0.65557861328125 0.1092529296875 0.432464599609375
-0.618011474609375 0.0902099609375 0.464080810546875
-0.6129913330078125 0.11761474609375 0.45892333984375
-0.6442108154296875 0.13690185546875 0.433349609375
-0.6669921875 0.13763427734375 0.420135498046875
-0.6389007568359375 0.08251953125 0.450103759765625
-0.59814453125 0.09661865234375 0.47674560546875
-0.6229095458984375 0.138916015625 0.445098876953125
0.489471435546875 0.33575439453125 0.51031494140625
0.472686767578125 0.3009033203125 0.520233154296875
0.5113525390625 0.33251953125 0.49713134765625
0.5020904541015625 0.37139892578125 0.502960205078125
0.4687652587890625 0.3360595703125 0.52099609375
0.4516754150390625 0.30523681640625 0.530731201171875
0.493927001953125 0.2958984375 0.507781982421875
0.5237579345703125 0.37109375 0.48968505859375
0.481719970703125 0.3704833984375 0.513031005859375
-0.541015625 0.033447265625 0.5279541015625
-0.5598602294921875 0.018310546875 0.51751708984375
-0.50689697265625 0.02105712890625 0.550323486328125
-0.5222625732421875 0.0457763671875 0.537445068359375
-0.5716552734375 0.04888916015625 0.505126953125
-0.591033935546875 0.03521728515625 0.49285888671875
-0.5244903564453125 0.00555419921875 0.541534423828125
-0.4893035888671875 0.03497314453125 0.55859375
-0.552459716796875 0.0594482421875 0.51593017578125
0.3981475830078125 0.22003173828125 0.556884765625
0.364837646484375 0.199951171875 0.57220458984375
0.4140625 0.20758056640625 0.546722412109375
0.4264068603515625 0.24371337890625 0.54315185546875
0.3826904296875 0.22998046875 0.56536865234375
0.3525390625 0.2139892578125 0.578369140625
0.37841796875 0.18365478515625 0.56365966796875
0.4448699951171875 0.23321533203125 0.532501220703125
0.408599853515625 0.251220703125 0.553192138671875
-0.39398193359375 0.00531005859375 0.60858154296875
-0.4026641845703125 -0.012451171875 0.603759765625
-0.353057861328125 0.008056640625 0.62432861328125
-0.38507080078125 0.0208740234375 0.61224365234375
-0.4333648681640625 0.00616455078125 0.5911865234375
-0.4461669921875 -0.01055908203125 0.584747314453125
-0.3577728271484375 -0.01043701171875 0.621490478515625
-0.34906005859375 0.02423095703125 0.62530517578125
-0.4202880859375 0.0213623046875 0.596832275390625
0.2438812255859375 0.170654296875 0.627655029296875
0.201751708984375 0.1710205078125 0.644378662109375
0.250030517578125 0.1424560546875 0.630950927734375
0.2872161865234375 0.176513671875 0.60821533203125
0.239715576171875 0.1959228515625 0.6221923828125
0.200592041015625 0.20001220703125 0.634185791015625
0.204345703125 0.135986328125 0.655517578125
0.29522705078125 0.152587890625 0.6060791015625
0.2802581787109375 0.197998046875 0.607757568359375
-0.223876953125 0.0478515625 0.664398193359375
-0.212005615234375 0.02288818359375 0.672332763671875
-0.183563232421875 0.06939697265625 0.674072265625
-0.2361602783203125 0.06878662109375 0.65399169921875
-0.2669830322265625 0.02972412109375 0.652252197265625
-0.2615509033203125 0.0078125 0.65478515625
-0.162750244140625 0.04254150390625 0.689117431640625
-0.2028350830078125 0.09027099609375 0.65899658203125
-0.2735443115234375 0.04937744140625 0.646270751953125
0.1000213623046875 0.192626953125 0.647216796875
0.110748291015625 0.221923828125 0.63568115234375
0.074371337890625 0.2071533203125 0.6370849609375
0.0892486572265625 0.15899658203125 0.660675048828125
0.1287689208984375 0.18109130859375 0.654388427734375
0.13494873046875 0.212890625 0.639892578125
0.08990478515625 0.235595703125 0.62841796875
0.0562286376953125 0.175537109375 0.646759033203125
0.1236419677734375 0.14453125 0.670379638671875
-0.1119232177734375 0.13482666015625 0.65753173828125
-0.10174560546875 0.1561279296875 0.642608642578125
-0.1415863037109375 0.1514892578125 0.644775390625
-0.127197265625 0.11279296875 0.669769287109375
-0.0799713134765625 0.1142578125 0.6717529296875
-0.065643310546875 0.14080810546875 0.652923583984375
-0.134063720703125 0.1707763671875 0.63470458984375
-0.1547393798828125 0.13287353515625 0.653411865234375
-0.0965423583984375 0.087890625 0.6890869140625
-0.03594970703125 0.47589111328125 0.5787353515625
-0.030731201171875 0.50152587890625 0.57464599609375
-0.0577239990234375 0.4808349609375 0.580352783203125
-0.04010009765625 0.4501953125 0.58251953125
-0.01495361328125 0.47125244140625 0.574371337890625
-0.011138916015625 0.49627685546875 0.56951904296875
-0.04931640625 0.50909423828125 0.57666015625
-0.0666961669921875 0.45416259765625 0.583892822265625
-0.016021728515625 0.44708251953125 0.578704833984375
-0.2011260986328125 0.41717529296875 0.562347412109375
-0.1884918212890625 0.43377685546875 0.5667724609375
-0.2242584228515625 0.43292236328125 0.552947998046875
-0.214202880859375 0.40155029296875 0.556060791015625
-0.179901123046875 0.400634765625 0.5704345703125
-0.1628875732421875 0.4207763671875 0.57550048828125
-0.21453857421875 0.448974609375 0.557373046875
-0.2346038818359375 0.4180908203125 0.545867919921875
-0.1958160400390625 0.3834228515625 0.564239501953125
-0.02685546875 0.37127685546875 0.592742919921875
-0.0356903076171875 0.397216796875 0.5892333984375
-0.0553131103515625 0.3663330078125 0.5938720703125
-0.0165863037109375 0.34552001953125 0.597015380859375
-0.001495361328125 0.37420654296875 0.591461181640625
-0.0089874267578125 0.39801025390625 0.58758544921875
-0.065948486328125 0.39654541015625 0.59088134765625
-0.0436248779296875 0.3375244140625 0.597015380859375
0.00823974609375 0.3515625 0.596099853515625
-0.1347808837890625 0.3360595703125 0.58953857421875
-0.1100311279296875 0.34930419921875 0.592193603515625
-0.1465606689453125 0.36114501953125 0.58367919921875
-0.156219482421875 0.32379150390625 0.585723876953125
-0.1250152587890625 0.31024169921875 0.594879150390625
-0.0988922119140625 0.321044921875 0.596405029296875
-0.1231231689453125 0.3780517578125 0.587799072265625
-0.16680908203125 0.345703125 0.579254150390625
-0.1481781005859375 0.30120849609375 0.59197998046875
0.0196533203125 0.26959228515625 0.610137939453125
0.0346221923828125 0.24542236328125 0.61688232421875
0.043548583984375 0.28594970703125 0.608917236328125
0.0068817138671875 0.2945556640625 0.605072021484375
-0.0074615478515625 0.25152587890625 0.611480712890625
0.0071258544921875 0.22064208984375 0.6201171875
0.0574493408203125 0.2669677734375 0.614227294921875
0.0309600830078125 0.30755615234375 0.604583740234375
-0.0204010009765625 0.28167724609375 0.606048583984375
-0.1029205322265625 0.2313232421875 0.610382080078125
-0.1326446533203125 0.2320556640625 0.609405517578125
-0.0980377197265625 0.20440673828125 0.618194580078125
-0.0701904296875 0.233154296875 0.612152099609375
-0.10931396484375 0.2581787109375 0.603973388671875
-0.136444091796875 0.2542724609375 0.603302001953125
-0.1307373046875 0.2100830078125 0.616363525390625
-0.0609893798828125 0.2001953125 0.6209716796875
-0.0795440673828125 0.263427734375 0.60546875
0.3045806884765625 -0.68853759765625 0.82391357421875
0.2977447509765625 -0.6729736328125 0.83441162109375
0.283905029296875 -0.69085693359375 0.835784912109375
0.3111419677734375 -0.7049560546875 0.81219482421875
0.3240509033203125 -0.6842041015625 0.812591552734375
0.314117431640625 -0.669677734375 0.82562255859375
0.2808837890625 -0.6766357421875 0.843505859375
0.2864990234375 -0.70745849609375 0.826812744140625
0.3333587646484375 -0.7010498046875 0.79888916015625
0.2176361083984375 -0.6923828125 0.86883544921875
0.23931884765625 -0.69329833984375 0.8583984375
0.225860595703125 -0.67767333984375 0.870635986328125
0.1963958740234375 -0.691162109375 0.879241943359375
0.2083892822265625 -0.70928955078125 0.865997314453125
0.2341461181640625 -0.7099609375 0.854034423828125
0.24407958984375 -0.67767333984375 0.86175537109375
0.2084503173828125 -0.675537109375 0.879547119140625
0.18341064453125 -0.708251953125 0.877288818359375
0.3685150146484375 -0.66119384765625 0.7874755859375
0.3522491455078125 -0.643798828125 0.804229736328125
0.3563232421875 -0.67120361328125 0.794342041015625
0.3849334716796875 -0.681640625 0.7672119140625
0.3776397705078125 -0.6488037109375 0.781585693359375
0.3602142333984375 -0.63043212890625 0.79962158203125
0.3415069580078125 -0.65447998046875 0.810546875
0.370880126953125 -0.68939208984375 0.77545166015625
0.3957366943359375 -0.6710205078125 0.760040283203125
0.1443023681640625 -0.67620849609375 0.90185546875
0.159515380859375 -0.68304443359375 0.89569091796875
0.162506103515625 -0.65802001953125 0.900115966796875
0.13055419921875 -0.667236328125 0.906494140625
0.124298095703125 -0.69622802734375 0.902008056640625
0.1413116455078125 -0.701416015625 0.895355224609375
0.176239013671875 -0.66546630859375 0.894561767578125
0.1499176025390625 -0.646728515625 0.904541015625
0.109375 -0.68853759765625 0.906341552734375
0.3862457275390625 -0.59228515625 0.772491455078125
0.3638458251953125 -0.57110595703125 0.7923583984375
0.386474609375 -0.615234375 0.77447509765625
0.409027099609375 -0.616943359375 0.749603271484375
0.3834228515625 -0.56866455078125 0.771697998046875
0.3582916259765625 -0.54583740234375 0.792449951171875
0.365936279296875 -0.59417724609375 0.79400634765625
0.4076995849609375 -0.637939453125 0.751739501953125
0.408721923828125 -0.593017578125 0.747802734375
0.099761962890625 -0.614501953125 0.910186767578125
0.1082000732421875 -0.63623046875 0.910003662109375
0.1214599609375 -0.59051513671875 0.90618896484375
0.092864990234375 -0.591552734375 0.90863037109375
0.0751800537109375 -0.64068603515625 0.912139892578125
0.0850830078125 -0.66064453125 0.911712646484375
0.1290435791015625 -0.61297607421875 0.907501220703125
0.1168060302734375 -0.56683349609375 0.90350341796875
0.067138671875 -0.61883544921875 0.9114990234375
0.313385009765625 -0.349609375 0.757080078125
0.2921905517578125 -0.29913330078125 0.750213623046875
0.2894134521484375 -0.34686279296875 0.773773193359375
0.3334808349609375 -0.3968505859375 0.76177978515625
0.33642578125 -0.35467529296875 0.7373046875
0.3153228759765625 -0.30377197265625 0.730743408203125
0.2687835693359375 -0.2979736328125 0.76593017578125
0.30902099609375 -0.39312744140625 0.779876708984375
0.35675048828125 -0.40350341796875 0.74090576171875
0.045379638671875 -0.3853759765625 0.8507080078125
0.07232666015625 -0.37548828125 0.850067138671875
0.0350189208984375 -0.33697509765625 0.834503173828125
0.016937255859375 -0.396240234375 0.84814453125
0.0548248291015625 -0.43084716796875 0.8670654296875
0.0822601318359375 -0.42034912109375 0.86529541015625
0.0614166259765625 -0.327392578125 0.833709716796875
0.0081024169921875 -0.3486328125 0.8310546875
0.02691650390625 -0.4434814453125 0.865478515625
0.370086669921875 -0.49969482421875 0.76953125
0.375762939453125 -0.521240234375 0.770751953125
0.395843505859375 -0.515869140625 0.74713134765625
0.36181640625 -0.4732666015625 0.768646240234375
0.343353271484375 -0.48602294921875 0.7899169921875
0.34765625 -0.504150390625 0.79132080078125
0.402099609375 -0.5428466796875 0.748260498046875
0.3863525390625 -0.4852294921875 0.745452880859375
0.3363800048828125 -0.46405029296875 0.787261962890625
0.07550048828125 -0.52777099609375 0.89703369140625
0.047943115234375 -0.5484619140625 0.89849853515625
0.0814208984375 -0.5484619140625 0.902191162109375
0.103179931640625 -0.50994873046875 0.892486572265625
0.070281982421875 -0.50286865234375 0.889862060546875
0.042022705078125 -0.5191650390625 0.891021728515625
0.053741455078125 -0.57269287109375 0.9046630859375
0.108795166015625 -0.52703857421875 0.89678955078125
0.0972442626953125 -0.48785400390625 0.88604736328125
0.1614837646484375 -0.18841552734375 0.7664794921875
0.152130126953125 -0.16119384765625 0.7587890625
0.144439697265625 -0.1937255859375 0.772674560546875
0.1732025146484375 -0.2203369140625 0.776519775390625
0.1784210205078125 -0.182861328125 0.759368896484375
0.16888427734375 -0.15325927734375 0.751556396484375
0.13543701171875 -0.16827392578125 0.76446533203125
0.1558380126953125 -0.22491455078125 0.781890869140625
0.1911773681640625 -0.21661376953125 0.769500732421875
0.0914459228515625 -0.2008056640625 0.7833251953125
0.1100311279296875 -0.1990966796875 0.78057861328125
0.08197021484375 -0.175537109375 0.776092529296875
0.072052001953125 -0.20355224609375 0.785736083984375
0.103118896484375 -0.232666015625 0.795074462890625
0.1214599609375 -0.23089599609375 0.79144287109375
0.1009063720703125 -0.17578125 0.772979736328125
0.060821533203125 -0.1729736328125 0.776947021484375
0.083465576171875 -0.23516845703125 0.798126220703125
0.2226409912109375 -0.3455810546875 0.80694580078125
0.244140625 -0.34466552734375 0.79840087890625
0.2044219970703125 -0.3004150390625 0.79644775390625
0.2021331787109375 -0.34722900390625 0.814300537109375
0.2395172119140625 -0.39215087890625 0.816802978515625
0.2618865966796875 -0.3900146484375 0.806488037109375
0.2245025634765625 -0.29864501953125 0.7880859375
0.18548583984375 -0.3031005859375 0.80328369140625
0.2181243896484375 -0.39349365234375 0.825042724609375
0.141693115234375 -0.35595703125 0.836090087890625
0.1286468505859375 -0.310791015625 0.821746826171875
0.120635986328125 -0.36114501953125 0.841766357421875
0.15447998046875 -0.40081787109375 0.848358154296875
0.1616668701171875 -0.3529052734375 0.828948974609375
0.14849853515625 -0.30816650390625 0.81591796875
0.108184814453125 -0.31500244140625 0.82684326171875
0.1315460205078125 -0.4052734375 0.8553466796875
0.17578125 -0.3973388671875 0.841156005859375
0.2701873779296875 -0.47735595703125 0.83447265625
0.2740936279296875 -0.49139404296875 0.83734130859375
0.293121337890625 -0.47625732421875 0.821380615234375
0.2634124755859375 -0.457763671875 0.829681396484375
0.248138427734375 -0.4805908203125 0.845184326171875
0.2523651123046875 -0.4947509765625 0.8485107421875
0.29638671875 -0.4901123046875 0.8251953125
0.2868194580078125 -0.4566650390625 0.817779541015625
0.2410430908203125 -0.46038818359375 0.84014892578125
0.17974853515625 -0.4869384765625 0.871734619140625
0.1553955078125 -0.489990234375 0.879150390625
0.1844940185546875 -0.50042724609375 0.8753662109375
0.202911376953125 -0.48541259765625 0.86370849609375
0.1733245849609375 -0.467529296875 0.86688232421875
0.14910888671875 -0.470703125 0.873809814453125
0.1605224609375 -0.50384521484375 0.882781982421875
0.208160400390625 -0.5006103515625 0.86669921875
0.1965484619140625 -0.46490478515625 0.858489990234375
0.179290771484375 -0.05889892578125 0.73931884765625
0.1808013916015625 -0.0435791015625 0.73541259765625
0.178802490234375 -0.05224609375 0.74737548828125
0.1744842529296875 -0.07373046875 0.743011474609375
0.1808929443359375 -0.0653076171875 0.731170654296875
0.181884765625 -0.0491943359375 0.7269287109375
0.180877685546875 -0.03839111328125 0.743743896484375
0.173583984375 -0.0665283203125 0.7506103515625
0.177001953125 -0.0823974609375 0.735626220703125
-0.00244140625 -0.0972900390625 0.774505615234375
-0.0019378662109375 -0.0899658203125 0.78216552734375
-0.0134124755859375 -0.0848388671875 0.772003173828125
-0.0038299560546875 -0.10369873046875 0.767303466796875
0.01171875 -0.10772705078125 0.775665283203125
0.011566162109375 -0.1005859375 0.782623291015625
-0.0126953125 -0.07916259765625 0.779815673828125
-0.0150604248046875 -0.09033203125 0.76446533203125
0.0109100341796875 -0.11651611328125 0.769256591796875
0.1632537841796875 0.00244140625 0.71990966796875
0.1507720947265625 0.0155029296875 0.714111328125
0.1637725830078125 0.00653076171875 0.7276611328125
0.172882080078125 -0.0130615234375 0.726104736328125
0.1630096435546875 -0.00146484375 0.712982177734375
0.1502227783203125 0.01177978515625 0.708526611328125
0.151641845703125 0.0198974609375 0.7216796875
0.1733551025390625 -0.0078125 0.734130859375
0.172882080078125 -0.017333984375 0.7183837890625
-0.0306243896484375 -0.0399169921875 0.752838134765625
-0.030517578125 -0.03564453125 0.760467529296875
-0.0295867919921875 -0.0252685546875 0.743804931640625
-0.0313568115234375 -0.04437255859375 0.746124267578125
-0.02801513671875 -0.05584716796875 0.760345458984375
-0.02740478515625 -0.0516357421875 0.768585205078125
-0.030120849609375 -0.02166748046875 0.75115966796875
-0.0298919677734375 -0.0284423828125 0.737823486328125
-0.0289154052734375 -0.06024169921875 0.753265380859375
0.1031341552734375 0.02703857421875 0.70977783203125
0.088287353515625 0.024169921875 0.71221923828125
0.10711669921875 0.0322265625 0.716522216796875
0.1199493408203125 0.0267333984375 0.709228515625
0.098541259765625 0.02581787109375 0.703704833984375
0.08038330078125 0.02252197265625 0.70599365234375
0.093597412109375 0.02935791015625 0.7191162109375
0.122161865234375 0.03143310546875 0.716033935546875
0.116790771484375 0.02484130859375 0.703521728515625
-0.0012969970703125 0.00567626953125 0.72564697265625
-0.0041351318359375 0.00909423828125 0.73345947265625
0.0135345458984375 0.0093994140625 0.723297119140625
0.0010223388671875 0.00567626953125 0.718353271484375
-0.0142669677734375 -0.00103759765625 0.730072021484375
-0.0163421630859375 0.00189208984375 0.737579345703125
0.0091552734375 0.01214599609375 0.73150634765625
0.0189056396484375 0.010009765625 0.715179443359375
-0.013092041015625 -0.0018310546875 0.7237548828125
0.0673370361328125 0.001220703125 0.72833251953125
0.0650482177734375 -0.00457763671875 0.733489990234375
0.0709686279296875 0.00579833984375 0.73516845703125
0.0701904296875 0.00982666015625 0.722076416015625
0.06304931640625 -0.0023193359375 0.723297119140625
0.0624847412109375 -0.00592041015625 0.728851318359375
0.0675506591796875 -0.00128173828125 0.74017333984375
0.075408935546875 0.01470947265625 0.728851318359375
0.062774658203125 0.00616455078125 0.71661376953125
0.0501251220703125 -0.00189208984375 0.730682373046875
0.0468597412109375 0.001220703125 0.738372802734375
0.057281494140625 -0.006591796875 0.73443603515625
0.0540771484375 -0.003662109375 0.724639892578125
0.040557861328125 0.0032958984375 0.7264404296875
0.0356903076171875 0.0072021484375 0.734771728515625
0.0557708740234375 -0.0035400390625 0.74163818359375
0.0586395263671875 -0.006591796875 0.729278564453125
0.0471954345703125 0.0023193359375 0.718994140625
0.1407318115234375 -0.11358642578125 0.759429931640625
0.1426239013671875 -0.12451171875 0.755126953125
0.1550445556640625 -0.10125732421875 0.753509521484375
0.140228271484375 -0.10491943359375 0.765472412109375
0.1248626708984375 -0.1229248046875 0.76519775390625
0.1264801025390625 -0.13372802734375 0.761627197265625
0.1575775146484375 -0.11279296875 0.748199462890625
0.15411376953125 -0.09326171875 0.759246826171875
0.123931884765625 -0.11468505859375 0.770965576171875
0.067108154296875 -0.12908935546875 0.77545166015625
0.0468597412109375 -0.12451171875 0.7760009765625
0.0695343017578125 -0.1397705078125 0.771881103515625
0.0874176025390625 -0.1314697265625 0.773345947265625
0.066192626953125 -0.12127685546875 0.781005859375
0.04620361328125 -0.1163330078125 0.781646728515625
0.048431396484375 -0.1353759765625 0.772003173828125
0.089752197265625 -0.14141845703125 0.77001953125
0.0863800048828125 -0.123291015625 0.778778076171875
0.1355133056640625 -0.08233642578125 0.78082275390625
0.137786865234375 -0.090576171875 0.776397705078125
0.1486053466796875 -0.0721435546875 0.7755126953125
0.1329193115234375 -0.07379150390625 0.78363037109375
0.1201019287109375 -0.0911865234375 0.78570556640625
0.1220550537109375 -0.10009765625 0.781524658203125
0.1515350341796875 -0.07904052734375 0.77099609375
0.145294189453125 -0.06536865234375 0.77923583984375
0.1174774169921875 -0.08160400390625 0.788299560546875
0.0649261474609375 -0.09759521484375 0.7939453125
0.046417236328125 -0.09326171875 0.79498291015625
0.0653839111328125 -0.1060791015625 0.790557861328125
0.084381103515625 -0.099365234375 0.792633056640625
0.064117431640625 -0.08795166015625 0.796539306640625
0.0470733642578125 -0.08575439453125 0.797576904296875
0.045989990234375 -0.10064697265625 0.7918701171875
0.0854339599609375 -0.108154296875 0.78936767578125
0.082427978515625 -0.08935546875 0.7950439453125
0.080963134765625 0.01519775390625 0.7589111328125
0.0745391845703125 0.0072021484375 0.764923095703125
0.0861663818359375 0.0150146484375 0.765167236328125
0.086578369140625 0.02349853515625 0.751983642578125
0.0771942138671875 0.01409912109375 0.750885009765625
0.071746826171875 0.00616455078125 0.756744384765625
0.0792694091796875 0.005859375 0.772552490234375
0.0912933349609375 0.02374267578125 0.7581787109375
0.083160400390625 0.0224609375 0.744354248046875
0.0437164306640625 0.006103515625 0.763885498046875
0.042724609375 0.00445556640625 0.771636962890625
0.055816650390625 0.0023193359375 0.7674560546875
0.043670654296875 0.0059814453125 0.75567626953125
0.0312652587890625 0.01141357421875 0.7601318359375
0.0302276611328125 0.00921630859375 0.767486572265625
0.0566558837890625 0 0.775848388671875
0.0549163818359375 0.00244140625 0.7587890625
0.031524658203125 0.0123291015625 0.75201416015625
0.114501953125 0.03997802734375 0.73992919921875
0.1029815673828125 0.03643798828125 0.74176025390625
0.1158294677734375 0.0372314453125 0.747772216796875
0.12628173828125 0.0390625 0.739715576171875
0.1125335693359375 0.03912353515625 0.73193359375
0.100250244140625 0.03631591796875 0.73431396484375
0.1059417724609375 0.0352783203125 0.7491455078125
0.126678466796875 0.03607177734375 0.74774169921875
0.1253204345703125 0.039306640625 0.731781005859375
-0.004913330078125 0.012939453125 0.75823974609375
-0.0014495849609375 0.0106201171875 0.765716552734375
0.00628662109375 0.015625 0.756561279296875
-0.0066680908203125 0.01348876953125 0.74993896484375
-0.0141448974609375 0.00750732421875 0.76123046875
-0.0098419189453125 0.0054931640625 0.7684326171875
0.0083770751953125 0.0133056640625 0.7640380859375
0.0054779052734375 0.01702880859375 0.74835205078125
-0.01708984375 0.00750732421875 0.753936767578125
0.160369873046875 0.013671875 0.752716064453125
0.1500091552734375 0.02545166015625 0.746612548828125
0.155517578125 0.0140380859375 0.759521484375
0.1680908203125 0.00067138671875 0.758697509765625
0.163116455078125 0.01287841796875 0.744415283203125
0.151763916015625 0.02484130859375 0.73858642578125
0.1472015380859375 0.0242919921875 0.75372314453125
0.1623382568359375 0.0020751953125 0.765533447265625
0.1717529296875 -0.001220703125 0.7510986328125
-0.0219268798828125 -0.025390625 0.78228759765625
-0.0153656005859375 -0.02301025390625 0.787017822265625
-0.02288818359375 -0.0126953125 0.7742919921875
-0.0265655517578125 -0.02789306640625 0.775848388671875
-0.0183868408203125 -0.03851318359375 0.7901611328125
-0.0111236572265625 -0.03448486328125 0.7947998046875
-0.0169219970703125 -0.01202392578125 0.779541015625
-0.027191162109375 -0.01458740234375 0.7672119140625
-0.0234527587890625 -0.04266357421875 0.7841796875
0.172393798828125 -0.0367431640625 0.76763916015625
0.1745758056640625 -0.02447509765625 0.76617431640625
0.1656646728515625 -0.03363037109375 0.77337646484375
0.167205810546875 -0.0479736328125 0.769317626953125
0.176239013671875 -0.040283203125 0.7615966796875
0.17840576171875 -0.0281982421875 0.75946044921875
0.16754150390625 -0.02215576171875 0.77252197265625
0.161651611328125 -0.04425048828125 0.774139404296875
0.1708526611328125 -0.0535888671875 0.7637939453125
0.00408935546875 -0.072509765625 0.799224853515625
0.01031494140625 -0.06744384765625 0.802734375
-0.0052032470703125 -0.0633544921875 0.799285888671875
0.0005035400390625 -0.0784912109375 0.79510498046875
0.0152587890625 -0.08056640625 0.798248291015625
0.0198822021484375 -0.0751953125 0.801025390625
0.00177001953125 -0.05841064453125 0.80267333984375
-0.0095062255859375 -0.06884765625 0.7938232421875
0.01263427734375 -0.087158203125 0.794281005859375
0.1212005615234375 0.01470947265625 0.77105712890625
0.1224517822265625 0.0029296875 0.7777099609375
0.1356201171875 0.01495361328125 0.768951416015625
0.1197357177734375 0.02459716796875 0.764129638671875
0.106536865234375 0.01446533203125 0.771514892578125
0.103912353515625 0.0025634765625 0.779571533203125
0.139129638671875 0.0028076171875 0.77520751953125
0.1314239501953125 0.023681640625 0.76239013671875
0.107818603515625 0.02398681640625 0.7642822265625
0.0170135498046875 -0.0086669921875 0.78790283203125
0.0049896240234375 -0.014404296875 0.790008544921875
0.026123046875 -0.0185546875 0.79425048828125
0.0292816162109375 -0.00347900390625 0.78399658203125
0.0095977783203125 -0.00103759765625 0.780426025390625
-0.0002593994140625 -0.0057373046875 0.782928466796875
0.011138916015625 -0.025146484375 0.797119140625
0.041748046875 -0.0120849609375 0.78955078125
0.01953125 0.00311279296875 0.777496337890625
0.1272125244140625 -0.0389404296875 0.787200927734375
0.1085662841796875 -0.04248046875 0.791168212890625
0.1283111572265625 -0.0517578125 0.787078857421875
0.1432037353515625 -0.034912109375 0.783447265625
0.125579833984375 -0.02490234375 0.786346435546875
0.10455322265625 -0.0260009765625 0.78961181640625
0.11163330078125 -0.057373046875 0.791290283203125
0.142486572265625 -0.0472412109375 0.7830810546875
0.143341064453125 -0.02215576171875 0.7828369140625
0.0503997802734375 -0.0543212890625 0.80120849609375
0.05694580078125 -0.06610107421875 0.800201416015625
0.0693511962890625 -0.0498046875 0.798370361328125
0.0430145263671875 -0.04217529296875 0.80108642578125
0.033416748046875 -0.0582275390625 0.80352783203125
0.0407257080078125 -0.069091796875 0.801910400390625
0.07513427734375 -0.06390380859375 0.79791259765625
0.0624847412109375 -0.03497314453125 0.797088623046875
0.0255889892578125 -0.04791259765625 0.803680419921875
0.0830230712890625 0.06622314453125 0.6884765625
0.087799072265625 0.04443359375 0.693939208984375
0.1103363037109375 0.05682373046875 0.6956787109375
0.080352783203125 0.09381103515625 0.681640625
0.0550384521484375 0.07061767578125 0.683258056640625
0.0636138916015625 0.04376220703125 0.6920166015625
0.1109619140625 0.0399169921875 0.69720458984375
0.113677978515625 0.08062744140625 0.6920166015625
0.0462799072265625 0.10333251953125 0.670440673828125
-0.0139923095703125 0.04510498046875 0.701416015625
-0.0288238525390625 0.02679443359375 0.714996337890625
-0.0040283203125 0.0245361328125 0.707275390625
0.0052642822265625 0.05926513671875 0.68890380859375
-0.0295867919921875 0.06854248046875 0.693878173828125
-0.0455169677734375 0.0440673828125 0.711822509765625
-0.019073486328125 0.01239013671875 0.717315673828125
0.016265869140625 0.0333251953125 0.699066162109375
-0.010040283203125 0.0892333984375 0.6761474609375
0.171112060546875 0.00042724609375 0.70172119140625
0.166595458984375 -0.001953125 0.7054443359375
0.184356689453125 -0.02288818359375 0.70068359375
0.1787109375 0.00103759765625 0.694488525390625
0.154937744140625 0.02349853515625 0.703216552734375
0.151336669921875 0.01641845703125 0.703857421875
0.17816162109375 -0.02154541015625 0.706817626953125
0.192535400390625 -0.02655029296875 0.690582275390625
0.1628570556640625 0.03155517578125 0.698760986328125
-0.0448150634765625 -0.046875 0.738189697265625
-0.04364013671875 -0.07147216796875 0.741241455078125
-0.0377655029296875 -0.04681396484375 0.7396240234375
-0.0442352294921875 -0.0206298828125 0.73431396484375
-0.0546417236328125 -0.05010986328125 0.73297119140625
-0.0528411865234375 -0.07861328125 0.73406982421875
-0.0364990234375 -0.06781005859375 0.7445068359375
-0.035888671875 -0.0252685546875 0.734039306640625
-0.057464599609375 -0.0169677734375 0.732086181640625
0.206756591796875 -0.084228515625 0.70269775390625
0.1946258544921875 -0.07757568359375 0.71405029296875
0.211395263671875 -0.10345458984375 0.706695556640625
0.2201690673828125 -0.09075927734375 0.68865966796875
0.20147705078125 -0.06488037109375 0.70068359375
0.191741943359375 -0.05975341796875 0.710357666015625
0.196075439453125 -0.0968017578125 0.7183837890625
0.227569580078125 -0.10968017578125 0.692230224609375
0.2127838134765625 -0.07086181640625 0.686981201171875
-0.02777099609375 -0.13128662109375 0.7510986328125
-0.0195770263671875 -0.14825439453125 0.75701904296875
-0.01611328125 -0.1209716796875 0.756439208984375
-0.0341339111328125 -0.11334228515625 0.746246337890625
-0.0410919189453125 -0.142333984375 0.742767333984375
-0.035736083984375 -0.161376953125 0.749725341796875
-0.004852294921875 -0.13671875 0.76104736328125
-0.02484130859375 -0.1048583984375 0.752288818359375
-0.045654296875 -0.1241455078125 0.73773193359375
0.239410400390625 -0.1776123046875 0.727508544921875
0.2175750732421875 -0.1771240234375 0.740570068359375
0.2542724609375 -0.21270751953125 0.734954833984375
0.2601165771484375 -0.18072509765625 0.710540771484375
0.2266693115234375 -0.147216796875 0.720428466796875
0.20672607421875 -0.1453857421875 0.73248291015625
0.2321929931640625 -0.21270751953125 0.74884033203125
0.276123046875 -0.21563720703125 0.716766357421875
0.246429443359375 -0.15185546875 0.704498291015625
0.00665283203125 -0.2208251953125 0.787841796875
0.0159454345703125 -0.25408935546875 0.801666259765625
0.02923583984375 -0.211669921875 0.788970947265625
-0.00213623046875 -0.1920166015625 0.775115966796875
-0.0171356201171875 -0.23150634765625 0.782806396484375
-0.00897216796875 -0.26544189453125 0.79705810546875
0.039886474609375 -0.24530029296875 0.801513671875
0.0186920166015625 -0.18206787109375 0.776947021484375
-0.023651123046875 -0.20355224609375 0.769378662109375
0.3100433349609375 -0.20465087890625 0.628997802734375
0.3182525634765625 -0.21368408203125 0.59478759765625
0.294097900390625 -0.17694091796875 0.62408447265625
0.2965850830078125 -0.19439697265625 0.660491943359375
0.327850341796875 -0.23614501953125 0.63525390625
0.335723876953125 -0.24560546875 0.60107421875
0.3021392822265625 -0.18780517578125 0.5908203125
0.2811737060546875 -0.1680908203125 0.655548095703125
0.31414794921875 -0.2275390625 0.666748046875
