# XYZ point cloud file
0.81613163495622487 0.15293401791192629 -0.37676380726433223
-0.39649287678452083 0.0101164439870296 0.38467273564691595
-0.78570875475548618 0.12766648523197976 -0.21330797574054827
-0.78251747329397858 0.24001955592086732 -0.42838187967603503
0.22018519662725566 -0.552149874849577 0.91692111583240887
1.0118744421290771 0.13322268702279239 -0.32528082076399656
0.90148833089043379 0.02049298009249112 -0.3050519862529697
-0.40739922647154359 -0.25205328640323676 -0.43512265692880092
-0.64028127283403791 0.093135298285385248 0.24843707361409528
-0.54775559861948508 0.52150194013132145 0.51255983875749678
-0.71165098642853408 0.0078087505586106332 0.03411574455178723
-0.16151182451287482 -0.086773152842364532 0.68743528757050143
-0.41983937923497194 0.70346568730911341 0.46329793910960859
0.085350421648115571 -0.34547920339727645 0.32595956635484313
-0.42400319610541715 0.40648161883023803 0.63211701553912647
-1.1207459588657365 0.023656595072430786 -0.66715192776714005
0.1153061585427686 0.66432807910350411 0.5830595789125681
-0.17697550246759874 0.46692218675104646 0.61233899999286123
-0.95158747972606683 -0.013337129390161628 -0.45612680981102116
0.18196146847980543 0.57051854820835868 0.67774118406581252
0.55249001893342609 0.67819813500916282 0.5739013128926338
-0.16039634976405637 0.76804584679109256 0.17137594180525895
0.14549726985734779 -0.39964372912331614 0.94181169721713687
-0.19861689352611478 0.58550783794438499 0.57682351986820279
0.29987864870859582 -0.5530967502176436 0.89919465244580721
0.79749227235309306 0.21750530382373467 0.050269933002311973
0.14738650225094219 0.43913053051946516 0.65956969376175323
0.12104809848422349 -0.41919078332931115 -0.34612894274352257
0.22519941219064776 0.037475621489216904 0.74173256358670514
0.07252606641920778 0.14665126347694613 0.80569092692685729
-0.39576960301583597 0.45997898743957011 0.65203077238582807
-0.12492752615546721 0.68547918889615733 0.526478711757985
1.2112146687684628 0.2826440583622003 -0.33928822905257405
0.093573225495138246 0.41253331856809172 0.56931542890400522
0.013583441138184327 0.26901209157425376 0.69652805897576542
-0.26268292150589545 0.64939257052361032 0.54581782529875866
0.15176078380444835 0.91059000691522296 0.47402155507479904
-0.7442754183065432 -0.00058872422851630191 -0.25082633184432979
0.21844559962760357 0.49694684527972988 0.69907740295782617
0.28741796847415202 -0.1702874167868953 0.47928850616705176
-0.75124881701667334 0.22352021498662999 0.20318308000586072
0.50557795724881771 0.52636895487637236 0.48119353501101259
0.061240000911062964 -0.54255591691057781 0.95864787096637372
0.19043170262590792 0.68494229434537846 0.57897645956651544
-0.57655086080988838 0.40073645766943333 0.53425962342200961
0.70695897674276154 0.6050850454566441 0.035216387245590397
0.8642860518755171 0.11096102874384339 -0.25385984750980484
-0.324679971800375 0.67330423748265322 0.28942881214312877
0.17944023002677412 0.41610003081321456 0.66854712148035134
0.38150616863223163 0.51595319208868218 0.64526189433365744
-0.10461039718928689 -0.60123309500110023 0.86234939202199001
-0.88174302449889197 -0.10994631158519308 -0.21937326778564881
0.31664306979724444 -0.19984473129519431 0.26198777725938527
0.87477454628396245 0.30601200321336819 -0.21854391492697189
1.0299197654371142 0.21100266470398577 -0.33141211951975436
0.81929719016185842 0.34803540525254251 -0.23937176761564771
-0.1409337671535873 -0.22905691118079297 0.5043823033803001
-0.77098175595590135 0.006809819405511508 -0.32912875969843114
0.10815385914095543 0.52846693147557744 0.61766893616336915
-0.88648510353598908 -0.11676546514738462 -0.15587919033879771
0.9641147085737245 0.30545511047435925 -0.23758884310599981
1.1324284505578603 -0.079809130836184572 -0.36555673139596223
-0.31527003786308683 0.52050296573723276 0.62079922231436413
0.19865182623755828 -0.53659574613346983 0.93452396172131813
-0.51566672184052464 0.63407825662881412 0.32846107364996868
0.83504192335406202 -0.048049009391643249 -0.25624864189884633
0.28233563400887363 -0.030266378814548744 0.60254535298062351
0.083971619640550443 0.16593571798456974 0.76363268668766437
0.39748896440604042 0.07188493927863715 0.50743676051441611
0.03997376736349878 -0.43064298445809035 -0.34884902316418831
-0.33569471197261791 0.41679991470946776 0.65111419163094553
-0.9590723197891684 0.19012704761041022 -0.66183331948852242
0.22028173963651909 0.15637262530190599 0.70032987202367991
0.3093094069067952 0.055302051594672941 0.55409810153391348
0.97813617744279568 -0.20144943755765077 -0.27533647487032198
0.26445411950285092 0.6556508893474573 0.60025938576874793
1.2606569644545971 0.18455515063888628 -0.34507321838334093
-0.41228968933156551 0.7432286669227941 -0.49983828593967772
0.15310274201683427 0.54764086926813993 0.66589510674622332
0.64674053462491798 0.23890674828964298 0.47688794429310732
0.077181476547547589 0.026224695321763969 0.83477717268752016
-0.53200445991391376 0.25912973279263241 0.57418091442830388
-0.30484823681560869 -0.091094262489252564 -0.70798058952125231
0.15319821530492916 -0.52829581525066804 0.95846578117581416
0.14623086779772621 0.54154290260093962 0.65098183602543358
-0.46062855240467471 0.60686629095102751 0.50086703963589585
0.51059282001025608 0.46199803323537347 0.59021692306930973
-0.024333205470107089 -0.42601077582438629 -0.029716974321683409
-0.13825459267933837 0.10644667501230254 -0.85042941659456517
0.25390805725023213 0.40150358890453575 0.66867439301788778
-0.52169684352293544 0.85425937751266723 0.37267699829647327
-0.94927652324636114 0.061554039721237519 -0.53722599590485487
0.64619429983229537 -0.11413341138163613 -0.03868125916932641
0.75323523165568673 -0.046258216776485561 -0.17379112212153203
-1.0259995074987174 0.056350862193244922 -0.61199940783865614
0.0079385578946968849 -0.19832566459542544 0.88054203420469079
-0.99743240140405121 0.065316868888769086 -0.59619561521775566
-0.65470680092448674 0.5829574737581702 -0.22422266887847186
-0.34826572982916204 0.62591057681979323 0.52127629482073701
0.43719704013597749 -0.36949501814885877 0.70018137852042273
-0.62224176865222347 0.37728021528262834 0.41400980008393518
-1.2292183176021219 0.0020461622636598342 -0.69883597294643351
-0.56567195425581218 0.64032590460387329 0.42590215094159589
0.44251536072205866 0.10678783676260428 0.53753388769672839
-0.81250693883768932 0.33324633766831924 -0.18768812922419542
0.16602911347878191 0.56989674490358155 0.6739260200189463
-0.17665231926896041 0.36716346445485959 0.56953336026260715
0.37179815228797963 -0.24172287145877269 0.75184644240418308
-0.30961693766886 0.60860289739688056 0.54063850274254222
-0.31387615295546922 0.38487901424773485 0.64431484582035381
0.1094499867012857 0.069571224855174973 0.83792166072532481
0.088670696977530383 0.16926531809904666 0.77136945745489172
0.11973432503519632 0.48138359486133586 0.64249122277499993
-0.46076146398254636 0.63562991681681746 0.47762412157009138
-0.062307024409559375 0.27285469393292294 0.70994926282234871
-0.72145424351088749 0.01843019974384541 -0.50821262994460881
-1.2359350667953972 -0.018916803913542779 -0.63006865896997866
0.88166048668259833 0.29991369164799941 -0.21009818007400227
0.061444755908336646 0.9379306184104409 0.42936288518227528
0.58385737204513788 0.70895824340338365 -0.29892131011120071
0.17922279205505731 0.048179709787876224 0.80216784390470508
0.014763607901883802 0.077488106261217604 0.84212644731276143
-0.047305677840160598 -0.63582003591075065 0.89687464693104957
0.14294725636149153 0.15062399293421791 0.75111892298919969
-0.64785298487537091 0.33578464342443615 0.50405439867764912
0.64794728475028407 0.61297487542290829 0.13193969873414346
0.041546814719154668 -0.67001480924806289 0.7782084081935281
0.012198311719146204 0.17028004940310959 0.7755752502345814
0.23235248065250502 -0.57503374234343752 0.93382268297140669
0.12810230795767197 -0.24473290062192699 0.89245272553225163
-0.38047840690753887 0.41796659196365926 0.65613042697570023
0.52913617968248161 0.74784494630615361 -0.012687106820159499
0.24679940688706026 -0.38360955668044294 -0.15647106290556678
-0.60232314033025958 -0.061292793454827965 0.094559633860935577
-0.57028629057147739 0.40488196368015672 0.53390525287501589
0.84497527761757496 -0.053516652735089654 -0.26644175101152712
0.26714756157916497 0.0041324641711522059 0.53237937249535605
-1.149753059786125 -0.060735464897595293 -0.57641188394591936
-0.17383368311547542 -0.085663440360094878 0.56811134201920765
0.19517866218656721 -0.5845360522386347 0.59417523738750688
0.53551045606976544 0.316458918889301 0.58336130299758793
-0.012024679666517102 0.081927469937222108 0.83696932755897535
0.93716942928797664 0.085589020587314213 -0.30755842340753148
0.23520961948400299 0.64791369100917029 0.64229122626479551
0.5049523377731191 0.70276071377658589 -0.42824309671507166
1.1616816149618714 0.23024335310600108 -0.38054761384614366
0.061516035308663675 0.58355412842031884 0.54984235357850864
0.86901249918689771 0.30401088559205691 -0.23640215154884814
0.94196307190486905 0.24017816683479998 -0.24686569986196716
0.24777402656100378 0.0053775125025132819 0.72622428896812607
-0.20273561988319955 0.36460790375199148 0.65511372317337901
0.27461745787036307 -0.43913156414825738 0.90698102089623589
0.22279267831945759 -0.07350931096650748 0.79969943258093679
-0.17585154137838543 -0.40926545871521602 -0.11227440976282921
0.33042028215524866 -0.14541309785533607 0.73434403475467036
-0.21191173893737769 0.52668319059060209 0.51342227150904307
0.17997902644566111 0.6719240504815438 0.58118689646492427
-0.30468153864416792 -0.21218428767629405 -0.60708127662134004
0.27533358531594487 -0.55274908089231189 0.87431710616823466
-0.029281283166454841 0.15992235695283696 0.80579837807691845
-0.87544189999285038 -0.0023209284249481321 -0.41703222827855058
0.13422385408593129 0.39006941195801392 0.60035288934142272
0.80736249377085656 0.043819388528548942 -0.24097969786052076
-0.8998210153479711 -0.046595870445526266 -0.3850397750554464
0.35450767244677195 0.37829188889404075 0.64835585233140947
0.064961267442651405 0.89445198917460722 0.55014728794326828
-0.89343533204151981 -0.06483419861116424 -0.36017734627440845
0.61690244587233778 0.66555993139587999 0.06910257373173323
-0.031143645974047729 0.86080592141506096 0.54873759226774865
-0.37898496023179007 0.78829287011343308 0.48386455556117625
0.10250747192645093 0.7645480091857938 0.55483680507864719
0.73520032303084903 -0.070140679247214788 -0.13981620094466862
-0.30624705275243258 0.6448294163983137 0.52483473649793666
0.075655062932376893 0.87693202534292769 0.37498860639358611
1.130066948273047 0.21502991052806397 -0.36890674262522438
0.5146644311446984 0.48840496562391533 0.58455202938116457
0.14467317602857577 0.58848299614758182 0.65240311655648853
-0.23938819861005101 0.51053213066633041 0.59829653326151089
-0.88509368182663195 -0.054071267352992169 -0.369495401971907
0.13316575246802387 0.4692286654840051 0.64290187688378708
-1.1146190613745315 0.14742373480369908 -0.74159098595600526
0.93127118629233507 0.21764474540952206 -0.35986029636412553
-0.011351155727343354 0.16769579315227334 0.75841523334099747
1.2197038118449903 0.12023965876588294 -0.39052778934269483
1.2221109807483685 0.019134233363959918 -0.38594229881877595
-0.36390238084828397 0.46932892222074996 0.6561233692544981
0.1672735026604073 -0.56557888412623059 0.95090628569505498
-0.70368831551994049 -0.032485634043826206 -0.017075843052435147
-0.81513418892237866 -0.094403625844377892 -0.26337805937729541
-0.16701108262141062 0.87862264292690129 -0.25176127880261845
-0.29416375955894836 0.5680482733598986 0.55108300962631773
-0.46223372156784848 0.44461702921410673 0.62729646494474522
0.44449547240875731 0.81687368580779562 -0.25513516270797609
0.17973395920134294 -0.39717542644147441 -0.052024520679768926
0.13511193872664862 -0.61681559683045295 0.93369229202911797
0.028208377697069409 -0.64957988543963019 0.74812858029131846
-1.2316446798151439 -0.027988676493699849 -0.68577746527932604
-1.150949074787647 -0.026743795816469351 -0.59046319415367066
-0.56182563522947859 0.56501170383863364 0.44713208397191195
-0.87113391470454005 0.10845777585752048 -0.44483943924241842
-0.76619308057281543 0.061748573035316667 -0.2781912787841172
0.32626177377335353 -0.50772459429172767 0.8904156896153772
0.013513244392239443 0.10064225877087996 0.84241775836542843
1.136877293584778 0.1879010450834615 -0.36180574725667469
0.44653220221367818 -0.6679664203876774 0.7727061524844121
-0.08127375052774255 0.77675401173451142 0.45238557684320213
-0.28612768208107298 0.55987976576944265 0.54589593993878793
-0.16888679892937475 -0.267354482585483 0.74223370545580281
0.23657157447595623 0.68373210975566856 0.56072172666046072
-0.43027145151734913 0.64046199905035195 0.48577498731591007
0.53665538119025058 -0.18924746283848437 -0.0840912020354736
0.26428800608505298 0.0064882175914349194 0.60150187057868365
-0.031538932759037408 -0.35158565364440131 0.28548155966231548
-0.53521404115264914 0.65517895081384814 -0.54178834726252489
0.14598512730263735 0.62405662451830435 0.62407948148610615
0.090787119823410478 0.63055114006532476 0.59235275218676264
0.19797403328000129 0.70560236945757893 0.51239558404532559
1.3477961420723528 0.14926206379510099 -0.38431600500562801
0.72902758615808594 0.40402965360528009 0.33924018470613859
0.15142809380161637 0.47851788567253062 0.64723162950564017
0.89753506399074467 0.14360270445588652 -0.2637836950877066
-0.76714224026725475 -0.031691750725041601 -0.32987958472464385
-0.40825162138368398 0.76402485174293555 0.26997995092282068
-0.66121881440261987 -0.16347054397639216 -0.13618450566985629
-0.41684163845270206 0.59872501216104634 0.55987207923148574
-1.0742503901523381 0.16912652529068795 -0.70731141716317225
-0.23371322479199463 0.058459687843425368 0.55906557474935425
0.78909978107670042 -0.021263266195477915 -0.22989019239500763
-0.82811741125791016 -0.10203557944591513 -0.28623923948049779
0.43448121553501906 0.12945786379485913 0.56284200639042581
0.15657612654840847 0.70689540890628944 0.48694619330271394
0.1273883419730133 0.085140414309671897 0.83477929733445322
0.24402835058278427 -0.51769320939994623 0.86705198426542296
-0.56010812644969832 0.59425414834671364 0.46359177324942991
-0.37019499112149745 0.82687357292048969 0.41988870251531196
-0.33974089607537294 0.60190960101849966 0.51173077775573006
0.33431993639038282 -0.358524578996118 0.85827539519898366
-0.09413501321938611 -0.29513375833564925 0.39987997219846605
-0.16653967273745707 -0.041578905798202781 0.59895207453803323
0.1494110815026346 -0.45677699446982456 0.94957113460511167
-0.74956815593819215 0.023538094937970211 -0.49564504462638936
-0.10720012335954721 0.69528886275904356 0.55090802305481645
-0.43926203818395138 -0.24912205668733955 -0.27718952186830847
-0.37454227504960969 0.5842092833024739 0.5748671051585994
0.37540181310976806 -0.20813425842647559 0.67641751964512409
-0.76938739656419131 0.45237361838683032 0.054263171081785799
1.0398257175022714 0.23969036433668478 -0.32594448551714095
-0.61110424688776988 0.73269331572937924 0.24081794135953061
-0.19591762275905467 -0.40260780045601097 -0.30917599111970873
0.25856094139798103 -0.51632920607179744 0.86171726187129138
0.27951563618287878 0.77144083488624426 0.38532613134233173
0.09113173022968013 0.67423306123366278 0.49517480125783919
1.2527512188867114 0.12383509609305365 -0.35961530704823019
0.25714537837130891 0.64654521736766357 0.63658908372486422
0.29515061782770502 -0.51430184534141565 0.84874037291577054
0.91415351908344178 0.11511015348693077 -0.29498199483652954
0.17582778864525395 0.15511712222011531 0.74673717834701137
-0.25812768242589357 0.42229737950815116 0.62199088943873093
-0.088215580864773102 0.55511442441095948 0.60741024156414269
0.19133438166000261 0.65545695224144107 0.61335132345156396
1.0517025245940168 -0.11277690596641676 -0.3247683221403932
0.64556575861680443 0.17188842020358708 -0.55217664697928015
0.47411646567001497 0.4183114631996232 0.61134471329162565
-0.51599607747176179 0.39305353568987345 0.56491900705450249
-0.64613877552782384 0.50003737038878016 0.44876248586212952
0.81497835501780003 0.040476576880313253 -0.2554697860319628
0.33606617819953044 0.58773749077403581 0.64896392215089449
0.76637964140123316 0.23111965626118192 0.1520799149123846
0.69348873472471695 0.34525115291041764 0.47619952440042823
0.27973255394389085 -0.556281466573187 0.88432484922442356
-0.044671988277627861 0.06036739003850089 0.78746775682067494
-0.66548253130954649 -0.15081362072093452 -0.090575614206926502
0.36416013294577709 -0.21292445054649312 0.60210803904909582
0.36840716350609171 0.61447392022030289 0.57721622664749006
0.16350243713281287 -0.6950288590595961 0.75171406198584734
-0.61737928483402271 0.50922476192623323 0.44618389247449031
0.52563449788870642 0.16894980348148603 0.53841333227839527
0.23159261211456439 0.38399233689320833 0.66949797243684372
-0.78863221987587195 -0.012601213061855798 -0.37000283855537219
-0.022588307222992654 0.21340281127927607 0.73129326494504454
-0.057031454241023738 0.68240436693606299 0.37332403746319898
-1.1588425648245213 0.056360507702235108 -0.64056396466174093
0.2694283020242878 -0.45068587916515579 0.89312655394226681
-0.79378799064812711 0.38030870789648064 -0.0052604097238067027
0.80327746885421192 -0.03305029983117036 -0.23751733786373919
-0.19583515668822571 0.43642782870793206 0.62528071394645579
-0.59943132069907534 0.23611435882571108 0.52905627294236623
-1.1227751195174562 0.028562954259903517 -0.66649907689374288
0.0073961111445761674 -0.38120673687853923 0.18947557690939831
-1.0773543084080934 -0.0016106021551753891 -0.57127224241005337
-1.0382478289658472 0.010778388343161804 -0.54238338781559747
0.26880503345222095 -0.70955410342246461 0.77692755963550653
-0.50669695055562514 0.57423503487269034 0.53637903968967748
0.29728808148395913 -0.39623812925375979 0.89288445426035778
0.43132679817805908 0.34068069724700112 0.60421577531677428
-0.72558368497083947 0.61973935388407031 0.38606389436840161
-0.50051018153711979 -0.20469687824796079 -0.17829613400794386
0.67122637288006004 0.16446266261998721 0.28768131518791407
-0.34037945152532956 0.59962112263710399 0.522401670389673
-0.34758448646946505 0.63325337206869248 0.42467030319659571
0.08882072384350792 0.068941550050936939 0.84045867034799571
-0.44781515675410333 0.76232002334686633 0.24864186753181272
0.17391897236868914 -0.3317041957078759 0.42862999703987725
0.47084787286349084 0.53905464862267793 0.52756722865247241
1.2385916028121819 0.050464914745931289 -0.40583349253602918
0.89261125133683095 -0.086189873546164364 -0.35750332637782734
0.49375951041160704 0.36987487755611559 0.60094970857493024
0.24773485180427812 0.69196118888568192 0.59177769001426839
0.43863529836841408 -0.69825253596946579 0.63129732906589808
0.15399660507621249 0.147108713312877 0.80077264401923287
-0.6217939745139951 0.63894278281469186 -0.283994722297642
0.55858930774413196 0.38620864328734816 0.57474525848330771
0.179969565517343 -0.62716063554794443 0.63253630233010227
0.043334336985825672 0.61572864693174856 0.48966228804263778
-0.82549711224907441 0.1633599728272972 -0.40452174282002318
-0.056772310630247347 0.92868167017636361 0.47456618480116575
-1.0144562322431518 -0.1325591465473801 -0.37943651122020938
0.68588454041107383 0.65515605726590787 -0.077848255320930093
-0.77315820005761182 -0.017462157881484863 -0.3536877612488496
-0.94815843876826023 -0.058327202674555156 -0.40585416299641608
0.26665630492881931 -0.0024488919767380324 0.66735128617877848
0.40080266710696577 0.66425720067337934 0.56835952740945928
-0.68067780206308726 0.010712493308384197 0.10309838826999851
-0.039440738720980306 -0.31318919596504791 0.9040666863519462
-0.81926890981957712 -0.1012018629074154 -0.17724010032036475
0.53497322716030382 0.3915312246873226 0.58394691059438841
-0.99793437649963401 0.18264185727020932 -0.61709257437900078
0.10758634509142695 0.54381852153281807 0.60692868992067872
-0.11272304544272416 -0.29834592683233252 0.36093346897461842
-0.7858078373176447 -0.095687237840474726 -0.16492241094385207
-1.2279590213242866 -0.011752972203840972 -0.61460331289263692
-0.42247686473801238 0.45174540054727574 0.64505810599784397
-0.62544071021170922 0.34476615551201639 0.51608465124684955
-0.059239119838689902 0.82067060717778673 0.10743882058058318
0.36610097826308419 0.75270410259576337 0.58358554360572157
-0.3415378123549857 0.5565368453952152 0.6032824369470724
-0.092755113893463914 0.71023624197498525 0.46867059347383133
-0.78033162561633418 0.3576106149949565 -0.41509322546491845
0.34404821697259536 -0.32291127587483937 0.83622408924934177
0.81986501349689789 -0.041607802232527025 -0.24645965868515773
0.15557845461255937 0.025181015125652628 0.81011913507304456
0.95720341228992112 -0.079463317932038979 -0.3048509090892928
-0.12188135441320469 -0.27491750409779359 0.54484550761887007
-0.26078546143596171 0.58520274774689962 0.55978655129267096
0.0058331179136530409 0.087783700408164522 0.84264090870656005
0.92337773847649984 0.12174479088703016 -0.36994968073006973
0.11557338469404854 0.17245754058714402 0.76674235636703258
0.28177424514273852 -0.044239043731981509 0.52183243408500957
0.43095778913261285 -0.074699687778797319 -0.63322236938228826
-0.001741772355270399 0.82308351933692414 0.37885236364649799
0.94346792020036929 -0.11537407428902258 -0.27969478012452242
-0.72774117950702077 0.52998571377588699 0.13411348659557376
0.011646932688481826 -0.33312226740783135 0.44001501092413164
-1.1641861214904043 -0.039093060115448885 -0.54211961048271462
0.38171612939305888 0.05555609845598708 0.4766341183072349
1.0716649176616677 -0.040766029410179261 -0.36321276606726016
0.57934912234589575 0.71629345036800718 -0.0015347751240035734
-0.28677644251566292 0.72325410376038368 0.35517973526911462
-1.0217322517832716 -0.18180988102774176 -0.26096493323457182
-0.099715604663813906 -0.29369623404303535 0.52581530623303507
0.36768669179645386 0.62743861786308597 0.57324720294315412
0.92452723220008082 0.18034784833690232 -0.26536297600075187
-0.88933383397553456 -0.015143665334339307 -0.41238358971619249
0.99326692606270228 -0.15694737956326232 -0.38859629575285837
0.43191707162945292 -0.57255975036428297 0.82897533181686001
-0.049279595880079796 0.0348220948074347 0.78659785529967863
0.12495064020667357 0.12854735582147048 0.82384062749973452
1.184110448460828 0.28298959850044714 -0.34428980174884671
0.22834932675654329 -0.51760020455613232 0.87249137427884804
0.01292473253413462 0.033408330746152348 0.81672271330133128
-0.53995186227347958 -0.083202076119308632 0.12361720904779006
-0.80325415713447512 0.22372822896906341 -0.018773425504207353
-0.66677686812603199 0.073271383448468619 -0.59818282128084732
-0.47885691716128065 0.37543302387352029 0.57892395523152373
0.39470171658408759 0.6568225793134026 0.57239084423612852
-1.0491264038093711 0.059581079829677197 -0.652385431434503
-1.0765344608998522 -0.092268289876974219 -0.49072869572452404
-0.016986989400180619 0.9362170688924315 0.4194112525307645
-0.71764484826606179 -0.042561687892151756 -0.12672852562203474
0.27994244268726476 -0.56079744490528571 0.90637238988948354
-0.25272922546810861 0.56172305632445152 0.51134395520680087
-0.88442026939518215 -0.11205567778538406 -0.23622453874824956
-0.80849982767973572 -0.042169977480509768 -0.35427525864242426
-0.82217199477022262 -0.099298511719752902 -0.27575081445105809
0.045950535776594137 0.14686874871339617 0.76942121738137814
-1.0783642812261132 -0.18629084198112178 -0.33671826019645934
0.43211428811555308 0.34102399631838054 0.62748448767101195
0.23710715272354932 0.63733640279956427 0.65046308537677433
-0.065490181907659206 -0.64079130812861962 0.87162268912350882
-0.27936439796908275 0.57785487787300738 0.56109664426714545
0.27837935331934816 -0.065103004568684675 0.74450392461235637
0.097830594963856043 0.9330697808982874 0.46425652277639173
0.17311322772062354 0.017351054515193587 0.79342221073401831
-0.43170810634084589 0.81652395246130971 0.27608881818544262
1.2077321833316432 0.058709847940637161 -0.39481766906125415
-0.2687817743416403 0.56146437520735804 0.52953537579665166
-0.15717352710227672 -0.18657938821359688 0.52099006334673348
-0.030860128444547996 0.17957828993544833 0.74764491385015575
-0.83217132713425102 -0.060521694240139201 -0.34190951755601162
0.56099361849592455 0.45619702563526787 0.57090412977049354
0.07958787156626812 -0.068613906684561687 0.83311542608281997
-0.01993211977994136 0.86745299400825027 -0.37544411179707993
-0.4536831681944129 0.84016309104512732 0.42816205413981123
0.1822148371003145 0.42007613893030749 0.66710625870389251
-0.82408187443961722 -0.090596309465008851 -0.28371960903383453
-0.14556154121375542 -0.33008503005096923 0.64161199278831305
1.3054812814949948 0.092855727560310353 -0.35531903013650812
0.11269473340223612 -0.42805212558166872 -0.15592466285067275
0.47401949186629722 0.49684998758031518 0.58979118371638961
-1.1125554715844466 0.0036806519821110939 -0.62789952304093433
0.14438686412674073 -0.43807733912025704 0.95048059818346431
-0.12462576405270909 -0.045225480900504156 0.7362632698013023
0.27394409183522939 -0.17934407920194761 0.42828206180006489
0.77091705564919621 0.30005584971037935 0.16422320074978458
0.99048088420035185 0.19105470735749419 -0.31314485849624063
0.15078520500724579 0.4424991855479945 0.65765267075734002
-0.39696668755705389 0.66850975090510811 0.48233120005437513
0.1882018348272041 0.88658894817987166 -0.30216259002311929
1.0345513301990579 0.25152412773762123 -0.3140058835168098
0.13939949286749709 0.45439492400695514 0.65226199237458005
-1.0314222671176481 0.1727783159437366 -0.64784478448303773
0.77768618857716376 -0.15945197047640036 -0.14004378552585806
-0.36613705009915165 0.4540823183217384 -0.79285248141710341
0.37151886553107971 0.33815904086857707 0.64950911393883715
0.47784182266353881 0.37859626765393672 0.60881233310794514
-0.063053331654117528 -0.15732256761836294 0.84427056265086264
-0.75134865294178965 0.053936709482709233 -0.033499197022923255
0.17254076493462733 0.55302425771027675 0.67974331796214216
0.10321382992784933 0.16187732505661012 0.80001244300224883
0.90211178672052128 0.13482817789176993 -0.27538997915292995
-0.5274829124901288 0.63477016249945029 0.45008055896613541
-0.31486651156986056 0.603342423860462 0.53980117056802612
-0.68509614346919179 0.50462103006319992 -0.50075385214536539
-0.79846228541851261 0.31195572686580486 0.15608446559947708
0.0063814982503060946 0.89286997854126482 0.54507091016832376
0.31638067752710342 0.47325935136581487 0.69606478608848832
-1.0132355466861789 -0.16201062691183887 -0.43040251328593016
-0.81389569209575896 0.097675246077530087 -0.54890276836067642
-0.7396823275894846 0.48384945290957715 -0.14010246737791832
-0.58255657475695344 0.64014725422760965 -0.096518102102621128
0.49968968056606045 0.30544741418122578 0.53019178371485154
-0.73017850830713726 0.00074976699263107349 -0.11619135805916514
1.2139313561831067 0.21364166490524372 -0.38923467223678543
-0.038346767372775759 0.15099013749035439 0.80676457010076064
-0.63841736882719147 0.52030827267954094 -0.56808262455931313
0.25141168890969467 0.45746109786465361 0.69993712985565182
0.084042538856056836 0.39942776118420542 0.55028115778775444
-0.16358923525357127 -0.31631459430483222 0.76403489950789094
-0.57608482661410676 0.37119462648819479 0.48848385034232322
0.63919799301550029 0.64093469191391494 0.53739601690211103
0.18390646117496345 -0.65732545898652828 0.89610755556050137
-0.096578290792319166 0.717549929339518 0.54790042093513236
-0.04238718725786228 0.71952711081355436 0.5834088772626238
-0.1630951662360971 -0.22470270735689879 0.76279874356928801
-0.27709007053818624 0.7526117530562666 0.41252206979323347
0.10428372752821957 0.17372735366460201 0.77602030946749423
-0.32159432815534217 0.53720605818567679 0.60345958511650011
0.54385988456222378 0.62321371395442959 0.56831285286250832
0.051983686273356255 0.58623691970339709 0.60535755483028098
0.1621328335971306 0.37294115858417509 0.66696693282669273
0.1097527469222328 0.70142845601360582 0.43601138462153344
-0.85035837889924792 0.080275835411875995 -0.42294143875288626
0.35917568252290266 -0.54466986622969538 0.88748197171266696
-0.28510017260935427 0.62864631803493209 0.53691294538286272
0.69331023927645674 -0.11195367865855133 -0.10102988428927162
0.60411036250324202 0.22571471859414172 0.51530270945092127
0.66979890561453814 0.56781888295254435 0.34612745902031605
0.048509843407096298 0.58096474714480706 0.52733146332672831
-0.080108578556707499 0.69896519953867364 0.44257789920438384
0.23275934641859308 0.39099130809191118 0.67147204635387681
0.96913937143311557 0.0060043545243644303 -0.31718354592789311
0.68772759201803169 -0.16550960158930472 -0.13769803730835761
1.2266169544907584 -0.099099067450845624 -0.39084756855762492
0.60998846281782448 0.69484983833387437 0.48558663314987882
0.35529219633240672 0.49582070354941243 0.67898763344078006
1.0133325260226123 0.020396753305378379 -0.33053185537742991
-0.76716906196138979 0.46391258026087745 -0.19993948775532644
-0.65564593271583504 0.54651623742855526 -0.06797903533763261
-0.53402766613924868 0.54226096467262475 0.51938656893464241
-1.1063713525285106 -0.11631929470060642 -0.4778701451182279
1.2794641344971573 0.13557880857641358 -0.44360728208390121
-0.61537910128439322 0.64403272517263233 -0.35861529577755746
-0.60753354204615562 0.69747434546710263 0.4104905421290681
-0.038838466077830702 0.2417800316485168 0.72204710002786499
0.4807151342753464 0.72024949438748198 0.58337747420914354
0.054192177223306714 -0.68024845523629907 0.80735811492271736
0.16528268416788805 -0.62285279411293848 0.92569317543021157
-0.70204243774431774 0.22810557078783877 0.37589527661846134
0.057305630694042264 0.023320835371049231 -0.83163492405352102
-0.53577495587527935 0.56076073503018753 0.49547871159254342
0.24241404286178536 -0.70084480756627232 0.81791201223152754
0.26737373352082727 -0.6210600102419972 0.90259144610535813
-0.062950879641427093 0.12520974571021015 0.76940496409563508
0.20552894857645398 -0.15163897703569318 0.84032266672024392
0.31902616827804309 -0.56431759862745445 0.90492175455869273
0.67935174624792793 -0.097457794355133576 -0.054252021961403329
0.34155320632213204 0.60791775966923001 0.6112779397210808
0.76875815366631883 -0.09847721431873957 -0.17670632522970919
0.98248898277743635 0.20256934974079455 -0.30400998705228588
-1.0670591315226776 -0.15507662032977532 -0.47371232466768731
1.2400535720676658 0.056174383317316501 -0.39386261881827167
0.37600872981554545 -0.40435979100755914 0.84524023561954564
0.29315207963908563 0.030194527658847337 0.51875871093838199
-0.96435989669963007 -0.027287772052407178 -0.4520360833192214
-0.59839118846893058 0.78142316984983351 0.26383510317876002
1.1263529944003956 0.095633819909651585 -0.35377345846096375
-0.39565015900221212 -0.034746118848189234 0.32974439568995351
0.74089815586075858 -0.15355179878116854 -0.13580132395114219
1.1705976479815483 -0.14368683125188575 -0.38112224384658688
0.32785195980242676 0.38237326390642812 0.64823395378638793
0.054932271868878502 0.025958653799578846 0.83055853651514511
0.038118237743642425 0.67573278721060237 0.57730274976503182
0.17841211723422745 0.2616111606816347 0.71411168183594143
-0.47562866264273751 0.55884504628992115 0.57191043787040385
-0.47718026080386977 0.63121677911745477 0.47650208635345592
-0.48030693655960732 0.54611529834739658 0.57705180949694324
-0.9349906723429342 0.057735761789718509 -0.51888769195875639
1.2424391395216929 0.18625068338672479 -0.37098437632365489
0.44592568844634428 0.094318110448546433 0.51482840298815802
0.19123808312696156 0.35797821484139591 0.66943370759842935
0.52108508973644518 0.73452930264021754 0.48431874800309416
-0.79652211558374475 -0.034545665498587397 -0.3582043249243938
0.16387524988622104 -0.14963827445748801 0.85067455101590284
-0.28385305221664225 0.49094792986947977 0.61222177886244111
0.72514632903587639 0.60726520492475222 -0.067006493107118814
-0.1711792551167548 -0.098533715963105228 0.61621710326333812
-0.60946178649178151 -0.016949808082368012 0.15200282568232382
0.16598780991116513 0.59994181129710611 0.6646471355190009
0.85953561986793403 0.26463959906167744 -0.30132220114643005
-0.26228308347837981 0.50697065559985455 0.57567523752845418
0.90861585640783105 -0.11530693651856616 -0.25056996134513554
0.52068016637839065 -0.19686739713416879 -0.39057590594637404
0.32759989480386054 0.63360979709516196 0.59055712808369876
0.50379955622495487 -0.65284549535297964 0.67766325098887137
-0.44845410837585575 0.73050858424301213 0.4520931020910588
-0.49634541066273741 -0.10576210834766542 -0.56117854732159245
0.43405694607290002 0.54971261664979698 0.57061950902036429
-0.53497749148731799 -0.15403680353412241 -0.012238970556172291
0.10019910246655783 -0.54221508673841301 0.95988658890601286
0.29892320261830818 -0.42797893122866038 0.90186049729621587
-0.65752495437295977 0.17640010918883875 0.33256792920812117
0.19657677661390949 0.64802231015546963 0.64390090850936588
0.83232131501846851 0.27478772565845677 -0.11969905452150797
-0.42400653396303767 0.37300468081928584 0.62243228210062185
-0.43649711205687325 0.59678910956837727 0.55910732428165844
0.52062265015287323 0.34267277548028918 -0.63021973220522653
0.085522455992524726 0.35830654327034583 0.66778798739858303
-0.24862158178053662 0.41943312193912852 0.63566192436244862
0.85398988020593336 -0.11958139769511478 -0.26609190650381009
0.29343137987856949 -0.56120944273879614 0.56334052314309702
0.053715317694933873 0.14040617282245904 0.77380033866568354
0.24805664726824261 -0.20491480966542719 0.84474629400820334
-1.0941625941578632 -0.1076895701030427 -0.49008788509079437
0.46548142046372831 -0.69915418165017051 0.67865375953763163
0.14381753448245149 0.43459697145839882 0.65858782418599304
-0.29496496970769215 0.43088964132550256 0.64098622602652355
-0.93394527163582808 0.20457915103201096 -0.58003395257413359
0.067927411537787918 0.13370807443860633 -0.85699958335496262
-0.65819632143759677 0.46068753238752369 -0.60964622492945608
-0.11505797363258807 -0.37608214025754139 -0.49493723156128411
-0.537481763798759 0.60896140153416534 0.47056748090183476
0.48845023793559861 -0.68302523760323952 0.6931603599393128
-1.1297639577516314 -0.17659599699483985 -0.41915164723986109
-0.43190683251469508 0.3135253878541352 0.61858888476596618
-0.62153815617906361 0.46821462745610598 0.4089410692705755
0.49769966793255804 -0.044519017213754175 0.22971181262975549
0.28220364147166777 -0.5132917975786957 0.85254029205968607
0.19624758915830043 0.09292522016283411 0.75194369032945119
0.03739069289132857 0.19527846480182531 0.72855263761322675
-0.188873625096182 -0.4109471982402968 -0.21466304937156266
0.43071200762092232 -0.36397693474739801 0.73459197178661029
0.19060444634949292 0.41423475904226659 0.65255854370117206
-0.83563344787286908 -0.10235522607348324 -0.29490060474710589
-0.35188946101454022 0.32431887149084482 0.62846375297692347
-0.39976146066268115 0.2972823543428994 0.62870015213349006
0.73598410179963736 -0.12659871610266205 -0.13869301598335682
-0.012904001842240831 0.15171559554536596 0.81786168131812786
-0.78835347704381675 0.30742401198774094 -0.39761428031654944
-0.61832893702706926 0.49616747468411548 0.45238127396444838
0.23793731749359992 -0.26164093359527518 0.37289547759485586
-0.177187854948194 0.67077504229003093 0.43158650892287298
0.53459688846400866 0.76096257404511691 -0.071028827980772036
0.42440673672948748 0.42092606868593285 0.61433015717911488
0.2214369552324591 0.39396344739218114 0.65734380370646406
0.083331142410308701 0.7509443954467101 0.25477661992780298
1.1127497531575372 0.1359867932305181 -0.34537554467100406
-0.30865650964344482 0.67672906921179776 0.27135350882125664
-0.57744762375601155 0.48963974555991163 0.48450320620475651
0.073251168201071692 0.6394000531804197 0.59325130988917962
0.7123130659596022 0.28158591850383097 0.3275493095692994
-0.20911773286814039 0.67319150642669057 0.39208326208852284
0.936246592813891 0.35029541280211607 -0.28244551433260057
0.28853782386584115 0.50993059533153018 0.69525896971759593
0.48129678759536532 -0.58132680688475658 0.77188016929619607
0.36180011824059122 0.58477354910823465 0.61636470923142284
1.0795035419075347 0.04889785880695463 -0.34947853983999622
-0.16603374804896021 0.42058770617507024 -0.84125031215338453
0.91699179655720897 0.24046067040336938 -0.23042855793314843
0.46534628995846106 -0.66322392189544277 0.76089573393408472
-1.0118071275789902 0.019191921545301582 -0.53007092098635411
-0.4158951849588739 0.59923056418038212 0.55347533269038607
0.0027756929856437296 -0.58492735917223904 0.68825182777013083
0.78713154523050122 0.29379165254756767 0.11077069385709137
-0.90033139122385464 0.10950764081834707 -0.49326135644846403
-0.59612587630226699 0.74315902169554626 0.40120400808782009
0.089900224373451465 0.89995507611921655 0.3908230898426055
-0.86177045403458052 0.010667654258704751 -0.42061182004753661
0.18275622521973744 -0.46183281923211905 0.89904603228329449
-0.68942484390650094 0.1256500320994145 0.21015400800598627
-0.51451550881849428 0.26970768889105434 -0.76826817858549745
-0.44161629943539182 -0.20380919311918255 0.0020067226506519376
-0.38522878843984287 0.62293603847016477 0.50512508192917949
-0.88920176065171574 0.095552332213423519 -0.48236365701696471
-0.71735543735599094 0.64480866337124199 0.25701178534663782
0.44534248366420215 0.32880239884134199 0.62010611066619603
-0.023645493277584251 0.15690940111851648 0.81078909814046085
-0.4731411652905031 0.67534061110783128 0.44791878857523315
-0.83073797363989854 -0.11397656384293242 -0.25260074470987703
-0.6120552093458187 0.46921933975879115 0.47006928652405477
0.45761424777921533 0.20485659393827271 0.59344852644321833
-0.61773674472150475 0.40790491856502753 0.50641553372579295
-0.59794392586197276 0.56511606433436512 0.35860035257967127
0.0065969306359505708 -0.24173819749913239 -0.69495108051799193
-0.066775735775983946 -0.64064078182184137 0.79470697969325244
-0.36775443839020738 0.58507494041781194 0.55830397671818943
-0.85341878739349042 0.11160845529410723 -0.41947568820957315
-0.58523339258383089 -0.17343274923254448 -0.2410259553636358
1.1927629309055376 0.19440246700432873 -0.38408304043273489
0.14713214253089291 0.5129084560902879 0.64911216625701229
0.56928489670963245 0.6398146045181643 0.16555369180458257
0.33871426011784678 0.63980788995954541 0.57170894474514355
0.40667686823368498 0.32968966975197755 0.63617095513179578
-0.51835086665514396 0.27561017732572579 0.58156826256209371
0.15348985089480749 0.69554441273818723 0.57804426743513204
0.049335682305731154 -0.52815776936315784 0.61141942180056219
0.80796389055446483 -0.0097284009690352669 -0.27912780123316239
0.42560799646931002 0.72482430030927003 0.38858554597260664
-0.38307669658848909 0.64047474487084877 0.50448079152181435
0.70919708090804079 -0.18795139273814199 -0.16097604317190672
-1.1344790122865156 0.12332759077101763 -0.70066940308237236
-0.37217082809428703 -0.30052847131780647 -0.35467639867754386
0.44672687209384065 -0.46293236815910932 0.63313122818293976
0.85200703347944895 -0.032563662112171432 -0.29397036829827172
0.17849611355643802 0.077060852031508809 0.81893414321966773
0.42095749704358099 0.74672925656228673 0.42046775366711842
0.80101438098029121 0.0015929095438815821 -0.26849943848013069
0.14587028548140069 0.15984727621975003 0.78790872561867431
0.33545006449131876 -0.32508942594139256 -0.40422831529098602
0.32892276241664575 0.41211329452987933 0.67060222924851942
-0.46573121649776539 0.81800869584708447 0.25800071494070309
0.75351624555219132 -0.0079431145891888377 -0.15250156853069186
-0.6391031844399464 0.61103734920273101 0.40981006738728354
-0.51739453004300273 0.73311480603506629 -0.37981342165838683
0.11863761151578345 0.49485867526275762 0.62402942925404403
-0.25547500306438309 0.053528666203787711 0.53461383766499182
-0.70707952346796077 0.63125306964053152 0.23163881148934351
0.3006825365963337 -0.066649685571727346 0.60759901450300191
-0.55276358844185935 0.84575440122744694 0.30032530439924798
0.46557216527525824 0.38802215619475189 0.61570480279529249
0.89126911465179859 -0.11214964657003756 -0.26923988548514544
0.3503395351209484 0.067013111113972235 0.54151969874697059
-0.7391140373116194 0.49817739626338498 0.093078397941074087
-0.029196760338663807 0.16677378487884398 0.769014135488991
-0.80482643532228693 0.18197885514540713 -0.29578289590876139
-0.91833857170216504 0.18144318940471948 -0.51519024280065651
0.68806394344425925 0.47565316499701749 0.50258794480107127
0.084304543395422371 0.86283526320425386 0.55763219677632136
-0.10194030990990655 0.072499625849430593 0.72966534280598694
0.88410547778888926 0.12371789721983628 -0.26462748700745919
0.46416589230448935 0.62780876384814244 0.56612530201499567
0.3304266839059693 0.020558963679989883 0.48217205483113545
0.23186038295987643 -0.55655362862822955 0.9132388078981819
-0.58915750634828967 0.71654105012268898 0.22503842194271684
-0.7129938547577872 0.57031489661618762 0.17259847022080521
1.3381130536155208 0.22476768888400311 -0.4063213256624234
-0.25808867860150286 0.11818477717384424 0.63103002194368329
-0.29072973944733604 0.75921644137479372 0.49278103866750911
-0.32870002988788727 0.65825785256350544 0.51239230635665578
0.088315783893438748 0.61470107379814831 0.5967576803001009
0.45582870939696463 0.45682334542350733 0.60028581647038592
0.90628133536968747 0.051623732212823015 -0.30421972914447082
0.048267249509112986 0.91259060874807685 -0.18424130163688091
-0.19740093775312317 -0.38518952535013673 -0.39560136012361724
-0.51981919291696244 0.56040476675867712 0.53233143229384439
-0.76190485062748436 0.44941684191043807 0.002569797103237903
-0.43424639225834838 0.58764005495801974 0.56974636406924262
0.41553383337206284 0.47224779871483369 0.62792441259634302
-0.26901765459526317 0.74790628619258681 0.13520663489573437
-0.72873731637442773 0.58653741824452388 0.20090540273701407
-0.66067174622419955 0.53163431050460952 0.42198829126507675
0.26617147078459169 -0.0050123559738992629 0.57393331395481439
1.1885220752699546 0.25070559536921788 -0.36838044469469011
-0.063717757832812083 0.76479887715409434 0.42751501214305065
-0.57906950137370572 0.42558922415689904 0.50989594215092637
-0.17032003462923484 0.0055303795534209499 0.57218374946058503
-0.47480354084818899 0.40975616779889612 0.60244955903270991
-0.13624908724687046 -0.50356535048980011 0.83226091592784712
-0.29620149097710069 0.74969721099731834 0.5126955353710585
0.1388257991800117 0.0231396443243721 0.82084320130555
-0.12334719446134201 -0.1710583746442178 0.80395033780031611
-0.50474933567997127 0.59048555879178544 0.4918532003191487
-0.069405554677288706 0.72737392945948842 0.4365262173056621
-0.85967831294988173 -0.11057936506957677 -0.22930214548864214
0.17335877606055305 -0.40160300799009985 0.93646298610418199
0.85245761131066544 0.17566894482771023 -0.21388762895727709
-0.33175905546055162 0.63927714106028288 0.37331093889627454
1.180971342352251 -0.12762434273211642 -0.42651459204747511
-0.87385168230111532 0.020227950462253563 -0.43544237018210907
-0.79854139521647127 0.47060947635597228 0.13376344346620783
-0.25572762287046658 0.54416338201064651 0.58066009762679016
0.48555323629284786 -0.21316346642497352 -0.080494023861792385
-0.75950348882400576 0.016792277166153724 -0.29360774646647769
-0.73285065966884844 -0.027136485384657849 -0.20204279592248398
0.31199742616146864 0.67673246497365336 0.59007565059316036
-0.87589397927987989 -0.099707966436318518 -0.29935343883922272
-0.92387568712750934 -0.050858500668178763 -0.39474017951832252
0.11789798266794804 0.17338558886027156 0.77489850086770318
-0.43393044755283228 0.66992871600555048 0.46601827291731013
0.19504002845343749 0.37629532376939312 0.66579229642250581
0.81967667963715485 -9.5707362894437153e-05 -0.29171583170339588
-0.1605636863238793 0.0053122599497923417 0.59223838847487187
0.2602265460375186 0.0431699913598933 0.59775934685047361
0.048979850241966716 -0.66332634126179491 0.88805427079185506
-1.2396836302797141 -0.026060322795084634 -0.64689438046758241
0.2175601355185961 0.07880438455195371 0.72630380916341508
-0.76594089503146989 -0.093188449055592759 -0.14017846168613346
-0.81545135519991163 0.27511179340240299 -0.23989627209817499
-0.050660939271313765 0.45728207690420652 0.62475919725159557
0.14792041231928366 0.40404390130752077 0.65968676907297663
-0.14752138423805405 0.31446953011769885 0.68914800334784232
0.87343723899059 -0.040199521508682334 -0.29879234358717355
-0.096622778591473946 0.65527606546179118 0.58933438800585947
0.18643068444552213 0.33305030464744023 0.68010584505026728
0.16283978704981195 0.58590516895841516 0.66861144007278028
1.0490078500677598 0.086984192379764735 -0.33578318563586151
0.88630500022815539 -0.11559698374686223 -0.25792934256075384
-0.38474343052198989 0.62852448982208098 0.50557406277859585
0.22548293479812997 -0.55414018158708855 0.93259846929093371
-1.0439657402662519 -0.040185156091125496 -0.50594729540112482
-0.13434529855525312 -0.24351896099689885 0.4597807665673237
-0.5331965086647692 0.70730677419025456 -0.1442260577326131
-0.4288098304143162 0.57421541961283573 0.58286911770345995
-1.1650450938238226 0.054383295337299575 -0.77559169578675835
-1.0509687002217998 -0.10265529437471921 -0.54356280751843045
0.12076005545705826 0.16540577725998751 0.74294426411285031
-0.77213650536101497 -0.035743839662651933 -0.30000708842531765
-0.18466126937559935 0.4524720797647992 0.55309968210751137
-0.24472616559073401 0.66155455538195929 -0.69228740970190827
-0.62015959404067544 -0.09550132186162319 -0.46051309670726326
-0.63561884705810456 0.59420763751215078 -0.44372424568511448
0.37004278389624901 0.50424244398817875 0.66500126632424994
0.39760419658010449 -0.47593941989773025 0.56890475150486353
-0.0088378344162727274 -0.56317607881837906 0.94708031698655049
-0.36733619356258274 -0.31372176074595526 -0.26990853318763186
0.17447425409461559 0.77892725415925579 0.19640634655939593
0.38856967418092125 0.82658763977084693 -0.32496096393010632
-0.40482736334283231 0.48222382920105317 0.64179828779481696
0.10105585388615523 0.0001847497348159699 0.81788492551890002
0.34544470698583751 -0.21125111205734726 0.5646140960828383
0.49627363883221776 -0.17238597776400955 -0.48669550250094673
-0.64520776793731827 0.51477776994570834 0.44162125000164565
-0.70543135684513558 0.23681755254478087 0.40307796003056851
-0.15131885760553843 0.43403446895899678 0.51866359704888865
-0.24946885418972897 0.37748318530416769 0.64930189723848741
-0.34404177072779163 0.72320533342944482 0.50748400487591283
0.12533808577098426 0.45212600373709444 0.62127738037301228
0.35064991759544739 0.41840668964782024 0.66587060521864672
0.17458978524532398 -0.5113182110909924 0.94929140820682534
0.30653279401669309 0.5986247650090446 0.65726051996993817
-0.62500433744072481 0.56420347671591087 0.019842202477271087
-0.28496584192394891 0.31867223504273845 0.65449861018093358
0.80781488511157917 0.30039482566968267 0.027821528982720167
1.2707815686598778 0.21803142917155727 -0.43386217148702855
-0.20950850326507009 0.045615039804555613 0.55768844348070346
0.25638755451666384 -0.015531364614442156 0.73086394262810472
-0.5189049205446814 0.67265958448713659 0.43377345131336753
0.32676301111240136 0.48179779541045342 0.69203666718937029
-0.026920372464811493 0.089954660485472626 0.83018914965526847
-0.89359290937822422 0.19125712721361099 -0.49271710120043366
1.1578182477122851 0.34891768217928254 -0.39244199637722232
0.38210026262848018 -0.54542526403571956 0.87151601528752565
-0.17411842023989976 -0.21667141836791126 0.67439713825088532
0.91571925568050716 0.29241222495141539 -0.21608935009491859
-0.556477368251727 0.58928637592440991 0.41394670941392064
