# XYZ point cloud file
-0.12680116721113088 0.35265515983488682 0.62068141067269655
1.089727329552779 0.10636545496004138 -0.33291022134431714
0.26010883512053318 -0.2712672706548237 0.74237300082626145
0.71912824966438815 0.10137244405551682 -0.094622991139277079
-0.95761779278106274 0.068462605365804619 -0.45763676034253808
0.7285414092796898 0.069164798652481985 -0.2725398103624877
-0.24806472269473728 0.020977646256141291 -0.49127239146833246
0.35045647563944027 -0.25650237418953448 0.65027934246861918
-0.6335430570052355 0.096487348450429611 -0.56120412902364669
0.3146294804792914 -0.28841973683628286 0.6876111723732039
-0.7936284834162306 0.1189305258546175 -0.33142551709117907
0.49372696337156335 0.2233181921327938 -0.063333649836400469
-0.37381528217876475 0.54481235849089082 0.3555968892471783
-0.93813559443232775 0.11349473934423626 -0.38821762139502403
-0.49121519040682782 0.56053705965703848 0.26952452335102578
-0.58686254900290824 0.20606434534549967 -0.033041087381733197
0.063998149551547451 0.41146492993745032 0.58472298935340672
0.1076979765393066 0.31034719435186603 0.63381445861059471
0.2715413964485125 -0.25828046360689716 0.71017189483100207
0.15944243880505332 0.31024022597418377 0.58779436276597496
0.33205565602229065 -0.27380453249441894 0.66309307558299291
0.43580371083625591 0.15070942371594931 -0.25031864395737502
0.098521184524497124 0.12839351891676165 0.66642297129210493
0.085023046036511257 0.11242536134825654 0.68020798652824399
0.21336058043702949 -0.20039283428662635 0.73705765339043028
0.3165046734362616 0.24864079996577776 -0.090139895084776378
-0.38552468869948031 0.45092477180045798 0.39870553519003699
0.11913597796840529 0.083182028096863814 0.72107206242506461
0.80881603338371433 0.072330338402795791 -0.2582161251304782
-0.11988014616109652 0.51571931009102046 0.61096556676603686
0.76598294361342378 0.1696215837066265 -0.19347251379967739
0.083004790663368494 0.4548886417551562 0.57739912079180489
0.48015191480969072 -0.1084424934447219 0.37260607998144685
0.3694647271062742 0.25694439870785468 0.4290906554405865
-0.20215911800813999 0.41714858693082502 0.57077626555898386
-0.65159519754759287 0.090669081550725839 -0.28992756330385233
-0.23959090288005816 0.35613232181447374 0.52487746761138332
-0.43534281195815117 0.35151760722464664 0.32331098744942349
-0.13140783890968921 0.33507949651679036 0.63468702000358546
0.14371529754548204 -0.21367668848273402 0.55730794139787043
-0.38486106656716701 0.24676469779159305 0.30422992754259565
0.11317926627675919 0.33999597771681611 0.61621091879934475
0.12060511058909953 0.069842315157607637 0.72641903190865553
-0.059968086563223735 0.43780882815308308 0.60842326160478954
0.83412569559423411 0.1070420739828068 -0.15233439295168844
0.87257241450441336 0.098035901432394545 -0.22087311990038033
-0.3563365075488833 0.22810993906564381 0.31498718964569039
0.26038530085030104 0.37656066373986724 0.24154386797190663
0.15295865328924432 -0.16362426602343583 0.48966664290207218
-0.23176955514100517 0.28194848314046195 0.49097781460279288
-0.81320805821868392 0.24216826554643711 -0.2405947870865543
-0.84409809424454851 0.099005478237804923 -0.37507154144524246
-0.86476935815275446 0.094908453798843606 -0.38854010458021515
0.056522236257955299 0.34241631831247021 0.65436220909484344
0.1147877563635558 -0.14498037663033603 0.62127857438201861
-0.27779464193131548 0.43892231098445211 0.53361848974645798
-0.16692341958830531 0.35451526517825327 0.61096686978781733
-0.17311219009308057 0.51332539311646341 0.62113896165100835
-0.065354830322246996 0.4571365234492939 0.60868018354389264
0.0016685009811242615 0.38228796046092917 0.65034390937344111
-0.19204502967055109 0.35636232121639766 0.5829812805148471
-0.1703423306789123 0.38197321595910771 0.59950975317831467
0.14462130242296628 -0.22866315977525531 0.66292415839308583
-0.17490098272913981 0.32080265383709572 0.59219701533602764
-0.42408048838306589 0.22463222133059324 0.20752086051296673
-0.16784099963576099 0.49968483243275086 0.6152116464679882
0.19894061141563932 -0.1159274801091138 0.43169238966297169
0.10811987294940847 0.28959332571962759 0.61349923830094588
0.1163462427565061 0.12205065947186566 0.66554016031159369
-0.33069832507686708 0.53307375222880515 0.53949478920487659
0.1435287263417486 0.14131482158338382 0.65892269067711884
-0.10193509873818248 0.14754664909244497 0.54259690669498639
0.28608849722859198 -0.34689361188118306 0.66127562387443106
-0.054142734399331649 0.50226068182022987 0.60844181453589874
-0.72809962065517086 0.21266069875042748 -0.18411349023154325
-0.040398118193637339 0.30996193647342107 0.61753910370039089
0.29350404303244254 0.37035194229909063 0.46161179775476474
-0.56432256724505581 0.052733904812135468 -0.16066844513731673
0.37191373931150523 -0.25396866249823558 0.66193393449794558
-1.0351325428563722 -0.039944532559729962 -0.54078617247727412
-0.0014390837559494774 0.12342320679714125 0.49180638467806637
-0.23047990279517649 0.32252240842219948 0.52792409194865675
0.20673236257396557 0.41262293118874249 0.39868692933618799
1.0476434771814109 0.06418510240874592 -0.33631015781984475
0.58170922286486915 0.19788457398003023 -0.03450186704923125
0.25674082260834219 -0.0030700452009500001 0.28946896212470419
0.10858354777618542 0.15201485895604006 0.65284349816165821
-1.0445273630277438 -0.090113475801984588 -0.54817166298309572
-1.0150493195016841 0.092357832837471343 -0.43363620224631461
-0.028038739086563531 0.46130507923488473 0.609726275267643
-0.060422435720970537 0.456418684514869 0.59681868569504515
0.25271673128429878 0.13061750877891676 0.47232353911828806
0.80295694691343811 0.12788545591622236 -0.21008933460783313
0.80767271432831367 0.18092227147376669 -0.2203237426389088
0.52823711281113206 0.21687260870340594 -0.083024213472289859
0.38402346242685098 -0.26844336154851667 0.68292591726934071
-0.24325033960117207 0.40539434864418744 0.54214136100958488
0.017123207430597434 0.42169089597786924 0.62126389446338315
-0.46131388393615436 0.10507657770737278 -0.10366124433056334
0.35790078461714037 0.029505721932037265 0.33762202879697756
-0.24732085568828688 0.34879788951918178 0.52400779407840192
-0.92334533979590883 0.14906723224708296 -0.34838578713563706
0.30189072830728447 -0.27343519297971752 0.67611644475907584
0.16450170184491655 0.41759312825443817 0.33382442279752367
-0.66617123516202315 0.041717751347372323 -0.24376550004699513
-0.77640440191949145 0.17179148651515996 -0.25315904030034819
-0.049818545807390695 0.34694060926406856 0.6200201752365575
-0.84581633987133997 -0.021514745218607856 -0.38953697058571102
-0.14198737466157629 0.38688865974021236 0.59805607440988995
0.39821818657307811 -0.30782305354769623 0.65128342362976188
-0.22614753795753623 0.41185285496383706 0.55830590220427978
-0.73241408407898345 -0.001054019074361201 -0.30346559117158423
0.34734236452343109 0.046212592846977762 0.39410026180710117
0.80555557108342069 0.10527330067815849 -0.20211294008421105
0.15967443110782997 0.28670534745902676 0.59918903234818455
0.08572436886950241 -0.04599454315139373 0.59627504852268198
0.4039633901832369 0.028309578158091986 -0.013264313610959311
-0.18051575654841545 0.46947863965438197 0.49023554139759296
0.084701043616101396 0.11143068566177294 0.68606388313403799
0.55336264300750559 0.21955519533211557 -0.040940946737122952
0.31800339598885863 -0.2345634063913693 0.71140113426738183
0.79314573541409972 0.23753004577247641 -0.18082003906673313
-0.081599651879215945 0.45653352331264668 0.61132825951639824
0.26427483186957074 -0.25673429648924462 0.7373412129890311
0.59220863815813063 0.14706242038655903 -0.20972929702544818
-0.1202296927637394 0.13775899053291241 0.34922186632448676
-0.6136465435056756 0.18988582273064836 -0.099946966813304255
-0.75807499160338621 0.21880109662048497 -0.21293395801370432
0.32280171040252048 -0.29500790445796821 0.6932794438899359
0.78754551105449466 0.16100185388971777 -0.20172489062435334
0.77597276162277018 0.12734060962275517 -0.20274328818726156
-0.27958480383737977 0.033469898257621145 -0.44170913205449502
-0.30741532184152615 0.17607705363179982 0.25715177123895694
-0.19628700342694683 0.33670556430812459 0.56943585128178686
-0.42874325090394738 0.1484343834746269 0.046827244981695937
0.069671075018395381 0.019004160021989236 0.57422994515675585
-0.23384007374051136 0.45745701299277541 0.56212809943010844
0.2923058080467702 0.010713088072335397 0.21828845959629201
-0.1054528591062228 0.25509771723701824 0.6302209903263839
-1.0654856499383307 -0.013179432068574082 -0.55072812115977265
-0.064103989848752568 0.44042643675787096 0.61008105534762924
-0.059447819363668331 0.31180541485968849 0.61703373722953192
-0.82916976389768193 0.059444929386070933 -0.38801444215376524
0.0093036265056697792 0.37508591636685257 0.65173633340562287
0.076771148037306156 0.47548101957357031 0.58083991990014794
-0.31384875988854655 0.52656057993006644 0.39780411641038094
0.25663914784793007 -0.23302734451431917 0.7399446520711459
-0.11028150325430372 0.38226492058384165 0.60999775920747457
0.36537003008535107 -0.28273403042700873 0.68115708176783207
0.51572747543880959 0.24882272588211274 0.14099990821115915
0.051230652498544096 0.30425443766589599 0.62896043925773337
0.38354893734583173 -0.0048833612837195783 -0.38352198485099487
0.2135501492954554 0.078688902362006763 0.63450108601042499
0.12801906634967072 0.10135962122637066 0.70310149597637739
-0.09999059221984713 0.27904092295511318 0.65114383783340957
-0.14551649849569351 0.45103140610665021 0.58925302071103869
0.85361054997228547 0.22310010730293325 -0.21260018380542861
0.032755312339955628 0.30726417858191957 0.57046960381634271
0.067716368362159746 0.19751035459685706 0.64097404564037996
-0.15518276543038662 0.42023239125982292 0.60093617348258932
-0.20678809011813326 0.59286066723839759 0.58325750728187065
-0.58330956625014041 0.13288337635439706 -0.19165338989017386
0.052903038006897302 0.33193240246898814 0.65527092002033571
0.33664191922285042 0.057630080366346093 0.39356516514892809
-0.38693658247966234 0.22770501808212218 0.26522553910833435
0.13894088996945059 0.39381194743275494 0.50900627172652824
0.23758136584914175 -0.31980238165505892 0.72265394147834761
-0.053751374913535335 0.45620901890663434 0.60669753122986103
-0.18202121573527577 0.2655566909543825 0.56261178120068378
0.19254599970956218 0.39959959201189621 0.23830215283400455
0.66695627864457052 0.16308062573438487 -0.12731650747182488
-0.27340820857053866 0.4724502085889411 0.44944513274394893
0.070921675392192907 0.29184958297501939 0.63026155066918266
0.094874850607378519 0.36474345228753624 0.61335108554246687
0.1755681310515467 -0.30585396743067828 0.59966612582609291
-0.63701069174005553 0.058757320546179104 -0.23827718148376037
0.3948174415526971 0.081801441659115515 0.21510628464879605
0.52546732681638209 0.23322294990077946 -0.042728741943963616
0.74172859294680082 0.18345319934371612 -0.18719421696209557
0.44651828149154538 0.24182235216509837 -0.038913076504820315
0.099185874331205903 0.015030874205685274 0.38737273085093304
-0.6438500306460726 0.12362593046389447 -0.25485027881887679
-0.00088399784052745761 0.35909206324162479 0.6150209141980516
-0.60839855800000642 0.058021325813944369 -0.1890700279648084
0.60352491003086917 0.231755063899586 -0.07196037950937223
1.0840874723494769 0.10882017280267894 -0.32207429911736568
-0.10444559758649011 0.32772642257459772 0.63477559239624148
0.3058932890720123 -0.29733183804022167 0.71130112048838035
-0.29225818878672238 0.43824381894646236 0.46800470592038412
0.76635339358398558 0.1149616654186959 -0.17585779635371157
0.27005110653613229 0.090985874944420342 0.51634302778463415
0.12489575173047263 0.1273195538762727 0.67344817190440454
0.29876157028852074 0.16476668134533012 0.45865186344830816
0.31042017981975856 -0.0086493434525565238 -0.39830518167599482
-0.078409395922848263 0.26256308743622625 0.64236441311311521
-0.99961807585054896 0.1158791757564781 -0.43497858729624006
0.17677862829799484 0.15129081084603402 0.61917680425471433
0.25646151252859173 0.14423588222979622 0.49381945260069982
1.0241268096971379 0.079527555119467741 -0.25760679957078858
-0.014414693142837696 0.44097198392844911 0.61121713805867861
0.98092627911384689 0.20110230501767698 -0.25536679929319916
-0.77509929801371458 0.44497906307262186 -0.040555098971747611
0.0099996096791519218 0.36259115974589995 0.64403972844271651
0.35867072335303629 0.2614697186509044 0.4475120864894912
0.15742637773304852 0.028759731477480455 0.71118846828550808
-0.14570630435761978 0.18933450976693345 0.56082783921825674
-0.39302169731976822 0.034825614794371407 -0.59250707218649301
0.27860356097401351 -0.30817874130030676 0.73236625329930316
0.0089365945669354491 0.361786168482091 0.63473989139233145
-0.1988360236129165 0.39332373892477612 0.57291927233459383
0.1720503600646317 0.35252198962783798 0.56386306271541098
0.26113583789104022 0.011518027360962524 -0.12045147480369933
-0.42939721885503601 0.055447219657013935 -0.61342516013835868
0.101212177815194 0.288867078458662 0.62400103095184223
-0.34774194729440722 0.55300524613627933 0.53230107206040023
-0.89047905032526664 0.081361179149284091 -0.4102369176980829
0.62975627037232862 0.11945102723882911 -0.0053492505363229581
0.68505599117905791 0.12717173443967139 -0.09977531621554131
-0.98174179928720773 0.043873126503264026 -0.47974069654335827
0.16976234718121871 -0.10797627471515359 0.71689834476378456
-0.95662666654204243 0.059207833069218063 -0.45957009182327724
-0.63369274977819101 0.42584554779058931 0.090306037893089539
-0.17331792052325895 0.40741129996582082 0.58535537310134811
0.44221384146387588 -0.094415596351737796 0.53569566918563016
-0.24498188518077582 0.28018168213848493 0.47102253115312692
-1.1414821791739382 -0.06921493280276414 -0.59353392308885577
-0.25976136509474285 0.41903544779120144 0.53253283894426184
0.30469722239151886 0.17771875685003646 0.48326427259065824
-0.63458607436316405 0.28836706173149718 0.013992958467192618
0.0048536782492941757 0.3743639839121029 0.65035118653319246
-0.044184476752186841 0.27243755061682595 0.57354333358846243
0.35832666850545858 -0.054897388021969529 0.59942789989373224
-0.15326839151886396 0.39619869627079884 0.59402585921210194
-0.06908591084478144 0.2503060872343188 0.63223587562036399
0.15968802724765174 0.051769711827356235 0.71742046051682229
0.12610269317838119 0.12660770646379838 0.67931787893981288
0.024617278068113799 0.32912759228893007 0.62443227853608607
-0.21553029888470823 0.41422743784274207 0.56229841438268313
0.043683164292865097 0.19050137381920584 0.654266226951421
-0.70988589345669117 0.10600910782912132 -0.39369922602018814
-1.0995541115607548 -0.065902309406640991 -0.55106701724833929
0.53582380493278514 0.23328878090121738 -0.03892359273893975
-0.25797752881493458 0.60915139993279743 0.56688362706921702
-0.010005461481282028 0.36603328368029275 0.04674213785134787
0.19040878441124928 0.059534396774594156 0.68417073278345852
0.12528199836110532 0.047446021123467075 0.7255228288098009
0.20663816534056181 -0.33927617540223387 0.62952006288456985
0.1495822009009696 0.12758965681576273 0.65950752642378541
-0.21293020060457737 0.23275060944640591 0.5268456804203081
0.15447498236456556 0.41947463072711616 0.30726194849442423
0.28535115295381686 -0.29159463882967207 0.51918290962382962
0.10001444783904781 0.12053068134582456 0.6860875813190328
0.32905650525844188 -0.31561456475207428 0.70560180938904149
0.22790284870158084 -0.13032399824052032 0.72067860264588912
-0.088271683792745442 0.2574091138752117 0.64757915489750961
-0.023658899982763826 0.45706641161680162 0.25952710479052354
0.47969442216795916 0.02347050456003319 -0.19252507541764208
-0.32283269948821025 0.12824331643246589 0.07515851460885184
-0.18071952570063241 0.26850121529257176 0.56309310805801038
0.78067228604670447 0.11189062006026301 -0.18719577958208705
0.25510710780043888 0.12392085450863322 0.4702137488055731
-1.0134720444930967 -0.045049537466716583 -0.53252097565877654
0.051868831729546566 0.059654840621956362 0.47737275443797655
0.40091895741505307 -0.16654698198013163 0.38947800760575846
0.25308180002635988 0.27956271482510442 0.53800105668865184
0.11488409423560436 0.04996818824704774 0.72299819779106178
0.75613941603543633 0.14689616213309126 -0.1894502422308757
-0.015282884304327844 0.4291055426892989 0.63586440447958692
-0.096966350282005537 0.33091617383347977 -0.045548871233701577
0.85364279555731293 0.19000283925633796 -0.25088191983687791
-0.048577702823111385 0.39902094366448437 0.58291332964858644
0.52215283276448854 0.22827816330122838 -0.056403289228281334
0.63472435929840032 0.20746640434353514 -0.094273965881053856
0.23322432351625338 0.069234499857833365 0.61743072140847866
-0.030915671468511964 0.24512868537473109 0.63323958951205883
0.32811505048478817 -0.22892000592080985 0.70593291154534554
0.23870677186388206 0.0016936382863537158 0.66560964947955603
0.10997984037736161 0.014583888623723285 -0.2025189127895026
0.31382740317937641 -0.0033416874052114576 0.59982875780033129
-0.11346517274786785 0.36474064993033806 0.56212809524603569
-0.049993958988181146 0.44807196095036372 0.60684686839401092
-0.26745141275232653 0.016878237179928202 -0.56417038987904777
0.35989381940191434 -0.27076303488862818 0.65682641906763173
0.091355075708297165 0.10091605955164484 0.70928140699325914
-0.75975324826345503 0.087990674657216772 -0.34247187958827507
0.059146884321043369 0.29100363064306567 0.58554778206644553
0.66816600712777297 0.14403298372815587 -0.13099648824176896
-0.74839459268021846 0.066627236638175713 -0.34353373378108043
0.14646677681710144 0.28760385770769614 0.60144008695450446
-0.20399062331311021 0.57635710049483502 0.62272463517900256
-0.7265951103216044 0.062852624710422855 -0.33257975946072343
0.096137979186009997 0.43307947393673668 0.28342143815715332
-0.20558684996835541 0.5525516055736841 0.62048838273916884
-0.25075178911805179 0.50404382791072688 0.58472514893760497
-0.12229993420291563 0.50061008438715826 0.60716041651877661
0.68414380762162597 0.12427964448199319 -0.078444313851566028
-0.16945196306491223 0.41965322115285297 0.58881292391082429
-0.23129846439393392 0.57582771264066857 0.52818490621672476
0.83497096200373144 0.18470907211493692 -0.23801429826676074
0.16090191466892412 0.36749628672332357 0.56367001689011875
-0.011545989787097644 0.38762486843942595 0.64061020857871354
-0.091069010509009257 0.33430929109981911 0.61580940660906136
-0.7283702177103808 0.068488980565751034 -0.33338919892820806
0.033467704574718739 0.32328019165822808 0.62256802260053534
-1.1285011378324139 0.035349030851260399 -0.52899775416388473
0.64665616207451759 0.17283205500966509 -0.19210398078452337
0.090914541045747449 0.12395275809596229 0.67391781595929334
1.0017607586380959 0.16549403068599447 -0.30332350484713166
1.0891552268273605 0.14138980185413527 -0.32851598063816323
-0.09313729039467103 0.28569220277066831 0.65400561853453221
0.29286416734727699 -0.32283353909860379 0.71891728506219299
-0.43946952452660037 0.13288586506875455 -0.012398407693140517
-0.6156971845418413 0.076238759049110039 -0.2594625342081176
-0.57602531023554215 0.53580796196707037 0.17059631477791626
-0.13445132435579027 0.37301984135377064 0.59473088839933252
-0.12156272019036525 0.27222390577352917 0.63393140036702267
-0.17622616241436204 0.43337919849600681 0.12233476307917024
0.42359722737083216 0.022711341993622125 -0.11149132093827563
0.28972353189434125 -0.34142198261235412 0.68911226502022771
0.2799705561197231 -0.26745322724349474 0.49536660985289649
-1.1308906401093259 -0.083020369137564609 -0.6040002678926274
-1.0276208848287871 -0.030888680386595091 -0.52144575547476335
-0.23441103548418496 0.37443318394652925 0.53329696171371321
-0.79557258038212875 0.13787722310037998 -0.30189351198848113
-0.62582103987578908 0.15592809429421683 -0.18372258803040548
0.37047326197834951 -0.25342181063019253 0.68168326509622068
0.12039753256064673 0.059027299460862381 0.7285553571373492
0.86291733433732531 0.17953366997112519 -0.24092269082805642
0.50808284410744653 -0.27306731965138242 0.55104978877906907
-0.19810262906021781 0.51383617619848776 0.55790631685178149
-0.13194656196261742 0.37046475685367675 0.5900185086461508
0.097205581859613463 -0.088162662784685875 0.576395169952995
-0.041584303911190883 0.45978640479202693 0.59401597105859583
-0.20751393793931044 0.41740149151190942 0.56736161459181567
0.59492669246100738 0.09035909221883287 -0.06024504868414482
0.24865718445358495 0.10792669858609638 0.52242357859376543
0.21347093525624647 0.013534511401168792 0.17437172541849275
-0.82520647153747495 0.40400531534323902 -0.10419142385957635
-0.030873097116798399 0.41285413114919522 0.62765312162655218
-0.053537763180036273 0.41887902327070231 0.61260942515472494
-0.071530872608416646 0.4751188779534562 0.57185882645337172
1.1007866379483637 0.19936876552505076 -0.32144373865447379
0.33068050064090432 0.34700020058232106 0.38204192123572883
0.035856899891055928 0.32842215152670751 0.6252847981262295
0.67145244051543029 0.17192162201500116 -0.12988171326961634
-0.6316210561668032 0.10630029957309906 -0.27592470459222379
-0.33702743134891383 0.52031341572011935 0.45558261102494035
-0.42616754463205059 0.078870295887874864 -0.17026082747929402
-0.16547271713166894 0.37788260368126347 0.60861397537468453
-1.0875377035570293 0.067198591283909814 -0.48684951159112549
-0.0067073493651096383 0.12531646760565263 0.50457876411522373
0.7019020200653705 0.12623182084513973 -0.14074420080268785
-0.63417389095265775 0.067903591129836904 -0.28442114316051548
0.28871254205156993 0.18341360696143016 0.50513589133956915
-0.089358510202139751 0.47690916787776599 0.55958511054077109
0.16233023071145339 0.062323401457175631 0.71582947995997714
0.33889076151523451 -0.25037859958899589 0.65490684471385086
-0.23215023961135062 0.38622921630559526 0.54925954175909319
-0.29133915733508314 0.53759675655930272 0.55267537772477038
-0.16779843127334426 0.3972503599297893 0.57571527286955182
0.34824379167375619 -0.1606982666379847 0.67488168931486558
0.14666962416179924 0.013893695932344907 0.28359515570306704
0.050210314985849436 0.070499282730936752 0.51326221371583647
0.26665028814868963 -0.26636816525881979 0.73722326265587668
-0.72473460837275538 0.1071987766087662 -0.38267430768147148
-0.13917383004465519 0.4529350944094559 0.6042046264578812
-0.25717113450878826 0.054843789496082818 -0.3052246617248946
-0.1480354211855823 0.3696610421483737 0.6149543332581684
0.3653952365743931 -0.011487187459365611 0.54232069090609603
-0.48187639967085399 0.35297404108697961 0.23595701033387029
0.72747677617498974 0.19413747931735961 -0.17619969278736358
-0.38399757201986562 0.4971640358584023 0.43348485695606143
0.058706082318550429 0.0030504503445045739 -0.3764620169402122
0.34698427878668098 -0.24641773243759801 0.65099489547234513
-0.099058042683466102 0.51786557877454797 0.50915827691819782
-0.091506177054912458 0.45662464094428412 0.56206914963845378
1.0258892540436053 0.17952883865868155 -0.2826154702910979
-0.008778233674462628 0.43060288665410756 0.63118708536156687
0.36773898656524995 -0.23744286494151801 0.6411631878897931
0.71063217336270923 0.15718175132372403 -0.16653748165955984
0.16031526491862291 0.13344170027419611 0.65509817301086382
-0.067577548437922227 0.28055199378927498 0.6203644143129825
-0.065825372764075935 0.36513027906774553 0.62108819245906055
-0.034538369927396492 0.43492884691530237 0.62260594936593427
1.0283335890030827 0.099587069606349665 -0.28296580528953758
0.40208909432430251 0.1102735993888686 -0.33679646709929073
0.17682409337113833 0.32386378085695544 0.57400890626206813
-0.15260179736186086 0.25967604463889193 0.58206707298339977
-0.24485718648587085 0.33055439064909786 0.52373000329062547
0.6783318944198351 0.1403818451529113 -0.14471874353455377
0.045244562354071635 0.40093905862606583 0.62678721570440699
0.47557346063194317 0.26353598599186828 0.21845948687104799
0.32952049750983942 0.31650502174005185 0.4601600938032151
0.36020499613383944 -0.27753801774973108 0.66570620742204245
0.10314741458042731 0.057303697442566137 0.68218687609826967
-0.41525018383769563 0.085144415800874063 -0.12605688445835017
0.3757773344179608 0.0089094708083182761 0.48168473556811719
0.039595211529529911 0.42652478241073788 0.58672951329152601
0.36756052346566259 -0.28737093017132642 0.50187285543488513
-0.23993412912280243 0.33946850895804015 0.52324007073178225
0.32003864472175658 0.2121694933496947 0.48774936506341465
0.10053302070794864 0.27785943474489283 0.62406166098145699
-0.67276786362040131 0.10619898309953468 -0.30108075148629115
0.073698681882035655 0.15581987242524253 0.66031512556636873
-0.16997902134460136 0.47150319041894451 0.49740282744906539
-1.0733671071170883 -0.0010181483283057124 -0.50727075811131672
0.33106393838955472 -0.22809396968129747 0.69137555777482174
-0.52073399915053842 0.31621734346890917 0.16742985042904251
0.72433588183526265 0.12173099702205936 -0.1522115759415153
-0.053157713260808627 0.29120595404654415 0.62235274137103136
-0.18541216454659448 0.18383985653738644 0.52066343791993086
-1.0669581335983327 -0.011043688112179928 -0.5469140558482084
0.25972208302682226 0.015438139958811714 0.086588105924659153
-0.97699029651550873 0.0093789957701769788 -0.48549858970692472
-0.93823108632310792 0.032887329547028887 -0.45126177830205944
0.4219094329180148 -0.30337093974710627 0.5327903618249048
-0.18676037511694132 0.36250232935695292 0.59273877680787679
0.33241789679826184 -0.19861294146313824 0.70006239047312657
0.19449131723693291 0.28109806115941338 0.56292072889672018
-0.30653475033289851 0.39861482826614902 0.50671798388774447
-0.29831344797644849 0.076963058321326105 -0.20607009338854726
0.43691317547115821 0.23751596218790216 0.30471430520048171
-0.16350459518815846 0.39354127029654307 0.58219616547452091
-0.2112457040726981 0.43118410154645564 0.52591417875934199
0.15264481316639966 0.048966868284671894 0.72023797665263523
-0.35533291420418561 0.52039152001008437 0.44281544336000034
0.33476341303943624 -0.0035337214822729335 0.31184618476428616
0.11717333181193756 0.39591856162026456 0.54062275185734188
1.0816374056785636 0.14719823602154425 -0.34098727523379091
0.86047327854983202 0.087353850225684593 -0.28102245858192704
0.20826085901229055 0.30137139292737913 0.55974200529924301
-0.038847831842714446 0.46164948793966881 0.61182857891829268
0.56989451459445239 -0.22737616447416442 0.41354347279622317
0.15549694264782293 0.10921260688601586 0.69520578809595945
-0.67673786786182377 0.44839455339278972 0.069999314443589616
0.2312935732098948 0.31833570365668418 0.5401425379008622
0.39373123703801827 -0.20182182103387514 0.41159127691726627
-0.079938109512974129 0.42470239760323591 0.55225390257522733
-0.75385334104870627 0.17910083851051672 -0.23642739091928211
-0.26872939985261657 0.59978485539560422 0.59110394092580198
-0.80394496428304763 -0.0029961972107971357 -0.40137063499887582
0.13522316511523391 0.39717526345377507 0.17820425191540712
-0.65207463518391617 0.10876076972182658 -0.28864144768154565
-0.78944598706157254 0.046681453935130679 -0.37245267261884879
0.24816673896430941 0.085109470254353115 0.5706195463873236
0.024901188181795115 0.45691400850638075 0.58638580829055131
-0.38084274298436904 0.14991104010632217 0.10611813095657086
0.16435607604232005 -0.17914272870235859 0.7147341024749081
-0.57572663144444725 0.078656058191516776 -0.19121690801444419
0.21731842747631952 0.3181180037386323 0.54858697105709842
-0.98881501705547303 0.1150633756197883 -0.40412092967727747
-0.0089207440682506634 0.36947502354337658 0.6102797996547108
0.13494290287692556 0.020404885992702959 0.24868189965687088
-0.54800703483023394 0.088191467178671434 -0.17427879470122165
-1.0864243383410925 -0.055447594051509452 -0.53313074278982453
-0.10711508768011296 0.27432997919530677 0.6461064769363084
-0.20116295382504523 0.23678508755973349 0.537731027578642
-0.33124878767519245 0.54662549172277219 0.37201994750233663
-0.0345310932793437 0.50422036434752115 0.60875861369385176
-0.12458318398333008 0.34978091570970449 0.6287459888921263
-0.16486514820564929 0.47482360427258741 0.55791683561398053
-0.76889595969472446 0.2799250167529525 -0.14426527902607109
0.34894412590312957 -0.13199507793440468 0.66042316754861219
0.74668930624094065 0.1180991302286481 -0.16405287075630015
0.18697941373873947 0.043233755992617695 0.68868654120986039
0.90924745820469455 0.10352433562740865 -0.24169387292536088
0.12315090729273481 -0.016877700211135882 0.40903233206149464
-0.12924834492208401 0.38227645037651614 0.60144235767645104
0.12030055618957738 0.051830374472490282 0.72750505160856427
0.71744315986985152 0.14219662774112146 -0.22893191071328028
0.13438319727315584 0.13164894088547041 0.67491585346100691
0.28146039030453279 0.10454479280472451 0.45260768567793219
0.38136722418670987 0.029777585871657686 -0.49144584859018037
-0.22238728872976568 0.54632451215627431 0.52283133657567316
0.92244118402656239 0.097906256580424178 -0.22980572122660381
-0.43029528374104098 0.39122561065343997 0.31570623947253434
0.22805662400771301 -0.0097169626756368199 0.31278254159391827
-1.0043269781771262 -0.031449806448962669 -0.48966406279886954
0.2997422261620703 0.16210744049918369 0.43436761645922406
0.99248749806716108 0.11139014795341534 -0.29746959276623419
0.030780002250964458 0.44322051473034063 0.25450344751223869
-0.25609560180148488 0.4919720676908016 0.49754601056369363
-0.7386695900018112 -0.01556437630141938 -0.33063583913675376
0.14160998301272432 -0.018750314079004182 0.38905905484469477
0.032466429763210458 0.43402293900600641 0.58624164013730784
0.66675034891383578 0.18381965231636732 -0.1240394858920319
-0.76346870687907975 0.079746659056123437 -0.34722278372134319
1.020786975787457 0.070522895131652552 -0.34474140844057433
0.45534856182921829 -0.25130926896402916 0.61867254351026313
0.10589890429850279 0.04480053004015383 0.67769444310621729
0.15081819239653507 0.088881318538104326 0.71215028752341669
0.82837590779407799 0.21797320380361665 -0.21038260315085483
0.32994948818439707 -0.25370974540086544 0.65909329378666182
0.13161884839523025 0.035686658824194084 0.69988426207467103
-0.26659424065430465 0.12307701727295473 0.095415338571021857
-0.52494218997503372 0.23779963041943297 0.094278364960702243
-0.74054168537129406 0.11653397298315982 -0.43466998375879623
-0.1352922757558046 0.25064557041937652 0.58810017246741697
0.026824339693564059 0.45208747766007895 0.58800398529584019
-1.0212888218714449 0.029698215446302689 -0.51227119078244787
-0.91344384056661265 -0.019910133233221106 -0.476243135322029
-0.27946772263235509 0.60816342729368389 0.56293096329214976
-0.49561303943023682 0.12545564741769588 -0.10829493681843796
0.35559345606062054 -0.2913855863151692 0.68542447424269459
-0.1354518469092961 0.38130673375584312 0.56717006414880666
-0.64664072235738645 0.055893563809649494 -0.25396706647075062
-0.67048804392237704 0.091220102178856566 -0.30627830338312578
-0.62549725945824663 0.071409973281588268 -0.27337689368741352
0.11659970674954545 0.11312372677281513 0.67715447328834699
-0.8139327225405999 -0.043414372629451581 -0.40444768549176557
0.19372827734613704 0.2774515700804796 0.57782817417896903
-0.0088379966484346019 0.42192130411307827 0.639286695401869
0.20175434948381335 -0.32915247861829955 0.60187064272330248
-0.13074959511045703 0.37681136715818064 0.60195575187869621
0.26545736114049712 0.029749318586877571 0.62085722524153586
-0.23723123196719526 0.60552438082304116 0.58316842505478783
0.19607433179219341 0.046804654129956602 0.67400257915100537
-0.36091936034170186 0.54769292625292798 0.46896286441263979
1.0429194444346384 0.14674562856507087 -0.32193896479867934
-0.13352783290480741 0.37620841781680847 0.57921151241864566
0.079707585861632263 0.028734700200666818 0.41239790207951144
0.080418305041572311 0.13255508425344587 0.66820809051214392
-0.67582574799452466 0.079919024659145799 -0.3085685524132451
0.19801670886158906 0.35543620033837353 0.54727063388071828
0.17751982785639209 -0.01797040100430336 0.69713712344705303
-0.55600468618565502 0.48000418900213565 0.08143515857030148
-0.30687469956456509 0.53974939076930561 0.56099596561291964
0.070175878602222269 0.29448535727018665 0.62960075630620016
-0.63299053225988855 0.07426571451234254 -0.27548936598050505
0.12113684797213486 -0.076241497768768207 0.47402991369693104
1.1018095763104474 0.18252655855089653 -0.29981850879716243
0.38666742852431479 0.0090659778131791935 -0.21849407795678011
0.13957705619573615 0.36833916961747981 0.5711066810935479
-1.0331357705066297 -0.011424774850471109 -0.5310243139294627
0.26119768851298775 -0.25746589938675912 0.74116327632236589
0.084116395289515367 0.021861969241814716 0.62349429891035046
0.33837358876622181 0.064245012552371139 0.3513986295301888
0.43415628953808361 0.29249828890903146 0.24260527087626943
0.72038393704807979 0.17929610517748851 -0.1707225327584288
0.050810086324961125 0.30670411501616457 0.62791055288694442
-0.2106770553195656 0.43583011333743482 0.56831457447282963
-0.40810547463263497 0.47892969081280112 0.12792292396604643
0.71244591279955016 0.20030788741439307 -0.16185423455439291
0.042163194078166016 0.31361394795844111 0.62646627368368235
-1.0256265818576868 0.094859334175864896 -0.4357784165625504
0.7871979100295432 0.098100542762914855 -0.11005386453694793
-0.80569330313715137 0.22426663946417191 -0.39151329570455018
0.16983425392661372 0.26741607905917597 0.59625350270954924
0.1969542589493059 0.30356991199905436 0.56709058495725095
0.13343998313604238 -0.074778741979136032 0.69225128863625129
-0.49015938480268839 0.16569676268677158 0.010403921917261472
0.014534106172537101 0.36411581154390849 0.65180091335031476
0.1343423586440097 0.11350166004119766 0.69895436602730587
0.68304349494923178 0.16689487584647777 -0.14265896248316062
-0.24016493216994395 0.41424937227628988 0.54626008306385399
-0.15308144958508543 0.393207458972475 0.59296476085791949
-0.81520212727637531 0.34381815845452396 -0.13851399499549705
-0.4311199770195398 0.26902337579336966 0.26050242733458534
-0.21688332166863289 0.57370616346739967 0.62154526252964581
0.093002018101562375 0.32707472709451224 0.64432004806430609
-0.82317233296125503 -0.024676413022094779 -0.46344164210103278
-0.82081084478995259 0.12163856221820735 -0.38991114833240825
-0.59187358342038887 0.37517585988926211 0.11101471340867089
-0.54245753172882583 0.46479347096190571 0.19599672453776001
0.24524734027186396 0.27820502044492212 0.50517260025990018
-0.50806580344572372 0.14375127560807099 -0.079638230459804699
0.9182037646219372 0.19044163554259855 -0.27514536942793294
0.090247538160112606 0.095349839240653211 0.70928476103023885
-0.84548404036235913 0.33646183779226585 -0.18130230997354954
0.079212009049862003 0.31230713383537445 0.64977094105781696
0.03152466471628998 0.30409462203847026 0.5566727481851802
0.10747682893027745 -0.12059886528033903 0.58308315090278329
-0.19857215049657279 0.26386645947235698 0.52319696131700677
0.13679452142301896 0.46283398239959456 0.54812018068602431
0.33031833530525856 -0.34015562147259015 0.64900022822038306
-0.14746893453338933 0.46648225908832608 0.60476733624048595
-0.12804266253113267 0.46405574622884449 0.62343342437261606
0.094459120979400832 -0.076431936314299342 0.6050530051932631
-0.24414813604679861 0.50051698637807929 0.53576662454089075
0.13055978054299017 0.12830847674077273 0.68245855977423753
-0.11541772975798918 0.34099661856690733 0.62567047744501558
0.10339223364232378 0.44425005523487032 0.57057508028712312
-0.042417195944382029 0.39006140680175616 0.61703654889487347
0.081182762408627374 0.26826198617718511 0.62545471141654652
-0.11122705922865694 0.47734977219616526 0.53187630590417667
-0.76447036630375287 0.13153749467444564 -0.29839251299793845
0.39504000138985257 -0.26952831597235671 0.67437235746704316
-0.15567875575104928 0.4094862813380088 0.59352631655062571
0.67475789665224217 0.11500600946768769 -0.057249570677782469
0.33719468295952132 0.24821800054764731 0.47451364975814392
0.1999254676699023 0.421367360320196 0.4238826762468535
-0.055613912191940673 0.40083664568532473 0.56959753555128445
-0.16395245994762778 0.47245103368327435 0.54083263117064972
0.098314543735606635 0.28121431882006731 0.6260352893015011
0.85135866684282935 0.12454890129532781 -0.22699601933732216
0.71329203798948981 0.09400955152401852 -0.10343139175567984
1.1964086946558758 0.11377401421904065 -0.36839013643894519
0.093424543051018855 0.48910202565822203 0.53059448902882
0.095557120199634499 0.34605198671306581 0.63333537150999597
0.88203251120041892 0.12879191688144093 -0.24069364841266569
-0.63767580387718026 0.35948604742752582 0.060509695735014968
-0.52751345947095718 0.41506313008840551 0.18425316005267292
-0.19362087003267137 0.34724011831676349 0.5771811817496052
-0.92070529726704198 -0.03913137836540137 -0.48311366691631535
1.0548493300859063 0.16696128367970176 -0.36131272330194397
-0.72693898407223967 0.44024493231648004 0.020858199379434159
-0.28857951152922834 0.44970181687499072 0.53314324547801573
0.060422447718274284 0.17225168490768672 0.65796108888917137
0.024713552576649374 0.49335879267951904 0.59709782013384549
0.28784861824345626 -0.31072072401793882 0.54519207292283334
0.30737898209575809 -0.33894211863125201 0.68295630928983142
-0.28695537019508438 0.2059463277778345 0.39978927996062974
-0.15321161918798215 0.022256634813241971 -0.63362672604602766
-0.20711102291738182 0.36305630571885172 0.56421047154549675
0.39228137955584569 -0.31996782238319676 0.57081313653430232
0.36286747177516643 -0.32141589852499342 0.66985766459808382
0.082707414946827845 0.095284266996190192 0.67816985411265795
0.24653173185310986 -0.055331467919912614 0.6890172905743559
0.37534625967863067 -0.29073334053876143 0.6855551196195343
0.6473720055108495 0.12418170682127583 -0.01471253347739665
0.035309074600592037 0.41755706528895248 0.60705565706944142
0.73841393531502575 0.11123049539572688 -0.12003625823487518
0.70337702534323887 0.18445146076019434 -0.15838804458724182
-0.88473467276195961 -0.04499823644300871 -0.50158515293393757
1.0762236348556389 0.1516956212673771 -0.32894827428895407
0.38169751785189199 -0.17569058525079773 0.65713886851246495
0.25974292252406811 0.13969410721300823 0.46409962267234084
-0.8322414973534058 0.050259490222152259 -0.39403317792455583
-0.38531825361162186 0.52210144407170267 0.45686522214060149
0.92834794544387877 0.15479616017070835 -0.25827762250993602
-0.12557684734708918 0.12881083982737551 0.29104208532509779
0.75028502720544843 0.099156053982686565 -0.1018123034498476
1.1788177124604289 0.096667777905518282 -0.36224988035733324
0.13476857426680991 0.28792629060550834 0.60373166395981714
0.1491888446104728 0.028922765678909501 0.70857287663914559
-0.090518173104478405 0.44410831686759167 0.61156084340281192
0.12771083260447263 0.19853123509237192 0.6437969134301359
-0.16355920019428674 0.3476110613169604 0.61314656960587199
-0.21810683401305456 0.41074536993091071 0.56135840290736805
-0.16009208592354973 0.33886930460816955 0.61495208565928239
-0.86982888589745211 0.086336344580271618 -0.39642781506261265
0.96582506016038649 0.19195030001870902 -0.27322558123225726
0.31408497189320972 0.17602047751656646 0.46495858761508091
0.096585602670723913 0.2615661111145221 0.6236286604009873
0.030230145617885951 0.505144573834307 0.54309766962955996
-0.66619425462836601 0.096327890334479971 -0.30413536582239464
0.22777031550291676 -0.061247340991163024 0.69870241281156953
-0.092710320575523086 0.31702142047077086 0.62407547169902733
0.19704946319438038 0.37921459892710596 0.16889779394392967
0.060502808038125341 0.038385017618938533 0.51310136785537719
-0.31419658590181976 0.14226813082168199 0.13962914842709476
-0.0094866999400523774 0.39321566709147859 0.6478254644116328
0.54396163425684008 0.19984881372581739 -0.11839497202246738
-0.10241291225926563 0.33681197359677806 0.60127829893317608
0.88613645668770868 0.10078525555725221 -0.20086951584867957
0.59778019984994857 0.047525003867127602 -0.32169362705973292
0.016392225467161695 0.4333784711201456 0.59931135112676093
0.57349428329169583 -0.22071799522084712 0.46867523960919139
-0.25270137885392885 0.47281034624890927 0.55985410790688717
-0.49856793519410136 0.061277702940446765 -0.48618676421356466
0.097086832225429409 0.39587401919068499 0.56985463453528162
-0.28866707371128086 0.099376086682066211 -0.046673152050621003
0.2557887864215368 -0.31856445020886948 0.72705226270637302
0.33798356744446995 -0.21934240167015551 0.70354735915693878
-0.28590301411620045 0.19735717299756361 0.35105937558030187
-0.025939521925663352 0.42637093146968685 0.63899057494531641
0.51148091429422338 0.24287475572540831 0.029411080349384999
-0.10450938096819887 0.24132468887395087 0.61779542138022259
-0.16907588578111668 0.37529368195715329 0.60854163912017134
0.12933699216927619 0.1449374969963021 -0.33389359033346139
0.06124094791453747 0.25588002719486458 0.62859126678291721
-0.060637964653596485 0.27573612358237021 0.62901270076613458
0.84188041482096732 0.093970148474959325 -0.20920529644751407
0.46282432999371348 -0.1421015667216754 0.37459915275956029
0.12115047454069684 0.10875623328190209 0.67930073753929754
0.2763454598421885 -0.081632178825187696 0.68478559947744855
-0.92139166792611649 -0.033072166571405215 -0.48701676323057541
0.56556944542956267 -0.24609774818717089 0.4587886476815759
0.051741049794754662 0.3018384028604707 0.62803802410070264
-0.073696510348345443 0.27643897744021073 0.63588594665834086
-0.93339765184354562 0.14790742544057223 -0.35939000567748375
-0.23913331626995882 0.047134780097951468 -0.60575109596682464
-0.86654746218608047 0.29674791610784801 -0.24087789723973232
0.0855400442174441 -0.013825641254852972 -0.52315126897969844
-0.22747285813959761 0.39469600511358149 0.55566187777883147
0.56746239513709629 -0.24308172339470535 0.47664163509985785
-0.89262332471225059 -0.067469792068118872 -0.47398730895456065
-0.10173668689715495 0.21228007452632791 0.60447953845254554
-0.25370210194826431 0.3268188358993015 0.48883572929047803
0.44361099729181991 0.14833220941460379 0.22664489091498002
0.36017862824603863 -0.23934072292547293 0.64424807734725342
0.18586122114034093 0.10136633075302914 0.65051482671804195
0.098548015923587626 0.15130701869227792 0.65345781230308753
0.086150478315698359 0.0087240849428057432 -0.29509527167310701
0.42739502912480143 -0.10515465133322954 0.5661192773752779
0.074018964874171145 0.29517671821590108 0.61910199823074419
-0.64371570684819557 0.065338979465407343 -0.29276186497615153
-0.075372770846296164 0.22184235449799183 0.61214858467048094
-0.086894474762746601 0.20412212019443599 0.6083568323506946
0.72646150837775059 0.10693173788286686 -0.095308899625043353
0.099534350562670237 0.093157336151049375 0.7167710411148468
-0.75302855386839163 0.25657845841117344 -0.15548450315123424
-0.23597544838955353 0.33108679284519504 0.5249139096417641
0.35614344264472297 0.039095390523391615 0.28645620472059474
-0.1805224350519169 0.45653194177630896 0.53244102954893102
-0.038536123349906998 0.44992147460866594 0.22478534176808679
0.15523030090506143 0.32103387631979996 0.58003650906851401
0.092554478260349279 0.28524248743182645 0.61796960243061971
-0.19073019011230463 0.50988582258999937 0.4392048146090044
0.88113057224694735 0.16622704338058503 -0.23662235330127004
-0.27784991580778196 0.47632405839239345 0.43900666190391957
-0.21102819747237431 0.32432017080112441 0.54506149194474596
-0.062029688714709597 0.42279039600599838 0.6149946344305004
0.39205620092083071 0.29046124754590452 0.35188426475506196
-0.20301052415919496 0.46252847744615366 0.50990110805041766
0.54587729348154845 0.23415157551438343 -0.090463638675932323
0.068162310425995909 0.34551076630048982 0.64940577652223674
0.50306491730941272 -0.22656234481462389 0.56644672766790394
0.053984429167811314 0.40538640393841274 0.60584929276232002
0.92258883976060491 0.1381739867253429 -0.25955911804620424
-0.65559381127098226 0.17312174839231126 -0.45326057939746606
0.61196212851889331 0.21028924333740001 -0.077236228873099555
0.52139801372554717 -0.26423761296510995 0.54191834180744192
-0.91631682708734763 0.046672829359306722 -0.43413297804859424
-0.16777729036524677 0.37990411216124909 0.60450270524067762
0.26217540897504915 -0.20971057801421666 0.45601334681092087
0.45337850868311336 0.28502014889834482 0.20334073729319208
-0.84282562288284157 0.12412734393061187 -0.34264143566414107
-0.30404952208127406 0.47836190512740201 0.5342526862042758
-0.23665025171830026 0.58833696267487834 0.54008409714818195
-0.7556849286573144 0.096310120251375197 -0.33681367636842952
0.29154777721647801 -0.24070169996858415 0.69148727440617419
-0.35094741539755769 0.18996588614254062 0.23676610191283792
-0.81223266086356671 0.16174506985404813 -0.46417079980762077
-0.19561157384262179 0.085724345889592546 -0.046345383965517184
-0.18597291633707361 0.40689195907803333 0.57582886355429752
-0.8268927433355171 0.12140822268938833 -0.34109038557535654
-0.3764110610443468 0.43742795494389919 0.42668040813183117
0.2049658116412845 0.27334076731728263 0.57053477078629256
0.094306311851996921 0.097826545130814346 0.71246872831701935
-0.24130760532022111 0.44129882814828714 0.54983654323882059
-0.61662084593098831 0.065087535887920045 -0.26289945120397235
-0.22393862269631085 0.31353611273605486 0.53163768785162679
0.26553220535049726 0.2159814046711086 0.53559723241463808
-0.20541387162742608 0.27195024711254245 0.54471139804679303
-0.28342251315420242 0.3898381430111848 0.47495467168659677
0.05685511104967042 -0.016586310915503444 -0.63387026053030404
0.21402066176538276 -0.28953368085139264 0.52942308647977065
-0.15267930984875761 0.37498084960648348 0.60410686505137379
-0.77021708607101225 0.14681254088526219 -0.27834482522484616
-0.40421947832311433 0.077248233295971858 -0.25472398582224431
0.91317294352483613 0.1831518368214278 -0.27089178077142007
0.020881125462405607 0.34646539822578559 0.63047294889964567
0.092231130019733154 0.43663926965716354 0.34070771053702109
0.015741946437721144 0.43936030619354993 0.58878700000718509
0.18782025995025425 0.26809092897571185 0.58398309380546398
-0.13923140999116165 0.1965180918274404 0.57008432510378393
-0.069644155993889359 0.46056086108514532 0.60924550926792476
0.29021192889606012 -0.1503528329913969 0.40770828642193668
0.71306840593241649 0.12091283626734106 -0.17959288108842142
-0.011895742793318773 0.49471850328342581 0.49545139443611175
-0.19090115160990356 0.4166826611573281 0.57783056116350262
0.75170726444356994 0.08492796559745952 -0.13118920424781638
-1.1077137317463064 0.027656833347000087 -0.5115538260713175
-0.19019627685604926 0.028957321141229175 -0.39033171929408295
0.4979898831996496 -0.1145626736878862 0.46194149738962526
0.77267148641219019 0.11278685320905335 -0.20430395385428712
0.1824667144367336 0.067961043018119782 0.70024474113454382
-0.023613180728839202 0.5068513340284112 0.51696182490948162
0.69715249687965086 0.12610506474492095 -0.16636977481174409
0.14900728375360225 0.11983281002927648 0.68747346943630494
0.52048622378989273 0.012245315678299451 -0.38460871638787592
0.12291917673492464 0.29951343743196246 0.62119934065014581
-0.37705820295048087 0.54932275228497729 0.45894363471925226
0.65486754011196069 0.14232478105650759 -0.070779667337898866
-0.2761157862915059 0.39915980158949993 0.51865613561757429
-0.73576357016932092 0.47664710224861756 0.039311701061727475
0.016653050726801163 0.34023962855878209 0.61448804918800992
-0.020812188608111418 0.12892148588764896 0.48400125596113341
-0.38544461641049044 0.43498124780381681 0.40690737866731935
0.29123023724337166 0.073192551308886911 0.51337949465939248
-0.38373480857650261 0.5565775036842241 0.48938233699198141
0.18712397099405545 0.30656066135142856 0.5735826197329843
0.8703978054688214 0.097328507839053779 -0.21359355989625339
0.27354196890525134 0.15401428510421977 0.48476581568767757
