# XYZ point cloud file
-0.3964839052163498 0.5388118011293348 0.59952840097016136
0.60814205967129276 0.28061891645566339 -0.54323787459702366
0.11444290144978098 -0.380558039633625 0.49623112143535408
0.33446961622122373 0.25754154446721977 0.58022475403103257
-1.1172751402209045 -0.05847509312910848 -0.56227181842376872
0.29104786672124661 -0.52407075837119432 0.86403788216176025
-0.25550621903590098 -0.32896193837447929 0.014366995482914646
1.2699681810134908 0.23178488173719858 -0.32913449023637753
-0.79313716244169719 0.042878408198985474 -0.47326270848230045
-0.17114574218702217 0.073598750807692626 0.63516414132323007
0.18127127916936026 0.43182036300471327 0.64755825524751387
-0.92452582381267945 -0.033578772804975232 -0.40030239238172527
1.1177895043652448 0.30443562966716664 -0.33166952369192337
0.080322151620855209 -0.37341354547035799 0.18106588945569335
0.057856561253608163 0.3835903383177699 0.65285706244295305
-0.039467612852769562 0.10456909072718856 0.78301730887001142
-0.4269972458980309 0.60925538629769305 0.48168376276335501
-0.61893461819997242 0.35561442856757219 0.51059966662729828
-0.16637006696688061 0.47632194534857875 0.5124312621833802
0.15273631191288572 -0.40521360755373359 0.51221992876550537
-0.79658503700948025 -0.090614403626074758 -0.19905155401702146
-0.016071160266038831 -0.20403675674039901 0.86832281109470522
0.25392667209275821 0.68848120277953972 0.53828136068994148
-0.017461140943103359 0.75101200808034463 0.56197098942870127
-0.5963065844715274 0.6120412129828372 -0.5442997745047915
0.3897553666395428 0.33653503022247916 0.61495043626953461
-0.73535244477304218 0.56757302685252642 0.39244903582508428
0.38700564299195328 0.39793848899452988 0.63626205474482767
0.15149161047319382 0.45219870225300851 0.63799147794060751
0.17373643207132794 -0.40871063329375401 0.93269473783894696
0.055065003430462056 -0.52204262762873643 0.94440393161083236
-0.77676904817124992 0.016046106809029625 -0.32131672162640079
0.19444572414132644 -0.40120666564653851 0.92589801585456399
0.43226962405675096 -0.19757866332922269 -0.53741377979497251
-0.076319993339799552 -0.42658453981817246 0.6283441322853065
0.11046552991991554 -0.4944841306123211 0.56334285430445163
-0.20890539233854355 0.64063739152782051 0.56883970638545556
-1.0967669571963157 -0.033527698695446251 -0.57966153080546867
0.43606389247083044 0.44616965730097735 0.60973514602181744
-0.37374375437729057 0.30326465715301532 0.63714764911350485
0.14476449167642969 0.057574483209664074 0.82222017197327446
-0.35998058387070486 0.61170151213806079 0.5220176710760196
1.2256700085059027 -0.0044845257237295932 -0.34713907367331487
-0.84100266218423947 -0.098396359658720289 -0.23751221715521531
-0.054782487851420925 -0.50570714983183218 0.90687843522987066
0.23694524643395809 0.053102999992149069 0.67490629041115113
0.018438652065588812 0.8088923979086593 0.54794274083996619
-0.61668494865691237 0.63866540874372224 0.4292894884240912
-0.47713608861749535 0.52127987669941356 0.57142029784974646
0.20292490962718546 -0.68822694634328918 0.82113923833118285
-1.0964498092411645 0.076198627684006093 -0.6340250689982696
-0.5280604663684656 0.81834049568001066 0.31430198294505018
0.96811136734593006 0.36678640372515647 -0.32985536111325686
0.15077193004176515 -0.4988516905728585 0.949822120573943
-0.83975995003313031 0.087224042898707888 -0.36821157484550682
0.43488247828774895 -0.59280148200491523 0.81244097060250198
0.061763905351776671 0.87635679683722967 0.39274313555654849
0.29950563836536226 -0.50213507548532976 0.86301481645000777
0.65857122790877831 0.55342275576653588 0.51483841103330796
0.31768709089315728 0.38783657619547107 0.64969312506654653
0.066388997277746498 0.54496339529579119 0.61681287967555143
-0.50268209722380419 0.33743990661389323 0.57871594442578278
0.15880292994067169 0.64827402250980781 0.60587393323458727
-0.19318011685975023 0.67454097134973667 0.53910343424612961
-0.7173028483762689 0.53467183662363849 0.41731466866767875
0.40898910419107537 -0.68527741100266359 0.71896686306299884
-0.0045276014290625 0.16809075442753862 0.74877941186261943
-0.91087104428913257 0.16653760700800468 -0.44684205723002357
-0.97777194026020986 0.19223073801327262 -0.57102072198009957
0.63294999869533619 -0.12781724967298458 -0.3976507524036208
1.008558926418134 -0.11593940793112689 -0.24947597574757374
-0.79430261709531713 0.024139465092801071 -0.34556299665347723
0.48380185362597672 0.063319727195164877 0.38101060527684538
0.73635841612475694 -0.039996970415478783 -0.10730716052857403
-0.15841334690701991 -0.14013418387623711 0.55609161754342296
0.085408043058354366 0.82019331006758001 0.5491239022829788
-0.79206301554667391 0.37755363930883878 -0.42771653746880389
0.89337343202785569 -0.10166582234092791 -0.23822443025406059
0.6658526658978996 0.29925788010435528 0.47326614758509322
0.1771076622542509 0.11940418917382134 0.79495825999154945
0.34173187814957373 -0.40258110798543112 0.86852543807738591
0.21761699719641925 -0.52464403719255648 0.56396258049880643
0.32891947633166652 -0.46155587808771203 0.892544625044426
0.1057122511646007 -0.57766711850151942 0.61907745663353708
0.77556057143141821 0.084808985843879414 -0.39092523021144032
0.017817384169443784 -0.52179204250241384 0.93788308042203283
0.087811900986713098 0.59219223275665667 0.58982648172289665
0.26257609904843093 -0.43612054904047082 0.9003913379330406
0.37784545618834287 -0.49524941084523033 0.56058037373917458
0.070331513952243796 0.070805329997285837 0.8341714877355777
-0.48577120508931948 0.67889903894556636 0.10534933577885042
-0.0270526663912527 -0.0082229786062285593 0.8000533265834342
0.083662332596517786 0.43931690619142688 0.63940054627947873
1.2174988072372201 0.3022820684755152 -0.42000187664283928
-0.56188469766155258 0.7344768371759125 0.4228609831932264
0.14593793882528772 0.44815996112634804 0.64868300666426748
0.15222017740465255 -0.4983166286169709 0.90011950630429638
-1.0253600957311466 -0.094680504074018845 -0.46003772008055854
-0.37434224509169489 0.39178294152372528 0.64339359547077635
0.2980682187084458 0.14275406210953046 -0.76376428560534393
0.29454221250015244 0.68556523811145231 0.57631752344678233
-0.29667761102118284 0.76978530005655132 -0.48006879639122779
-0.25423231449917516 0.38701509786053057 0.65008439034411936
0.40076682142274578 0.3147209255195117 0.5982427849394707
1.2396201625402128 -0.081995961274268669 -0.41046259088613191
-0.64860939353278724 0.48043790873500547 0.45036548070945415
-0.50208341876815155 0.53975848126419823 0.52607403983833834
-0.28656881386580224 0.3820183206772364 0.63515765569432325
0.88328139818223939 -0.040958505367054698 -0.29325393574597136
-0.75229052056559276 -0.019372352280045524 -0.24265533869343869
-0.81780539808088015 0.023203802069727386 -0.37280504031306982
0.92940349296298663 0.18794216610961167 -0.28445547796187576
-0.79881474043072309 0.32863115869884196 -0.018073816715343582
-1.0263496867323383 0.088909535011758578 -0.61224154038184331
0.24378291747280834 -0.37190006387684804 0.50811994237937519
-0.81134391990232402 -0.018086427662195703 -0.42862898726404453
-0.76330991454302932 0.11505446453942514 -0.029975478708948344
0.28960536714675378 -0.69690096064425044 0.72608657038560764
-0.0064346140116757766 -0.061939620205182511 -0.81784500971493657
-0.33525839746775432 0.82374695259014019 -0.30995120995322623
-0.78669482247854639 0.1680079372323644 -0.46769635371139984
0.79656010473487804 0.2286151549483908 -0.040274488834549871
0.16860094106342949 0.13598684668889788 0.78762492957561392
-0.43397718148786346 0.64089369961870091 0.3589826870916184
-0.59832591944186753 0.76120393187349722 0.35107301189571594
0.47730879286539007 0.094509638369738025 0.43186875665790581
0.038431075030201711 0.050255451331210788 0.83058423690430061
0.31109040052052706 -0.51092571877777948 0.89215449771260324
0.10154918736352236 0.60990849744033215 0.59471865438258043
0.09965252183714135 0.73928299731449809 0.55142576814910704
0.46710007664187003 -0.53505547507053541 0.64595040188221198
-0.75910431017293512 -0.045539273748383957 -0.21337978608074515
-0.29475748301649318 0.6125670989884584 0.42126911460112559
0.064100505931493856 -0.014794043777615173 0.81351430999923657
-1.074294719357173 -0.10520751243918269 -0.41696867793091741
-0.66288041034508005 0.6194311063023441 0.41641353242999024
0.12480792482399394 0.50615002695046041 0.63195204688311968
0.13833236217728562 -0.58258124181464122 0.60899635203390368
-0.076569476213929732 0.86880517849486116 0.41075841966183013
-0.48167453432272112 0.60823113548527474 0.48951335994385836
0.63858661658779603 0.56527452902553299 0.24175105271623742
0.011358688624103053 -0.32283024771076207 0.42332695736394754
-0.8188102489352449 0.33094751783092091 -0.18362661686241211
0.12006793079938127 0.71483148580437883 0.56159440050190135
-0.30386319438482268 -0.29402124161661458 0.018368632125930873
-0.3513795056393878 0.16359349995452055 0.62662324697068428
0.59305653161200134 0.60153132992062652 0.54895370873876104
0.069255309118698705 0.61618500595374104 0.59308364398541613
0.062072516616938245 0.78672178415562999 0.54759214711046056
0.69141071606202509 0.58602244873312292 -0.15556154277616585
-0.029642451984816631 0.72661739085588173 0.32965397520018591
0.30356623615068479 -0.2371759532578499 0.51468320257856526
-0.49539368965695729 0.59542591174836335 0.49053457371648079
0.027457962195462926 -0.33722507686932257 0.46811504209503951
-0.14857787212874207 -0.19654394988670854 0.47997427584015284
0.000565372735195524 -0.34239317046188567 0.49678615096513923
0.12116277244969531 -0.61565850717747905 0.64706555156831769
-0.43405314844605236 0.619334782603844 0.49438866482315724
-1.1013473010822068 0.086583721080617959 -0.6359618820966908
0.28959628647347024 -0.053398385209917687 0.68716487689135519
-0.80159312858873477 0.27666953540624006 -0.028532804859182193
-0.11877954524033285 0.68311354351302545 0.48109953971930608
-0.45159681552879682 0.38166611595256028 0.60294268658578609
0.084212789958547418 0.2444146220327702 0.71663320909635786
-0.1880232551256853 0.5325124813275508 -0.78518646289855631
0.20357245485063125 -0.47915179939775265 0.54635834625702984
-0.69183763200733139 -0.15511069948597922 -0.17597094844534844
-0.32520046281701553 0.27845756607201277 0.61494104585218778
0.094241422663845498 0.65136768246445897 0.57889215824692108
0.30549917941505988 -0.52372786664087267 0.89359393614410187
-0.42152855972662984 0.62702831054606434 0.49594458235437244
0.02265585279799609 0.49571985784987271 0.62047319718095117
-0.59316834408572561 0.51901530058228074 0.40115936561673671
-0.44414503225562818 0.30204663428894085 0.60914615265173211
0.95275225054422208 0.22511699407995867 -0.28576143342557003
0.24361267946189891 0.45201543279986822 0.67978179286053297
0.21362905485412576 -0.38720748067652577 0.91615944466849619
0.34716789844149787 -0.40114004081578647 0.54756999769571202
-0.55602115694991561 0.37692434577660017 0.54375769433645615
-0.56675002771371474 0.4409407446248339 0.49895957410074487
0.2027574401446639 -0.53960486709973998 0.91460726881114596
0.95076054450487568 0.27838259874625315 -0.25343768214446172
0.33261725530345387 0.22654456142792684 0.65286314653836186
-0.78425957103246446 -0.12311945229205734 -0.075890974882858231
0.0019100957382587325 0.058572435568572834 0.82133276273622968
0.78097810584959682 0.15722405153689256 0.022304332444761599
-0.3178613166642883 0.33716512497548978 0.65054679076982858
-0.67115784161163816 0.65003423321073062 0.30085443528852096
-0.37557138405937529 0.40416642188401075 0.65129434457726099
0.47914911554500783 0.46767813242205181 0.54720257682058282
0.29881870145420919 0.68275896681522252 -0.52183920057370159
0.13085982821604603 -0.56790171946574486 0.94235136346169845
0.99576707149774357 0.15466204293732488 -0.40058725424954922
-0.54872659613780428 0.80367404547479682 0.38386240521798243
0.81685118097045439 0.26340599845761958 -0.14869681765522991
0.28835845506952396 -0.25155857762567857 0.23065319219905156
0.42481615479581869 0.62763744869340088 0.56806310824813622
-1.095702861708757 -0.12154859092336379 -0.40485137694877693
0.49125818858191117 0.021248361459710874 0.31913778959855676
0.77431252353083302 0.29149101537248656 -0.33430797934584255
-0.13836966110991611 0.892342419859671 -0.16856740178033647
-0.22736944321248842 0.1786520386008168 0.6821262743945482
0.15423962547233039 -0.4990522735185684 0.88797255955281607
-0.038290391589148598 -0.48443782975696914 0.63651813054907436
-0.37887612743139343 0.42569702593921932 0.65331853112130567
-0.76332223229982432 -0.015083920849026544 -0.29825425008912987
-1.0033986438265181 -0.015488082654999458 -0.48670047841767783
0.66185127791118603 0.60530021628845931 -0.22470979463733975
0.91723873140305834 -0.11429056599940601 -0.1848905870435491
0.8267504176579159 -0.16622866771120726 -0.14848981729931587
1.2798328270424424 0.015181133862678386 -0.44162792966070974
0.10517621687204759 0.71099755450149582 0.56269254524010393
0.38495225267793209 0.020826738077032836 0.42974173977430752
0.25493812032126151 -0.14207373324811012 -0.69677907095801217
0.31066411780013148 0.43652997629246137 0.6697483064067189
0.50837475029608825 0.47276480762581996 0.58293822440184861
1.2046209783322208 0.38114910842831207 -0.32193400021250085
-0.37399534415395763 0.7944157666263485 0.38419157788995761
0.39095323484517586 -0.50835380689463328 0.85494197325279586
-0.15290284675474908 -0.18592361612662511 0.57768548121759977
-0.61711397836088899 0.658799802068748 0.26500670262807979
-0.59827672126760056 0.36096878956663803 0.52131803431226587
0.14579224562586113 0.14971785241384816 0.79810712433924813
1.075933967199683 0.39724784162367199 -0.28474270236554489
0.017404042118052132 0.89532427792161839 0.39436539788009739
-0.36911301763997351 0.59167881915305554 0.52503632093249308
0.3733205899811729 0.04509175146872435 0.46638022747274199
0.83889713169639357 0.29655129231020405 -0.19021798345556107
-0.15328726604674792 -0.25165448697056658 0.64694596852137565
-0.85880655949423534 -0.04824797358483468 -0.34326591772402892
-0.24730569494363941 0.39376906333342693 0.63391582434788241
-0.18215997494718472 0.4137612490523187 0.57947206646428384
-0.015474559712622238 0.14742169923337894 0.8087087405643878
-1.0863693608252891 0.11740902620041216 -0.63925767834942171
-0.22123662657663345 0.41874264749370316 0.63917942533190875
-1.1340129485640631 -0.015231008004188862 -0.56263719933986067
-0.15428059977087294 0.3554181877917405 0.66210945333416404
-1.0522501062082625 0.07819584223943199 -0.72120700298347451
-0.43279091266197334 0.32316229197118773 0.61632657762823939
0.44284042626471809 0.54752657877535527 0.57573053210635017
0.29559727405451319 -0.49522428029007037 0.85464623198376088
0.30236820699823497 0.45584841724998926 0.68388026833221716
-0.09549875224225346 0.02549886455844852 0.73753018770299938
0.21001004064507356 -0.67847261354725197 0.84279998658780109
-0.29238177108057606 0.72545165424729208 0.40413227666541118
-0.73024912194500224 0.4988230196136445 -0.083356780972614786
0.80603927397700836 0.091547362150874223 -0.21464284678323153
0.55356803756912143 -0.14273841768210604 0.0013504977868308288
-0.30451726632201037 0.56546982115156907 0.5455638876121025
0.83350322675245536 0.066069056641519408 -0.27134149900355098
0.49208775217586975 0.65433946852321001 0.23414104100618971
0.18991776154941675 0.73152536550905278 0.55847149649158823
0.18860810425780095 0.3772630057472075 -0.78148271099795963
-0.57354509870681269 0.59687654478237451 0.44277511097723554
-1.0111164217105557 0.15430794460880648 -0.68248642485070299
0.009351676216526883 -0.35609520743577205 0.91700582141571374
0.9436859462840399 0.20194394057115317 -0.28989156900936308
1.1984853672756284 -0.0076848556419342184 -0.39227973084439149
0.17737050968857737 -0.66407924788367767 0.8702350968859669
0.17621867079159159 0.71429172114198258 0.56688032408939826
0.48562667883274813 -0.6505273216748273 0.6597307436153983
0.22825154266808845 0.078975936345971998 0.67588297938643471
0.26455156474901464 -0.018933992357950791 0.71017560274510494
0.16019101778865696 0.11093106093085248 0.8168570632994161
-0.077160969989652273 -0.61788909487471932 0.76262882912539176
-0.42432993322425894 0.59940572450255014 0.50251521296300616
-0.95319746448688036 0.0018838051666900668 -0.45523604395996031
-0.95241418267072397 0.13478321361371948 -0.51326281346340252
-0.28220147551431118 0.46568817328104523 0.63034664548467845
0.25038245275865734 0.84231903176466683 0.46696965909546506
-0.34244616835214181 0.55476297932256824 0.59339400209229609
0.44179669363449392 0.75129958500807026 0.45629604725859174
-0.78061150091891562 0.041559221567851745 -0.30346328552724344
-0.010347682600665209 0.17215428515491066 0.78411924303726188
0.01024566052895004 0.52043503923464307 0.614346273021523
-0.83112354554676848 -0.057263564385370502 -0.32153388115723125
-0.23851210480142804 -0.37064397900841439 -0.21050273411940346
-0.476557092102043 0.787309621190597 0.44455983433009294
-0.47914762572949066 0.50860356180512367 0.57659657423966593
-0.17528150184484481 -0.34278714999234094 0.11559439856119802
0.98349552466226875 0.25570406976060878 -0.29509325987877411
0.22523320400298452 0.77200301318116415 0.22001569462224779
-0.30530434905555737 0.36825122247185926 0.64054181914556274
-0.32901853827301331 0.49316324387334831 0.63729371289564263
0.52483518914054628 0.47110225678200141 0.5768799015571684
0.28937715032310507 0.43443750890536792 0.67278904805535333
0.38318051926273533 -0.331200260450494 0.59738843597310698
0.30389599385876664 -0.56608897456597884 0.90248550493692647
0.15155030092813426 -0.4669730479564459 0.8931172287218736
-0.52551466759326004 0.14603831570536219 0.46254369482213598
0.14058626281211239 0.66305171634417026 0.57738513451730178
-0.50080868035593262 0.55744158623218421 0.50706043109914134
0.88183741678970229 -0.10167831955865725 -0.2645924566725828
0.26519279848909072 -0.20151415217987523 0.83479593288810783
-0.81591633610942083 0.18693522058783696 -0.35260769039761897
-1.1458302665538191 -0.075404487903031336 -0.49714651871470394
-1.0363980512786579 -0.027811316970059785 -0.51109643897754431
-0.68091437354017614 0.55516283593607008 -0.076445994338058654
0.28571902158171447 -0.096817318645161965 0.5227910577632322
0.81741696790466456 0.18568927173936944 -0.18076610920515712
0.2983747018524614 -0.14370594667286762 0.53114648632368677
0.41157394255919044 0.80623371255973475 -0.046453476506886915
-0.80395321061630654 0.47582223256505529 0.24173765061474306
-0.98416191578784762 0.044032170988829389 -0.52019083232410424
1.0354715372515084 0.21812810866238652 -0.34119940586381503
-0.39490842182397934 0.42591345672389191 0.64780526031374031
0.093989886015059199 0.48705443389747366 0.60777604963942444
-0.46340165384958887 -0.096002389257715093 0.16689738917487951
-0.90713218690680542 -0.1085727449357301 -0.22858422350700813
0.12946936120691355 -0.042404415424677433 0.81406564180907282
0.40630895018293955 -0.1888405533499613 -0.57488652233485382
0.094761883450164675 -0.66747002469220273 0.86463462014888925
-0.065399585792800252 0.09421824749278751 0.76369165363314195
0.57363671174812403 0.62595657629905987 0.32821406948791498
-0.31177648351386722 -0.32975181033876932 -0.28892951853198312
-0.80456247484331378 0.40976893478416421 -0.31295664697162628
-0.58181664829527335 0.78721578510509671 0.32540994349883512
0.20959375323401375 -0.56362162521168979 0.93284046316017388
-0.93394702893109738 0.045058837894695891 -0.47591916869014028
0.20161620419778892 0.52202784304983696 0.68073621373613236
0.64628992082919545 -0.0053393148672806756 -0.48382683421783312
0.35908837950186623 0.64967170342497937 0.57565701623667387
-0.97271323864010917 0.07544363911725438 -0.55437101526590027
0.16436598748666498 0.45787387518735417 0.65007233419594534
0.094225004686126823 0.66767647456279777 0.57744177598957691
-0.64622277933295535 0.59097321654475854 -0.49268236355444905
0.30086373786904019 0.63300881601651637 0.59805000695770616
-0.80810374081923797 0.3806585604555357 -0.12330130101606684
-0.78402381550410105 0.089035928624366933 -0.49985258228140772
0.14878914065691262 0.63595207540444432 0.61840708398047894
-0.020134215365770203 0.047816774252490424 0.79463792857805515
1.193411704316258 0.16114178042380689 -0.38678701531432047
0.32046610620763794 0.65411485871242148 0.57573143623305789
-0.43788488422994298 -0.18180358007266895 -0.52510425798255511
-0.27194736063217206 0.72879794555535327 -0.56516593804264836
-0.0062349180944956117 0.094554029611646606 0.83089013752299756
-0.23134105500412261 0.58684248693072127 0.56482287984917789
-0.44450225425881307 0.56127477576214702 0.5652482374169665
-0.58086145491179764 0.48976293109552393 0.46826152891855877
1.2267137261443217 0.17267970488690421 -0.36059167945868786
0.42315213826033471 0.45132247279847149 0.60304930132344481
1.0113221548360087 -0.026119331828437176 -0.32885768870922938
-0.803482826581007 0.01178132073599425 -0.36124417467439507
0.19611542095941203 0.71892302449256518 0.56451371333366396
-0.47037241315455169 0.1423842917263467 0.54114122542869048
0.39757499765835824 0.20421176255919882 0.6165318544044105
0.18631650745950878 -0.53317056885964598 0.57007404252650851
0.47981116679490654 0.57484444605739971 0.57026424376765661
-0.9021886963029857 0.14765647346885125 -0.5864189120045431
-0.10204531450791521 -0.41979661744267838 0.64647490782440542
-0.64548436926289021 0.1593549342292615 -0.67654379935063069
0.87116652520601612 0.31759085521444552 -0.29643676298891819
-0.82768685206549364 -0.032649105233476972 -0.34378297410802716
-0.034033040964930095 0.15543729419585961 0.75553784058746309
-0.41588615618862512 0.77022078692406404 0.31672385421228277
-1.0580435721602282 0.025822426269169085 -0.68953306750814747
-0.143412472594596 0.43527850591446504 0.62404131071669156
-0.59615646780466669 0.48056572419830301 0.47541274107344833
-0.097916995680837005 -0.27548927209709095 0.84143910769507713
0.25711601264242923 -0.44978297099571674 0.88247068117381211
-0.72593283634330241 0.14589036279680601 0.13876765900430321
-0.49722446174486556 0.83220061498525788 0.3769559228513959
-0.84935420182014809 0.063096204505611375 -0.40056367112866731
-1.005622983336103 0.05561945673879265 -0.56484827141176908
-0.1692832917701601 0.423286733423336 0.62859677026733607
0.34619270948700276 0.19373948596121304 0.63704725404246432
1.2919854517796505 0.2223095535302797 -0.42421689501054161
0.42803333437390201 -0.68634028399544056 0.67357021274601081
-0.028758808217396847 0.74568647875266458 0.40231172481266064
-0.36757345674477371 0.33851985179122279 0.63359835791159824
0.094190107306358684 -0.57517880609796157 0.94064466018846282
-0.63289636006049577 0.66784963293512933 -0.18548741900458765
0.42737360270894165 0.73155569718427338 0.1320795340927674
0.11784548647553628 0.6793795491674719 0.57438769657042066
0.27772522996187021 0.043412285391059569 0.54233470624499347
-0.85559127899975174 -0.01984480798632049 -0.36602837070802252
-0.50688522072911368 0.23192215831837981 0.5791659530512181
0.69305844972728536 0.31365056335076757 0.38426078973139965
0.83969073980891196 -0.010247507557664681 -0.28845799582215115
-1.1332821745688992 0.10601450197038287 -0.68524563045887987
0.29989755375801863 -0.48948441154739963 0.86173905398193362
-1.1222944016027672 -0.014270162909582051 -0.61000032854729369
-0.10800658097935134 -0.37416039312770288 0.62803352718523797
-0.43803080904099012 0.63066979671652212 0.48786783991374527
-0.6351479759695291 0.67185193365119933 0.28143577592120828
-0.20166023442175529 0.54543257748174767 0.58346974091576875
-0.40462811868606607 0.72016334828911188 0.31290064253211192
-0.64417863097098582 0.68356452514242916 0.3017958637127407
0.38294794374730934 0.40153043084011597 0.63263398071427801
-0.32029754246538822 0.50795365860589081 0.62889967279878967
-0.35480331456409075 0.61614862649714741 0.46653805907312851
-0.53855039747769062 0.77409450881245956 0.27543026402515025
1.0090851127144305 0.3789619191709459 -0.34347276253333625
0.15759772818156037 -0.49343683351045531 0.9475980518320597
-0.091717983459316699 -0.33970641734684803 0.58917828783601323
-0.23989040412068263 0.51779150368763205 0.59276173096825602
0.79324802744667622 0.32160833539266243 0.0098569819648179902
0.23579219057222645 -0.26984607214726575 0.4268028682305296
0.24092756517515923 0.055976070440866943 0.64290984405953644
0.25891098178297511 -0.58254691727463115 0.91253694245265571
-0.78738637344310902 0.41958609805312896 -0.057451120000935774
0.63749261716338701 0.56517329630847857 0.2832655369257413
-0.17003088458371529 0.17306450280767516 0.70322678361925206
-0.30078081059914652 0.71549639124771613 0.52684292265145061
0.57604437590829782 -0.079429649485048603 -0.49851997491729527
-0.58837227271668624 0.71838717351629167 -0.23329728056577714
-0.11461041754766121 -0.0058606923063426741 0.7193844136540406
-0.033402137873325799 0.16042116270952211 0.77731774361538442
-0.21831554878721171 0.44316992389392162 0.62740694789703966
0.27854125541395547 -0.55578763049325886 0.91153759310238947
-0.46601509900591331 0.54558515535511287 0.56414304625694633
-0.18732432484601347 0.51694829523843189 0.49090875718203542
0.12413233868543294 -0.020932893746396619 0.8087262189672515
-0.98848957249016678 0.018722135924962746 -0.49693131599830309
-0.58436131395662549 0.54177888476117042 0.46485705814570366
2.8830592183837211e-05 0.8225104864023679 0.38501036150847945
0.14260487675783473 0.12718900700904645 0.81420930032553507
-1.1688067179521884 0.048016573032935606 -0.65052973682307424
-0.83439440870543535 0.060402077361274786 -0.3793916404541875
0.092508140851458975 0.73224112436054833 0.37349850844132249
0.73512572103248353 0.093768614569582409 0.10605733933904027
-1.0856464246501112 0.12526403948762499 -0.7384184480029603
1.229776420736556 0.11993410792957637 -0.37685265821756175
-0.492542406724926 0.62432855510593521 0.46944098752765306
-0.019290233561028103 -0.035554059200227472 0.81130659091102686
-0.41979310352606447 0.82199390878475243 0.38605947534009033
0.25121365385939498 0.72832235301881765 0.3118634089864436
-0.73330418769486272 -0.063449144683553449 -0.15271889699574004
-0.49256701630857869 -0.14773885618560856 -0.49105249704820508
-0.73792033757678688 -0.0082178602123885724 -0.21617031202860559
-1.0764285371204441 -0.023088686349124199 -0.56052246620893698
0.27299236544935823 0.3995317304251515 0.66291738676003398
-0.58850579531670633 0.56873492084662003 0.44541318804844643
-0.058645699166607557 -0.57671731479449073 0.89291477466716529
1.1569123968995356 0.057689836846985809 -0.37919899443290639
-0.6875346322094078 0.10212679813991943 0.17179781842784081
0.76827559833507664 -0.073771917622247551 -0.355519292572815
0.32451062442316392 0.11922342716928469 0.60598553499340291
-0.44431898214863352 0.80294665261867504 -0.17493250996646559
-0.82068474556048265 -0.097492965906021301 -0.2240061245104279
0.89213407346716878 0.13823863177988738 -0.27808255828823469
1.2036663815641724 0.20229255083818809 -0.39173958189846836
0.010708173933071663 0.84904098968650432 0.5433624729116282
-0.44273039322754748 0.50523234803397488 0.59867723675321649
1.1813706207022676 0.18562344028874511 -0.38486464937344245
-0.54182903515869363 0.41472510114780925 0.5241197692112749
-0.78061747123413916 -0.027281902102853861 -0.29493509171983767
-0.095296272877389399 0.047114897929776633 0.73342490087543055
0.95808153636990134 0.26106359841193783 -0.26855838383221631
0.28826339538425039 0.66675534563698868 0.5793979953534123
-0.26231720207488252 0.31917929062304928 0.62942954677408203
-0.92077251284179518 -0.084041853491845675 -0.34776098176795323
0.14457302767257119 0.087477883231675435 0.82426266693422434
0.18302355331788078 0.70115813284307094 0.57457812416495102
0.021102557143281686 0.7555573111983539 0.39137176363954751
1.0022157617984551 -0.20281470004713098 -0.33196281943290096
-0.024944649182414125 0.7251076524221215 0.56888292834150178
-0.98324906729964745 -0.18796692331706266 -0.33156248338275063
-0.5597729365034585 0.63214468216861919 0.44225104232574886
0.34781998249385282 0.37847371050042733 0.65165006803534453
-0.16852325405429802 -0.059645857537928282 0.57757149837690847
-0.54585992263180216 0.59912890915206674 0.35604434945824082
-0.7824104523978459 0.35273417882843194 0.19263000000724517
0.16458561401314675 0.87438535380257387 0.52530240575498865
-0.5963368136481062 0.49351515075400865 0.4693675228658698
0.55632758413146988 0.71291650351956648 0.54665648705172032
0.26605027308811025 0.87884848885612676 -0.10195668480528042
0.55589277066252407 0.62536651934955478 0.55903449086373058
0.081948209085892287 0.64316299770224927 0.58299745293528993
0.11008532399158533 -0.38628584547195632 0.93449961994523534
-0.94508157216682065 0.032379235206850376 -0.47476422830546738
0.28754722483987116 -0.61113534384847701 0.88764020027028678
-0.61946821893593018 0.6912484672938034 0.40189127785285095
-0.67516266036010464 0.58122700682980288 0.42350974908370809
-0.24571215294033877 0.47180838922236035 0.59430743354545434
0.25400047816986238 0.094464592648318746 0.63377409348047742
0.15133953955099955 0.069361428461388819 0.82163859085604862
0.13205904768222787 0.70034637030862112 0.5693386639024034
-0.17943762180768097 0.72309082558899462 0.29898823822579246
0.090363225451014273 0.86244415300396582 0.096015406371263268
-0.11836825641483806 0.65854405545056383 0.5705080850707791
-0.98469984716432712 -0.17924978254099466 -0.3794160926609802
0.14273374331153121 -0.47216124756778677 0.90531676413396767
-0.14636931256065111 0.53705538092361604 0.5981250182936968
-1.1124739717819203 -0.13939388382268536 -0.425117045838455
0.39413777713622089 -0.54036139602888045 0.56736308666084412
1.0210762258308819 0.012614020214745558 -0.33219828341007407
0.30339045226540939 0.05595499961863748 0.53398859795561293
-0.43026097868069968 0.53217309458304318 0.59066886847244859
-0.23061358881871463 0.53720515000262214 0.58344579309729028
-0.29874655418950447 0.70907384958463904 0.24414284744234926
0.27305846167689118 -0.36108058361544026 0.51215747705451697
0.30102193550161616 0.39638148186893435 0.66070285274288842
0.42045343531522228 0.075403497860334956 0.45933476266036344
-0.4849137087066886 0.55362833531127686 0.5397201232395723
0.24570093006291849 0.021915052573449278 0.70289105648744865
0.33686982457458647 0.46626424613721829 0.67130301026698902
0.81463568692051425 0.083220069786852369 -0.2313305518699309
0.16370702646560531 0.64607101070237749 0.62128770696274138
0.24654017257516969 -0.42835522399710624 0.91499176182871977
0.11855450808419654 0.56167819754326176 0.62426507390889263
1.1957748455994306 0.37054338989611679 -0.31576870694403958
-1.1153874126103442 -0.063031515938985372 -0.57408658555675629
-0.97339283997000159 -0.12358514911338037 -0.27924433552427352
-0.52180862912992332 0.80469571739108092 0.29485324309138328
0.67259049195310361 0.52463864090383017 0.30600586362283266
-1.1179904702769257 -0.048785572312107117 -0.54378250815889118
-0.87474268855479842 0.051190909483469049 -0.42550008691017283
-0.9422676206481313 -0.11541172110262332 -0.27099030968995486
-0.81565426497731508 0.097840318430680862 -0.33437009648757154
0.84505646096670795 0.25285777022037847 -0.32523234322132843
-0.36705563483678283 0.55439477546697069 0.59534527330919573
1.2633200287613562 0.16526815310744802 -0.33647635861443348
-0.031896670120760362 0.72914790088925985 -0.58707458546861169
0.16518685223553398 0.047069697611649808 0.80757515928369905
0.17038613568828609 0.72052017915594613 0.46611673032582956
0.036741121803164134 0.029468364747307574 0.81897155211252048
-0.034223981052035057 0.086664578412642523 0.7903373888628451
0.13494413827244678 -0.40650227488244051 -0.050679547791451895
0.13565865392244092 0.033691689661025648 0.82046846857358879
0.89309126817913764 0.17510872872940042 -0.25456975654748959
0.58372292695187156 0.69434853221620885 0.46002187273340311
0.15045613720739404 -0.35723342969867522 -0.52295176514422437
0.18014084252344809 0.48250850817311836 0.66410722040355452
0.48945176108480837 0.24052952078213458 0.58553170278243094
0.23028646562449318 0.68843638633059434 0.58239825013757596
-0.71855691756153206 0.56248213995708807 0.41025735179598044
-0.49503345299424595 0.82618883304130086 0.32694975453671304
-0.27791273561245156 -0.18310702131754941 0.28512930491029032
0.95458502846651072 0.034073426226604253 -0.30969626231507164
0.13276515025881075 0.67910127366057038 0.57337575344138969
-0.061549814544614279 0.046337884266950846 0.77030215653059741
0.07602594187267897 0.91514708480631368 0.44058289802229389
-0.77587223456928989 0.11266979840368152 -0.20080087020546245
0.14729430731200388 0.54946800144217156 0.6590846851825507
0.096439334558841239 0.043415710985095834 0.83215347159451092
-0.47016755713155689 0.56453444643753303 0.54506688975109618
0.17308060295992256 0.064726370090471441 0.8097465283012415
-0.548269366294452 0.38262687115191807 0.54766637583208322
0.85736085314774257 0.26783555665818071 -0.19701852783437346
0.11476774497462117 0.045662438863945942 0.82936136481203881
0.19391373952471369 -0.5576425261710567 0.93779153169603013
1.076232190514526 0.24148969691125122 -0.36152458912283514
-0.98978121018019749 0.055915081467610595 -0.54427816885346481
0.25829433169548999 -0.029393347071868581 0.74056979616693219
0.71010744797791148 0.39003095736983628 0.4357646241088311
0.48474807837747669 0.44957623953732712 0.59588364181066211
0.22517871547256441 -0.43543124153207269 0.91790876006365885
0.081498047701389353 0.52851039934951749 0.62391226208361239
0.23186428478274124 0.0033970339498146096 0.75149347815687761
-0.78470563768497392 0.0067738967240067449 -0.3439766941405189
-0.67579620821068431 0.52140050802100713 0.42823472504938387
0.9848293699432773 0.25378157117239208 -0.38498055417759502
-0.406828968674807 -0.23745998423209191 -0.082727362059696219
-0.97652907993160554 0.014321819415974657 -0.48445259535458796
0.11907130304003744 -0.071178148057932766 0.82622071036142941
-0.55794847700210148 0.77225366720894584 0.40481971472400247
0.060380890387452979 0.33263036727548961 0.67567345464361495
0.53801380894726591 0.65176654450945348 0.56345009983320793
-0.85116774636284376 -0.093067492429135479 -0.27244834815395436
-1.0600376850423512 -0.13589031399313112 -0.35465094237433092
-0.4098132169983284 0.29393330091555347 0.62372670416255538
0.47005337544994141 0.16319420947166119 0.56003658743551732
0.25775006912943255 0.52046900488334291 0.68238719615690435
0.001070868065278674 0.71754222664684786 0.35862543357128729
0.39792556895656794 -0.27952917858210125 -0.41530058497252931
-0.34700608704722313 0.83686051200501299 -0.22721568188586971
0.20289082605698106 -0.42718473617882813 0.92691972761993213
0.62556693921781026 0.66879887392155046 -0.0023638242837691337
0.45508825539415199 0.2864126098513009 0.61029027369900746
0.96554782857028698 -0.046483222124641177 -0.30469777473731696
1.2047418073098051 0.21028168695427385 -0.3859336293379414
0.3179538295393769 -0.19953401558727046 0.54139881381092536
0.40679502647400945 -0.29779832870988365 0.70317721896191188
1.0998426107695138 0.094237065014014076 -0.34902318807839983
0.93591682719199554 0.37912054779278637 -0.23077064685409532
0.13573137366234889 0.56592550687201848 0.64180341756486037
-0.67983287753829025 0.52924042034622254 0.1581868181558157
0.69142857261340573 0.48140532350144483 0.48578903055353173
-0.086617242090134994 -0.41845646470564613 -0.14250487062585648
-1.000025276981642 0.0057914257485045528 -0.49642025834113035
0.061648570896162269 0.50272393705322882 0.62425966823143852
0.13763117415604142 0.58810883876122066 0.64571057540180377
-0.30034929162776258 0.12810043805969118 0.62514074990492929
0.43614814585873063 0.54554186643706537 0.57235480884662771
0.69595943200082999 0.015645882882691531 0.096158150007910947
1.0649418884555395 0.34750028302346725 -0.38515803673132254
-0.10439764831545517 0.66648600181508666 0.43610743818458708
-0.10614884227563159 0.37523699385289772 0.64900864266502545
0.37810342608208103 -0.30994979088843211 -0.25085771391179357
-0.29737752352541946 -0.33897137584919945 -0.1939365296689548
-0.49696250363469652 0.49081741831111936 0.56660424416301147
0.21370047961710803 0.74032145057903331 0.55754623473189469
-0.97467827255180595 0.055125439805060905 -0.52581052021720964
0.26798115777940268 0.6023358653913502 0.64973879093869691
0.91202337819498425 0.14463054055418323 -0.28895854536475163
-0.41476648007004435 0.80192001588453232 0.34154386427594829
-0.21162532856153682 0.44041640193453957 0.62811566536089813
-1.1709553055172837 0.055151099117976221 -0.72918952039324836
0.89676953585645514 -0.13797600412173927 -0.1670893633511259
0.26391632505543861 -0.55412739959136337 0.91239852456054393
-0.89836666012597455 -0.083628865483077908 -0.32227250768517202
0.1038420134281921 -0.36503819684737615 0.92886000265163382
-0.20658295844453178 0.40994890882171009 0.63908392093841826
0.43552262723648383 0.5646764249754751 0.57261760403896567
-0.23294322506741238 0.046457108772375189 0.54992324973096807
-0.28445712184109162 0.48460040600886378 0.62039350423936312
-0.43671137594250276 0.070148593501222711 0.42721902338858442
0.17396421999973732 0.40016579829993482 0.63898944346628817
-0.80669838210974554 0.1454349661254819 -0.30362208670604396
-0.41715513484516542 0.81499682504208704 0.36229371632913221
-0.79293685115617407 0.26643520317344316 -0.44114741481927311
-0.38749739554163831 0.55123169739568112 0.59391714964165132
1.1954444767818497 0.21816938692829657 -0.43752046136343203
-0.12200223892025264 -0.29191720215639694 0.59157556872385797
0.066393169815533781 -0.41671370026154442 -0.045601321938031347
-0.066399685800128339 0.75155374886251036 0.56293134290092084
0.17851772243706421 0.11335059163894795 0.78014017172782957
-0.2249104523842167 0.3220893927379882 0.61373908034311775
0.4987546764800399 0.65769249971991939 0.32402939186083302
0.064753687681109895 -0.45210163163435502 0.94371094397389577
-0.23519248042778607 0.39575479677236192 0.64924592331627373
0.14606539595599699 0.56956796973145463 0.65627774461174049
-0.23732280271772055 0.42480308354102558 0.62609806533011003
0.9902412158879077 -0.10207065453372488 -0.29910964128024808
-0.021811943108021481 0.1631547228073868 0.75840248871678817
-0.41818922130395286 0.2822902452856606 0.62101717304032888
-0.33632566624995697 0.76723555831312873 0.47703112033581441
0.95720370058246473 -0.094818778679737425 -0.28454136335105673
-0.94866183332652909 0.086449411253899155 -0.53146172329964081
0.89856137590270713 -0.032889655075631685 -0.29714797041932606
0.51538326659726152 0.21322477374225346 -0.62770212115685098
0.47156015055871414 -0.50102924105811564 0.68203128276728364
0.28793948090030419 -0.53414941128371884 0.87642722575892762
-0.63038578975286264 0.5301595112797749 0.43842415744629726
0.21884498613232495 -0.40355582008359592 0.9200708021630053
-0.64757351963259957 0.40482180107374832 0.48134557404876688
-0.70488213985536419 -0.014151055140341429 -0.058113475101974288
0.28371505958923393 -0.40356841765738949 0.52527249854726676
0.27580425937991038 -0.48662192149191363 0.85286591470020134
0.1839277969150519 -0.059292053074193163 -0.76974257763108156
0.13776578780122861 0.59033771464470353 -0.68213441451978341
-0.20303358287012507 0.39192635305392165 0.60632877583362443
-0.57681542585409673 0.74895915033589344 0.40300441095093298
0.080582452370203228 0.40470479147524396 0.6481761395152148
0.61333267633812483 0.64736802746116495 0.10307545202512713
-0.10971479960936392 -0.47669537990342725 0.84455636284019242
0.014144474796335516 0.0061231665019321202 0.8065148306911567
0.27749850079390903 0.82803166462516087 0.092640799139699581
-0.56887708011051608 0.33626396291356886 0.46989130496175591
0.25814838599449352 0.68603083572536439 0.58447440861764477
0.095693418377196693 0.14904464676635082 0.80453299657167143
-0.79523872088907588 0.40359587999615121 0.22446329673187115
-0.39124206804893014 0.62047901604657596 0.50946088447503257
-0.46578243380826656 0.61540816419759936 0.48910195078734908
0.06687935882334628 0.61551886428136338 0.55991944879990996
0.60902536761244974 0.42251363665114133 0.54533680459211098
0.44212456877917994 0.56764721330177337 0.57542781829154421
0.38961124693852867 0.62898889993919893 0.51312555351817046
-0.45194935378755119 0.43354796474373508 0.6169942824674095
-0.50693866216048633 0.58362198232048579 0.46307872957734553
-0.732099808239834 0.4980533373362046 0.41515444082264175
0.56859999355100932 0.39534591796855767 0.56607474504327548
-0.39087728918202558 0.61509961923740586 0.51045603201838752
0.80259694091773781 0.0302443352283992 -0.26032321325416596
0.19474981932830282 0.51006327697247533 0.68186148530844193
-0.14253369394125315 -0.27686045588194574 0.78006932033676257
0.24153914962693968 0.63510403908348112 0.63613059425372853
-0.7695470641205322 0.060207258736109104 -0.26767729860175571
0.15031323091196391 -0.48482950890327814 0.88883760827053493
-0.28249375084627637 0.26807554138535372 0.60579857551343075
-0.25903441370366309 0.38975129699255046 0.64581747490186636
0.39381229296222031 -0.59305816093143737 0.84457038071361268
-0.15536058725556856 -0.16160371697156162 0.56654701262640828
-0.32150780167642523 0.032701646791639671 0.48034683618183571
0.8220475482628391 -0.040745154325153576 -0.23190806919920171
-0.35463363184460306 0.40079696851721303 0.6524775463416379
1.1769229992180925 -0.11648384870394013 -0.3555853536464948
-0.82302493729621418 0.17629236443336627 -0.44687177336153816
-0.22167846973772853 -0.053678595648764205 0.49761571876352484
1.0685255058963818 -0.1276015433033848 -0.41622223544281844
-0.036358860699866824 -0.36888345450166882 0.56276433013298188
-0.63538939948577955 0.45388540938905586 -0.66768708060341808
-0.65799485471204378 0.56699591891885126 0.20347060066255551
0.89619140526562546 -0.086130466905156577 -0.28286455627350726
0.61710846629875071 0.64373333075215911 -0.24480563763518326
0.76305383164711849 0.084230064307271535 0.014047106710835422
0.37890085556349185 -0.59942745338459003 0.85081749123400208
0.10113346547106872 0.16945167644890763 0.74295135230239673
-0.35191484316156263 0.34313865454182513 0.64287819356679954
-0.47796591927410503 0.654236189137819 0.16579990563837477
0.47622985037056864 0.35258496252651672 0.6037821374509047
0.83898444308031905 0.0051989503449210162 -0.292774700886687
-0.042744513608873547 -0.042313233188350008 0.80431612413784315
-0.12752217989811676 0.66000599234400514 0.39585744907209808
0.96405916404251712 0.39071824281652079 -0.29913621775659038
0.43681969634429407 0.69943695842100784 0.18754663777068181
-1.1191005810660961 -0.14882925897930699 -0.44635661532824322
0.14285661567674524 0.58750406674013911 0.65015434149333018
0.0272074354242271 0.58592987822280129 0.59783706506515522
-0.81688637348686655 0.13868122037072306 -0.33125760559420847
-0.066778017673398082 -0.60646610732199346 0.86970054795716045
1.0275408530838916 -0.10396716901684133 -0.31757245028964931
-0.49372723156364628 0.30530420878970277 0.58605546932153985
-0.33534173316082772 -0.13686345638774355 -0.67099279054848537
-0.29327207871148175 0.57673627370951719 0.5551945530537612
0.16346293887169949 -0.21679742497233923 -0.69023755003464515
0.12880489145918794 0.67272564162931237 0.55895669109069601
-0.22099694755809729 0.065511679423397418 0.58610652884045145
-0.28610070547860644 0.23928355175219751 0.67130067509862457
0.17920092041449642 0.65299077375935288 0.61232930536698937
-0.5770865024995242 0.53972460959497015 0.46854122084230987
0.74186375792710457 0.020879865417287036 0.00074568779240635763
-1.1243473141804294 -0.068112463735044537 -0.49281549481869469
-0.33315535195502299 0.3614545491029969 0.63183906151277469
-1.0106223658626234 0.18255290160409388 -0.60763875642870246
-0.37675344309429093 0.41442906794587209 0.65530560965314244
0.15755853032676725 0.14614654198725263 0.74919164014462147
0.31844605192422648 -0.47724222891752399 0.8951159620457112
-0.30884718635578778 0.5085591800497522 0.62728317906519848
0.060533364252032484 0.91309772235610753 0.50948825375553319
-0.42747076710541876 0.35778586993548145 0.60265467587580801
0.32077639144991998 0.79957102003293423 0.44943642060280453
0.18240650933998381 -0.52124445911881812 0.93850191002195338
-0.1546937149782952 -0.16502406240992373 0.51713546893777007
0.08711328111054506 0.15234389147734173 0.79936265707957688
0.073995085944803307 0.52671689728470528 0.62318043155191205
0.68129606690528099 -0.18288217392524908 -0.24858260949884148
-0.85585594650480701 0.1939385824510802 -0.42021621501083928
0.076844810072804748 0.64238628910709727 0.55089380691159384
0.39522692528648662 0.41673979052089982 0.62077388073513795
0.025176891219523156 -0.3970032789403326 0.54111596459767597
0.59894922765374048 0.21035364089751263 0.48145743904502503
0.99710715719946208 0.11439414693896799 -0.32092611181958652
0.051296444154704801 -0.33077775176078261 0.38778489886938594
-0.72489297818213849 0.067786167949916321 0.045869203909623124
-0.73130338413926488 -0.16125867946882888 -0.16542538389973416
0.39445442545492604 0.60516894640161145 0.56381525524815501
-0.31453453400640718 0.096419163398593466 0.58351748024116645
0.19588323866751089 -0.53306175879493534 0.88489446141850259
-0.35880196945583087 0.47968595312543427 0.64035983549729281
-0.46111768037600598 0.19168983862547162 0.59038903794631636
-0.26935617798296363 0.36966690138485425 0.65351083813515309
-0.61972588337224543 -0.073116925927789067 0.034623861877324913
0.44990530727764266 0.54932122904979674 0.5785217428558358
0.45001678971396153 -0.47244559590254087 0.78133788654321812
1.0523709660852383 0.082616115503521659 -0.33707879539620578
0.47493683404532483 0.50655208763284121 0.58843171687806617
0.091693888196486384 0.70493759482944862 0.56471503517763111
0.59054958761163512 0.47084306547945876 0.55363968367541538
0.32905176071842135 -0.55350863256202798 0.89469829456563765
-0.73338623669477521 -0.13057722095498203 -0.065575444023210139
-0.48421841241048824 0.5380692807503431 0.55657889795453386
0.88267907708309501 -0.19329486608080026 -0.3011154657409989
0.26816993754316165 0.64027867562404928 0.61466547049719189
0.19994741781840908 0.094704014292243177 0.742343934297228
0.071896000949303485 -0.47568716227124819 0.9460468146167802
0.20680930656112295 -0.29165158052861462 0.88679337907393929
1.1150235393438148 0.32637521856413176 -0.31878209315633299
0.06245775109096563 0.51292707716075792 0.5790387203974543
0.14291538523010239 -0.3253918837351264 0.41969295215602465
-0.31276410352693773 -0.079018116348801959 0.36361134691070873
-0.10055699123253348 -0.51778579274336056 0.85370051110508349
-0.41598831005622117 0.4152197791749771 0.63832809653938583
0.22076272194048485 0.72356350430151273 0.56148347701649293
-0.521552977005868 0.59042529278964317 0.48332861733624277
0.60723910299232742 0.55798188501880253 0.54393589578242896
-0.14026321776420936 -0.36946369946986291 0.77470531583321289
0.17024525912137101 0.69059473124702109 0.57238821932018347
-0.42189860283841263 0.59056717471143094 0.52051394372630355
-0.056535410593095747 -0.31598104455858644 0.35779787900336224
-0.15658748829664937 -0.069802595573315029 0.64923854695764938
-0.74505826497479966 -0.11702551177455756 -0.064952870993339573
0.20569936509706999 -0.53985257083386762 0.92383509353241244
0.17256654016799189 -0.48791883507612321 0.55077114665131077
-0.055273386925934531 -0.39396674290745737 0.59525350737352056
0.061559516946145365 0.60105071858341719 0.59890753564660493
-0.0084583988388580167 0.83832509321018678 0.54443127701893523
-1.0429458092629922 -0.11811128774690349 -0.45301561547051072
0.86285911726052689 -0.031859371645134971 -0.28791058889940047
0.17646324394418578 0.9022415850660761 -0.10526738730113117
-0.30172804649392582 0.36520833551583576 0.64604053366434755
0.38476866829552492 -0.67782158478285204 0.76259775766914117
-1.1079475725809296 0.095532312941561948 -0.64203089792464141
0.34876404261819971 0.78881580542674168 0.5614552778355133
