# XYZ point cloud file
0.10330742674399795 0.39925078997634533 0.62179745629143568
0.15568604904985933 0.12648187087895124 0.74794594872844611
-0.50072060682640918 0.36958601715215744 0.4779808031424384
0.066773345135457518 0.15874338364919272 0.72840438207567049
1.0643099656008395 0.10477889818707475 -0.34191599424804231
-0.38720142227482762 0.52335557622039186 0.53578292416564999
-0.52470367331662038 0.69011863347554869 0.48275516910054828
-0.0038625245712008982 -0.13301736415394982 0.4771105206007169
0.1694623553280975 0.45471508305415043 0.64738028595616637
-0.27898667813755734 -0.15801732992381945 -0.50180516247687423
0.80305528658636482 0.15821488745737322 -0.22185425547602788
0.28092146571836762 0.064594016425980616 0.61512208525595291
1.2362360900900249 0.007830275812794385 -0.42338070336084765
-0.35063790936787981 0.44668095274638464 0.56839142370126305
-0.79757236342542359 0.17267166160912861 -0.25654887293436701
0.26175249151890784 -0.36444474227878842 0.84071685996554857
0.89719663969947705 0.29084144638564879 -0.3331525278581311
0.72251488833893496 0.15159714857741879 -0.060048053327878659
0.067102682179793982 0.076295848399689614 0.7430218662985002
0.036387243520854401 -0.59500510262172313 0.70762860251499182
0.2567683027094721 0.47841130828693168 0.63173242904672389
0.26706724907148083 0.47140760114729208 0.62348616201178775
0.32718618267452471 0.033930916408984935 0.42013708462553367
-0.15689208467225318 0.79044850313275505 0.53578434366422467
-0.91164194136752097 0.19334741648672482 -0.33171610238361859
1.1741638081284105 0.007374238446594239 -0.31636195591899208
0.97642944452514624 0.064603409976401682 -0.29323668556287208
0.083511858906560099 0.64513928030996071 0.5335379214656597
-0.51660205210571397 0.66015716657893475 0.41168248640723126
0.41370384543765243 0.53349872828755429 0.55119792368150833
1.2323447789630735 0.12070483669815357 -0.42458958306003947
0.19778380612922586 -0.38396993056194262 0.85495678995904534
0.036678073846631132 0.20093781111092701 0.68352862491678978
0.26377829025541782 -0.14086770818095884 0.31235821394855146
1.1309469732996589 0.22987570896031517 -0.36653846132086976
-0.18549259016540109 0.38061317260451766 0.63234867322131416
0.023969485315062433 -0.51096568877784465 0.6430044960158563
0.24106682357527631 0.60725795515521463 0.56730166471316323
0.21015292008217357 0.54836331389854021 0.62316720280532678
-0.35212493315906501 0.53194263310342049 0.53662793156499333
-0.39777315442885874 0.53021600972916416 0.52912600754524908
-0.44114214232859517 0.26595422214797937 0.46933498170458954
0.13361407853091584 0.60046111137379876 0.60356103185038457
-0.60194838854601729 0.041352629868979918 -0.1547364652770109
0.2495457418990954 -0.51008836475768327 0.85588460732617921
0.25873112700575035 -0.39987062322455769 0.81320710988019274
0.19672595634746781 0.12641627287094437 0.72891205740357545
0.16650629353356239 -0.40900253415147159 0.85269480821504873
-0.46563503556371455 0.18412813341120193 -0.71944745160994561
0.19700035938601773 0.58041816433525795 0.59765727451946482
0.089112866896068788 0.63210449559526971 0.57883302572877637
-0.41393927473320347 0.52384185501211311 0.49909481004970413
0.29351417722975681 0.60533873465725585 0.22367522399753037
-0.094774409662975512 0.2912002945304677 -0.59102322689405451
-0.24447724660292819 0.5963279509622299 0.56996534553364109
-0.90380354110132655 -0.13263300183609106 -0.49056182412071925
0.80767646942297122 0.13751444736148288 -0.23512436296780681
0.26645191712094918 0.43942860073383216 -0.26677839867561115
-0.56456622965564551 0.62288568332708105 0.44961451129499608
1.1010418362360215 0.016905960586845348 -0.30559694546794258
0.4104275848465907 -0.48784300324709307 0.60874844846660636
-0.21777021654605938 -0.076525803256859426 -0.79340922226647281
-0.48843858139323926 0.60671767921588127 0.39811110238941927
-1.0464367756848658 0.030769188653183122 -0.54895016435195165
-0.59270521372909424 0.48435883924864553 0.45929625889408632
0.20912609388559006 0.40012943717860949 0.62945582357534979
0.11084454983706288 0.15692672693241105 0.70602481329589217
-1.1639478874892497 -0.028197944485569337 -0.60116679545817631
-0.24447860805509009 0.3247010618562296 0.59810165881791422
0.15300601562925897 0.46245698250663114 0.64536452468328509
-0.44615873303958042 0.53496239918099242 0.4630432511546716
0.86976417762167824 0.32570119320374369 -0.24780970494890209
0.51877594016293394 0.29984540062451548 -0.31354683334599409
-0.050527556973261833 0.03471870305919289 0.53406381718529161
-0.8668384884842979 0.045284626418399476 -0.40403719639738034
-0.10291131467709863 0.166418204129406 0.61496666410923995
0.72796913853599055 0.16077590709255296 -0.30989061817250185
-0.14879741725837214 0.63241773616802432 0.43871668340846526
0.25428030965550441 -0.47383581898403948 0.81836511525864308
0.076919209635393171 0.095683293976207118 0.75394376073090097
0.20830870557511189 0.40421854636441479 0.62712873174995787
-0.68693629916520116 0.037067475883120427 -0.26942370411654837
-0.29094208649189351 0.7326595254137287 0.20104113978163074
-0.75789790401021584 0.075000278813852628 -0.33131380755118256
0.84017909004577174 0.24210442299333912 -0.23577037499533793
0.25764006591595445 0.63301272323095192 0.55940875572039594
-0.5118284214469957 0.69905423033512815 0.47205475209610803
0.088183949964782848 0.16965464214279313 0.70406113510719281
1.1323627421288922 0.14127594464083426 -0.38299455960556417
0.040764009874809881 -0.15410988068462439 0.39303183990582546
0.79469978953705167 0.083960242367118854 -0.24578796155197091
-0.27768343499243342 0.60134478495359822 0.56369163768559405
-0.59241464194110116 0.37399802859155429 0.40359995767494894
0.35472821442241786 -0.20224329636377547 0.53188082597279518
0.12491300608210826 0.067724681427279609 0.75724136647940288
0.74770705213824495 -0.00068657198937094321 -0.3436857086438132
0.79485151840828072 0.13149334149971859 -0.22555077345428431
-1.0337051988372115 0.013562053155394604 -0.53345608089295027
-0.28262364365308867 0.50309381724637436 0.57784570483384012
-0.7724918282974953 0.10097567333201729 -0.43807133272683219
0.17011243516009777 0.093071941330050478 0.75184634596169042
-0.70309137422041112 0.018228597096836996 -0.28578375575537951
-1.0685938590185777 0.0017101383090731836 -0.56905394899516404
-0.45749325420645059 0.57745702636087426 0.51465641417417984
-0.46510624646505888 0.65552109499875977 0.52139298904294806
0.20741128759077521 0.43509578809304106 0.63782014330864767
-1.0603353238252453 0.016450461658260362 -0.56140830480224313
0.019481897755335209 0.29413016857496777 0.64567231416628346
-0.86400810759325697 -0.069897454960055061 -0.42578462086935209
-0.034366208417952793 0.62710469700580451 0.57196790797280705
1.0718841996422235 0.14919566979560961 -0.35797782591125449
0.16957598419547595 -0.49070716236870204 0.87021771118136959
0.27513494450659109 -0.53782372758759767 0.84046696656130093
-0.063169114135395998 0.44805655186927407 0.60042637029001833
-0.52978203030595583 0.5975329408805059 -0.1781754312759376
-0.32602455066036695 0.53987695479322451 0.54357221183097559
-0.86317479018613708 -0.0058825228691814502 -0.41084741150487591
0.060066186713735981 0.43841605174906872 0.6099442481136137
-0.53018089450812522 0.65809118003870992 0.49037134446241293
0.84243491590791708 0.072984543087287079 -0.2573955114544364
-0.31050449853411544 -0.13631243665520865 -0.4241295698514822
0.10622816257173878 -0.1733592758992244 0.36238888017171522
-0.21285748715916852 0.5824732901581946 0.57559508744638599
0.63823931038054593 -0.029222200974165835 -0.10536162699895302
0.6094095232708292 0.18882029829267566 -0.37314392577137356
1.2170915296891747 0.098916161849222695 -0.34597309600860315
0.31228504956515746 0.41496890289761845 0.61068641186823136
-0.97437512676181803 0.10401659576947431 -0.44115805939300934
-0.43934793130803773 0.35489406591947281 0.5096654244215495
-0.24659232359428068 0.72427776797618537 0.25214284532991815
-0.92853845551205683 0.11250094192834181 -0.40860448730589827
-0.14572457493244562 0.42870423384088863 0.58240751943267188
-1.0896495745006693 0.11677295320448988 -0.49806237800517739
-0.4191362052182987 0.18682649061415368 0.33457087656907669
-0.14663613689353922 0.70108724262143518 0.57248773646448026
0.22351494198933858 -0.29773575701648891 0.50502430942833021
-0.71957341379454764 -0.010168009832760116 -0.3153326236402112
-0.93132955791380234 -0.12918417836454443 -0.45811110144542777
-0.71317844511099637 0.049224560518403404 -0.32474710701896825
-0.11060229074926614 -0.19010476766911211 -0.68565274709257773
-1.1537489626462372 0.019365151522557245 -0.62494471838390453
0.025953496390811737 0.64234691954471734 2.7085285426498018e-05
0.20025364748340102 0.090891036261358416 0.71944544501214791
0.15427043973925952 -0.19703457016388493 0.4314213267098399
0.18704910000599978 0.12718862968779332 0.74275530540001267
-0.23875493398005626 0.31818569130913943 0.60091959259231675
-1.0631711226649316 -0.10477847097374449 -0.54122973131884988
-0.86534322615733628 -0.041513122233878264 -0.42292849375282726
0.17928482918463051 0.08704220440661814 0.74836845893814274
0.37155012843130886 0.57384718884351704 0.5545482834821156
-0.31135618635548545 0.42200337883391281 0.59621722046929815
-0.84865737603438651 0.5083577281109859 -0.13592316331643017
0.050300277728611786 0.16949581972501893 0.71215468474922483
0.22583271324147247 -0.41178493421624918 0.81985406122944315
0.29537299471274531 -0.45764089832603849 0.84314253101239656
0.092232270329425103 0.088340426230319569 0.75595454338754653
0.27985762069507342 -0.015238623307677557 0.70735272178916597
0.88716952391674841 0.015908084275300105 -0.2036923199184244
-0.20385734453752935 0.37070075456266505 0.63630095907922479
0.72559956806541914 0.025382174128876667 -0.068948890429526344
0.94925795090599219 0.13963397693332458 -0.39163066319703788
-0.060386365122044317 0.097901538476056427 0.54260168214587123
0.28700570634443406 -0.18428611707864828 0.4756588584968573
-0.28036066394356901 0.49957970362091553 0.5861163215318741
0.15489663666881459 -0.35616271720048553 0.53019990226258695
0.31825524338714323 0.4332021225177658 0.60440715908967579
0.52027631215908188 0.29454409997913999 0.43494172644427476
-0.59697808756037252 0.434442864979248 0.44492127069654064
0.10552895176149668 0.49364677588512262 0.62766485624855539
0.1085650045046157 0.16281105472487578 0.69868853859086189
-0.14777470728034847 0.68807234026029773 0.34142515378143568
0.12765090098536047 0.49109972355804987 0.64195248328338383
-0.95651081685175443 0.1639815735411414 -0.36606174597432917
0.58768295150570538 0.32278689446688724 -0.19592580613221644
0.020270488587832092 -0.19656387499426931 0.065775526299180154
0.10740905101883802 -0.23225906697698662 0.47649918805837643
-0.42308551002323219 -0.011985634878757256 -0.73789164073818858
1.1211772609624076 0.15668224444500889 -0.36037246526834066
0.12374076292760144 -0.26270805154976529 -0.41698097517863086
0.034108371410998706 0.32480447149883096 0.63167959179421107
0.029819274412449193 0.0027153978984966187 0.7077949503965506
0.35530310229488055 0.68317428865516416 0.51973746689448896
0.7018946375255557 0.29466989337494143 -0.17087678363951397
-0.066185579151864848 -0.13568470808009403 0.18210272213556689
0.30675770987490147 0.021335217731046185 0.46660821140365139
1.1565088127368461 -0.035866839310431331 -0.33710525446002171
0.13223228449610863 0.49614353602625094 0.64226296883813028
0.23720185829831564 -0.5319962393017823 0.85780479193074433
0.12023875595980948 0.47960119800230494 0.63208664541783444
-0.95118787118378012 0.10395424379765572 -0.43179855702283421
-0.15360439251958224 -0.20417734726971171 -0.537168984629393
0.26654922928866304 -0.093261810867789841 0.75365267616881182
0.10859893593015163 0.15793656005554579 0.70256929165452409
-0.38192202594049046 0.20596509723503376 0.42442803675246488
0.0043382256616814052 -0.51655785462476134 0.75909301170193189
0.51981720618410621 0.53278671034188974 0.42275368761595811
0.11618701215215799 0.36821018299935293 0.63150658344581867
-0.35455364653349247 0.38779937713722035 0.55032912186267424
0.32535795634414977 -0.56725742058149597 0.78569481349974435
0.11084481921231354 0.42002159015606266 0.62214121140975553
0.1011831648066458 0.58407794255153211 0.61755598293090275
0.020344731375092129 -0.46697477104748186 0.62361747178478888
0.47322331229885273 -0.095410244310702108 -0.58729018233766173
0.26789151697482255 0.6105697740594771 0.26607893291443796
-0.483303177881931 0.43655895920384946 0.49415938581163577
0.16083278096877146 -0.4047069216735566 0.55144299095215432
-0.77721051207907244 -0.11445234963550943 -0.35434595192068885
0.28685573528981029 0.41635810776504223 0.61103241603177638
0.35172656217856252 -0.42645886935085464 0.80527435644577849
-0.67948414460673479 0.072116969573355671 -0.25647398454198367
-0.42343059802589256 0.45403830631258746 0.50937482395306155
0.036468173146898597 -0.053155725285147337 0.72771766451885034
-0.57201162902534153 -0.035138524689523276 -0.38752680575850373
0.1297162173478042 0.18822947640840848 0.69680225437321575
0.13920777678425195 -0.50824389661408986 0.86765156504287555
0.92006741717324081 0.019758434267451719 -0.13235830682439076
-0.14539825990927902 0.68805156611821205 0.4674079074946893
-0.31209146253485465 0.22009127324226263 0.54229507626143691
-0.74674455390359318 0.13850731454016696 -0.24582817853522609
0.088698886027190782 -0.43350753521505592 0.58747951163341794
-1.076818154585979 -0.028957307044242597 -0.57657658526672195
0.36574566150308307 0.45029019394274217 -0.18737534560637803
-1.081319766647014 -0.0030422045195934722 -0.56166802978242991
-0.90775946960259246 0.027840797249595983 -0.43301997589566188
0.91257012487774936 0.04696086095551899 -0.26426904757597036
-0.1199818531328391 0.36811605265419844 0.61841872110624108
0.069255020730860872 0.1675274273900409 0.72189101866970651
0.96918968910657077 -0.018909235627420751 -0.17217811430839536
0.17204577328916437 -0.51008160793851198 0.87128454621285867
0.045139831784188567 0.73918478618017724 0.56709442988028913
-0.1352907577955178 0.04685002494699253 0.41507212270013438
0.87182530226204147 0.025376181319270552 -0.17146711658832725
0.16901290225333182 0.57638069415516369 0.61768975941288273
0.4596732357736204 -0.17710962992238288 -0.48753461048946178
-0.64066267753157569 0.014718519441029532 -0.49135191878751261
-0.35410807987511911 0.1821719538205322 0.40583678855574146
0.88461727390377343 0.11933001261568554 -0.26833448998004794
0.80299290648839328 0.0691830718312898 -0.24062753112958335
-0.0066788019891836636 -0.38748178612003814 0.73503744710355257
0.2139836243411149 0.38134917398142631 0.62735488424100705
-0.38874788598718324 0.5388683546324069 0.52972915327321601
0.26609380957788092 0.501976690899822 0.61491639088293537
0.27984868886642944 0.090962275388945191 0.52662972619161375
0.18227784527185148 0.54594841910849135 0.62959048608660906
0.2345784385873867 0.39749646242250058 0.62720169200564335
-0.70160127573145914 0.058114560382934055 -0.30606068944117881
0.047760397746928973 0.11625303141334253 0.73041621270849166
1.0796613604312837 0.16743056976526183 -0.37885665307936556
-0.03650068363280079 -0.066928138193374842 0.54788764575658311
0.43178066372924612 -0.40282735087601473 0.68417097663076598
0.66569313989820866 0.31539697072457584 0.16461349602429021
0.31828926105376959 0.55194876452844799 0.56893129923411312
-0.30501184244502411 0.34525081240386069 0.57209590245123199
0.28962805016011495 0.5745995586366619 0.56478055681771
-0.31269120180738252 0.56315116986005354 0.5432268146812933
0.23950193314222185 0.52279153181756155 0.62593059193172973
0.74083351799027075 0.16008457084632433 -0.14532045718898257
0.3457364518862015 -0.16223379260460735 0.52246969735464877
1.1521667697401865 0.037179014878315986 -0.35744927855466724
0.37959941722633384 -0.5570154337746307 0.72746598553093955
-0.61887698981611461 0.55404201555449917 0.21943448791896092
-0.016093871346269828 -0.12306976685893689 0.50167987136481029
0.31478383303726021 0.5960710887273557 0.13903251187431698
0.8944556289213047 0.019618853668913694 -0.25232142346285169
-0.51961422308261063 0.41410950849204342 0.48129205401598263
-0.044329164436857194 0.58897460344131236 0.58064441282349843
-0.3337742929310033 0.36872361593904879 0.56100369770932268
0.26573966286514528 0.70005586877336956 0.55459537031249928
-0.53129672628001545 0.65624348906398122 0.41072475845248402
0.037691177765588918 -0.59029229026225538 0.79745188457024163
-0.6626841954794378 0.014097894078190176 -0.23581663632500893
-0.6786053491281655 0.003926283359359406 -0.25684804572271558
0.38203342644886418 0.010132969817423731 0.29470763391412991
0.21463144323155303 -0.39105937436406002 0.85396954671302971
-0.10273176197395506 0.44276645923853142 0.59712519104449235
-0.49918469293119705 0.41220152647799857 0.48925091724248704
-0.11978502631840671 0.55067872544003382 0.59115598003133663
0.22949900323510586 -0.3766882652819481 0.84960329171977289
0.012393386310205923 -0.14726545129581536 0.45794591324262468
0.29766726041016578 0.65996320497924676 0.56707604720052629
-0.47705074214784332 0.54264126186855366 0.42435296107240106
0.27054648658937758 -0.42651579677612572 0.82264401623345274
0.11964984492090458 0.16529249937579449 0.71892583734681725
0.20745641713421742 0.36293489614444385 0.60668934687062759
0.27756913538175076 -0.31519093751667526 0.82245343561436668
-0.90741584001585995 0.11870509516007033 -0.38751585131961619
-1.0368213213166215 -0.049626269273222334 -0.5125321272190404
0.16129457978607203 -0.43488031698789431 0.85724446269876742
0.80653942885632335 0.031426598023034824 -0.096114930667133613
-1.0780639947677995 0.013844496575024845 -0.55663777622898003
1.1692029964565722 0.068107802440236176 -0.33649678141984696
0.86671084512094632 0.010908740729453914 -0.22732204926201982
-0.6924334619953636 -0.020922754071218463 -0.2914458052949338
-0.13086543432718256 0.37427869359406918 0.61961729103960161
-0.1165701363887468 0.42305086795866842 0.54950131001003921
0.72313015248725765 0.10363458538294612 -0.026120908068186122
0.19918713464657706 -0.54908386580726587 0.86186133776413909
-0.87218232237469218 0.07202022085174864 -0.40131527125922739
1.2318780271071565 0.094119629317649389 -0.3592531285428362
0.88515764405506092 0.0092433875117809983 -0.23164126525481699
1.0636880221398175 0.13830045382457867 -0.3450023554008439
0.52675571909282581 -0.1278248504079611 -0.40667331132458484
1.1232667289121543 0.11581515318274493 -0.37874972580448274
-0.65326758486444114 0.16377014941732626 -0.65278748483743021
0.13942723712805369 -0.57191521049765326 0.85607517932593646
-0.69094608500343524 -0.0149052373046481 -0.28626906810562591
-0.1833798073956294 0.26447460420322288 0.57527186060791413
-0.95620981794896787 0.085589014516689321 -0.45782073329652073
-0.02294323676811183 0.26819351017174764 0.66053918926908262
0.087599356962156649 0.041792452736431063 0.73454019084254663
-0.67611972233806039 -0.032060374809805836 -0.16109887817973467
0.055014136564159877 0.68094022096391615 0.26860869252262143
0.17539570233962692 0.34772262567993595 0.58223237658234162
-0.15854584930335891 0.14389325309402379 0.56109251816443884
0.29028075718477525 0.059555782747525932 0.54276457416228974
-0.81770873386885023 0.1851912897887944 -0.31794405943424398
0.10504341130321776 0.16217067819828879 0.69722660366947098
0.020366202442934633 0.16194633088485855 0.69464282478290595
0.081160128653494368 0.69458674781456398 0.5718309868290592
0.30500499831312017 -0.59087488054306458 0.76203246852426298
0.071520203844695096 0.10630157304372867 0.75137208902455299
0.20270790062441291 0.069578878908759911 0.71870512788554519
-0.80138636450860123 0.022361021176600993 -0.36549056200727081
0.7796904474128219 0.30457488524421072 -0.17717374140209863
0.20548250510861993 -0.20355960735687662 0.80384517685600754
0.49314627028472885 0.51704643752390234 0.27488325271581315
0.021137646798360332 0.061643233151111865 0.69025847976399213
0.29798994882875146 -0.31619292967866963 0.81489830177928368
-0.28078033364373656 0.27910014259103377 0.54580776280486054
0.39963706879026234 0.56007633456936712 0.55117126389351245
-0.393286991436266 0.51219536360670093 0.5339621358249782
0.23739034095314954 -0.41595901644743272 0.81109326574820928
0.4376518220222303 0.63710049752110232 0.48997260804145526
0.10185359365732061 0.06526568741661265 0.75486812497857159
-0.36796571814242818 0.56260223479566895 0.52818736852300807
-0.35045713724608574 0.57587768122468175 0.53204942574888525
0.26575186496736292 0.12644595546903403 0.54437991760990689
0.84781073854245736 0.21657388231089869 -0.25276154621047464
0.98223954099861732 -0.050739913054177688 -0.22404637210858569
-1.0685638104330379 -0.028137269502486184 -0.54716279586062599
-0.012577817529389912 0.63360646496206763 0.50608663040001955
-0.18379240836509958 0.57075402686016496 0.58030949561737843
1.0675621921604235 0.11637331868969891 -0.34331259118895918
0.8679445206714792 0.32888233703611569 -0.25742531828996063
0.095432769233757209 0.04648138101374033 -0.76228132672465598
0.098662758410227147 0.10184620575128145 0.75439086921622955
-0.052990702889438468 0.76060718168246244 0.56438412987290176
0.044712771335166573 -0.51286938321834619 0.63768106718226836
-0.018533054600026189 0.080717011903988389 0.62345310814967547
0.15312693471007593 0.45668953817254465 0.63916045119722664
0.12979570720977562 -0.35155720494338905 0.53547172361818607
1.2022655496474117 0.1011902158028648 -0.33779453715778507
0.20402861363632968 0.62586060844729996 0.50483936656176409
1.0228312577840741 -0.0089515020132553413 -0.20385335597778953
-0.022441125186938471 0.70461072444193928 0.18029241000839757
-0.36506647329656305 0.64623661016300549 0.4545916476348304
-0.34377524749881166 0.56171026233724675 0.48905144669260059
0.96321867156633922 0.058086237808693042 -0.28337272735313235
-0.2256891735319102 0.36149296604269887 0.62986474032111239
0.28087729590445942 0.47988328498072352 0.61282387048251508
-0.76407773026055159 -0.020008513083469737 -0.32580724185876342
0.4272546134715553 -0.4684794938567971 0.72050935326419951
-0.39049664548892982 0.51059503555723795 0.53263899841883644
-0.16004965837748797 0.64477683161972221 0.54921597573779035
0.41189901255188821 -0.0037379306927785017 0.22701475582598185
-0.015809513501915451 0.29301916443173548 0.64922581396225132
-0.2475208995236636 0.47519974923258079 0.60361312537216572
1.1644318389514801 0.065098721607363963 -0.34480403651016633
0.1769178990442431 -0.53840017748465474 0.63327694133369494
-0.19769166469352367 0.70087844382007813 0.52512358224393907
-0.4328596272743378 0.44989511161965501 0.49092507385312079
0.47109054821380142 0.30573292898558346 0.53127102266179893
-0.20693106310837639 0.42359584353030888 0.62586894254417214
0.0027866431976868444 0.71584747735235399 0.46142279786568841
0.10355200404583353 0.63818373218429558 0.57943643157624569
0.43351790408305468 -0.47415908851026112 0.63633079347090593
-0.59323256038644334 0.068465661982124892 -0.11154299472363594
-0.86540697370510833 -0.07565912269656172 -0.3590699266216637
-0.42864714467099474 0.51223603731486289 0.51670454731044657
-0.32852618760836605 0.35279598457687777 0.56361445624759376
0.12349252206057759 0.48622438302429383 0.64071627278863597
0.28040223240070594 -0.33676358435637743 0.827617145875017
-0.68598484708740792 -0.017796795605352855 -0.28105341753763069
0.18946498815606111 0.61523565962170057 0.55148651150912853
1.14814317858615 0.12394702654282508 -0.37783857740899229
-0.016897885647320032 0.48102056735000587 0.59966481488367362
0.07842739010615718 0.13874348444601337 0.74088544049098193
1.2425707250171805 0.087158469233874714 -0.43441236605275879
0.35775834936070328 -0.08076956803639046 0.62714737840931356
0.045841211867381992 0.50859555690307734 0.60088870821142137
0.36375696478078695 0.38099459248909096 0.59135355318938476
0.24866734062556028 0.53538670536418209 0.60683397153359442
-0.38055920659989312 0.50883482662465207 0.53069333286949671
-0.35610273798076653 -0.016586218664305985 -0.77448437521151892
0.34932310554361606 0.47010913134416921 0.56333279777167222
-0.33710449356095828 0.61246301306110373 0.5467795651456715
-0.015024876434635903 0.5074322014001944 0.52335886547642385
0.73638074523309527 0.23234449052270123 -0.27282726267512025
-0.46325536657324623 0.50804167639915754 0.50272031019547381
0.82604747664905021 0.22416933999345012 -0.22645755177791083
0.0054985614737956268 0.68293346114660269 0.44854854217836593
-0.14945983514761374 0.3925816044560646 0.60273885623550028
-0.42611505251799031 0.42420295487823001 0.51828860738666771
1.1772748479173156 0.069594472542750196 -0.33151505928831337
0.90714368013078106 0.17816050263770222 -0.29051875912338021
-0.72202232921271103 -0.02326106866903821 -0.28523081727600497
0.31406399657136885 0.15391599821625146 0.50211415026517603
-0.036974521631587598 0.69282454981189168 0.56674269790532694
-0.39891793773374268 0.57961684130858071 0.52092029699145215
-0.26205677864432753 0.2952695783239867 0.59032591064285844
0.21442334977561561 -0.40378240155801892 0.84571098580341442
0.062814471999016019 -0.42493224204450009 0.59043562984210718
-0.18702675389599038 0.59369825181928149 0.51809644008722788
0.045538266923125292 0.11457308087924911 0.71891710773837181
0.95506055713701254 0.30068796170925571 -0.280069113861805
0.17799325738992688 -0.60053132391502562 0.83513229939722589
0.14555039109413365 0.097132147354658471 0.75414716290198225
0.10406150565202227 0.089831403713724445 0.75618499203415501
0.79873043701278235 0.3068494189404587 -0.19270337984700436
-0.065472591964777505 0.092852697466801803 0.53092858780883256
-0.74130748084544174 -0.036943425489616377 -0.22930599381614236
0.38926989220187436 0.47979292404470497 0.50872388404987534
0.23605610787921844 -0.431304106132405 0.80807740635150616
0.2723965150312942 -0.2852434740510752 0.81534632378291683
0.11893777585486637 -0.03697177099007698 0.75437109717728124
-1.0561107614023111 -0.05781850205301664 -0.56798129952360732
0.17450604682463267 -0.40163326597956228 0.85547459616496058
0.1331166000397721 0.60390118482879673 0.59325493836832388
-1.0781124056737019 0.022768203406380305 -0.54425023870727074
0.76923102942824939 0.052723958951704342 -0.33388638153941752
-0.56375579166785761 0.34144223093770343 0.40548498911761666
0.27557253278818677 0.14041568391940995 0.54081425053893151
0.31724208456207259 0.45365939248547171 0.59371259935493059
0.2532911647327265 -0.51481781413976169 0.85608289004643856
0.7665868016230597 -0.036191818062869752 -0.15133387558937539
0.85048270688220873 0.18789431593091588 -0.25783945371992667
0.15159887488385165 0.18787080814226265 0.69743694625916941
0.10558179077126978 0.15743242836998173 0.70268969938077896
0.098661848896704762 -0.32977600476006419 0.83051055015304298
0.10073518885935406 0.73806261479015745 0.54299696913343976
0.2885575336444855 -0.51070601809687233 0.84290948406325805
-4.3714786645554504e-05 0.56535785057040067 0.5869807765558579
0.18207159521207378 0.55931932730164213 0.62397541445788196
1.2086920317306555 0.15364445185069897 -0.41313479963568511
-0.15546834024121053 0.42991895053538398 0.59679532771275223
-1.0655850000119875 -0.056689101682529053 -0.50962612355302728
0.064009142196518154 0.55631962310622063 0.60522057265492446
0.24932906822590595 -0.45725368743807593 0.80668644422234115
0.35119217004022074 -0.54276067069957534 0.64153454399473464
-0.21414220006100054 0.50062716469965385 0.5744575462095165
-0.14224152151373576 0.49701922054563008 0.58633129284255903
0.20356276419771813 -0.5370869905286364 0.62961268887435384
-0.29901460736258839 0.54076434017645392 0.52817227589447224
0.22412806420120635 -0.32542667713867912 0.83630655396367048
0.11639600978525 0.60064532647033797 0.60718587758277831
0.23955392854657848 -0.5117393042265177 0.85456201350544481
-0.26015387478820384 0.43371311582217809 0.6157182271095194
-0.50603457059683699 0.64419188876439648 0.4061264374019915
1.0593021661645907 0.010553269608012172 -0.40833926059443515
0.023849985031650867 0.13366784855349545 0.6963534077551623
-0.15964430264428814 0.54862833857722881 0.58557170591020791
-0.81495267174604646 0.19457782023038162 -0.25803980263295845
0.090258682241693866 0.44411952408570721 0.61750284190793803
0.071642209951784386 0.62779076198316397 0.56221472227320657
0.21233309455270133 0.45420642829491031 0.64863000980501884
-0.45696900276748054 0.55796851321873309 0.42934180261425858
0.59620309778698211 0.36878476667466198 0.32544991966861003
-0.2757777531595334 0.54068654578488795 0.55654292078142875
0.45079115221795341 -0.17064923109724339 -0.54055418566789726
0.31722229398892277 0.52006772306821514 0.56863986456441618
0.19316623082551521 -0.24741949253562923 -0.58083084654531092
-0.010464985179338582 0.31777679528587743 0.63665068356753274
-0.24069928965442519 0.29122206035867659 0.58325568949923445
-0.41452853613753243 0.59542188244058947 0.52147843464309629
-1.0160205883888904 0.1003958210569964 -0.52720954888148075
0.15377854628738041 -0.010964477619992419 0.74652013262762784
-1.149697010744626 -0.0049890747058496387 -0.55959583204668606
0.13005313016421532 0.16881286278307162 0.72488181732129497
0.079227963529982792 0.5771540930455068 0.61650616430073368
0.27503583293461731 -0.57751738493561566 0.81563129143231983
0.15970959073494678 0.19014482168597979 0.68844613897839579
0.85794892226958575 0.016116418804631438 -0.21371803102546494
-0.09325828446416673 0.76773116858656998 0.56291296426550286
0.31163988681491445 -0.50887581219748634 0.83044952717902687
-0.70641578185263343 0.14359919016325562 -0.61499934710533655
0.14661328840692567 0.021264567764792464 0.74107637524484637
-0.38620024186793228 0.61523521016848748 0.42492693159773642
0.19094316151264451 -0.33268550078492654 0.84152743029820565
1.0114281350031955 0.054140952887343774 -0.31231064540607667
0.068799698903516504 0.55585231541982805 0.61093370644417799
0.27304748707974702 0.53364858954157124 0.58970926361363052
0.17245772392999525 0.4326445664512748 0.63288681049864337
0.23669196021469574 0.39213842286169598 0.62800899885873518
0.033054952807046289 -0.022718124520047844 0.716940375230946
0.11422519069825926 0.15824842865841804 0.71694521674192391
-1.0538169272719162 0.13807053610442965 -0.46649323698474232
-1.1214443492956954 -0.10043083748937143 -0.62210113291435798
-0.57382164977392103 0.54942134415111443 0.45670064038267544
-0.91428680400675677 0.18919223258322226 -0.35074458994935886
0.047167472114083064 0.62983259804760738 0.57465404029858469
0.21689738285286991 -0.52377677239865017 0.86212465378860204
-0.61855106045176744 0.030777125039641362 -0.18002199147933151
0.25923318036307841 0.59450784986078409 0.56439067483933503
0.48817312875428232 0.50132788750009727 0.081229030776577726
-0.37113203106336817 0.3770598860019585 0.54249286566642541
0.97834035035062095 0.02027912030856549 -0.19087273908532598
0.029958527585878247 0.51687448856479823 0.57713458999968514
1.0448529657449332 0.23897194014061685 -0.3123963906168945
-0.5533053537750442 0.43395625517511105 0.47182732768773272
0.16652461388523992 -0.26152732366762521 0.82288556102087629
-0.90143066072854072 0.13853047446841682 -0.43704101022060371
-0.13083231251466404 0.44034908918167348 0.59685944866753449
-0.78740693443297971 0.28699769899249405 -0.10019606007769033
0.72835329432565188 0.29570405805221545 -0.14249998803564701
-0.41855340772729327 0.11868980784851013 0.22760465884321324
0.266948463820394 -0.37956206211657717 0.84166365651244623
0.13946258026767994 0.64917583550103997 0.37440516282061731
-0.9911257184568647 -0.079842021740267111 -0.46512514587696252
0.41495410527854226 0.18813117687924441 -0.50232158057220477
-0.36452523835310913 0.61962255013869627 0.54014203853709919
0.40667640263230254 0.47612390083426748 0.56329041852394557
0.71214227007470787 0.3048791610188506 -0.17777346216854717
0.4402594715042138 -0.15776542875116562 -0.57995172671389605
-0.60372034814909648 0.368258334018293 0.36493646075313135
-0.56279835775314768 0.41370292161011912 0.45773737068229625
0.075882258320883578 0.084459346552555825 0.75321247121491153
0.15767449167294342 -0.43567496627372604 0.86495693513456784
-0.9521127095733275 -0.085795816498554611 -0.43492681330098115
0.91339952717041706 0.3207618610443691 -0.29214025782304143
-0.66127685774149458 0.037538312915918581 -0.2338456469158996
-0.56824376651080377 0.0072167905282123357 -0.11058208431513128
0.36524579533542645 -0.17168267480473576 0.55227938563819023
-0.56386805419222052 0.66254725086716082 0.43837724293952895
-1.1530430744216797 -0.06022573429295619 -0.65026550742727673
0.3527224475214113 -0.066809049987277769 -0.67874563439275892
0.90107992275219639 0.014145222841319471 -0.23821587560397539
-0.028940231325283561 0.058190589993324604 0.60090967979092991
0.058976144951665144 0.10249591222895527 0.74596441845091555
0.11123528877822364 -0.006035922364282964 0.74450739644337505
0.088588260518404849 0.41117433364472156 0.61736994199292416
-0.58458781975871932 -0.0017768119943522009 -0.11148619499062606
0.17562188633141596 0.36050148735865628 0.59440457007177727
0.19569624729245599 0.47901961366222046 0.64765908924057181
0.85765863045529978 0.020195433321143152 -0.21676546063004665
0.44129755189411357 0.61353599786836788 0.52537259647346835
-0.69901372596457001 -0.022227840607742966 -0.29711112335335566
0.10914825381885657 0.28408845526326143 0.65895018777970948
0.94207882945879418 0.088532002545245847 -0.28362661448137683
-0.13991611362409778 0.3886113672413849 0.61136035951998391
0.17560601752207433 0.37382834560009925 0.60538631440674706
0.08222300143842548 0.47668054000370974 0.59930755414108949
1.1636844127647161 0.17730685416673142 -0.32727178201138818
-0.46893464426638043 0.24822803030709251 0.38114518669602981
-0.34237233342051099 0.47963679203813481 0.57420162274754638
0.91915758680316506 0.18239468716097651 -0.29919927804125068
-0.18567222218624924 0.49642969261903969 0.57946091494500918
0.12567856060515004 0.18691613145124153 0.69168595994886628
0.87495280236341377 0.0078147484507564702 -0.23035672801984708
-1.0912422966541262 0.0086037992622367554 -0.52424839101621545
0.229353688102995 0.16360501930169713 0.63576135986348703
0.22514358396353606 0.062953396597147382 0.70752759899914031
-0.82039566115226714 -0.066906180319200814 -0.3128750063359762
-0.67205335704712055 -0.085054576733358367 -0.25939203709654679
0.56377210779617393 0.38994177871171742 -0.084294385543464578
0.18735811090265453 0.62970524915257542 0.57126008730709854
0.19739166241350548 0.074869185033564101 0.72336467866761378
1.0989686219739689 0.01130516600984155 -0.35511825395144436
0.87714323779210979 0.18319559677101549 -0.27532813818821467
0.92553997247803499 0.054404396078359785 -0.26842698410475263
0.10890168906563358 0.15378207554685419 0.70768241936481902
1.0976186913780592 0.24924588721037499 -0.31742809166837027
0.28774812180031173 0.21745219570423391 0.60598799769358358
0.26807577035815966 -0.41515754404188687 0.81283960658493548
0.31756678401555416 0.0080191524665393921 0.60287403646720383
0.23553773512495818 -0.56395489495607976 0.65501152777152649
0.023505229797923743 0.57105686935010969 0.58214923103698935
0.18536605818382307 0.61829099481964533 0.57409057946163644
0.81115337252872843 0.067540146709858639 -0.23128050309072012
-0.61606772070338189 0.13374496764925237 -0.023112694351634211
-0.412148791161771 0.4133189100456276 0.5224700325232754
0.64809907896660635 0.36049232527379993 0.14048257516876861
0.41201175758280889 -0.20638825127071891 -0.35266616146762209
-0.1998509158067463 0.46993543569534069 0.5825672005085778
0.1790817532881937 0.47201011516054914 0.64931013845996821
0.30974855491655373 0.38448852357695462 -0.32688626514047758
-0.93249442166717111 0.049622346622744118 -0.44528099681309508
-0.31106775767285677 0.32281926319021048 0.57237082555044028
-0.78316334617241345 -0.051023534711488683 -0.27604145783627754
0.19359775427099118 -0.26626941999735454 0.48662210620454482
0.17410870837138981 0.67682360093550265 0.57096061113897267
-0.21247902342136851 0.28692188819440867 0.59184129891136328
0.17409150559553049 -0.41109379074743302 0.83577637819653683
-0.70731936754367564 -0.065918371946922072 -0.20887476742332911
-0.69649563273748027 0.030584379359918312 -0.27883363326852706
-0.86519675956934661 -0.057918859160394742 -0.42643852386767334
-0.50827096479054257 0.23413646706349445 0.29165356867559344
-0.21401887764531552 0.14611400693900611 0.49518466211823009
0.20676821575107385 -0.57292799704399622 0.84891120389392771
1.21654796590808 0.13545627666777782 -0.35351594030586231
-0.14414502932500728 0.61592151586251687 0.48509522893639323
-0.6906266903977778 -0.083133949995031653 -0.30940743760460787
-0.92975304524912583 -0.082062030087872717 -0.4862297994033713
0.18636053916824552 -0.4011362637995739 0.85409732429464391
0.049585855131235534 0.50940659510797559 0.59844917149362242
-0.77865132301366347 0.13354344806028173 -0.49711344153713988
-0.1874347836167331 0.78889598068961497 0.53448936432606509
0.067726700619510471 0.71640375637748055 0.47279239621185098
-0.50201936700430705 0.27480389330528965 0.38938172375003965
0.039666888918318211 0.14794866421267683 0.69869947400043264
1.0234039938283543 0.19569950649357892 -0.36474483195721552
-0.67640411287669067 0.026810058303783801 -0.25037313601352817
-0.22547496517138021 0.77098104231585918 0.51785769551549654
0.28537542819882655 -0.49055764847187966 0.84756256547257092
0.16093140002400577 -0.43520389536927828 0.849443603482817
0.094742155810221329 0.23868662171551192 0.66623455777909513
0.15089211475349418 0.16426585120172188 0.73139160040408013
0.30310967907929293 -0.45513374487395541 0.58031488768541317
-0.44921105826578905 0.44945365253327907 0.47240856149185184
-1.0161680872104901 0.15626080855365565 -0.4340138365443047
-1.1036977353065924 -0.06916860045238904 -0.64285244652511997
-0.68744702306998517 -0.014189432820222336 -0.23899395915620003
0.39362546626407952 0.59494736605326137 0.54950714744145479
0.36363757010795367 -0.23951721848136831 0.74170340256486478
0.85794063292767875 0.24244758723411763 -0.25143928366803969
0.0018906425394600024 -0.42657473383439681 0.62329971672132123
0.38582033964806034 -0.25897745658274918 0.56851286544745117
-0.41980102740464242 0.49179928046517496 0.52353754727389168
-0.63984921247943538 0.3540469957848611 0.23677799063369154
0.13988550887449552 0.18039037458670437 0.71926516297324516
-0.097402935334347129 0.054669942437220342 0.47605704795745041
0.3929791264993952 -0.39975798357237524 0.76522252698832149
-0.792303110097059 -0.050231333098740727 -0.29306193549726878
-0.65389351615449154 0.08875356897085851 -0.63824702879057726
-0.71635734417631836 0.017319698375487302 -0.31235759077150638
0.079434971729403947 0.58892902038959583 0.61056065811378391
0.18444616810145231 0.6500958318261354 0.56349933650631057
0.20801469002616424 0.47957059899335697 0.64631838427777355
0.11713839449961971 0.50208161547808161 0.63868541290742931
0.30072530086268839 -0.078228246426494952 0.42805102692627983
0.0072939150905261263 0.47422133944949452 0.5331357338093845
0.39414187527499522 0.63905986367833045 0.54424848431545403
-0.2443635686991189 0.71637004415501582 0.088616496192077676
-0.98572988157334007 0.15200206506791369 -0.39357032544877368
0.38686408069173212 0.55194244479255916 0.5547785619839587
0.024443670344426516 0.67484855608450611 0.56508231960921007
-0.23198849122414958 0.45379068551390489 0.61359175777908881
-0.38111079348698051 0.51898858973974527 0.53495445849381751
0.83157475757956556 0.028379865708444196 -0.16965813364027049
-0.27069113243813392 0.54486378690294801 0.50896306109236322
0.42096384630290079 -0.52750574688884377 0.68113238207974547
-1.1546527831099453 0.043670893229641905 -0.55830297256449679
-0.16089459062332417 0.57351552155900243 0.5774792362827128
-0.189380145618679 -0.17304987827373663 -0.65522923861170312
0.073491157151220399 0.55534037365778666 0.61876797475248013
0.13113039511342489 -0.59573852194105736 0.69486963232525811
0.15296337172320312 0.45151692422900824 0.63502619929302151
0.29441195342185633 0.45330883304462954 0.61019444292693636
-1.0835190565303019 0.01398991115707382 -0.53837421059901969
0.16074717529933308 -0.44298577721087984 0.82424792096720134
1.1885865782881011 0.13892725888916058 -0.33439581639534488
0.78672351368959381 -0.030721158556835881 -0.29417813937095882
0.29148073783369755 0.13331278634433241 0.50899974384605384
0.4382971166962808 0.097021184706054253 0.31004155069702755
-0.090007587047534032 0.75971654431187874 0.4766584021021063
0.52656047896353864 0.50644808167769373 0.36182549514760343
-0.051014594198298568 0.62094106245461567 0.57465633239945957
-0.62109345054182352 0.040176039666640406 -0.61113095853343991
0.24761067405034087 0.66219417277949577 0.44074855600161911
-0.73492915207486165 0.21587301654811797 -0.58755281419284611
0.32959293345015439 -0.014075980082921102 0.58059933737018277
-0.13545899391585292 0.376585085055408 0.61804241592268694
0.71883412593466711 0.10409993356408287 -0.0038768006701181967
-0.13967065937524925 0.33603956966647264 0.60854560358349374
-0.98784849001381136 0.030212375129639479 -0.48633041394444643
-0.80147780292621351 0.27851688799580954 -0.14409062728118949
0.25297592071066605 0.64576556592773926 0.41366199500979928
-0.40141915551022689 0.38185842658850744 0.53176826106826436
-0.73185704249121353 -0.010422161155108522 -0.32329895454044522
-0.208497033276001 -0.11153219436903017 -0.030717668840004819
-0.29292132339356647 0.44865571729869025 0.60130988813752717
0.40981794712840003 -0.48612474361428104 0.74896897144340402
-0.0087305015933579477 -0.47210026544944128 0.6868525173023925
-0.40417982396524532 0.50178619157807036 0.52940889757850362
-0.51055226606750215 0.27320795404926246 0.3620744543369665
-0.16099694921047103 0.41109341570137836 0.60476198913411805
-0.1266712419801711 0.59502089150220949 0.57915317003004541
0.049866847736470765 0.57989141744408323 -0.12588965933907259
0.25518058606127619 0.57833461016047116 0.55709830269764016
0.66472827571888171 -0.057052515242313584 -0.31856806575334051
0.81363609822190819 0.24898061541234151 -0.31560857046525603
0.0043001423590035004 0.67573701434286026 0.56454596788052624
0.076074373982443322 0.6285791541760295 0.57616624386208137
0.33542681174350863 0.64234301708134556 0.43500370762466956
-1.1286863941741536 0.080843818214017649 -0.55331551520402655
-0.20994123650162955 0.48553349989711414 0.57010358530877925
0.36669904581324464 0.46223891855438248 0.54834821227560759
-0.33171524655412382 0.34516738739507025 0.56525826392773038
1.2463766479451412 0.046787420011116687 -0.38004969089284835
0.25383264440551551 0.11285729350222207 0.61101791448306209
-0.95787635495939982 0.01720678419649202 -0.46447116071555028
0.080554487294270172 -0.0069595669422990447 0.73923828311565476
-0.04425132600648779 -0.11922391873076688 0.28647327379074872
0.78616012465456453 0.31870923028022835 -0.1882659846148802
0.099748006877781847 0.45198802947554539 0.60828930078572574
0.17479265602656396 0.1707634316618587 0.70540416216275936
0.06284009158323578 0.59763392470156429 0.58799857547735979
0.70634729844059141 0.23578079823845299 0.03930791198030148
-0.8326685388487397 0.35083177885771089 -0.11190570274265532
0.97155068764225394 0.21351967879974088 -0.3970654502482982
-0.42540694706711152 0.22592767591403318 0.40281114713509059
0.40622527593437291 0.63447672866177607 0.45419789023929047
-0.47338681042130637 0.52086889386413793 0.4418888169441666
-0.70812999295567192 0.25711131731786496 0.0088535762930943562
-0.15580172825697203 0.34419480544893855 0.6228505968470075
-0.13212616593458787 0.39466548488446351 0.61258943668196242
-0.4099297855580411 0.59197917701441316 0.38481839792146388
0.2663333227953763 -0.40050427045365566 0.82082497853719794
-0.20381964352837634 -0.18741455184200806 -0.43955629590639855
0.02242193298668943 0.72057816032289268 0.57362542189175159
0.32721082976477489 -0.57176287530229475 0.67991655721056077
0.054438898472616959 0.63564310747049002 0.5747186996366902
-0.8343341454460349 0.4400431180953277 -0.057469622085807082
-0.73005114537249105 0.028630392722204245 -0.40772646726676998
-0.015767179004333831 0.7280500381098749 0.57274688015101649
0.41983175874707351 -0.37109154682698886 0.71134326795252889
0.2297131181286583 0.5368702754106085 0.62266632087209794
-0.25812829938911491 0.53894822219503813 0.56000526109200033
-0.1523685277891238 0.44047625890744291 0.59850633405300568
0.30897986244294118 0.43855159150333844 0.60030334141529096
0.30925298583235949 0.61148796725772425 0.55669152816900747
0.064645548905251204 0.49869094656591484 0.59390559851395031
-0.26600200808309549 0.50567225002379645 0.56976186791325301
0.0094303871478550461 -0.5475671805615856 0.76449787761665222
-0.56034740284385709 -0.047256483723075338 -0.30289749702997781
-0.33622592996055228 -0.12769014047266625 -0.5890731282032764
-0.035532782915365158 0.61472705827848206 0.57461862393900276
-0.21661344578832958 0.58931388845986032 0.46513179013375794
-0.83481609912760102 0.19562262088726312 -0.27177064605973111
-0.61817609578433086 -0.038301892842512064 -0.34008158636509522
0.71251772208995467 0.29039088973030425 -0.20587341194175357
0.05743352992612849 0.084036719762840217 0.72943426948005818
0.16063558242812642 0.18293195780026217 0.68917448787262447
-0.016338162353744912 -0.10581455873692525 0.40213141079507997
0.19885270396812782 -0.505103436901428 0.83905781584786876
-0.56506145270486086 -0.021642624660779042 -0.49495606163589967
0.30314439630542822 -0.35826135265654324 0.82351548024708032
-0.0054890588458646472 0.050688062776650611 0.65179220923522019
-0.99849346211213241 0.067361455459409747 -0.54854243629706323
1.0349428791198663 0.27199911392165788 -0.36145823439721969
0.033750623118529832 0.65246470242109766 0.56741143600990096
-0.76623890378769044 0.059044689529603289 -0.34671280033914753
-0.63906024847431253 0.099586939681406417 -0.15097563485548093
0.85775004216772022 0.026490803987246014 -0.21794615816870966
1.1517144332170084 0.21535979273969152 -0.33567176218956041
-0.71474767702845576 0.63833796178971092 0.067215632652386947
0.011354740923094853 0.57496712520421189 0.58517943108597636
0.55619855535671348 0.42401527454682975 0.46962368901549434
0.7670760014454705 0.10143546677430892 -0.20176451805075635
0.1344242288129619 -0.61419383721376963 0.7228768743886369
-0.8973732290656945 0.094298328385979957 -0.40859512012980614
-1.170748080417249 -0.021621126297282967 -0.62792969978949564
0.24976009931294646 -0.40085836433156752 0.81490277579064774
0.27312772923696099 0.181763590373063 0.59477784054264848
0.85874210206601975 0.20665766146244136 -0.26565677460191051
0.87007221847580007 0.099787889374991723 -0.26275680122759981
-0.59730745263017204 0.52660765252025232 0.43271401243385021
-0.22720772728470534 0.20953171124820935 0.58299547960410836
-0.20676624106075359 0.5804223651252951 -0.20300517467314849
-0.28258397086251696 0.32364035723257034 0.58793015136596782
-0.76675155206028289 -0.10606889309785439 -0.31366671035446991
0.077199273838369442 0.16593695452989365 0.72315932196603461
-0.63115101001053597 0.47024919447827829 0.41844718769225198
0.59669912970230132 0.0072387154452022706 -0.48977186905065029
0.27821818403401172 -0.60121066811266566 0.7726787238613162
1.0733251649750253 0.0057617012928161682 -0.30706233379425596
0.26141576236041064 0.1148711541590135 0.56351380193596645
0.048359074330309865 -0.18395332409050225 0.76973443344074477
0.27601513281003359 0.34296672812908136 0.59110018949825793
-1.043895352059379 -0.08288873485397108 -0.50399020707675479
0.14094114204873359 -0.17825718618622854 -0.74747312483741757
0.19221795402073877 -0.51840370261274282 0.86705782333568493
0.53919854750886165 0.13954904222853859 0.25596109250878385
0.17572468585026707 -0.45620551028793299 0.81712696439766708
0.02611707526651319 0.48286046122278647 0.56026753792479278
-0.19413464615817333 0.16502197591045142 0.56777295553053708
