# XYZ point cloud file
0.068458437191730545 0.11012827504163458 0.70754502198136637
0.90644064140411518 0.26747417836322884 -0.24919015777608755
0.19032810376174442 -0.57379367357122035 0.82209449113018951
0.15191928351774875 0.089169456989560913 0.74229089541907389
0.11799917411019133 0.082072480293041483 0.74498352435780846
0.74951435827323465 0.27424130151486592 -0.16099914784425295
-0.02974819098509876 0.11119320361462082 0.51510771937498756
-0.70955408010725207 -0.0068098013723554285 -0.23939262832081476
0.3284995693048669 0.45588411408642981 0.50512682212146109
0.24380903548709493 -0.40880133551967668 0.79254260447191349
0.27243566074270992 -0.27372487567800019 0.80001944988398388
0.13527530903630058 -0.034817031607794036 0.74070624047045186
-1.0514850753100531 -0.057655842686804792 -0.56147105562764676
0.1856740787423401 -0.39034887318935541 0.84333954738742811
0.082870006515918609 0.56787737573874475 0.59628090996013117
-1.0759551574025619 0.014720951167517482 -0.53144252936438829
0.75973038328694609 0.067430825330480504 -0.31885323611633676
-0.48457838013691784 0.33982641782767398 0.40125697490117229
0.26902880225245557 0.15299387039162382 0.52431427966621214
0.26532438371376788 0.43003422165727456 0.58691514474600193
0.25728106559061881 -0.49527661032111214 0.84299452245094308
0.77097863647183174 0.011882120732521262 -0.15913058887441434
0.81928516269661533 0.17788756773861136 -0.23582201004070091
0.15241084070562383 0.18043348656003388 0.68541602761436193
0.11616646208057382 0.15197086773234236 0.69079638819187683
0.1194280341654963 -0.3204026789302401 0.81832798186525246
0.026453121265667068 0.68734498691545598 0.55814607032590757
0.29019837987272556 -0.48871366213917145 0.82869945392138078
-0.019278029967798566 0.53655303132762588 0.58978830436558471
0.13135503503799903 0.52566750064012169 0.62302226245966907
1.1864030879951621 0.15634271873976435 -0.40317011137140257
-0.12338818019834902 0.41579958553094509 0.59439235255886946
-1.0555348660549111 -0.056695055792477689 -0.50571311826928089
0.034853903372753486 0.52613664823451223 0.60639231456054388
0.25634562130574912 -0.43269830718609814 0.79094210938829246
0.36581219853368541 -0.48626954999079408 0.61817822196252425
-0.18175962261027848 0.48328576140767043 0.57581437297239879
-0.12243109183037948 0.47795277336676056 0.58690149691937621
0.22644871323545446 -0.4807606133141511 0.60690936745675161
-0.26121337570567849 0.52374528451269775 0.53257533914780875
0.22958407407765896 -0.31506421638726101 0.82259120477205361
0.069231126019394157 0.56488838932926266 0.60974840685996479
0.24491649126763335 -0.49229492495382776 0.84154443152710656
-0.20624442783115388 0.41873268319945001 0.61506628415519016
-0.46930629929954892 0.62187273674559718 0.42297993164002179
1.0552191766424881 0.03569667901335638 -0.40246863278418732
0.049317934794127716 0.13076576455400213 0.6848354273380417
-0.14518189050914648 0.52552456721214025 0.5889720406771155
-0.79482012267808044 0.19645881754743266 -0.24845356980197697
0.075268165286528327 0.42330556027689026 0.61324110645720187
0.027046605107656524 0.59115188616137848 0.56878924358503324
0.17348689139335782 0.42824184006327948 0.64264105087105672
-0.40764981958944635 0.54403746002486031 0.43729080640754647
0.54104438512018049 0.35948190677734115 0.32185206040956649
-0.23940165986879633 0.5221798973960261 0.56060969914197267
0.47173885063789189 -0.11586938021125848 -0.53410366504293738
0.25584643627377424 0.49070249505757291 0.56557330824938568
0.2215538431726074 -0.17537354808167449 -0.58173582261099721
0.0079506361358006594 0.30766761325870817 0.62901746767255196
-0.18423577944208186 0.28761280051690008 0.57596589380520014
-0.36586710137726097 0.57668711903862291 0.53034288109976746
-1.0177883269883627 0.088120883422440954 -0.50740822991601475
0.1641914077194756 -0.0093841183427092467 0.73238666119287821
-1.1480878676772928 -0.017480334753900539 -0.54679564674637104
0.13528319566827404 0.15941831519478011 0.71360524802205227
0.043080101907807589 0.54413430815810315 0.61817770252508186
0.28107100440781074 -0.54690408171671212 0.80043963684889485
0.15926165794549102 0.18359209865478321 0.67613129950722328
0.85364799931044444 0.050397961030630878 -0.21462617385916749
-0.1446221040709566 0.71943179660174739 0.5810556524118764
0.31219242336583186 -0.48465395113579635 0.81534030555071402
-0.72484479008357927 0.11952462570958122 -0.57528030737707403
0.15693805666717028 0.021142963163249373 0.72733634194481511
-0.35947007873750469 0.59334165105465053 0.43815699737623315
0.20024365981112088 -0.32315873728992983 0.82855292566787198
1.0003549731022665 0.075662339966826808 -0.30723060610398756
0.038793329707241087 0.52534934144197187 0.61188447437682525
0.21445571261967655 0.50263191857136325 0.58721310288728756
0.14442311163243327 0.41040245166868328 0.62694831826655495
0.20409716982690101 0.37313371449172528 0.61970487956834197
0.061779462698569584 -0.016974077117629882 0.70306220196191327
0.12307886990000635 0.15080741957069033 0.7054149365624327
-1.0512793909259432 0.12289405486919658 -0.44663704224129885
-1.1206742260543194 -0.10521699438155885 -0.61455110543860436
-0.50019923779602349 0.53754922744795119 0.4643059098886726
-0.90281537972022852 0.18203974607603945 -0.33482124487471387
0.0061856797558858811 0.59342533663539854 0.58103162690439669
0.22402366626358963 -0.50533091741247027 0.84983672421162959
-0.58705144318407954 0.063088350671075766 -0.18781108638923483
0.19259334485822227 0.55791929043699984 0.56631919519426499
0.41929267957450012 0.45111111968499329 0.11585173937218785
-0.30155842902034941 0.37019098055191901 0.53914701054908676
0.97194660187552651 0.057375306676524351 -0.19702695919919955
0.014150648365938795 0.49262856976271618 0.57737138124029452
1.0061167105064834 0.22108573856039104 -0.29059626353809231
-0.46859368940729251 0.42626248868067074 0.47248949584707756
0.17879319973879379 -0.25394029892892012 0.80960703833229497
-0.89629451196157661 0.13308269244823911 -0.42020332028489138
-0.10470231318599008 0.42508976278517463 0.59468962134673164
-0.75560072886747165 0.28615103680957166 -0.09169210260835059
0.68272321225094734 0.26963908931752067 -0.1146773745065639
-0.3683651783061046 0.14590125047973768 0.21349446735024324
0.26819288306535766 -0.36606160517518904 0.82751524562002821
0.078110985631331065 0.60217045035509043 0.39677247640900748
-0.97588509671631618 -0.070283231100413568 -0.46623776063589006
0.38251158051131878 0.14193003482832744 -0.44472301795192015
-0.32808788470767336 0.59721452659885466 0.55007201716256193
0.34126334196614183 0.45087881914078576 0.55670260059983967
0.66493984744643053 0.27216152162666885 -0.14449512794241315
0.45824718712237822 -0.10970236894512864 -0.56910798664674656
-0.5265505639486493 0.36651726257756723 0.36232021026785977
-0.47794618487504503 0.40709159708235521 0.45738363797523451
0.094996775460923638 0.077431434732936344 0.74224639390669722
0.17039676950276025 -0.42434476181855696 0.8535802722645649
-0.93405855578424224 -0.071656073713014745 -0.43828224145141381
0.86177402992834085 0.27943873231491767 -0.25540613071955032
-0.63336738797257652 0.066113509898473533 -0.23895578235813697
-0.53215371829378089 0.044761808825120264 -0.1222631565954968
0.37059840263515337 -0.13137791748636407 0.52825171934013238
-0.51707446954787628 0.64108505484636913 0.4557853747501559
-1.1578260644874871 -0.071756794883427677 -0.6369730126330071
0.35353460087958571 -0.054899598365361291 -0.64687281342152381
0.89661174430398194 0.047840777744618146 -0.23880363767215607
0.0049340653467761786 0.072311096750681259 0.58532783180669457
0.080286393371188966 0.095122928586881095 0.73530287653809645
0.12794972799623328 -0.0047495310837408766 0.73099180349188653
0.078580665556067408 0.39343126680824736 0.61183943489728221
-0.54796667357485851 0.035677316920363689 -0.12368352498398361
0.15820598520843693 0.3479732380392635 0.58608541467445918
0.15573450878464978 0.45113985934819301 0.64283786551893374
0.85275983868380012 0.053363768818549762 -0.2170361503378031
0.35057034876579096 0.57374700653165567 0.52693057393755316
-0.67301046664418018 0.0094969228724757215 -0.30370266684745384
0.10970186765518224 0.27342217902127208 0.6491977270958067
0.92579221522319921 0.10232585842242958 -0.27425031453155024
-0.10538879996681852 0.37629866743342211 0.60727296881604764
0.15617070726566923 0.35917179642132657 0.59747705215128422
0.063847930522535734 0.45413315388794051 0.5967039679584345
1.135772576999639 0.17911504069340201 -0.31838511644496892
-0.4025667086703742 0.25617122941824944 0.3717140354323567
-0.28226662777122924 0.46541502035914784 0.5758191865808775
0.88815716837006387 0.17155724757438229 -0.27691378220862406
-0.15779880767547716 0.47863435072595406 0.58037026521749202
0.13105818968283867 0.1804167911980914 0.67986312943732874
0.87170809356436274 0.043052175193702746 -0.23135912090353128
-1.0860696437810065 0.0014285633253803276 -0.51379617661683641
0.22246334148645336 0.16500631853631265 0.6209232204020565
0.22270552065515037 0.064198660663902229 0.6921773775849871
-0.79347919711001713 -0.041041989237401655 -0.32124417745024392
-0.64167912837425001 -0.045238007422084614 -0.27130151162823668
0.50808328946681702 0.34587023195767097 -0.046142409545258722
0.1239335683316822 0.59029105405599669 0.57596007288825724
0.19765802577634159 0.073033846306232553 0.70913100504117854
1.0950636911531744 0.04255069536710443 -0.35532313430831119
0.84633991691518839 0.17323976114927286 -0.25329072386745777
0.91470767343963166 0.077083133305700491 -0.26334577511637169
0.11908850024290274 0.1479450564102085 0.69582166792777089
1.05843256703676 0.2329253822609556 -0.29832756296737073
0.26936925548749868 0.21639208635163798 0.59159787403420472
0.27206535867968973 -0.39422644583543565 0.79716794986435202
0.31301977828316352 0.026643987495632349 0.58312484950037891
0.25554797313106953 -0.50916900862062575 0.63305830606608282
-0.00113675069840799 0.54126359231061483 0.58515685755067559
0.12448858656429077 0.58012559573978106 0.57802069256021937
0.79975360072185353 0.088257592125676965 -0.22420147998200024
-0.57569970196609621 0.15662785363509668 -0.030481834488851334
-0.34063131060611629 0.4055949753741348 0.52086577751294261
0.59533045463141798 0.3454050290220374 0.14954055542922018
0.44152633718173712 -0.13126333710651394 -0.36124037497230188
-0.16527076389733295 0.45429106755963788 0.58229569552410454
0.14306684859307633 0.44488486874397948 0.64451265240802691
0.25378774642392926 0.30495149731876181 -0.2546884225346695
-0.92134241807781159 0.053954657434882591 -0.43792771396354913
-0.24534718807787548 0.31718574548024137 0.56682329431928635
-0.7541125488114766 -0.023099992069410158 -0.28508942877401644
0.21871955766019657 -0.21094881572833524 0.46150441096489825
0.10267363465668622 0.63241859778506959 0.57870570526902232
-0.1596786558962888 0.28316572820869457 0.58429667831474474
0.18630271180605712 -0.39566890973994551 0.82250776909884271
-0.67391332269552051 -0.030962153366291378 -0.22126263462851603
-0.6713216508351364 0.057096199475918485 -0.2824387130391024
-0.84720056857665649 -0.037208683919427665 -0.4293703554014523
-0.44750191609814383 0.24633697858783044 0.28211101708260045
-0.16439277122181964 0.16079894098195013 0.48127609314516473
0.21590065502613653 -0.54945893818364633 0.83616987018135591
1.1960754081672922 0.14738152572322871 -0.3501013945838658
-0.15205146315436036 0.58709371520049602 0.49584498900442853
-0.66342053494264885 -0.04493160182014555 -0.31939492109505796
-0.91589413454818414 -0.066096363421829674 -0.48752096435408943
0.19624887407236075 -0.38941212361680022 0.8417116313356563
0.031602777896369366 0.48441663652957523 0.59770735861353352
-0.78135026560825971 0.1270340978090192 -0.47400236556539732
-0.23015289341997688 0.74001892637006228 0.55744651002594225
0.0027743885093857723 0.66644267327650941 0.49264159135238494
-0.43134185627408339 0.27940411878275739 0.38140279444569725
0.061879507079323715 0.14372886503571958 0.68737801106446161
0.99093197093040764 0.18021124491465268 -0.34103043134645405
-0.64908990679662304 0.05544520390715868 -0.25556066765626761
-0.25734167219484239 0.72529851482101293 0.54061093835205343
0.28656225515474337 -0.47067604150942333 0.83357555125471605
0.17399015680283803 -0.42099440706095903 0.83710613754598318
0.10172497065133994 0.23114950447085358 0.65552564781622724
0.15261215726322974 0.15426797903089318 0.71989922585715549
0.32242621456171389 -0.39612893026260654 0.55526783166968707
-0.38167183510305391 0.4423141935797601 0.47252855669951943
-1.0112109297253005 0.14301373989945732 -0.4149322637833881
-1.1063488080275268 -0.074887264066637815 -0.63205798981059047
-0.65760550938794982 0.018086761536232787 -0.24749661240820919
0.31027942720508178 0.55730289532332344 0.54959957843377838
0.35761535122579896 -0.21930750525713694 0.72216444660817758
0.81801916817720244 0.22030183492026367 -0.22396453415887274
0.035366741867923206 -0.3819821174581508 0.60233119120100165
0.39308321408613545 -0.21323577771443181 0.5435695209610103
-0.35376950078668923 0.48002770595678057 0.52600914070235016
-0.57704962768806134 0.35610596883474788 0.23518563727306474
0.14268282912281277 0.1707909856360692 0.70789619863152731
-0.058750709372598409 0.080629462788737616 0.45869672389833571
0.38893156405420548 -0.37163278931440913 0.74595095720180038
-0.76446131614400159 -0.023081626395903498 -0.30141297266939704
-0.66786743151527539 0.076454766076771596 -0.60477790861413028
-0.6930387667282214 0.043392165823179507 -0.31537171873067638
0.041001581984247165 0.55500711599663477 0.61296475006731677
0.11742972234912444 0.60850555225526182 0.56990531236674924
0.16593189019896848 0.45155784696587742 0.64131512649176425
0.087524193937152578 0.47403733845529339 0.63614157912312375
0.31252031611351355 -0.034128712478846523 0.40530107022593853
0.0016271054791413553 0.45678807693718193 0.53229259711143095
0.30284934055612162 0.59653469388721692 0.54711605646677852
-0.30611846659909708 0.62587889945103115 0.16022994996822759
-0.97547672631157711 0.14364604292537164 -0.37857509257058819
0.3117128261214448 0.51895130927407429 0.55251395108791912
-0.022865842741056741 0.63408109783103939 0.57504003982736407
-0.18624977036107587 0.43754111962167741 0.61336497666519607
-0.32394272926798184 0.50474408038029495 0.53864325210066366
0.82571862402792462 0.062490703756590049 -0.17184181654965025
-0.24075216537302596 0.52738676084972247 0.51378527900337967
0.42779159075999834 -0.47778281606320205 0.65863277051816682
-1.1562853333863592 0.026809023560796952 -0.54063152559544503
-0.15141008588573324 0.54852289781867269 0.5823606224629454
-0.17467121019705428 -0.12275020962748195 -0.64792905867615924
0.042602635550894108 0.52441153997885759 0.61945416747920734
0.1542404792909807 -0.54759026830196933 0.67553129998252914
0.1253530751642426 0.42769269402387255 0.63005180014718154
0.24487233353178467 0.42901098400380877 0.60337521480435141
-1.0801714825595674 0.0065512520797792462 -0.52671342691901168
0.17502222352855276 -0.42380831422419218 0.81049266946003407
1.1667111005342063 0.14959833220202701 -0.33002108538341268
0.79013649176876333 0.0079425487448523402 -0.29227690318791355
0.28517400237983248 0.14913113915268705 0.49223647811407023
0.43062141717099628 0.12709548205579657 0.29406926263979671
-0.14293391279406481 0.70815867053152548 0.50135279539739064
0.45335265654470525 0.47742016104707408 0.36691352023354717
-0.072599364891924367 0.58817508213860958 0.58147484604212774
-0.62655450291694958 0.043826513733866257 -0.5878100983011425
0.171484125037841 0.61499331519054312 0.45676578760058084
-0.76049513965126969 0.17467562667575187 -0.53694748574794393
0.32666811682698405 0.0089976594820346811 0.55999382246224139
-0.10018022610450864 0.36454575755476926 0.61355604083282156
0.70357947294416601 0.13067108345202882 -0.0081054726387839171
-0.10089104720040709 0.32781133520874861 0.60237554383146974
-0.9796434312701463 0.030949539512773017 -0.47782070140519717
-0.77418144232578856 0.27612263796169478 -0.13344542368065304
0.17968850904305975 0.59956725794704657 0.43073288602217286
-0.3285450275171532 0.37505937220781616 0.52880857335762088
-0.70803803545623889 0.017513737843579458 -0.32792307011474819
-0.17176900423177821 -0.047939124309769099 -0.049071434431248617
-0.23566552129630941 0.43407680189793729 0.60139937482696948
0.40932717984081246 -0.44959248239156668 0.72906144533496664
0.023355813049260286 -0.43501283951313185 0.66858744770606759
-0.34128960388812934 0.48908133936569564 0.53231686960017899
-0.44224479136526418 0.27926373842372265 0.35400894707760866
-0.12520962337424729 0.39783396138868365 0.6017087920893649
-0.1281938101286304 0.56696919945509761 0.5849601380306062
-0.021306286330590452 0.47943042349077036 -0.044388539317361975
0.19247643677341636 0.5437050041611251 0.5586007991623283
0.67328594224782579 -0.014173876389011353 -0.31573823066088091
0.77251320891531883 0.21615467505843655 -0.27889906227877748
-0.039817385292551577 0.63542881551967856 0.57480258752818325
0.030460316793052389 0.59156873904388196 0.58206685163589111
0.25358659823074914 0.59679894724917271 0.44843508047482161
-1.1324872779252435 0.062214818803303151 -0.53230436235038403
-0.17656989719922733 0.46956045246646694 0.57063836725845607
0.30942502672514227 0.4393435559188088 0.54253856295254987
-0.26429226586550314 0.3386564355306223 0.56064485042760537
1.2397375532706603 0.076721734410257314 -0.38424700385921162
0.24884162424888742 0.12139624010573713 0.59436368712475107
-0.94670276376767371 0.022376052981125438 -0.45879368596068915
0.10200118942621175 -0.0050678306910358906 0.72592533142467053
-0.0071620935689704207 -0.062946313995993375 0.26365461048114347
0.73524622060021927 0.28344038685757056 -0.15507299184507373
0.082032971082220046 0.43090405371410712 0.60431410350801129
0.17279608581790495 0.1635887927301316 0.69286516495533013
0.025879025191553828 0.56396390432820898 0.59181824268659922
0.67161927960132606 0.23879997851780344 0.043926049312236648
-0.80620022995089735 0.33995413282586684 -0.095069334019641571
0.93602990789545659 0.18745169404843742 -0.36534287981745761
-0.36116044263246166 0.2354804896574747 0.39224309524747447
0.31814759159853645 0.590511169880368 0.46375687579868363
-0.41418878518653524 0.51013429516917808 0.44681504972884478
-0.66491286376689984 0.26496691541403239 0.0086173513619511866
-0.11365714305468474 0.33405744369960111 0.617484000959998
-0.099597421326247632 0.38173802417204739 0.60868380602223371
-0.38036004666008383 0.57258877339362479 0.3977405089361965
0.26960529315143855 -0.38194177646160576 0.80558158521683032
-0.17730152331968604 -0.12013107644976762 -0.44691087508528016
-0.03562262667643129 0.67465386636735691 0.58621331958594913
0.34069789905277503 -0.51926653862173233 0.6582647360609255
0.010948929746273234 0.59841736695571512 0.58136062925245557
-0.81010607026516357 0.41971747839698592 -0.03272250551664202
-0.71526634119347721 0.048869108524665306 -0.40425384101837181
-0.069376612189018139 0.68233056752305821 0.58636992499737084
0.4175340787505934 -0.33657662891378459 0.68965625692371446
0.17544395525050893 0.50467354582519408 0.61996771117665439
-0.22454798472105347 0.52006676614366287 0.56382194852951351
-0.12201803761336338 0.42538046590838485 0.59655883555252487
0.26017758766058607 0.41614014396247567 0.59290122173986326
0.23291128452227777 0.57252657152141495 0.55906748878533152
0.045809741782070257 0.47466724783996983 0.5925805922257612
-0.22470437142670718 0.48907982552058793 0.57182108582502256
0.037226009544520787 -0.51837817706579692 0.74983856838444662
-0.53471457967910418 -0.0053919263223944913 -0.31016217040157912
-0.32291929192491664 -0.082454191330679549 -0.58368191969851613
-0.058594296100428322 0.58217396375076347 0.58092282449077826
-0.20830702312893584 0.56595127738099338 0.47462058963938558
-0.81586329531840041 0.19583290319537294 -0.26114605450119455
-0.59509297855271748 -0.001241439737518002 -0.34533393053674022
0.66731647370528602 0.25784959995921586 -0.17142940629214465
0.079646907065241357 0.080436759626083987 0.71769125472997475
0.16057894097222708 0.17688533653326055 0.67669611665989127
0.01902045462475703 -0.058675818074935382 0.37984426468429899
0.20896716719289699 -0.48397226497328694 0.82566667198058752
-0.55463183402934835 0.0067020279688279061 -0.48846331311686875
0.30121659752716556 -0.34285323763090614 0.80798301553763952
0.026386382407075359 0.059504276471090911 0.63727331040870228
-0.99986374356841967 0.05932449472487078 -0.53128542479344465
0.99223134069035601 0.24211676566215001 -0.33191869094484616
-0.0099610275021445038 0.61398226746716045 0.57568237333524586
-0.74746387016749571 0.076318299491924035 -0.34451739691871253
-0.60758467375278724 0.12391853810976317 -0.15533388413009108
0.85190895699624303 0.058176261636160742 -0.21750054563504762
1.1184885972762706 0.20821556644195738 -0.32213335944495047
-0.71554926656147033 0.58824629211350721 0.11575947888295346
-0.011859720779246685 0.54497454009911439 0.58843373823658673
0.48879300002795034 0.40699630164568368 0.46156960684182979
0.75141409433920692 0.11623813565407093 -0.19227564411273135
0.15583758717489279 -0.56935539667980595 0.70481864370302327
-0.88551346332888592 0.097223155083212331 -0.39925296355289519
-1.1759786626080138 -0.037133802763913426 -0.61186159844951038
0.25516092410058133 -0.38138714862811551 0.79956159395501114
0.26069338249926621 0.18533903603056046 0.5795497483902694
0.82441270560511182 0.19150683218979725 -0.24100994768209438
0.85266939414729825 0.11103961857001243 -0.25121942394684682
-0.52131271388311151 0.51644151005228656 0.43914617747458262
-0.17066210351201938 0.21111044642187804 0.5729022755023303
-0.27245672145776256 0.47030074049235049 -0.11023082526491534
-0.21989971641002498 0.31705010250483334 0.58245872435520774
-0.73914290545203509 -0.072273676636577466 -0.32452960485913618
0.092021630263741508 0.15710316667881585 0.71260060264267433
-0.54710432327036418 0.46256845687662262 0.42181917957468906
0.59251126936528631 0.017355126401176646 -0.46418805212271597
0.28773062592884913 -0.56200330725514824 0.75551016732147414
1.0698813898181134 0.040991768341379853 -0.31015749810636062
0.25757933567733393 0.12800509762665446 0.54646315383162447
0.076363956453125686 -0.17501037526221941 0.75605327760859886
0.24587470681349813 0.33106836659123973 0.58089805968607466
-1.0322014865023079 -0.079064746877890224 -0.50257789690518884
0.15361693729293888 -0.13806904253557617 -0.72886376539921005
0.20139608590804259 -0.50165880533156426 0.85535682077832553
0.5218801710909855 0.16430869452868135 0.24296042923083205
0.18896629372118395 -0.43464718527534218 0.8027918977285865
0.01642810001844125 0.46293138785200894 0.55916183981320655
-0.14265045129332488 0.17186936976866707 0.55561780660176874
-0.43238781787980607 0.56370548821911592 0.39222704312338452
-0.20603881453539102 0.30715873493079116 0.57740976288708756
0.37671393871781622 0.45199197928298029 0.54184709482942672
-0.10750903788118857 0.46140941819576575 0.58955917850342399
0.93102225376312253 0.17574562274663064 -0.3083038788231971
0.31002573131170119 -0.42656395158717242 0.81814620013334582
-0.23607005632934472 0.72292925838720667 0.51181752225527055
0.87973064831097869 0.062793935188589778 -0.25310572948030541
-0.78347433881585293 0.034999097473733309 -0.43076037486614371
-0.77391882365570375 0.0079680444876568668 -0.3582844283898714
0.14889989891685945 -0.47468201967163393 0.85487642980268719
-0.67181830922305175 0.1040167884372758 -0.26181871890008335
-0.49129335516899153 0.51232920123841597 0.47547001027328961
0.91873434030645251 0.058849263284417974 -0.19449187651074373
-0.4314121234641668 0.51285521169928483 0.42741622101127508
1.0071480931209031 0.15547240557179254 -0.32154287157615569
0.91470646183161186 0.018810438946889496 -0.1647261858742286
0.59719445214838596 0.14953830074327157 0.153382471934711
-0.015736391134876793 0.070806074138354713 0.52054413922897425
0.74350087553828437 0.18329886996477618 -0.16289785341180907
0.38789861482309201 -0.039904014901223306 0.13589586039934076
-0.38293777536645845 0.42663579730005519 0.50411709653796821
-0.16287164103061424 0.43126358579053981 0.61304427904290604
-0.55886619562584294 0.44397798505483776 0.39750957513929341
0.22898693216851526 -0.48384275595426973 0.82207379683691884
-0.17462499974753964 0.19573331004117334 0.55962914678174291
0.32292926248074111 -0.34977318415783931 0.79694947695923135
0.23159917689489157 -0.50346364260694099 0.84800361187041662
-0.31986774995463668 0.37990040879336018 0.53221173207281103
-0.10175811164006771 0.64308429161347691 0.47313009360690406
-0.62259635265579416 0.036892281323046783 -0.23148461411802956
-0.22411616790167241 0.70284093173946749 0.49873875144161417
-0.073332670884688367 0.65438138050680239 0.47519679178549135
0.14951022500200503 0.55336334769300799 0.5810472879252464
-0.40468072856849829 0.59882932124647836 0.093934537008579344
0.17859486260073798 -0.44765462163868985 0.82983743348764416
0.1911856249288354 0.49116169344935634 0.61945235827917267
0.91220143599448233 0.1168111683320141 -0.27160483351482578
-0.47552405635536099 0.58035370801345598 0.49246736326043061
0.0020057721007638585 0.10189538833859468 0.5819517311708684
-0.4327260989880416 0.49188261266725353 0.42628495665143507
0.41846104760148617 0.38274293546636029 0.52944297380464445
-0.87060480068404034 -0.11017305392566779 -0.45849910712509523
0.17902165618077323 -0.43927599344863633 0.80844224645006957
0.029527708554973081 -0.49926709004845482 0.71542681898588878
-0.27876222083512658 0.51952875556848821 0.5478789114797451
0.30989014530077791 0.17657083050815148 0.48935170850404286
-0.10762954098815455 -0.14079496376654799 -0.46747771990096942
0.24122607812869112 0.042865358472832904 0.68867819019059073
0.075354822150802497 0.094705957401157503 0.72544938222202116
-0.67904743274743018 0.05188660515220378 -0.2930225714144794
-0.1829120139117974 0.51534376341149035 0.5733181803450631
-0.019488943780303053 0.58147236363516086 0.58353221516597764
-0.11206922928225904 0.39545921379499349 0.60051655704857065
0.35776553239099007 0.45212603189220357 0.55014064692372533
-0.99927292715065097 0.048491979287372589 -0.49778383638329138
0.25099628005225494 0.23545126932042826 0.61211461837586523
0.16173762505684641 0.160553866248623 0.71426715609179614
0.97932543485540435 0.059385848239808192 -0.28286506483363172
-0.20418892861456728 0.46919338483203732 0.59448022801269462
0.36805881229237514 -0.50565871804640539 0.64419919107529777
-0.75135967878791698 0.2209527422118025 -0.17656475684003681
0.14181232993553047 0.03586854625897562 0.73804104846891838
-0.87970660627445274 0.28256982546726128 -0.36990084409301605
-0.017703036603972711 0.11237787814573608 0.54035335234493731
-0.31375043557947746 0.27022849589976317 0.51144834552713125
0.54924405651436725 0.22208640647255673 -0.25806609217277199
-0.80844719439381929 -0.038239740756398577 -0.34681166613247094
0.82006004028602875 0.059945095367614609 -0.096611141807379175
0.42336478072723271 -0.33748741167722551 0.56672371868080162
-0.63095616068685123 0.17130715037239019 -0.10007335141281803
0.85846905227446657 0.068086196563748036 -0.24628753882052856
0.039351218723467536 -0.51700893305091289 0.67293483138762977
0.17280335448442358 0.16446708807488286 0.68060324419645024
0.1124713974501598 -0.1216469154082398 0.38831638675320379
-0.0015080948394938232 0.61498159735772662 0.38333767662868778
-0.23824319027334087 0.51076897972486801 0.55799550958556998
0.96295552280513208 0.053336370343348483 -0.17435509632022139
-0.059876969669054536 0.6027106027255027 0.57751966381214603
0.27082698385526183 -0.41725359438866438 0.7954067326467531
-0.84842948668943341 -0.088930308771579591 -0.39467103147889748
0.34246803086811295 -0.46508138285507683 0.79542788978509793
-0.83936497359303519 -0.059086926634292158 -0.36224588425934678
0.26386464468315307 -0.34128748712612444 0.82356355678301596
0.11933718703697171 0.49566564357865706 0.63688922800426395
0.84407432579554276 0.05585137801107698 -0.19208342039338366
-0.2428455160063121 0.71359264842945636 0.5109520170281705
-0.76101865244257905 0.16283857697693382 -0.25492151497328885
-0.47390113140886642 0.44084764082783989 0.47632644943920766
-0.83435625914408307 0.09059338884742929 -0.37588449638417187
-1.0492163896574458 0.060221099609077511 -0.48807297480015488
-0.2740510400338752 0.47894013198123386 0.57801525303900791
1.2431707345306027 0.10225753953159944 -0.39962267535975937
0.074401625739742044 0.16923720122791197 0.69373047231865215
1.1176989488505382 0.16884312959845915 -0.31827218257075085
0.26652423065195191 -0.45086794143576236 0.82145445962133512
0.75804505005240985 0.10159720862551769 -0.15727241264128344
1.108816968889661 -7.7029349097701427e-05 -0.31539673703332438
-0.19099017041315347 0.17114716162994204 0.50848954594554341
0.75006550758845436 0.11038891948247365 -0.17995681409165099
0.24300261802635015 -0.011105002696767619 0.71520214818072314
0.23397427509585028 0.51917746036139634 0.13928941153738816
0.25520742674929142 -0.47125306249030507 0.82442638837601367
0.34082671258290753 -0.53668744222551434 0.70927905647975309
0.57025378583995989 0.093583538270241462 0.10097556905741367
0.1128556036468517 0.15639759265679509 0.68708408666474541
-0.18189714546820951 0.30419602615139207 0.59911204866604839
-0.6397734857459596 0.12850715106805954 -0.61675816959013341
0.95742460561046006 0.157495547231019 -0.29419829429563515
-0.29479184433929595 0.51845208130736076 0.54280336653896599
-0.13467331169562605 0.34572754535413397 0.61896619845157996
-0.86698731411695362 0.14625917548137091 -0.32778043702806015
-0.65196920691010241 0.40692492786472267 0.15543380059387113
-1.072946725862348 0.050576450699463038 -0.49663287521090349
-0.054473190584954534 0.37493154442654797 0.60471790516532509
-0.1621752003405037 0.26322353637394436 0.55912864437805476
0.13934365170481897 0.22841069801002045 0.66650773182473788
-0.080938945974756676 0.44793913206918501 0.59413978857514405
-0.078060366631780037 0.35065227142265143 0.61337371499477866
-0.076542145077096446 0.12550975459272706 0.4896077782091568
-0.46983142878605183 -0.018244659244845973 -0.47650731531882262
-0.15909717275559374 0.57351608763047213 0.54489917758479733
-0.12544273389539376 0.15106286952006354 0.49687391285689686
-0.23029662876873791 0.31968638900784674 0.56691134751137851
-0.2347151436530806 0.38422091156397076 0.60101461074367291
0.33816117097061538 0.19916640576627276 0.515902522731432
0.31468311218706602 -0.5441981276583423 0.69804651838446308
-0.20107244183059605 0.31410456367689132 0.59076283277230313
0.015056537536311088 0.49560066119097423 0.59844078972788051
-0.9516318644156021 0.07578917805608798 -0.45432170166009089
-0.34714802563609132 0.50639442621729103 0.53105878073031842
0.91187934977269758 0.065399683485830362 -0.25871411687026069
1.0155805027587195 0.043093821717478997 -0.20973646626832343
0.20243309116077099 0.42842251428076006 0.62902997560628182
0.042291085940864601 0.02623352238319443 0.66907448885158538
-0.44243408412632867 0.097933728444121293 0.04832983478012709
0.19957602325218116 -0.19942474947832745 0.79155031874255499
1.1917460704237872 0.093119203339034673 -0.33790863804453952
-0.031931859729631029 0.36751434535865757 0.60691379396318967
-0.14320691619945661 0.33809290476647935 0.61821356363014934
0.94648869272961322 0.15358459451279893 -0.28841892035439698
0.081162788938661967 0.4359889726044579 0.60162121454419704
0.98946673122808582 0.15403640833860155 -0.30754009483575784
-0.58448857598963366 0.41135805679197124 0.26867986527182541
0.060782243626760518 0.6068607287387533 0.5282830926400186
0.0057250764461853065 0.43769293608469062 -0.10898343222244544
-1.0229335059828299 0.067798408286613876 -0.47871405984068827
0.17979374767919346 0.42066823120284913 0.63784539525588246
-0.76086137677589649 0.016952731103449192 -0.35162556652466637
-0.026716566581458739 0.12361698484924855 0.55364219780578883
0.54960619177961412 0.3744913158125911 0.085542040193138158
-0.010946161891722761 0.58374139252187507 0.58288836495840068
1.0619670003247277 0.072849573642906451 -0.34274423154368105
-0.15507798129230457 0.43438772673441872 0.59565290610447597
-0.27922804073894558 0.43372634087488215 0.57692349748337013
-0.10153286587863383 0.354855691349659 0.61613607037027318
-0.5257644164864943 0.47797672272564773 0.44599473690920721
0.13583729716415816 0.13466206176190187 0.7285680677027182
-0.052197865806471261 0.61616721617426795 0.57515585382228984
0.80578640601780982 0.085480259492018096 -0.2335961952092489
-0.77493448531791809 0.43277396880728958 0.019097612406310915
0.28233392963114878 0.60331801371468541 0.46932330536997169
0.32630672061016597 -0.17403500146324502 0.73218839039658157
0.073389563435114158 -0.079821498874294017 -0.7661438931143536
-0.18568262357873211 0.63693933809234493 0.55763874602574504
0.49179972269368782 0.28404120851419945 0.38666768440443833
-0.18880285106571254 0.46151747276094479 0.59028753358661601
0.09939005058087988 0.15177543319358566 0.7159661363434171
0.23205976672089595 -0.50890442492355548 0.84881499003352334
0.31338419190852762 0.033197456546009141 0.52564060267961144
-0.29785577263511631 0.48247760449664789 0.5561183620508956
-0.74919973665998651 0.56805881559930738 0.060005042307991863
0.40441135471469802 0.22858883239696492 0.45750066929362787
1.1031539625340139 0.16907233843809077 -0.4099288417906799
0.084191561193795311 -0.56996674736810649 0.80652095572251681
0.44391324934651744 -0.13442398334108696 -0.43859710901758486
0.029644081323914606 0.67851583328129017 0.58032848350267607
0.15648423969003561 0.53212523934462341 0.60533384679466584
0.27373843124796726 0.61435594054410125 0.55528844274393241
-0.0054812397451058925 0.1156360735890245 0.57928610365887123
-0.63420564366842958 0.15750886370934736 -0.13251847694022323
0.038426328866961151 0.54676659906554659 0.6148512236284589
0.23254320195951 -0.092772452147060758 0.75197122351427415
0.27068602512249867 0.34555310573797704 0.59987760550812874
-0.16273888079435186 0.40231393885757161 0.6260295529592026
0.28114758167114973 0.092454486977061157 0.52527149975566068
0.74806856172699598 -0.002902680824753201 -0.26995305959145233
0.25564977619505991 -0.37669304397186387 0.80779410268306828
-0.28819621958762764 0.34861073516446828 0.52957386030856446
-0.323944485612782 0.55609868969817189 0.46395723735402505
0.29149189735134379 0.14207214865206508 0.48566898484701371
-0.83418333457744265 0.12826558147149036 -0.33403317162210389
0.14600004555966106 0.14404469140488119 0.72511831181479991
-0.1307565042150543 0.42652325420090298 0.59128580413862086
0.29030559227140484 0.54127514622275363 0.32723046713631709
-0.13113857301210288 0.21851616581861122 0.59850114036972091
0.22891984907494101 0.5015503055069328 0.57600607633158685
0.14671799384444076 0.4364785296253626 0.64502884054927523
-0.85779325180766564 0.43488684942428035 -0.11501964803111853
-0.19939311153566547 0.30350774343951947 0.59029488340158776
-0.52099831560665777 0.3334429498362339 0.30664176507157537
0.23914816207475273 -0.50063700225327024 0.84621614570882076
0.055058638778591532 -0.12527683633721232 0.72347918812570344
0.80811007547351688 0.16678784477842656 -0.22822248872439932
0.13584722654260573 0.10151317085507783 0.74069015249700021
0.69347291306401715 0.24179334147983622 -0.21278001058667484
0.73795968453992189 0.11436024260388611 -0.14472669756966416
0.11491643279017182 0.14703327837957048 0.71211785065722344
0.10643433514918045 0.18042157934861613 0.67144617556724118
0.15247596149753187 -0.25133917170884823 0.49141467494249902
0.75259980463908605 0.11787973379862082 -0.29670840026852696
0.13491926426731238 0.44140975186115838 0.64445378281590826
0.08318914533306887 0.1643240692488106 0.70559672113582717
0.095982010236317875 0.059967596841293602 0.72825855788430727
0.69721553429477079 0.28680966023871113 -0.14924530206963915
-0.96841809172960336 0.088952672239551056 -0.44359011208366383
0.13091676220567638 0.66155905988304153 0.56669539593734219
0.044416677190026642 -0.49735288237292341 0.77416127171971394
0.47262504862619059 0.45273883058382536 0.29345690892185994
0.52479185261740657 0.39684110133928163 0.32950072942558672
0.13386972903715871 0.45143475412851641 0.64394800017102782
0.34261492054693143 -0.4991920217124497 0.7864400489381369
0.89161126192288731 0.12443330099415228 -0.26473577172653218
-0.19739797265807094 0.17190078844098289 0.48852904937833697
-0.023839720745713611 0.69861204238250285 0.54441262541801594
0.68079836608791289 0.28380358269726003 -0.13707416186025179
0.36655834230248607 -0.45604079914497953 0.77550688114422028
-0.73936857674126255 0.11693577524489607 -0.55800096145474942
0.77646009262043081 0.12531920326595936 -0.29536304583878792
0.93899446161620514 0.16333964057864025 -0.29126510393190519
0.18138791847183305 0.37609663522261605 0.62249668251542256
-0.67272796915866429 0.010618861965099979 -0.27826699787949072
0.29749423696381816 0.62200743510374368 0.52210753290076739
0.24619168903060223 0.36394090574902038 0.59963914223652393
0.34518643174520985 -0.35766227815879481 0.78331235218150652
0.68926278823367571 0.23003870013896699 -0.1137757970444202
-0.095447405853753997 0.3798226294403817 0.60862937562028852
0.70531847607077092 0.050591356966229961 -0.079823246299855821
-0.60223613108045371 0.047071395379942871 -0.20621230697244708
0.10075186276481476 0.56825728282041266 0.58887411012191238
-0.94041116990173046 0.14768227401375866 -0.36001500250214291
-0.035764338078977165 0.57260407902604649 0.58376002993717013
-0.29668947303036236 0.53764756626532306 0.51073286129040163
-0.31414809233701413 0.53847429623815124 0.53747057391099617
0.21261043896140874 -0.15542030330287449 0.42309001111292344
-0.21538409453045165 0.28765298653825866 0.55240590135920198
0.063000147233218118 0.53917621813381356 0.62311823269684097
0.088857461369963295 0.18362110907287033 0.67084344560893272
-0.88667494965780125 0.32466696418508789 -0.25367430967156102
-0.43636782142168634 0.6398352402053451 0.44323691977245505
0.92828176987726874 0.052277649342111321 -0.22234842048182024
-0.22546473521716043 0.57874471952636175 0.50267962895219376
-0.68089753613890891 0.3035411007528066 0.031685009674093267
0.28037869454936604 0.40805438087421542 0.5824874106645217
-0.81876078153778531 -0.014588705943237912 -0.39908710670969105
-0.2439618612333955 0.30229791863529742 0.54001048118795048
0.077050323864901751 0.036958545920460217 0.70579951633576798
0.88836067320596179 0.18398588391741022 -0.29120384707076274
0.10391150880032102 0.53913129085360523 0.62168680626949624
0.25440060946323961 -0.45813582055551039 0.80509372164890669
-0.013300950553532281 0.5997057573385558 0.57987655373869251
-0.34479415573538508 -0.036379462675931507 -0.33317703388044739
-0.7967587771920086 0.20048861721463918 -0.25315223076439208
0.29594859554696384 0.065883404710430415 0.52291841543981876
0.30758288296228392 -0.17809416284449742 0.74860695468162963
-0.13620949884444813 0.41609462805846076 -0.17452332880685861
0.048371004191459399 -0.14791257644245137 0.48828016850694711
-0.2922742746175192 0.036770210801329917 0.034863603109310581
0.15717011553589186 0.39509265524111514 0.61417122691515824
0.20391037045929311 0.35742195106526875 0.60674467574801416
-0.051775603460835706 0.26084566707035939 0.63779612336647773
0.075819174148115842 -0.1897947929713486 0.49394762514937463
-0.33381133177404504 0.63357228398894594 0.50331858722324041
-0.0015309970156776043 0.086615654270514986 0.56161737916564536
0.098470718818658098 0.60074500255726293 0.51324698737646268
-0.40636546845192578 0.66278885162691403 0.52076661775620092
0.0099784697271507461 0.46332992848405152 0.59852596552251169
-0.93123028432762522 -0.066060372280009716 -0.43912074226267994
0.14594100348004629 0.11788813640195261 0.7362103445450221
-0.13901795719758558 0.3894506354094569 0.62039849068730102
0.8516860016158081 0.065245408176757724 -0.15579689317500733
-0.33198652629610298 0.58401789657571457 0.54169227807172482
-0.13431246261519181 0.31067136600905787 0.61442615716674243
1.1440571285098964 0.058206193753258306 -0.30625564473126987
0.87770663351074496 0.1462167120698612 -0.26242619516554511
-0.094721478254573971 0.19443327675006938 0.60456256922787754
0.32425944246580785 0.08859991627037056 0.42339236455096496
-0.15210572296106115 0.39629856426265553 0.6278941409434784
0.1274545735583921 0.055490406220512378 0.74413083443304462
0.46885849646530464 0.3007325357971935 0.45072155541860259
0.26011309048087483 -0.10121407062759813 0.22708894968449833
0.23556051753494284 0.11156096326216081 0.6427233314297387
0.48527659043517724 0.41079934974305221 0.087082909993647872
0.019704111870207597 0.50798841889873181 0.5872579970611751
0.19214320984583594 -0.15115579800530821 0.77750577055196635
-0.15481171843701022 0.72021872969178857 0.51443613165958779
-0.92427289451879235 0.1787075833166869 -0.32892151905164257
0.90763387738662282 0.043426370929187996 -0.13548550598838194
-0.090138475188711986 0.3980996341195322 0.60083606803724288
0.86535033771787284 0.096790732893275111 -0.25437579095666063
0.17479572157527856 0.17470129623036268 0.67916048471314117
-0.96620869232015572 -0.1085631585040463 -0.55992760546242626
0.23488014128781376 -0.47344534713859132 0.81105098756834204
0.28776831058120445 -0.52139742159016245 0.8161627825365334
0.17626028654103548 -0.54037614200083484 0.84984789834386754
0.2067011780151439 0.1001100333472944 0.69063001686353309
-0.78615231306626687 0.2397664821515908 -0.46987853994870421
-0.87226498057623825 0.10612153483503417 -0.43945966258562863
-0.34927648159533903 0.41652933192645136 0.51715348485245349
1.1461420561886078 0.073012260139335483 -0.38683889099313173
0.16624657249520472 0.43759409781638858 0.64337418585953743
-0.40551568234970681 0.22365188270725045 0.30106076694827366
0.3349178438192999 0.57113797214514861 0.53745224148069748
0.25272704413105118 0.50389240826311443 0.56567400054089756
-0.27574744505397264 0.32571446886184052 0.55019022228465309
0.15023721487889785 0.42849482686983831 0.64446509310760347
0.1519812656652289 0.60075812685019647 0.56688395334750941
0.90164174792233864 0.18900631760555386 -0.29890127107984088
0.89006673375688461 0.077677078559381219 -0.25873878131014738
-0.39303637738877495 0.65513836576336115 0.53413526286654345
0.44732704684399838 0.021794199511795842 0.12826345774501124
0.23051606499283206 0.63699108415512629 0.51486601430546486
0.048872152334876316 -0.32240117978758875 0.56673042650977501
0.35956446260221242 -0.093882304410199291 0.52049175268265868
-0.47819660145544074 0.5576512225032626 0.48721740013340797
0.21851665310360377 0.082019174817976825 0.68755690574852957
0.052663510848478368 0.5384894584660993 0.62195717151938235
0.085024863972117892 0.50323261290510568 0.63312690742292133
1.198080837152923 0.11839335828872755 -0.43384957365075771
0.037037359839403136 -0.077889436293088199 0.35458722129757625
-0.60114120249003666 0.016286080795675062 -0.14248711831383987
-1.0836781493765122 -0.040069268361725641 -0.51401107931546708
-0.42461392305802492 0.66154982117613148 0.52755206975568436
0.092394822217942735 0.16905846961600912 0.68942318899088728
-0.38148384838909122 0.31127658093713539 0.4782547427031012
0.2608059526801404 0.39857982336243225 0.60217643763231399
-0.17331232400263613 0.44784016843620589 0.59583690498542641
0.30778532388736118 -0.54303005755258749 0.7783140251185281
0.28637512796361275 -0.18026690738758466 0.46489658510285459
-0.42050129598323399 0.25387773643852518 0.33347514555132785
-0.21348364908002021 0.35951358881364026 0.60392469404224181
-0.014037962365596346 0.61758694490509747 0.4991696195928832
-0.9760803289898109 0.05920705112607938 -0.4778663048299332
0.72682041558259769 0.19419024467541446 -0.14714190331880994
0.41602236277879734 -0.36446945456021962 0.55544355985942562
-0.15475636886459748 0.40636967677157143 0.62484671257486979
0.075640507588900743 0.10892647905946484 0.73003508742931844
-0.47016805584900301 0.46728502724153387 0.48743877809627478
0.83874597870414125 0.1835985614277531 -0.25234204339431154
-0.22416393023281164 0.45164489065993152 0.60286739454215699
0.44046523704813756 0.14063993111095141 -0.42409087769993992
0.21497998371385219 -0.17973101742162068 0.44258344803785077
0.26339787708229068 0.30661285775777936 0.55280113189893565
-1.0304276386646545 -0.061783311138074337 -0.54099747529134312
0.26537813255399206 -0.44090193009047551 0.80177445698499517
-0.075092936025293655 -0.095843854982671894 -0.057183387721324141
1.0960624806581316 0.20655944064977017 -0.30497233942129465
-0.76471267229993078 0.082080323095571561 -0.41644027579180332
-0.020234614223064551 0.12769365826961532 0.57482112734694168
0.12365317453126662 0.40614740309364272 0.61281772609603324
-0.82450862740340103 0.023477032377898555 -0.39242415960583643
0.91480626414497157 0.22362011221710254 -0.27501671910025527
0.22324054101517996 -0.11970774376627635 0.14115194223933125
0.066089077784222489 0.36209292566103746 0.61517243260694499
0.067564964656833815 0.10980666065147671 0.7021149774707085
-0.29850261598772576 0.52122668017446849 0.53198878796881144
-0.33701314478931543 0.33140403360320336 0.51633896476808339
-0.10854658621104424 0.4413961783825251 0.52470040420469255
0.24217830160429007 -0.20283951101998099 0.46121422099116494
-0.63967299781329645 0.024700342831140087 -0.23684378482891377
0.093857587074713811 -0.17319314137982023 0.76753427493939497
0.066871945667228871 0.5965281955529913 0.55584461336594515
-0.11387384987840019 0.62049307995692793 0.58630915174695475
-0.86180546434996164 0.4249985356157584 -0.183760498548315
0.27668218945616929 0.36191724073009612 0.58243545368368177
-0.48143557183562846 0.48770755830310586 0.48366498759622845
0.25669042391030111 0.40195046665675349 0.60070805120768078
0.099963200895417409 0.41996002014625788 0.60751049285239023
0.19173579560345061 -0.37395144211929843 0.84396863105214703
0.11548428143695007 -0.49299565838712556 0.84271913921075137
-0.68920726932051868 0.091626796663170307 -0.29565700545458018
0.20468852080746158 -0.36225810425909022 0.83983815974674536
0.51684498574132576 -0.081108358486805754 -0.52171310613501842
0.065635003424764526 -0.27213519213115367 0.53753934179723317
0.20656052577208012 -0.29907630688044184 0.50108798449159808
-0.16935576982236203 0.53742764350989991 0.58541173067744157
-1.0284623570825295 -0.041309882340645254 -0.54134207732898831
0.27325443909859465 0.44373146755159065 0.58285288357332465
-0.16016138956860176 0.28151530628050003 0.6000941734620131
0.17533808224969491 0.072380123172939514 0.73754054259281454
-0.25107955352111816 0.51913140138438263 0.55663287999228372
1.1771823481604886 0.094472368459923017 -0.33288615089375684
-0.68615774173902855 0.0086898229256491266 -0.27760933210038075
0.055620932885977796 -0.4638856132013276 0.79323055163657474
0.23689304649326753 0.12634809586478801 0.62046686567054876
-0.12371900948494269 0.6607698422093955 0.58303547758107466
-0.42515844794599883 0.53722739557595345 0.51408866178192913
-0.26904712939840009 0.44116605791335539 0.5845184371778247
0.20967824884884681 -0.58608243387627512 0.75648659494144843
-1.0830348935104595 0.031695253394905754 -0.50990368960649879
-0.50218729280420726 0.665291829876413 0.46807873870700223
0.74180356924994495 0.24632115420016776 -0.2420152069945487
0.17120505274199843 -0.46878290312012849 0.85973667758457817
-0.77680769319560616 0.12952033475420111 -0.29920605894432195
0.36109737343351739 -0.47341977936053947 0.77833850139271687
-0.16375281268150926 0.70447192925960422 0.49435075771019887
0.27176701803228376 -0.41884803630771095 0.80068118580504
0.38629248292603879 0.53946754787396678 0.51487793557515182
0.21694269211427558 0.38614640147955503 0.6108377273438339
0.020775663089778879 0.48156581107949026 0.60062946475880508
-0.24983137801220412 0.31197114476695886 0.56207984119486554
0.034096562797697599 0.5590144108936439 0.59951397255085004
-0.1813419224450562 0.5652823953820143 0.56899525168859721
