# XYZ point cloud file
0.260109104179719 0.84678694662328269 0.43345505189738187
-0.22682816644322656 0.4904275668696414 0.60790155429316783
0.12076099421624065 0.64385860311129761 0.58739478645389198
0.34601247398690305 0.48755762475017761 0.68992241728827719
0.65292978439161686 0.56950899773559627 0.22659358424529996
-0.39624001463556624 0.67208587580800838 0.23848381989192191
0.3075180183666788 -0.50107597223759015 0.84985858339688036
-0.78812731850933915 0.016127609920701502 -0.35814155618751897
-1.0536843228823898 0.15048915617775549 -0.68208316314491668
-0.84257209659077148 0.032731943037695999 -0.54399713748203382
0.035325686030986958 0.60837155724142988 0.4662078267679366
-0.80723882149914061 -0.056876403537721387 -0.32765043004076233
0.38281253171679452 0.37870863934965726 0.63711937031033083
0.21545741915255689 0.69035438919134151 0.58779259836732312
-1.1692527846090854 0.014688290140078664 -0.62268273684806275
0.30783683249298122 -0.080116739047426222 0.7109452493263797
-0.59737418509428153 -0.0055146465791651167 -0.60413480024093147
0.15552627344445114 -0.47038106542970937 0.94769456472000435
0.78391993428418516 -0.2164622836472212 -0.23916938584723102
0.59130777721588856 0.26771082110813538 0.54772364546784136
0.019812824250891481 0.16344964944557461 0.75989749106363469
1.1480203643985476 0.24684468555807726 -0.33881544023418453
0.96537760121768201 0.2561756672775104 -0.24111674312642783
0.3998836333517346 0.63874493723300674 0.58349189240672117
0.35917831071448347 -0.16079184863815854 0.69406013299875235
-0.728955709133146 0.24921782531452408 0.40723017086992641
0.21434193616563846 0.41162918200852872 0.657598505396086
-0.17637214479954366 -0.14618504030162427 0.63060701342083192
-0.37744163303571554 0.82001267987235593 0.28220427778459367
-0.16309782407083162 0.35490512770062566 -0.86031571547538732
0.83863934220013903 0.090216220402211889 -0.24155260775502807
0.28839954451395045 -0.55635232235328225 0.88124638854979676
-0.81078094811726942 0.1546324314898726 -0.4092804568645434
-0.35016556052970316 0.55903908821453641 0.5919238290267792
1.1249761560508631 -0.10694135935740867 -0.37732444830449197
0.13736125483625017 -0.44983505302315407 0.9598930891473183
0.69899100426259508 -0.1412588431849926 -0.13111016061396796
-0.982992982603065 0.085155235787837569 -0.62654236982971767
0.69018892658806408 -0.1446135960726842 -0.33959721197283255
-0.36232458372791143 -0.27620499365010787 -0.48191913652095408
0.25923742315485754 -0.53653065497042718 0.86440729292412799
-0.26445752300222125 0.12918610409247577 -0.83453187434223963
0.20011042359458031 -0.54293662314752567 0.91364046741925709
-0.86926429301749408 0.070449177601240365 -0.47393817141921346
0.84824314045765448 0.28552182045421048 -0.25051653242114647
-0.13106316333957579 0.80681377929905551 0.069040403914536697
-0.9625127735195349 0.15654953892667578 -0.60003980938509116
-0.11476731896411252 0.86884373678667259 -0.11208484956205922
-0.80503025027317676 0.15718956490550084 -0.16990195257198693
0.40764984445425512 0.57680217491593666 0.58457062785425418
0.32616214277041422 0.43337379793729269 0.68683439862210527
0.14682149653390297 -0.46271653650777544 0.92501921076602156
0.42973406802401826 0.39805936338619219 0.62787015586680783
0.22331389159005255 -0.54686513690520577 0.88465084597169641
0.75930704627246826 0.21734905006620409 -0.46860679797693461
0.0090696489552613002 0.16700322902165254 0.74996685396634888
-0.044051928793948036 0.15599345043971269 0.76831261880556578
0.069434871825322375 -0.32999897207019302 0.93150412585693321
0.80624945011388149 0.42192750581466498 -0.351455792320851
-0.65010996553809264 0.66566363468669465 0.18840914982650148
0.032279064613774722 0.13728944412483557 0.83166427825790024
0.76472121975919549 -0.15788867378045524 -0.31186446222644015
0.17313823809409712 0.78459509990852183 0.56426211585413455
1.0229409270683334 0.14307244770203198 -0.32551050696819583
0.54664538002865015 0.63417075697388015 0.57080466331981206
0.34555411447445294 -0.5141565883103052 0.53975628906814865
0.65857074448105379 0.216542005747133 0.44396831132834746
-0.42454237850125764 0.64819796007935082 0.48670007310968977
-0.81196540855972898 -0.059150322448743964 -0.33735209029195801
-0.61235257751641825 0.54337998032854529 0.42863214910679659
-0.82761819188934282 0.50030207753601275 0.13335993451485706
-0.42105627279219959 0.55017118121748609 0.61099789622902456
-0.14611854962868165 -0.47855800815928262 0.78811814269611258
-0.79495502602807733 0.28193293285545451 0.20487332335593678
0.39121103844526317 0.4678223879586767 0.65827446387394217
0.023749060883147877 0.12023478472334403 0.84073318565128918
0.12819184455764798 0.65479326833852269 0.58670363320696595
0.84686387759711579 -0.11558183478653916 -0.19832974865391417
0.8854181663470797 -0.11000393337853609 -0.27731490105430279
-0.76174369112055729 0.24010155329634131 0.23795678379000762
0.75542506904169215 0.52217646151287056 0.069445710525660287
-0.13291563003919293 -0.45718952575564842 0.70019483981765696
-0.63110823387484061 0.39178994633621045 0.4225941487710827
-0.72312115574086988 0.32149567278740676 -0.54915213979956334
-0.91152046468630488 0.063993246527793701 -0.51732858446436936
-0.92475052034561145 0.069715736330863365 -0.53657122040382177
0.258968058039315 0.50701039681365145 0.7035274253129189
-0.15065419320720252 -0.31632465813094868 0.80634991137853174
-0.59941973052872299 0.69618025814693851 0.40231674127240424
-0.49077382081709686 0.5774501160108727 0.56302440830161871
-0.037593955021435477 0.80255207276110241 0.56633982762129698
0.1672989405698786 0.68500209900127729 0.5834258697576189
0.18083674225023572 0.57921248354685417 0.6786870078363032
-0.54023411449742298 0.56882441959289309 0.51716360555643348
-0.4283996823506584 0.60647745047700852 0.54288288129354179
-0.11476604485318376 -0.41547609835087584 0.88389130805904648
-0.55086884177264039 0.51473576589989989 0.54327873353558331
-0.77838935545312893 0.20352738338552712 0.11348226692728858
-0.063531611023179835 0.77885090774313426 0.5590650781265758
-0.057864541468362063 -0.43471718044155239 0.61544431687222456
0.2734906451705541 0.39001581946640584 0.65645836451918926
0.050360539598727883 0.15195732420461994 0.75326200459427817
-0.5299508773339312 0.85463815961389145 0.37482601010918515
0.14688446585178383 0.17287205043133014 0.74666514849128607
-0.45218806054931804 0.15239629366421426 0.57191466089363985
0.09576370954017932 -0.6404624637738312 0.92464689092312624
0.33093054631423513 0.74730097448944477 0.58002573662563384
-0.78995173806811181 0.21711577462924936 -0.40214138930305054
-0.12917300537212384 0.45698513305386967 0.62053573249050942
0.74386531257856348 0.4353922480948853 0.44794711012637656
-0.87435211236076782 -0.1467519398307644 -0.11334306473521139
0.31404527760562928 -0.53037909352431889 0.87158816691889074
-1.175666512740321 -0.032442365322815192 -0.60884275942089516
-0.23021459455215165 0.041470742757962142 0.53542786834752398
-0.63673262534601349 0.49053312682808325 0.44708171632684568
0.68367886356263341 0.54329591940759414 0.30435123673640541
0.96613859106618349 -0.21631582151552387 -0.35912080148382408
0.82108938546035404 0.16289388580210229 -0.16636264554598768
0.050748942785205031 -0.33237129385247499 0.40163334442219822
0.062598428412442786 0.19262967519095398 0.72981930894118374
-1.2642984479304573 -0.092762651961884046 -0.55415754260364025
-1.0211666781320332 0.17695298569830697 -0.66857591311813991
0.29180279541432697 0.68215107984985579 0.59536135280225766
0.18264401865616264 0.677585161525041 0.56467651522758811
0.2748368840344142 0.014929839547978219 0.52436711487191934
0.92497299053367499 0.010126678100697006 -0.30783299714738099
1.1083114532764853 0.1754879702183274 -0.35414442999202489
0.88028511653146779 0.27478182181080157 -0.26607190226896904
0.34890404983224244 -0.54054595135321648 0.89454203791459586
-0.56266108599439235 0.63299174002670355 0.43488812904130469
0.31918685061009455 0.61701795242640145 0.63252256808942775
-0.71437800422336295 -0.098304304081345606 -0.10375613421508589
0.25957571623911235 -0.25549226984527351 0.425468624181633
-0.64906315732955022 0.53840614391398134 0.42692454678053693
-0.92437282869343562 0.21239233628828202 -0.59608356330122447
0.17486371406643286 -0.52531150438711371 0.89885672929533333
0.65935188905260134 0.58138347989716976 0.17980877726237843
-0.95042405573695987 -0.12427956655545813 -0.21469302599052398
-0.84202635391463332 0.16318304390540561 -0.44757105823881815
-0.081912665631762138 0.52001590607514814 0.61675275584508604
-1.1188954312812029 -0.12714558107484919 -0.35634986879517783
-0.30407743464510872 0.59658053036517344 0.55077598564118624
0.31833680989657864 -0.63233297100615893 0.8819505803140637
-0.51145814426831748 0.64518588241046615 0.46136760595544857
-1.0385321529211922 -0.15954638620072359 -0.24266581623848538
0.29641127754655372 -0.19397651601763144 0.47708560033980119
0.8426261392081642 -0.076448361751012328 -0.27315943631566331
0.39318986869923833 0.36610612399361031 0.64826148499593295
-0.16661168576821694 -0.17552852363825977 0.73332756031404589
0.17363320719462649 -0.36779494565729109 0.055535371311242754
-0.081120506794945868 0.67237238315336612 0.35932738688813437
-0.045221978855423117 0.1597852002899387 0.77583293526768315
0.86895168872632667 0.24173759989587396 -0.1998278763663035
0.26041839274239464 -0.44028006759127258 0.91325298956365386
1.2198698857037726 0.29050467633022237 -0.32418569789683183
0.11171473898335194 0.68943005777901334 0.58327650684609722
0.15088871591554209 -0.43364944783282944 0.94933406966208422
0.82520235967309929 0.1374236804606781 -0.37437632594922876
-0.40392803359182494 0.0051930369648118813 0.36864721493680364
-0.79045445711497564 0.12564513208624817 -0.23558515153274939
-0.7675393124767993 0.24375863268536335 -0.45836341570824146
0.21697538860689747 -0.55111489743796938 0.92026863626211752
1.0174721769790267 0.11487102694848161 -0.32537153002733632
0.89586186563272463 0.011591792847884363 -0.30348820825113787
-0.40689547607655641 -0.26200259650953228 -0.43031363170736903
-0.65270955030632649 0.088030488822141706 0.22886921125354931
-0.56735853266461334 0.52931397179380468 0.50369926974641999
-0.72131977923496038 0.0027838892294340667 0.016489264786457625
-0.16433582605525032 -0.085269138567909408 0.67914562366349962
-0.42318470361797722 0.71451232118104713 0.45678008733998254
0.085022477480251268 -0.34078230579772395 0.31874049177460551
-0.44482179415268774 0.40949446356151498 0.62984371089569535
-1.1344679842173946 0.031401453676394908 -0.68081143420017298
0.12200698682332245 0.66054858134152994 0.58799401137121698
-0.18862952428447954 0.46518291067921069 0.6142566458094656
-0.96337894161425197 -0.016088429969251195 -0.46526849255801395
0.18777716444192549 0.56730592454112028 0.6835928286393731
0.57847706248340103 0.66592865944337021 0.57189819268544295
-0.13313619195523074 0.76674768156928508 0.16082947211868515
0.14937100179531626 -0.39210855864636152 0.9434730626523069
-0.20692329354952221 0.58614404206588233 0.57921412985344567
0.29933551938337644 -0.55755275579648078 0.90021196075687548
0.79743650768413943 0.21358305312586978 0.045897302221200142
0.14763228906737424 0.43492785224190911 0.66337039755909988
0.11060285947336013 -0.41322744072449069 -0.33218930867400709
0.23227437283492236 0.035676785748457007 0.73780621539507951
0.072811830465838057 0.14817808449618752 0.80761991254895893
-0.41605891473231793 0.46491484210505973 0.65246059946471568
-0.12393900507714761 0.68593486360211386 0.52877620931813141
1.2411744165228384 0.24542379101149692 -0.34153189865423528
0.090295158979898815 0.4065094868429 0.57048169099306723
0.0081839981626359304 0.26661534220764338 0.69765370271299343
-0.26894403487010266 0.65332336674183722 0.54656048929109247
0.18360110425834364 0.90764702813011411 0.4747206729481892
-0.74962071798799457 -0.0070415314319447475 -0.26478394023660456
0.22423531937019447 0.49332375997850875 0.70399527326834344
0.29077213969759441 -0.17142264954431141 0.47014792523983573
-0.767895184972474 0.22288160329982531 0.17972492476163993
0.51816624907986863 0.51627290781797797 0.47967660434832982
0.055294369577225666 -0.53122866095542065 0.96694746119687247
0.20125653814982059 0.67994064093150897 0.58345143007664024
-0.59941093851216465 0.40479216875807822 0.52415693386058138
0.73359353507525782 0.58904854472958235 0.034010635980480153
0.86347794961181989 0.10305238736728128 -0.25352635209364038
-0.31756000053695743 0.67521188526990983 0.27908182299948692
0.18094229640701087 0.41177680224044266 0.67185810855403183
0.39429684464771242 0.50862398287810606 0.64648057133164727
-0.11243836045547084 -0.58808483705123038 0.87279685566232823
-0.89587408977567407 -0.11437313531661886 -0.22426996542126076
0.31437443692182399 -0.19618008444140855 0.25543836142761478
0.88910688791320069 0.29141553657876429 -0.2191599566738498
1.0443298866401705 0.18824652519478491 -0.33160399171506594
0.83846993901352107 0.33160328790769 -0.23957414539510458
-0.14081971794249171 -0.22720040389328489 0.49240920972061986
-0.77516623058485834 0.00017685578457360407 -0.34238180977921928
0.10840723288188769 0.52406676035884203 0.62216881102087918
-0.90110675888783476 -0.12031893534018678 -0.1612903068819449
0.98130836684725864 0.28701340510857776 -0.2385803908084716
1.1225116279124165 -0.10452138906997632 -0.36643526814258109
-0.33092666342936639 0.52376879697953527 0.62226938223101413
0.19592807443487459 -0.53324541399937786 0.93847144965626161
-0.51840552892559799 0.64317132652141851 0.31324050788428437
0.82419351056000778 -0.051059051979368775 -0.25424803994505485
0.28793811728890262 -0.033492578105583704 0.59474815643113299
0.083660452097802818 0.16560833079799409 0.76431321084188664
0.40222548205255748 0.067469420758069276 0.50027042291015511
0.030993283845546671 -0.42551608191522305 -0.33485826985865019
-0.35396084232553449 0.41865716080473803 0.65145105518781143
-0.9411541555395786 0.20235920860985601 -0.69524965270781536
0.22450855999517216 0.15315897816382318 0.69808509134804009
0.31315098102619743 0.051367480601161475 0.54721226846012905
0.95979727038060503 -0.21276615428424783 -0.27289640633231294
0.27666538350723613 0.64957268302532967 0.6042108929754626
1.280189231674342 0.14687227054429108 -0.3495254687735212
-0.30148527916421131 0.75163082029023087 -0.5501020306057427
0.15649444949674773 0.54428070912164017 0.67154899599545992
0.65890228960550701 0.22956909279094972 0.4681667419550295
0.080024474424689629 0.029444336911751634 0.83487217140113845
-0.55244126491604106 0.25918995461063332 0.56439108651213132
-0.28401543669968987 -0.11961706652069637 -0.70438611099211101
0.14974010436787921 -0.52119001326031267 0.96422001035962657
0.14887246220573047 0.53775571835904046 0.65625972260477727
-0.47352944812561759 0.61505881006706886 0.49468677577894837
0.52582110215375621 0.45232383497778272 0.58744305654817897
-0.028475536072519958 -0.41631582949344903 -0.026974556038512176
-0.080926559617068961 0.059572129241026062 -0.85373803805175186
0.25869146022969858 0.39644652142465375 0.6708586218549768
-0.5044672382508395 0.88193903951139418 0.3556252020111863
-0.95289005399220628 0.062154694803680854 -0.55400692629874371
0.6354054652858423 -0.10900841747673695 -0.039275978177218285
0.74229816572328389 -0.044765677572790707 -0.17285898454303172
-1.0318465750545158 0.060700324173836862 -0.62895672068182051
0.011135087560319334 -0.19037052872846516 0.8795617803382787
-1.0011446914081716 0.06862939757731823 -0.61391223889381763
-0.61472925135319656 0.60258807799950631 -0.26462753435945885
-0.35757979855134181 0.63100818440693729 0.51904286259507693
0.45149081966948756 -0.38084147516751621 0.69103422328768715
-0.64218905081494881 0.37898314793648069 0.39774946474460293
-1.2527887268060169 0.016402018165138088 -0.7110422828828753
-0.57567657412519679 0.65433496867765939 0.41295603023109351
0.44992199233314523 0.10114850217433613 0.5304488323072527
-0.80881320196814954 0.34354593627322316 -0.22194922444406728
0.1709833430598735 0.56681614312253004 0.67988078044495914
-0.18845692281053061 0.36250798300225995 0.56740082183183382
0.38704075479094513 -0.24744495715301973 0.74327224017718185
-0.31937435962603899 0.61213195856379343 0.53992265521622684
-0.33119359913642654 0.385168294189004 0.64382716881012314
0.11326138178056055 0.072310033104454163 0.83901877857034979
0.088685858454809363 0.16917068247554568 0.77242013296037726
0.11939058185242857 0.47718821191406136 0.64680764884102526
-0.4708837658555467 0.64485406618922525 0.4705275363727992
-0.070504388941984075 0.27147951691091876 0.7114903073594796
-0.71584119267475899 0.0074226247455655425 -0.5194622714705126
-1.2649051587383866 -0.0058292525059542299 -0.63797645703403205
0.89501212748962189 0.28582856785548216 -0.21087626964414952
0.096315373684760175 0.9379205783455653 0.42782303557470769
0.65354021066863766 0.67278931510900009 -0.30457221433523785
0.18580456654720479 0.048610929485469967 0.80072844072815963
0.014204802159738961 0.081610954477355335 0.8441618883141766
-0.058935759710180946 -0.62339300411345278 0.90988591092178228
0.14518311561955954 0.14940435773590721 0.75067435889559464
-0.67155857919520656 0.33927670063176407 0.49039284827631846
0.66988934454623461 0.59916312353307788 0.13074638549600093
0.029109233476560803 -0.66692522663508313 0.78737155520516988
0.0089657452232216883 0.17103617635073221 0.77703239955089742
0.22728060697997421 -0.57428396370271884 0.93853367871514726
0.13513950921830542 -0.23881027709360225 0.89091384809146257
-0.40042218811612429 0.42124655146896473 0.65606567104553015
0.57236692646966958 0.72753770594551881 -0.015401322686220631
0.23618437498687683 -0.37315467201948493 -0.14898237320666885
-0.60870879456686566 -0.066323786730997369 0.078631125692066206
-0.59293417909540835 0.40884252571289892 0.52398508311972591
0.83391933059375845 -0.057143196242584793 -0.26425351561710819
0.26965798535216834 0.0011480053193508866 0.52459287133978583
-1.1761239735816105 -0.057363080983208192 -0.57687218158867282
-0.17694616030318855 -0.086479519855803488 0.55647418071431609
0.19188149173282909 -0.58902163721316647 0.59440105931521714
0.54933734573235427 0.30741205966165808 0.57781459087446962
-0.013853105073067695 0.086084986580367229 0.83894102019854344
0.93683105942962186 0.073248157679191905 -0.30684242501075509
0.2464539491229516 0.64337400532966882 0.64724036169687338
0.591651958192557 0.65737638939911491 -0.43786232611817777
1.1857087532034853 0.19533575790683599 -0.38143238264080281
0.062187122220350943 0.57856425128872147 0.5534020400536166
0.88416579855400812 0.28873788882040685 -0.23675767427140171
0.95262328582039402 0.22501455731049802 -0.24763904279900562
0.25572587354368181 0.003128419767254087 0.72110887549887948
-0.21641496429306528 0.36313812561760628 0.65593938953282382
0.28128944743032491 -0.43944976918852419 0.90556643957498828
0.23250152565466919 -0.073482109192873679 0.79539592178789842
-0.17864611675149433 -0.40219236210786136 -0.10903167658230917
0.34349111532702636 -0.14915564321760044 0.72649662203194221
-0.22105815874846257 0.52384430603116172 0.51232927307683696
0.18958188282644528 0.66702019089659714 0.58575306652915859
-0.29758359249780142 -0.23143031595704855 -0.59894849378258463
0.27413381323493979 -0.55672242334225075 0.87508339251512268
-0.03367114782450642 0.16248034676365464 0.80841436921989462
-0.88300435078875239 -0.0071624788442363752 -0.42807336317423506
0.13233716923166128 0.38446571815880759 0.601751506680273
0.80158032436236226 0.040163938365090246 -0.2399684920152394
-0.91152832249480298 -0.051653296963223738 -0.39224189639841356
0.36316107835691014 0.37182009326424748 0.64817747393840119
0.09063120880765041 0.89642626305242956 0.55254792114485518
-0.90584259042176996 -0.07023028846124646 -0.36617026094300797
0.64624715931694254 0.64925721926169899 0.067987152268648154
-0.012202483175315137 0.86536061930377173 0.55128642288939211
-0.3746021717729775 0.80341980768260157 0.47873485352276646
0.11620933317060178 0.76210621897368824 0.55906552259773346
0.7235809128545867 -0.067436105790338985 -0.13921150597768417
-0.31333381105254432 0.64938442163712295 0.5238154745784005
0.10531192556393876 0.87358521238075326 0.37353378977705809
1.1501970274362776 0.18377602607992216 -0.36966736506173081
0.53052952002089171 0.4784534065610444 0.58201137330807007
0.14906673937929327 0.58524978046123621 0.65825371753123196
-0.25204840258891181 0.51057629722461328 0.59975340895079121
-0.89649455879492734 -0.059578726507623969 -0.37642551336704244
0.13311433415366025 0.46483571859848638 0.64693764921470631
-1.10727320012316 0.1695674981770523 -0.77688194817216427
0.94667713331931225 0.19662803077143209 -0.35862577684181041
-0.015698812166689891 0.16794170895523663 0.759056523124233
1.2324231337480995 0.084374435621951349 -0.39316732184028069
1.2234577353931115 -0.014748708833261404 -0.38926309696414307
-0.383064326090647 0.47383254012460085 0.65749901485607154
0.16124628024752496 -0.56010647646058942 0.95746657125476076
-0.71205738556733422 -0.03778544848701415 -0.0325774137000856
-0.82534999337588033 -0.10065563030991598 -0.26991167575582153
-0.074364314452850522 0.87575433641489298 -0.28479512152312481
-0.30554556762106699 0.56974951961688447 0.55062342804337128
-0.48425816680891387 0.44996625821376313 0.62489989374982002
0.52396109971269311 0.78283362426559577 -0.2654812701707483
0.17195577739084911 -0.38662873235617568 -0.047736539337267292
0.12428569938224143 -0.61134031821005763 0.94270547944549743
0.018198167765490325 -0.64634416201783296 0.75536521341172813
-1.2589853290540702 -0.016793766668214971 -0.69216126243989962
-1.1746607635493262 -0.02067015428826835 -0.59629062984530989
-0.5771414418875338 0.57419489386646916 0.43520430079828998
-0.87083551223193467 0.10858186507896761 -0.46585310614838704
-0.76988481838807843 0.056815936572974124 -0.29580708221812202
0.33057617047897736 -0.51300130304933234 0.88906114470832032
0.012497676249466849 0.10471822870027836 0.84510283141925058
1.1533757897935004 0.15792162945894361 -0.36300581086470984
0.44101224357146407 -0.69179847163111141 0.773389151217871
-0.06899831905064957 0.77715295746183344 0.45257419010921396
-0.29738386300307695 0.56085930639494919 0.54525655405649864
-0.16829306740370953 -0.26093775291966992 0.73592644644421501
0.24895372139168614 0.67746782910167624 0.56450926010794067
-0.43960007890834163 0.64874330463054264 0.47995194058882973
0.52484562960665926 -0.18148857975794641 -0.082375137247741481
0.2688067263983811 0.0031840875075737074 0.59429407506522081
-0.031736366192859577 -0.3458886035452764 0.27784853243307994
-0.43500037439017092 0.67109528614037117 -0.59453682142272157
0.15179715741011535 0.62035176820170435 0.62955186604677937
0.09463196121059525 0.62694300405662418 0.5974055082713905
0.21049582432591762 0.69920319232236139 0.51569954872206392
1.3689947464778527 0.10153243670706935 -0.39059716253833976
0.74031796184445398 0.39375912072886265 0.33293896042767734
0.15243099312573349 0.47410933132999844 0.65142037429464494
0.89986489758011601 0.13300440032001504 -0.2637175149262303
-0.77239806625595975 -0.039149602221776547 -0.34034413039123734
-0.39202524344781864 0.7752546356908141 0.25510645018290035
-0.66679260955950781 -0.16882193988994487 -0.14323872433378071
-0.43137510582390348 0.60659361989642235 0.55751635870723248
-1.0635542633457646 0.18998930449043883 -0.74351305455190442
-0.24160393027938198 0.054869361125156502 0.54841789666941665
0.77952289691465637 -0.02247115502962771 -0.22833415311842131
-0.83885102765856345 -0.10847326475553842 -0.29146846575011764
0.44263372888495667 0.12350316973351028 0.5562307993132225
0.16815742986622695 0.70072392230996527 0.48988435854836609
0.13182100222456938 0.087439694029761483 0.83598178617527141
0.24456140570033824 -0.51940827210800222 0.86692333388063769
-0.5748732539702246 0.6056493868686843 0.45256540560525593
-0.35718512013693271 0.84244465644410838 0.41155603974208077
-0.34961694401621912 0.60523162872060965 0.50908511016626612
0.34731977738309183 -0.36225999983138735 0.85299194646066212
-0.09355627527378374 -0.29164328271126649 0.38911407433354217
-0.17070499264804084 -0.042815487193980317 0.58848163267304709
0.1505743966677926 -0.44933522448272711 0.95273680812931349
-0.74562956990689599 0.01386764538991514 -0.5076451244422806
-0.10567822185008424 0.69636378570318058 0.55426131404023948
-0.44029282565014682 -0.25397218379098874 -0.27764912474066961
-0.38882792644628239 0.59022586382427988 0.57403471423536701
0.3883916308888189 -0.21381023443821334 0.66709146009216536
-0.77271616185038283 0.46500672882579863 0.021963803244599234
1.057367223931621 0.21553981566654201 -0.32630309508443478
-0.59964109803499355 0.75547350693931037 0.21648379126416373
-0.20006812038933219 -0.40037116882765389 -0.29971182301661692
0.25968087712305987 -0.51898830690367248 0.86112670551256998
0.30143470521804261 0.76200613974764408 0.38638801844726967
0.098395760700483947 0.66888521838108517 0.49816239524048456
1.265394854822361 0.087389745272712815 -0.36407603864217997
0.26920708264273685 0.64142124601106687 0.64111612856203948
0.29773622843362091 -0.51938355068969422 0.84707241620483709
0.91558876666515232 0.10335664677971579 -0.29438974850594501
0.17942624972438637 0.15342608972570559 0.74604995246699346
-0.27315255199617638 0.42138861734771993 0.62222290344291409
-0.094431174932182671 0.5536232770458227 0.61166071717690329
0.20064488962233895 0.65101006796496108 0.61836414715001009
1.0381136131928486 -0.12951780776865895 -0.32422304753408326
0.67219908252803862 0.14278443427236809 -0.54829570344759926
0.48764775752013634 0.409613470783178 0.60891686554821867
-0.53785873529859884 0.39570651033486826 0.55738663096726881
-0.66663646305840984 0.50979338230015259 0.43389183470875992
0.80934276824064 0.036159381010204328 -0.25421172260373304
0.34936811902409204 0.58121988196206331 0.65187650637922268
0.76766811910731292 0.2265663477409241 0.14639926031393546
0.70873366255744941 0.33388925287295734 0.46763954527406115
0.27830389650033283 -0.56021070577633658 0.88543692365828086
-0.047803494978580829 0.062648691901021181 0.78643421992631701
-0.67137393598261497 -0.15575682854569095 -0.099283941839033218
0.37393150935123742 -0.21769784140987625 0.59263770224340218
0.3822879004923152 0.60618979063309553 0.57912400071680237
0.14913224161124106 -0.69985796542321133 0.75996618510975322
-0.63651546532236125 0.51791507083559907 0.43215443336890047
0.53619403581731717 0.1615260789170776 0.53093981556993874
0.23513290410924981 0.3791911865195523 0.67164327073463292
-0.7932038652662925 -0.019799554868619396 -0.38113000779443951
-0.028378432444910118 0.21255076153922658 0.73209877731319395
-0.049098509064094742 0.67772042903938257 0.37185258167937896
-1.1737203614527516 0.07113422535107361 -0.66034263342562127
0.2751630811399508 -0.45150800157344229 0.89154591192146726
-0.79850017722063171 0.3901394883733289 -0.037635389959845611
0.79312395412571846 -0.034676621915217254 -0.2357886088481802
-0.2087139164553804 0.43486595030661945 0.62679224562158709
-0.6201649789291821 0.236123796810908 0.51623267680263751
-1.1362019859255099 0.036993089152403513 -0.68099802421688693
0.0058505799803327818 -0.37374098229459563 0.18496406544540145
-1.0938836519249264 0.0017794601327949522 -0.58073110595444533
-1.0519180660290317 0.012985237579556497 -0.55355137670888865
0.25317841983319056 -0.72121463060836888 0.78445819748373768
-0.52426480701623746 0.58392208171384397 0.53030989260664541
0.30719480726752124 -0.39757840523135357 0.889811674101606
0.44132793578135932 0.33312086865214852 0.60154256934980244
-0.73943093853603159 0.64244873445213813 0.36486478737774064
-0.50231306698424305 -0.20911949492958115 -0.18372116020680451
0.67367587114524952 0.16000912113372934 0.28053749229597091
-0.35082302597065507 0.60320039419821825 0.52016613144986046
-0.35188913334050653 0.63608397935676209 0.4185822269350048
0.091702739756939877 0.072079132836648796 0.84180467452878549
-0.43061400649446568 0.77575078665137198 0.23135978464692286
0.17530774705808483 -0.3298970262672114 0.42070901708964525
0.48408337665367185 0.52929940172899492 0.52676765064874642
1.2445760416376004 0.013330805600382689 -0.40893725486873045
0.88091454848114381 -0.095227617732685843 -0.35330318062164157
0.50699084909278724 0.36115587100661983 0.59729521215403447
0.26138926796869555 0.68625390642135997 0.5959015167711863
0.43046422311172705 -0.72439406468709322 0.635106763342562
0.15815835341076934 0.1474855178766461 0.80192239125595988
-0.56483793203653931 0.6616610683589812 -0.3280570285055795
0.57385714610755656 0.37624922746670109 0.56965988054599581
0.17356579642729741 -0.6321990398463555 0.63527072916828597
0.045764675352373274 0.61009748638930361 0.49197737284692167
-0.82085522518278253 0.16456661851174914 -0.4295216814014573
-0.027484827307617365 0.93472880700300109 0.47310030766345612
-1.0362383995094007 -0.13621724227529342 -0.37544110770651429
0.72548327024148307 0.63348392352090244 -0.079271043748424752
-0.77760043501547216 -0.024898914232153402 -0.36476313365723456
-0.96292478899940193 -0.06239707439485187 -0.4109594581770537
0.27352984197429464 -0.0055637251046931624 0.66084466925213969
0.41865507759530374 0.65521904138883258 0.56986731252361178
-0.69039091359587701 0.0055844829522868622 0.084979165468418216
-0.037680960211474712 -0.30203456047190258 0.90489470996084176
-0.83052518019090371 -0.10623669004563396 -0.18489603540959365
0.54965391419115406 0.38194884630183878 0.57955887297879793
-0.98745118708598056 0.19763059256367654 -0.65039662118363495
0.10827024381298145 0.53927425974275067 0.61138167556801015
-0.11229460782257661 -0.29452410880360347 0.35029666545973637
-0.7956453645375916 -0.10108483357269193 -0.17376597379554681
-1.2561862752438628 0.0015396643723519787 -0.62365146213945266
-0.44358173454290295 0.45688450608777487 0.64447805834380212
-0.64889986813082601 0.34805449464502658 0.50345596288355665
-0.019724883424032669 0.81654040947355355 0.096353822162273062
0.3889925638794125 0.74463596435632695 0.58580271129692596
-0.35663827716061292 0.56129863922180334 0.60407272088761843
-0.087152474953711589 0.70907194301558363 0.46951222235054679
-0.75362711833497542 0.37056738856826854 -0.45369566591921995
0.35840447011092635 -0.32715496757471385 0.8299112935185029
0.80930120977106412 -0.043888354469626023 -0.24459487642621447
0.16148002331748046 0.026331462786771453 0.80864952433918358
0.94501456885348034 -0.089373409756760225 -0.30311244160516537
-0.12093748320528164 -0.27202509801155372 0.53401963430772792
-0.27068106690778393 0.58689653786663598 0.56052277269735917
0.0047165907386386152 0.092003069077968291 0.84501408904919195
0.92932893077130529 0.10467659021583842 -0.36804260394248178
0.1166794924436374 0.17192883070514853 0.76756980445628464
0.28494226728386707 -0.046762650186039423 0.5133978512707611
0.44112829664157971 -0.097184813262479963 -0.6233866494382263
0.020139923863212061 0.82088364312754081 0.37743077536864611
0.92907368623431807 -0.12356414424816009 -0.27786176229774284
-0.72999509489386583 0.54481980011385645 0.1041211631428709
0.01266754595242503 -0.32973474231224387 0.4307888526029866
-1.1912124625117144 -0.032603778062906486 -0.5461990294758543
0.38489847327620907 0.051886822659511722 0.46935212356452771
1.0640063730900948 -0.060817940987092811 -0.36279867429724
0.61850523887697761 0.69670002218667193 -0.0034376335513299772
-0.27877060485448624 0.72691735751795505 0.34807350915827939
-1.0444711147521417 -0.18414290104598052 -0.25359658412227404
-0.098571718376902595 -0.29062280059540768 0.51523164663635601
0.38211805245948938 0.61909336665036818 0.57521990714024884
0.93033978846332843 0.16732848160648928 -0.26562540725108974
-0.89846337008788169 -0.01989196266763571 -0.42223260458159118
0.97707352495318389 -0.17280175727199243 -0.38412741529685235
0.43571677515804197 -0.58926157664841483 0.82595186767029105
-0.052011154865567732 0.037301087213592155 0.78488076624230718
0.12845389188821343 0.13028538089355379 0.82570566688339753
1.213324123573031 0.24718626238007424 -0.34594387349871347
0.22838355199287719 -0.51828589596809671 0.87280590779590672
0.012729010984315892 0.036570460493130952 0.81636952323807943
-0.54494101850951893 -0.087729748791851137 0.10795853378124853
-0.81392944729881833 0.22550275656869445 -0.045683237741929617
-0.64928702530025362 0.059739999930208398 -0.61215414933657186
-0.49984084388678696 0.37687163962157655 0.57242251339891226
0.41194411439674639 0.64796250221706941 0.5740024500730363
-1.0542215535191417 0.065503801324062749 -0.67025845577486365
-1.1004178757533651 -0.093709560512699852 -0.48838568813177119
0.016672145302948138 0.93924299813468792 0.416647844769372
-0.7249798577857689 -0.048494112738495687 -0.14022150834667713
0.27794031551921705 -0.56390599992223045 0.90837242616955471
-0.26174419465499454 0.56080218035766904 0.51000081854024515
-0.89862080974560854 -0.11667709521344705 -0.24054761232466149
-0.81557467827943242 -0.049259141125340022 -0.36323378274944318
-0.83267509160339159 -0.10565395211975215 -0.28152481608688618
0.044390934447875452 0.14716042282849529 0.76991111590681349
-1.1055005942602349 -0.18831241907931684 -0.32487822354567086
0.44332032780691577 0.33352152577509386 0.6248953388394014
0.24803657914415567 0.63290050774324413 0.65547459173173772
-0.076734492878060223 -0.62882292465179823 0.88429955070741306
-0.29021280135799543 0.57985528286612364 0.56146299548431244
0.28899187468853427 -0.067390589669933831 0.73834101276284092
0.13151145337943149 0.93237128735940189 0.46399637758195844
0.17949371106897161 0.017723490212389947 0.79103709305590275
-0.40984727845329871 0.8330901255415597 0.25944488973525637
1.21323703950614 0.024916400941801697 -0.39732099468200666
-0.2788963461999856 0.56149427096826088 0.52858775762445021
-0.15787348016486646 -0.18559748459786718 0.50869634725116608
-0.036264559639917593 0.1795028407928001 0.74813911664743138
-0.84132755101532553 -0.067192368093046184 -0.34937705919548279
0.5775828811090804 0.44563374810513423 0.56673160834915559
0.083737390739756279 -0.06495066494204238 0.83111493995334529
0.088211796563967937 0.84777364869759708 -0.40806219903043583
-0.44141771784106254 0.86252879766481527 0.41697385155746858
0.18386651929723996 0.41569588430970228 0.67043591646661671
-0.83443659375183188 -0.09695858346798758 -0.2899946465768366
-0.14416951204550799 -0.32506284644375683 0.63339982605405165
1.3164037288343167 0.052320622753111223 -0.36194976822952896
0.10422424342057468 -0.41777636021661024 -0.14776464830588631
0.48838973202867919 0.48756243633774332 0.58839886293527854
-1.129269420681851 0.0092865533271719869 -0.63821389701591613
0.14640644605324837 -0.43023841328976786 0.95334611419434312
-0.12773439283215282 -0.043145562450817465 0.73050175369298476
0.27570018564348686 -0.17929485885701268 0.41936663567398047
0.77493918751318347 0.29378617144449848 0.15889575697855474
1.0008442014812147 0.17220578165012412 -0.31324138629088427
0.15120278465188619 0.43822345628864312 0.6614459825846204
-0.40330477695218292 0.67678702067061636 0.47736150256220888
0.28599001571146232 0.85790685906307118 -0.32435063800077124
1.052506839262989 0.22791626669587117 -0.31450563585893931
0.13945050068845433 0.45012803731601636 0.65622286454654688
-1.0221051432015713 0.1897507014406159 -0.68159107316434131
0.763321430190814 -0.15786672997173667 -0.13853367625868884
-0.26239446671598898 0.42998431484814859 -0.82922496742954621
0.38069831497071505 0.33166921271780936 0.648296767336485
0.49080298221596763 0.37008910939318795 0.60569582526276111
-0.062185100816691374 -0.15022650117658998 0.84204101515500707
-0.76141484620461597 0.049589228470537705 -0.052661773588454253
0.17729104866479872 0.54986907080016678 0.68557568673401992
0.10464059217989075 0.16278752341507641 0.80193016164651532
0.90425247247132745 0.12381904332578131 -0.27512471551152107
-0.53815227087898165 0.64671964102840462 0.43959753560646675
-0.32501155845862684 0.60678677512830603 0.53888866060272989
-0.62270826251952371 0.52365983579386466 -0.54828590183327108
-0.81456100557986133 0.31683077279081573 0.12886088563239184
0.030230026273898147 0.89696252562824696 0.54712632868449873
0.32667650973996842 0.46800245437264465 0.69877170779936471
-1.0355548413283202 -0.16758820844410849 -0.4217718920191551
-0.80518630554402648 0.093021882613605555 -0.567581267609647
-0.723390843641738 0.50012169132912732 -0.17750386910285343
-0.54813279522434755 0.65637917156545456 -0.13071836789025326
0.50884281644809448 0.29751690092721006 0.5255192682968084
-0.7379344325924535 -0.0048206157254426785 -0.13207123939594467
1.2383286525414832 0.17508750235263193 -0.39098142331318186
-0.042929724950383275 0.15370206719897084 0.8091762725735574
-0.56228613539948924 0.53598583053746296 -0.6168648674623789
0.25802832335068615 0.4532508251189995 0.7037441831357385
0.080192968729861036 0.39308688335350439 0.55069462242600054
-0.1626755511960738 -0.30843250914778153 0.75926651504920795
-0.59726464111017208 0.3726916615100464 0.47604302078777394
0.66570574044675368 0.62682003446481005 0.53308863836726461
0.17033864681158661 -0.65738287583969957 0.90478973482873815
-0.093018925114009221 0.71900159955270837 0.55126230498581918
-0.037683196106527816 0.7206898360429328 0.58832686585031624
-0.16303495836801574 -0.21846017767434844 0.75692777062898475
-0.26956581917329459 0.75845770263106971 0.40762892701484787
0.10506418860141764 0.17364473160141713 0.77729379822034295
-0.33656331216184299 0.54054393643153276 0.60431179055569828
0.56595777607007847 0.61157146601046009 0.56629981286263664
0.052202469198761037 0.58294961182692973 0.61041440596311602
0.16235534349716829 0.36867778703315324 0.66946815702683704
0.12058531792766303 0.69504620981094334 0.43781512994260297
-0.85175438426216488 0.077992604724045123 -0.44128883329901925
0.36193228209958761 -0.553193516067088 0.88645112806422244
-0.29291066954034761 0.63210668727610653 0.53671454337186475
0.68118856671324579 -0.10765400854418061 -0.10047665029102593
0.61674474960724979 0.2166896740237263 0.50704328561767475
0.68713451756212862 0.55533097305745471 0.34291743924887896
0.048839786532056451 0.5755782231128066 0.53025529672247718
-0.074122101666574736 0.69652401474871439 0.44278872101134681
0.23649078049402306 0.38621856600401117 0.6737834932705935
0.96304683755394649 -0.0062104361921129225 -0.31621752595041031
0.67382741606327556 -0.16091906094550268 -0.13536626576961197
1.2172529892155666 -0.13414288372884187 -0.39401956431396279
0.63673161004091128 0.68084191425749552 0.48307919743768113
0.3675533151953374 0.48954880668354406 0.68088359519863939
1.0091049513599444 0.0048624870926445851 -0.33013343752309687
-0.74833261461930078 0.48183814856319174 -0.23941053284721647
-0.63706114179629481 0.56030458503420988 -0.10155583039764338
-0.55286838463122479 0.55081097654487365 0.51143967971004045
-1.1337396072047881 -0.11730646776739917 -0.47179857821132387
1.2996477918628102 0.089638537847188005 -0.4460790671178767
-0.54692575033197954 0.66767214871102709 -0.40607875400386817
-0.61329072580372213 0.71849588223286531 0.39475284310961101
-0.045713047034681153 0.24066524544698353 0.72325912363676892
0.50637362921827389 0.70952882232183256 0.58327051964818932
0.04005225520104716 -0.67704761199249575 0.81777898677857541
0.15440475919869812 -0.61959904018419465 0.93396271551593979
-0.72198717258254419 0.22754970962307652 0.35672368801409604
0.10131845616436408 -0.023726437213252183 -0.82670288695753236
-0.5528938428832646 0.56969370109336381 0.48652085128118472
0.2264871669130315 -0.70912153498765029 0.82599686360160707
0.25917518648503801 -0.6251268915441841 0.90745539802840813
-0.068272762947245269 0.12649039679352114 0.76924830654396548
0.21561297806526625 -0.14987691566444639 0.83650873963541272
0.31816707920079068 -0.57003953560753473 0.90609808619737908
0.66839679845665501 -0.093060631003069716 -0.054863784697997353
0.35485589063155487 0.60060185299916569 0.61387952688400116
0.75578311879357329 -0.096884669240701271 -0.17517169651227338
0.99335668091616469 0.18415553255826111 -0.30419177845842515
-1.0929076958266393 -0.15943433872767088 -0.46337415971819595
1.246180404813785 0.019698959281370776 -0.39736056231271988
0.3890040515717601 -0.41153981585079435 0.83937249952385251
0.29563105930135691 0.026894910352389445 0.51131571090179828
-0.97783130184171796 -0.030087203057540535 -0.45962953419133612
-0.58267191997038026 0.80769049864770892 0.23996196420132421
1.1317980300989916 0.069989711220536321 -0.35529683972269588
-0.40138273280942371 -0.039128113207869575 0.31336176274573546
0.72693098008984691 -0.15059297946629258 -0.13412031530037183
1.1566259695989203 -0.17345315440165088 -0.3821810759377815
0.33523690425133168 0.37619809523581083 0.6486054954091145
0.056749962710256341 0.029281850690470179 0.83055371144120738
0.042756403828150269 0.67352745522256896 0.58223743909995385
0.18038864677313882 0.25860787439261301 0.71511048649019848
-0.49422299564940886 0.56760258044936052 0.56825794874742996
-0.48800947064694356 0.6409571314371334 0.46884187038983072
-0.49966430655086924 0.55460838156878367 0.57338532322652469
-0.93880046329033462 0.057458041895202427 -0.53518401604340937
1.2630447369554076 0.14805820331287833 -0.37416909992912117
0.45246706592624264 0.089031604829958866 0.50755225884583721
0.19269878800120921 0.35355181292401738 0.67144042663024983
0.5470730159021997 0.72198318387271954 0.48379404314583185
-0.8026245568642878 -0.041836497367519598 -0.36777953484916281
0.17228045803274483 -0.14651885114489716 0.84767164708469422
-0.29877844165689282 0.49200030799782368 0.61322115237910069
0.75884196449619878 0.58763709653388929 -0.068131602041586081
-0.17389663707155023 -0.098349071460628323 0.60563901097746786
-0.61739740765113993 -0.022276933030376256 0.13446180709484779
0.17203364934857746 0.59687712042087426 0.67066003116435891
0.8749114860865177 0.24771714878298567 -0.30075184802120614
-0.27523012467389663 0.50659335273758899 0.57577085318722787
0.89422550195149597 -0.12082453287916195 -0.24885486024950776
0.50919419390275777 -0.1960005568433445 -0.38163231772878903
0.34106770674156905 0.62618653362607191 0.59336928649361376
0.50288076563309403 -0.68194840849844951 0.67659677112329852
-0.44960966584366702 0.74468918436836162 0.44399631481375934
-0.4875249030215798 -0.12397789628788303 -0.56164179238296441
0.44764684292549362 0.54060983666265017 0.57070357916404291
-0.53814012668070177 -0.15781698844774894 -0.023599969610399896
0.094729290034564428 -0.53260473722298585 0.96739505177422491
0.30731524251602593 -0.42956881118162826 0.89957549184423757
-0.67395825822191568 0.17296775939639986 0.31320702087068852
0.20609414012949401 0.64427661413419557 0.64939929258169649
0.83859608911608063 0.26643586068634662 -0.12142453859599556
-0.44436787752825069 0.37461717193720645 0.61890352159196382
-0.45175543220662462 0.60537760582109712 0.55621049988296534
0.58041834647704604 0.29619891882459015 -0.63132756007002477
0.082431506434900825 0.35461039857646881 0.67031207724033237
-0.26358471517309567 0.41884249630302151 0.63654896947448059
0.83951381534349423 -0.12290238827799982 -0.2630474289195277
0.29264755175333335 -0.56956343216226024 0.56205801733952931
0.052655361535926204 0.1408256534812331 0.77427606966447549
0.25998952330957081 -0.20424838799234024 0.84015200976703874
-1.120098170276961 -0.10905666577574635 -0.4852924929330058
0.45779896024143341 -0.72774614685457628 0.6812525262845357
0.14381487924330827 0.43038327333275106 0.66229865674816413
-0.31157367042951023 0.43172464227082585 0.64177308691435542
-0.91944369257132053 0.2163325273922112 -0.61315766053074938
0.13019422902851829 0.079478778902888791 -0.85732259064671723
-0.58763506398105392 0.47259501940138193 -0.65591670050966044
-0.11936087439373466 -0.38165382574025841 -0.48005492684673445
-0.55113591878023271 0.62027575641011623 0.46065203972722912
0.48349433616643012 -0.71262309656155587 0.69401418597244557
-1.1609897388682242 -0.17798539528253343 -0.40488792097307069
-0.45161364995634301 0.31381330388321871 0.61334767920673627
-0.64008161856597212 0.47398562778023035 0.39304136383858079
0.4946444195445423 -0.042777634817362298 0.22376647178800591
0.28438062447868617 -0.51749652565492177 0.8511732340443614
0.20165677802607718 0.091448163017066264 0.7497527025015196
0.034136689612054738 0.19396426697965907 0.72879918447571157
-0.19254336752784695 -0.40576225933470411 -0.20799224760103119
0.44587006890527903 -0.37481954290219122 0.72560001126598639
0.19221163356395721 0.40940434573989037 0.65536192708557195
-0.84666225442742871 -0.10879376317893019 -0.29978830158256287
-0.36955511476216429 0.32353024504667616 0.62511350707496227
-0.41840890055169666 0.29700723989612143 0.62399922148658682
0.72269880338458847 -0.12350786366326716 -0.1373454643038361
-0.016312603348296761 0.15471902541990445 0.82081764660796619
-0.76939921851621307 0.31653996237037063 -0.43250630047041483
-0.63816164571241529 0.50429619299382011 0.43852180638483773
0.23847006592667697 -0.25964631657570436 0.36486967031991524
-0.1751258688097721 0.66973961226422318 0.42980346834463035
0.58489121310492465 0.73772602633649242 -0.074662083949270652
0.43563965676642624 0.41299803084366715 0.61314405805442873
0.22427423677001457 0.38897524595047628 0.65955026162802532
0.10501810884557017 0.74315325963372558 0.25204307443167551
1.1216943981087582 0.11059964184928184 -0.34674123245919652
-0.29975359237081989 0.67800710404983278 0.26085070269682475
-0.59755634250907974 0.49626107131621922 0.47321115092912436
0.076914143632762944 0.63627452900161785 0.59842317500392816
0.71925726173628846 0.27384847855429229 0.32024663531518094
-0.20576154668074764 0.67242017926449194 0.38832317292228247
0.96108460315937805 0.32775096186819752 -0.28247884524049827
0.29824118543777445 0.50515923920698924 0.69900928296263576
0.48670371834107584 -0.60359180907187238 0.76747760310315893
0.3751276706129687 0.577210336832362 0.61845053090244773
1.0792750168540124 0.02773191365680816 -0.3500627159860823
-0.058688841879416032 0.37480480054716026 -0.867080747611638
0.92640320798668085 0.22697432239094795 -0.23124021483543622
0.46131173737437337 -0.68868389407722752 0.76080225859504402
-1.0233746465689819 0.020557203823706516 -0.54228947050553344
-0.43010391117330471 0.60683725796997123 0.55084626136104831
-0.0018426976089642721 -0.5810684089358098 0.69047933081646296
0.79060033605648528 0.28785563821535831 0.10605154362562619
-0.89916406512958247 0.1109936907244844 -0.5146978546470109
-0.59648327667630952 0.76715498577878805 0.38485489343182522
0.12197491568073815 0.89699692364581551 0.38946756721507647
-0.86777273263615484 0.0057699365110721601 -0.43282035767000338
0.18481020873726095 -0.45843051450039241 0.89942511207421649
-0.70314506025505352 0.12140136636491405 0.18936312839436198
-0.45054081442367533 0.25037084263035325 -0.7945108548117723
-0.44320543379166111 -0.20535644950729903 -0.0079654750364941407
-0.39513204203441887 0.62883668851367958 0.50127537955445156
-0.8889998299232218 0.095565224327664566 -0.50226166783921755
-0.71927332511040731 0.6681401452487421 0.22997215929375514
0.45674266052252221 0.32115013864972042 0.61698030080882349
-0.027688882378228641 0.15966244029855403 0.8135597861897379
-0.47927913604763717 0.68697601286586973 0.43911477516218156
-0.84209341940453442 -0.11992123145868305 -0.25753468088223741
-0.63307694798183434 0.47600848858895262 0.45698017753079512
0.46798459568317696 0.19784270720291275 0.58780777430003361
-0.64098055940226573 0.41305729715383421 0.49420124625665096
-0.6093285127941499 0.57459812226341711 0.34170521287117239
0.0135248408537052 -0.26495965011753597 -0.68026219575832414
-0.076280304605617744 -0.63178565670869702 0.80442192728283057
-0.38114414623794346 0.59022924377834585 0.55687025760854247
-0.85316076282236963 0.11116602186754676 -0.44061195594382596
-0.5881252217751296 -0.18031236426982389 -0.24581779848037755
1.21343281050423 0.15860317615609176 -0.38572415951003158
