# XYZ point cloud file
0.16151436426305021 -0.30386737009178588 0.71024107044125706
0.13556528652716374 0.43768711451402503 0.53075431084160385
0.17893235779802369 0.57998623037106967 0.020214181763655803
0.33092502827370557 1.0697827736165986 -0.38204189908852887
-0.059004807475520837 -0.21405722755736789 0.50312266176493359
0.018886934633178531 -0.030620271156573509 0.74123480358025229
0.17633318509368806 0.46810996329141896 0.051263407776151515
-0.20724498938445268 -0.096325717646376541 0.66888791601552433
0.059665310183660891 0.23036960006147034 0.68825368808685927
-0.28998763828083574 0.060185171443103869 0.68521442514849062
0.14217057467506566 -0.20292093140690581 0.45947521957045256
0.15692680121631009 -0.38493547372283421 0.63616093397556894
-0.28097957262546946 0.030645421044957155 0.74377911995370982
-0.12115089062015388 0.52922158279968623 -0.57619006686428875
-0.79975868892974866 -0.7295625713289775 -0.46859439309980155
-0.25564587858587118 0.1251480247377682 0.59560190325372697
-0.079453298562705998 -0.1341574192692504 0.58907108258174934
0.20083091538065517 -0.075303100158535141 0.45247410052269033
-0.26614643063947696 0.1871043217646457 0.69116379056982025
0.26523482919087998 0.78587767730510572 -0.27687320653087311
-0.67501554999088975 -0.55147939879549357 -0.43942764609173446
0.36914582729692813 -0.30786754047368392 0.69252495560440075
0.18583563090616251 0.54830947264093732 -0.14910040127103552
-0.20771770497650099 -0.10721648141390083 0.65236007073170321
-0.15004161200101696 0.2409706739444013 0.54628718358888506
0.15647074325552376 0.60774788917534839 -0.16950337692983675
0.15295050844813185 -0.089718063131030701 0.70257534320656179
0.24834134175318773 0.71260020392878154 -0.24728644141721373
0.17568916992988373 0.4944550297374033 -0.088220310589591566
0.20243403457524059 0.54030268399578985 -0.13941467987219092
0.4464689338733363 -0.29844721635722338 0.66847163698754819
0.22508353772949086 0.91152582574279972 -0.30423720612129274
0.16817019838354857 0.72157132751521935 0.058626902776598905
0.12173174323548835 -0.33669006889190078 0.55506390443859444
0.14336840719351635 0.91529182308623358 -0.22601521537854125
0.46028234030696757 -0.25139007552636916 0.67565005073538198
-0.42836044185002831 -0.050977532293901118 0.50012083821209841
-0.33008458884657566 0.029476449759749279 0.57469975734352374
-0.37756305965177916 0.0081757951593145473 0.65026580769024167
0.10807437191715985 0.022958514536138397 0.68224715863502594
-0.40916152104425918 -0.19401157082478293 0.59266423371629973
0.13892776877303797 0.033154457658651215 0.53388423371722327
-0.11975266583184468 0.2305043376782856 0.69631333218548308
-0.14279970945294057 0.23290319131742321 0.66037661248327506
0.46624152020059478 -0.30113425882956601 0.68122194484992427
-0.031907470333232435 -0.15576280376503926 0.63179214460901345
0.47075164653120649 -0.36894506819007722 0.61365314582783892
0.27166719312737636 0.62594532169515293 -0.19372543054692209
-0.34725008673060076 -0.17305061589097614 0.64142786418179742
0.19549237827952332 -0.025309797326818595 0.64747916129227134
-0.78796009993991323 -0.79760350454723705 -0.38300572820999901
0.29417050897905023 -0.12681245751465275 0.47094222259371016
0.1583773256693865 0.46941113113766864 -0.052822272595450193
-0.38514138503712381 -0.051341339443449652 0.34524580065902066
-0.33450647894379759 -0.33601755280841217 -0.31577775574151434
-0.54023924243806687 -0.43230003641689907 -0.24762757094056687
0.060225318443869746 0.62314263741100806 0.25328437246690727
0.29290413689215206 0.94701241237022282 -0.33880951298855766
-0.28378452084015759 0.11417967650472183 0.49029707725346033
-0.73513663851992617 -0.77400528714454497 -0.17910022330090936
0.35803857157697294 0.99819900337213774 -0.38659554101438998
-0.31887716905827457 0.071982475685638314 0.47119065003837296
0.41214962309030057 0.97121486483370334 -0.36014965736561799
-0.079875877458461697 0.057132863495404806 0.70398058254009988
-0.33535163105886157 0.024635241490300386 0.66369417795394037
-0.021401010534083553 0.26963855827743743 0.66678509358624738
0.18815492636880499 0.567309259312198 0.44207411426474824
0.10504626541827555 -0.11300857385196195 0.37490824938143075
0.27376575190588992 -0.28684588366400887 0.73304381754942949
-0.043294646602646092 0.50286025536522572 0.56075585014905682
0.35615809285138861 -0.26076355505080029 0.71687144038468109
0.036800067053196717 -0.029697137855008937 0.7509322414011772
0.13294854884159985 0.008719946034239423 0.67839553317448509
-0.22972371629279575 0.094502442306385159 0.74503860632887831
-0.5054750626816038 -0.49612257195861031 -0.24055971258663544
-0.57471787966313448 -0.54151145496451003 -0.18188826202539521
-0.010434738701475266 0.36274073000273233 0.64386497031914891
0.041582441254294389 -0.055895484959499475 0.76007640817986255
-0.21626393838209046 -0.1231003309329155 0.69132152285539883
0.065370697109699394 0.90503892937700381 -0.36625902486550893
0.25069463536314224 0.63078741270110306 -0.21452682583894955
-0.68972540368149948 -0.73960946343566358 -0.29479106294417334
0.052109171328647175 0.16768885990549798 0.0072564694065383462
0.41689520641691447 -0.33918327709352736 0.70694204957996309
0.27201676645285061 0.98319075566646552 -0.27635381983603646
0.077485523848304094 0.62414648714685617 -0.3207154155269118
0.10836160899283076 0.027938773426429253 0.68183124694157637
0.044133560788121973 0.42808206621840689 0.60932532831277519
0.3521416451383278 1.0841736406699543 -0.36148067632965747
0.13927544620732168 -0.37841298075279939 0.61245372253683428
0.14715284032295511 0.14906526225059691 0.59304819988117874
-0.20451302563578388 0.21589254215415959 0.71833771625582443
-0.44882742238817963 -0.35349003463496897 -0.39005083458071776
0.1842250673085245 0.49488425074742004 -0.083607740030937017
-0.18420192256944423 0.021621713586303937 0.76408797482110036
0.15914940667220154 0.6176871130369157 -0.15333000957996679
0.091583534513427711 -0.0057848762160713774 0.73437120838712522
0.098164121930318093 0.26528952035343945 0.65978497902399369
0.36246586036460782 -0.29593288047649546 0.71622708069601304
-0.18697149184639839 0.14433880167049296 0.70912878460980044
0.1457572388821467 0.86635811422362374 -0.24838440153504421
0.034025508484607059 -0.24732294818011336 0.48565145229266571
0.20733462386446092 0.77687074709708603 -0.22436058881093712
-0.096178744062551613 0.33895080948635081 0.59831320035864244
0.098098176748473209 0.2309258095646809 0.65296518614175358
0.1481740921367713 0.28192512824861715 0.56165877245922968
-0.75306476906044784 -0.78171012487311775 -0.2349879422270823
-0.13642076560137234 0.27997085112989639 0.5210822932093957
-0.39001382914477656 0.024681700850213595 0.54237373215091922
0.20642608099237092 0.2389447307711311 0.47814150945122147
0.16023117175548732 0.14502902921476601 0.47800229999227489
-0.4693412606459002 -0.16507523344522967 0.42566948355620293
0.081273063781689248 -0.019731703291843483 0.74073322591285273
0.22637175807848572 0.83589788786588881 -0.23633437779206462
0.12312446392102205 0.056653071452071213 0.50929602781454331
0.17849998286340643 0.60748397688237976 0.20273879939226136
-0.011354740139820185 0.3346062641430862 0.65447274175782255
0.18904635361873851 0.51005509929162374 -0.10209034889725066
0.062357137099573801 -0.016010205778684949 0.71099648446300534
0.47459793526544447 -0.2822773006427135 0.50458728944070697
-0.72275182685054007 -0.65401025881727681 -0.43365447980525162
-0.32097359998138475 0.0042797344982690166 0.66840991914121251
0.27029138699679128 0.95306689054657667 -0.36429022911365583
-0.42851193472144045 -0.49433160647681584 0.035512222875777211
-0.65391640296277298 -0.53252618914167149 -0.44948790677446715
0.11947224552573288 0.40507404027370741 0.5492446592733109
0.13512468767505562 0.70198323395970652 0.15457504940831185
-0.54019102310031375 -0.46458620310054211 -0.1112423213686643
0.29431005365874113 -0.11696815624470425 0.66875364332618825
-0.39473084174403961 -0.40085510479637765 -0.29952284636811516
-0.20947166039394816 0.00029747471323537944 0.77055995917475517
0.21493738966332671 0.611349907181028 -0.19267330086797485
-0.0050820083249696335 0.42624461211808778 0.64948935922746975
-0.63104652471547984 -0.6253155096208004 -0.21777935800469583
0.13410346462419259 -0.050590347706505057 0.72761864964492107
-0.013779196600083143 0.51362400324423341 0.52618798223039798
0.28832640225888972 0.66813976170319378 -0.23879640292054338
-0.43672511359609623 -0.12942863797360149 0.3680424484905111
0.03338642603800196 0.31451659263363063 0.67748073315724167
0.28806779485075895 -0.42612496925326726 0.64507128062427466
-0.17053269956126232 0.23324639894356303 0.61010606809315626
0.31855024548406635 -0.23753471665170434 0.71774599719898724
0.38456829655612212 -0.20278223813596297 0.68375061818226091
-0.20549519457996357 -0.038885055556270309 0.72777994889955688
-0.46677654777043731 -0.094010965128750956 0.51085421861945879
0.14582793295340918 0.2943110608226237 0.57053466411516141
0.098947009090538829 0.33021988082024611 0.62909361206537384
0.13596296367892852 0.2429919544477589 0.59820018699004063
-0.046471130980221376 0.2738992313004337 0.61645678515092117
0.068697646828423165 0.56406073875624529 0.3321084918124147
0.1549870666278641 0.38644746082515979 0.46147198907237019
-0.079227513961095508 0.43579653722543565 0.58266263218962999
-0.44456952104262171 -0.42269655910486603 0.20744757127408076
0.061331759905772443 -0.025475720340876529 0.74763138598027368
-0.72008760990421572 -0.6258156116440271 -0.44334494421847226
0.35461774272752777 -0.30334037195996344 0.68706381779549008
0.21500072171228396 0.47136741096388346 -0.13826695998276084
0.37479972707584314 1.0571804846938671 -0.35731516254190909
0.069037562969080868 -0.19376339350939076 0.41660330485906172
0.30653448326881794 0.85998653517631707 -0.31621406396077772
-0.13624127713280632 0.40493040734591768 0.33772145656963587
0.31132232398280874 -0.18580186177664493 0.69834028842690299
-0.42063940215032747 -0.22674289679192816 0.5509417657457536
0.17755612739590038 -0.12032200514419567 0.70786989541059175
0.018297235461197214 0.78903249320125857 -0.46273783734676716
-0.21908125856775995 -0.048345611325842808 0.72503450252970469
-0.73124499928106823 -0.77585355804150113 -0.26646486928355095
0.51888978541244202 -0.24782591385005781 0.52027064398703315
0.40585385384029293 1.074678503828963 -0.37767837649251806
0.37643194391619661 0.83762886254445124 -0.38922558797931844
0.27046685559155531 -0.42584744331223823 0.62937020044142755
-0.019016749877956374 0.27077821450527306 0.66230185125188556
-0.54564071265742509 -0.46284378294978723 -0.12477205890891474
-0.67310198537024435 -0.55726189243890323 -0.40445816990915673
0.42781489584205412 1.0489206910709457 -0.44670550423755107
0.12351232754025543 -0.27868343041856714 0.50869852626911993
-0.25765642168599223 0.23869024820142459 0.69477108188151315
0.016804811710133871 0.37726308501593103 0.63222364040327739
0.0049146778342896713 0.21264996653283241 0.65759626531691628
0.27418038407996043 0.75056784696973255 -0.27968929605794979
0.1746666413283901 0.67408270945387838 -0.18621684592567095
-0.54941918341980878 -0.51543069406720965 -0.1346010849719812
0.15700689601544732 -0.026238045714069957 0.68548372259200496
-0.54481948795147817 -0.54945072592670319 -0.12344460855616646
0.3494718457504285 -0.27229125640008689 0.70715390062856853
-0.25009188481949485 0.08791590740573596 0.7339892457918088
-0.3050604398923229 -0.074801105724590422 0.68307309112399672
-0.75619444227969823 -0.79616460435900116 -0.29573368246739906
-0.1057285576707433 0.2785662812907243 0.67487984175277371
0.33546572198166325 -0.27234441992344183 0.72548553016527506
0.39215721933704822 -0.3991355086271865 0.65962973931052293
0.071584789044918051 0.36885784887925666 -0.16399190536887948
-0.098425143633093182 0.22867806137457525 0.71320200307024062
-0.23254705657427444 0.22470262123821583 0.70841498959290172
-0.21765121539542998 -0.020180233077980003 0.75104544845407539
0.41306286281730986 -0.22043260203414272 0.48084753626792359
-0.36059808251924375 -0.027346380303193918 0.65250016660756893
0.27904682770296207 0.92262738242259545 -0.32508774920659023
0.29186746900703642 -0.3963055725591067 0.70561673974023265
0.16913777137674019 0.65246261364544833 -0.18819238935523913
0.068131544489687612 -0.075606659062605552 0.74659391595893443
0.37892538450496666 -0.33474936275137501 0.71993107956223457
0.078561573835614185 0.20922470811380656 0.65409324367801203
0.036667715072610629 -0.058619672316846727 0.75760198115844923
0.4735895910764012 -0.22335571589030967 0.50104590451863495
-0.072278480658744648 -0.11786325535729691 0.63402949219626747
0.31608503365049823 -0.32603051962927365 0.52265869163167999
-0.068078984808306486 0.39735591238156043 0.69293966537955876
0.2120179795942323 0.50336160815634612 0.43157511962881334
0.23080644667253858 0.73038578697186018 -0.2413458865424537
-0.16091486813083922 0.076970382763884793 0.71402658032041832
0.099677479129803237 0.35510390736256148 -0.10553711286724737
-0.35238988315770947 -0.18970601702385104 0.62621083383437304
-0.53704439227308776 -0.5801285583216953 0.059455126874842057
-0.12855992062761817 0.24297406258999876 0.57000229835392435
0.25499746357874198 0.60340015432078742 -0.17437766798193227
0.043168625744815226 0.52659403504574165 0.53084439008977102
0.020703257264677088 -0.055658976413001437 0.74040105065937489
-0.13377087364930718 0.18827329441675833 0.72102046229896921
-0.24590528394911781 0.0052015317567830621 0.76675539343206356
-0.14659837234542472 -0.0085916112295056912 0.7269832250305106
-0.30295789076723689 -0.41384115960471868 -0.071994655304537358
0.15057911960822912 0.87600833830906444 -0.12650803373711578
-0.59412207226892511 -0.50430267628764747 -0.22265107504013204
0.47888144151611745 -0.24164929774438559 0.65682321958243062
0.51951361564498455 -0.32597307849826973 0.63292866787964841
-0.53924390630275687 -0.47150737956159028 -0.26872497657252237
-0.71267072436345835 -0.7255053833787718 -0.39293124259613788
-0.0054535789596537043 0.80949204431384525 -0.36815166513247005
0.21772854276356274 0.53628110533054696 0.37117302221590875
-0.07662425035828363 0.36192215088410418 0.54924683632369331
0.30623078939478421 0.70473529088110076 -0.26843725624301695
-0.42365742277580232 -0.25363770979426503 0.47953934113520524
0.054784331329455427 0.33243641922830658 0.66066206599954191
-0.81874359840616695 -0.81795188569378796 -0.32779369867684072
-0.3387204673005032 -0.1082256011584336 0.67081506499671728
-0.08454963697418888 0.29130433321021837 0.70831231709895359
-0.14395949790031864 0.016988826633248744 0.7106832722875096
0.19741804563471849 0.54705222472228088 0.20625749970235807
0.486213553846428 -0.26358528197155529 0.66598725054159591
0.29055213692121901 0.99227372297340533 -0.28546008532296158
0.084834306882698662 0.45481741689804539 0.58340947174540547
0.50606170732401246 -0.33621788060057656 0.64295362163998915
0.42508475780887039 -0.25409309780662637 0.65265778399613494
0.17413330977788793 0.6326839296640645 0.1648673796322854
-0.23257146999896505 -0.36840588110800987 0.15503574929771047
-0.48498862853980573 -0.55443324826466089 0.078244580316490397
-0.060213374000658071 0.29018303969666659 0.68795854113735389
0.00018462585419931621 0.3652202446299489 0.64002727040189877
0.12265526381475522 0.91151700359769472 -0.15369208260976991
-0.39982346674653713 -0.077880025652910079 0.63253017540255452
-0.38653962775294726 0.011317848552121146 0.65035912565714726
0.11995719633734964 0.30480490409015037 0.6111348569492645
-0.66904726677096749 -0.61772119377999657 -0.36538643676559635
-0.28599509932330858 -0.0024153218105464891 0.74126639147368578
-0.034750817435930725 0.29949736660215931 0.62384027125142349
-0.78446606811567388 -0.79956955426903098 -0.27021254517167137
0.068303359503806893 0.3027815867752206 0.66806619520839061
0.42459157151492033 -0.17932437300404547 0.49802980895857596
-0.34117252400984477 -0.075092916179586466 0.67549505756935446
0.35660822163283029 -0.087067270183828871 0.56160010482260858
-0.41220090951171706 -0.07616474822359165 0.41245605084159692
0.11286471520217822 -0.027366087968289543 0.73888256622102033
0.10325488426325563 0.24316923270069934 0.658930547168598
-0.33078650660833853 -0.41560621484709748 0.08209366322448447
-0.45966812011472558 -0.45732016393915986 0.13289457983678848
-0.1905284942787554 0.11792401273134601 0.71034857820520236
-0.4274672104376871 -0.021390143365311309 0.60103311911270474
0.42744637238769778 -0.35403840404019449 0.55933255946993599
0.0702284953547615 0.27094132394360437 -0.059466908562061216
-0.61778014215694577 -0.58105177563903176 -0.24534153226252209
-0.02821125422253612 0.36146494503371862 0.57190461165852113
-0.34557465896706319 0.026749613428364016 0.6541633340993005
0.29009728427668535 -0.044761551876536743 0.56309066537629593
0.20761745838382642 0.42658835626708058 0.46079275407629061
0.31515239798117239 0.95192700264336638 -0.35460082352263605
0.19776774573300884 -0.006306415680491062 0.5000260761268529
0.34377476305564303 -0.27996358082687456 0.72469488365475077
0.29235301730533753 -0.15914534862659602 0.69256391583320809
-0.52216863287596649 -0.37895587551635457 -0.10573624070113996
-0.56603110325063377 -0.522786200503217 -0.16586672170175609
-0.21381948871873324 -0.21418192657117185 0.51375874212549699
-0.36484939820540951 0.037395026513594609 0.020692776045021732
-0.2590217637268496 0.12835905312885887 0.68501708833067398
0.13863424109154415 0.34721961249267652 0.54702588849498957
0.25002474353372012 -0.40550865890300192 0.59435966131977003
0.12186384889421281 0.7034797682420213 0.15723073371105079
-0.67557585640618323 -0.57603254677655968 -0.38877492103977684
0.11349099535224699 0.51967786055875531 -0.21744635969505394
0.1259652158402112 0.074559843492244648 0.48757871049268103
-0.3321182069103783 -0.040461525515704921 0.65888337528075347
-0.32438218521758655 -0.092081565726751191 0.68362239021835136
0.18526231503199245 0.53860030867406716 -0.14578590701528171
0.1696301169360438 -0.045828624940356777 0.44207360933832718
0.3105004978665093 0.9678721173517969 -0.35616958125921661
0.0084971027138383004 -0.048197311149595023 0.7262406155342036
0.14232653331945461 -0.081342933870194201 0.70365326964815256
0.47111994474235486 -0.28841429564679222 0.67741103066112163
-0.077465715599212503 0.041713877614700468 0.71039274902949978
-0.045954355348223341 0.42090550630282425 0.45019502001869965
-0.77171211180161958 -0.73763410824809195 -0.42798620188741399
-0.28109343910525053 -0.14479626408273361 0.67591617753938782
-0.69020685499013645 -0.70849267155494688 -0.25617060170115502
0.13171907876496819 0.42873886217726881 0.53633585122257599
0.016341517856331866 -0.16795899533191105 0.68063869954614131
-0.18020708408272523 0.017164633220874692 0.75271526793330878
0.34341880014387921 -0.39895238394999777 0.69531838262706847
-0.49662771810189654 -0.34065448482330185 -0.33088190857257893
-0.10023130465716429 0.2514819854061654 0.70570200914283743
-0.57540335885050198 -0.61570582916362915 -0.016589248236264342
0.093879854188072986 -0.13928973449433513 0.71993803077713325
-0.68715607314436378 -0.64071879001277421 -0.38417593095677605
-0.11640481488923626 0.016455170707041722 -0.28027648716289022
0.29484898630160722 -0.37237704389963644 0.56065188669147537
0.13788228573400202 0.3884030757586453 0.50202783622584579
0.3441689206192704 -0.2824833741749444 0.7118213688968521
-0.028128751335915358 0.26711317477477914 0.67335716568562887
-0.29206591370968493 0.003594575538636291 0.7330814256271907
0.10524581068291727 0.24146363520153402 0.65507263275662586
-0.28894304453754616 -0.079247979535026936 0.6914147321952403
-0.46859422349444424 -0.13399424071601262 0.45595691813987266
0.19193057961249979 0.57088334526487183 0.21944873832293701
-0.36258020867861562 -0.42724222397855782 -0.19500739490659663
0.006362799556884069 0.39968403282631898 0.56671566141308749
0.056394326874657286 -0.19431390746179011 0.39815432772100551
-0.50135578267672232 -0.28838934825166751 -0.014337306869643629
-0.15741508688836625 0.13034035110667719 0.71195966735508431
0.11003475764018955 -0.34306091302801134 0.56769137312801721
0.15481942816968977 0.83199098316577247 -0.17232681771994002
0.029052110666078157 0.30795658423196692 -0.18645858672273014
0.33172160344295443 0.94910628131297337 -0.35997452759608933
0.41869249015369892 -0.25106285814729246 0.65422786551948464
0.36488978360171254 -0.37600120065442555 0.70846134298337216
0.14581355982352351 0.3691343966084224 0.017557421232625881
0.079227795976646698 -0.078722171489297055 0.73805070104391091
0.12960613158289147 0.12372960543948752 0.34898640417916993
0.054109167070245212 0.86754778819568334 -0.4082000401220367
0.093011419263119344 0.25407349522229228 0.66665002749469982
-0.0424683203254555 0.72987120559947416 -0.23117569832616025
0.14461400815755626 0.36388602775585166 0.5436059614158717
-0.33786444828596529 -0.02077298407906647 0.65481909626415258
-0.162741319757154 0.43211288778738133 0.17162354033395488
0.13558107346540099 0.41589571510191897 0.53818439535274054
0.12637920109298817 0.053848687913117477 0.49348829776053454
0.12201793359268925 0.014707238690756186 0.68378615388884589
0.37564606210139473 0.97696022888030354 -0.39037175418394565
-0.62784746567760252 -0.53775174845588536 -0.29959064610929942
0.1127091413154746 -0.15083100351908829 0.41405087278843217
0.50907992351781195 -0.22147798266460428 0.61205596089862269
0.21356922763111358 -0.20422349059197464 0.47156108211416692
-0.37456676312491666 -0.078235020098601504 0.64933207933268067
-0.70870002774519336 -0.64796554746905743 -0.51241855396446878
0.29966473179196029 -0.28152097442343993 0.73140254799659266
-0.36974870371758439 -0.063364039404198214 0.65170374904064043
-0.52534395328288708 -0.48774351186512266 -0.25645903250434599
0.38521501883546971 -0.31158658971374553 0.69469547212651328
-0.39235278373002425 -0.037345474570147141 0.63618832332898911
-0.77641834967582091 -0.75136705434125417 -0.44146181811473284
0.35997746418012921 -0.26293582375094404 0.71507137109466523
-0.47018734812822649 -0.4765118108065437 0.082677830087415805
0.087477380096024848 0.58161410223257159 0.30932560947045795
-0.096584548052278674 0.41753440857015128 0.39750251910681295
0.32755929094895087 0.98666866744389381 -0.36630513362954048
0.23941567643120207 -0.017248454668940205 0.56425985513519739
-0.18284302530129865 0.073420536330848218 0.74066734191682271
0.14099301576904011 0.30000717321671855 0.57202086574851807
0.03866310301105047 0.30585716013913544 0.6799549947347614
0.26785471132947969 0.85122804741930047 -0.2916500245940733
0.020294431887558861 0.36913084697280457 0.63520190611019034
-0.45786413240820134 -0.48185287587750314 0.10220969230888488
0.15962607686305719 -0.32568879833926412 0.53672447573952797
-0.15141759510047381 -0.07729123190469378 0.71554625738148681
0.3992389440939822 -0.26001257300114045 0.66446125924517963
-0.10319953906171608 -0.15300042198070074 0.56850493556238724
-0.30133124324971583 -0.10765392384676065 0.6578044866406576
-0.7013500289807304 -0.74510576069260392 -0.16206904023353053
-0.086422567946695839 -0.14866664620512471 -0.044462310289047069
-0.68277170346832583 -0.64091096097734546 -0.35662345097405146
0.43044258227746302 -0.2908481540912301 0.65885145996547134
-0.00023116703584008524 0.29273589061060223 0.66549119477082253
-0.10747095077086577 0.27242467085218802 -0.44543356692978536
0.13326904512314669 0.22368584597857011 0.60309726700124111
0.0067858737849760264 -0.097679457845542439 0.70555066455474524
-0.55345862547505686 -0.63539986822504912 0.015430663527136845
0.034558895027087089 -0.041429488896517097 0.75658156962262724
-0.26972131680596501 0.090208307637336449 0.69151198668077751
-0.37795570789080746 -0.047300006492519309 0.64043842411343244
0.18198257471899681 0.54143006248068182 -0.13635539895529597
-0.13434527186068745 -0.15157704213269774 0.60093006739368726
-0.51293808789509754 -0.33662230572342744 -0.063741252463632825
-0.53736783392651832 -0.41450577602610461 -0.15559835429856617
-0.19963397223095436 0.11773943659728159 0.70573086810508823
0.0093445849696964234 0.20367822971600347 0.66290756837076414
0.18911243616619205 0.67477547585696818 -0.2084598677405517
0.1872866152288199 0.55449535966369745 0.4614657586657378
-0.34969822221718838 -0.11786490373463465 0.6631382680426281
-0.74092988367865054 -0.78244242485558146 -0.17956138558763562
-0.28333548377183748 0.14169503234512515 0.6799602885391548
0.096999866551161384 0.32642077691209992 0.63459460794398903
0.11471408751752876 -0.33313810185251636 0.65320107490732826
0.14345840578374436 0.0012500247341834525 0.68918259772242529
-0.328895210341691 0.0077037686805737637 0.66687688964663694
0.07265806256264723 0.35686901498387502 0.62178696825156909
-0.58118643958322425 -0.65349764374913111 -0.11731740680699315
0.10055983537010177 0.3353129303889627 0.61832294255371001
-0.19953132313370259 -0.044815299819587318 0.73275140523348681
0.12681319332414082 0.24884411141020912 0.59420451153651954
-0.3248273072046417 0.026114872160151625 0.6777670705301877
-0.50192743422888531 -0.44616113246014599 0.022627704509881996
0.12970188564463669 0.16599137548487308 0.6091715539964786
0.1257287614006326 0.40043283640683847 0.5459419813040598
-0.57239700086694367 -0.44904677202642573 -0.20490730525909207
0.13962441787533628 0.33100879596787691 0.55291814160604424
0.13751229567563883 0.42261470756369945 -0.13548982824360356
0.087358606755392809 0.54226405100013797 0.47365942146699325
0.044031795713970534 -0.26979762492237669 0.64099972751382728
-0.38485999048635566 -0.036580633133063922 -0.40558515638821468
-0.84143981044603122 -0.82861800446688816 -0.4973770616577543
0.34273060932820087 1.0083971893316834 -0.35582086831235105
0.14716528449454169 -0.0079937037347329598 0.7179695270606643
-0.30762915999801421 -0.12176537945962118 0.63941974223144249
0.089704071115799811 -0.041916317978446416 0.74940039502912603
-0.77059301488604059 -0.80016026570479915 -0.22786316624205716
0.4095157661223357 -0.32903987307731319 0.53364718673596689
-0.3178443892211309 -0.065491666961807971 0.67687830526240844
0.2712352363987296 -0.13185897197805618 0.68683709765889955
-0.32062134224097283 -0.068225433822854176 0.67962390625876212
-0.20732867873363769 0.094961294527376339 0.73270603896274955
-0.32680460672769007 -0.074663045724740695 0.6829116034113899
0.14004809082317909 0.12042141061516742 0.46206426100967174
0.038776449696947157 0.52120521004735854 0.48571424115704287
0.21096167394670118 0.54925822378536271 0.40694938834636107
0.21193594039897634 0.52128830147805438 0.32100154846053264
-0.11160225876425051 0.26492539074903465 0.60867863827930591
-0.25691507702742722 -0.19196230222668409 0.62452812656616707
-0.18314046231153369 -0.095019374587421379 0.7074846628383018
-0.35403601134748164 -0.061994651233913456 0.66531524575420398
0.15300195570689101 0.36916128222724132 0.53952993771751223
-0.76195535214269738 -0.7232868181828519 -0.4462563833798413
0.078496880215716602 0.2202065994771869 0.67118007155549841
0.20323681407574468 -0.28239070900347851 0.72752252164582576
0.16103609255116005 0.58897405492946064 -0.16626416922701193
-0.21743518660483263 0.13989029752327808 0.63294220017096259
0.32530158735272552 0.99134432059747812 -0.34996047159099719
0.36274665304707476 0.81894401973010811 -0.31729648453127923
-0.016603073062617379 -0.1189306964244472 0.67208721911915159
-0.028194791362486815 0.34852137488503798 0.65553818949546638
-0.29386492708248768 0.12510606269457725 0.67683766797515177
-0.31076668170695865 0.068489810658533101 0.6710619884913871
-0.55314310501261965 -0.52295936403196464 -0.1454315981658113
0.29340327070603794 0.60968863002563356 -0.25338024225320205
-0.36554008477172562 -0.30510733354007546 -0.38134721246722247
-0.47774640619325326 -0.20419549225302402 0.47651613807024734
-0.61873265785664278 -0.50943141162846739 -0.28811879508352323
-0.69707431998543412 -0.64592349254957593 -0.41820065765229153
-0.12484760174144793 0.23995637465845332 0.65827177535340375
0.0655860130607408 0.20614451050010052 0.66081575630815426
-0.37654260104415493 -0.39842528922719844 -0.28485503962616404
0.1718953855509282 0.57822797286435978 -0.2124247035575394
0.53853462547875264 -0.26231275578782998 0.61177450155566881
0.04100085250629143 0.51113812660962177 0.57863036254930567
-0.40088262946331366 -0.42213586848019169 -0.2651680199846792
0.46945591924496227 -0.26193488429778944 0.67526315352346189
-0.036044903344235713 0.49009594234271248 0.52591815653910912
0.0062283636445200075 0.35215384489260443 0.62549083305218922
-0.13186273036619361 0.10800061789149695 0.71113146171184238
0.13570098259698721 0.033298275718771309 0.60794609373382846
-0.32507190495901195 0.047326945812656507 0.66495081660777233
0.40788581163969995 -0.24413110048646758 0.67157235887429823
0.15431435273878197 -0.020338873477079633 0.70775524724042149
-0.2372697379364721 0.22912336830532132 -0.58096999758942602
-0.1939701224366403 0.08072743014579653 0.75501581185795752
-0.5290335957180432 -0.41968702297083638 -0.081353650858454918
-0.56557392650301141 -0.52833401367056709 -0.25904643224091972
-0.52782559455705513 -0.56612398059942626 0.051546832775613838
0.32838384990554403 0.91162121531950469 -0.34299982170157717
0.15557521190826842 0.60283235810998725 -0.15976918765829989
-0.13782576994621765 -0.011673559695646873 0.68456903622519594
-0.028559451451009743 0.38891563621834746 0.65893575888544742
-0.46797309920821339 -0.21808398219714276 0.30680172595383048
0.076694192808534845 0.39347189699228668 0.58870550792914766
0.21231649403933864 -0.14479319560430404 0.45843775183432661
-0.39281240781632498 -0.017274055007448275 0.6425535158210014
0.084968001410279215 -0.32924389523548003 0.57838682717836232
0.23376341989631977 0.91766917025860417 -0.23160645864126458
0.16103900392388101 0.60418856450798764 -0.18038259922447364
-0.46171888433044572 -0.52868501820623526 0.08066833840314247
0.33280442123167897 0.79251363026590493 -0.33634580320759772
0.162340119904544 0.27466182470829692 0.55841619290365896
0.19957171239686747 0.79509157723833412 -0.1736750766951155
-0.20847617844321376 0.27597185173817562 0.61474248823907751
-0.54036540362661289 -0.54075977901555261 -0.12401654202577927
-0.3812130448227925 0.046804145254071172 0.63983486608983831
0.020638880586079711 0.18800755384713064 0.66991789763217868
0.13721059643592876 0.0092862803673726679 0.70058547996333609
0.17111072203613631 0.65901560528278225 -0.240702131981467
-0.081568940652916866 0.65277490417093831 -0.24685675360458742
-0.0061196359586203064 -0.13759470725362344 0.67172642988631615
0.22969418760125468 0.86110732887327823 -0.21842291454283522
0.25854041811973683 -0.40210699417793716 0.69685491751774697
-0.088073864769005139 -0.11163195807501258 0.65741043550101819
-0.47448543141075517 -0.4783125898643128 0.069066686737466854
0.53139837583009375 -0.24929338941229395 0.61102528955786739
-0.15578940290719395 0.10187560503217019 0.71883903867878229
-0.44912633186113349 -0.44911841510449391 0.15942564997908382
-0.42214469807334409 -0.24456094263575268 0.50786490409979956
0.43994176174540556 -0.26366626698314233 0.65702633386906051
0.23997083348623338 0.68979486126663891 -0.23377784098458909
0.0032153135972607383 0.41019342786411289 0.54745280537877306
-0.23121604204479063 0.0020338314011802971 0.77022794812205486
0.11698863109755142 0.21718611876534766 0.61796212196311684
-0.15433410019509719 0.21812638768009074 0.71485367251385556
-0.59066862824098465 -0.45625123250350341 -0.28385960477003447
-0.38459008106392345 -0.44213447628392888 -0.14764423214198347
-0.25482421250027432 0.0041486565552603105 0.7632064600503814
-0.23088726644390078 0.085830120603356153 0.75434436059763699
-0.10032709844499621 0.29242364331185 0.56023055770404562
-0.78518235260262426 -0.78709315535700641 -0.36366989906208713
-0.11536857337923623 0.22095728069117138 0.70955724401782094
-0.34979978931733802 -0.063287814640686113 0.61716330505409156
0.15917784047754896 -0.37220789150882616 0.65810243750636932
-0.63738424015113448 -0.6494403156806422 -0.19825624715596624
-0.15501273875580768 -0.26848000988703569 -0.04313017103834077
0.17445916104145831 0.80966524576649224 -0.25457591392788997
0.18327321815786324 0.62370318761049348 0.13619315695483278
0.2079923322708872 0.81757445686888408 -0.18340504433723437
0.15517811346201377 -0.034269772559748612 0.69389501526742525
0.12879696081609837 0.048845296223042456 0.53559764698970369
-0.33532050546109093 0.057789353035819779 0.66254585560164259
0.40902449442333283 -0.26386195288160952 0.49187881555837276
0.14281899286725364 0.36487778738139987 -0.0040960248435663038
0.16247502687711252 0.29285638332329234 0.50525488268740915
0.30993211497445616 -0.19549868662271042 0.47292309910980224
0.15691849534270189 0.61229361525459902 0.25528642810750468
-0.5156415825451921 -0.46170320449203772 -0.04476113715619312
-0.28773973379769402 0.072600054481713139 0.69238667753333505
-0.25600357883266722 0.26959226691666333 0.66288760524534873
0.47265475781227972 -0.35537734161676404 0.66275429267347064
-0.18662897508656096 0.072809082371049438 0.7530978364457761
-0.23531282857706304 0.12801111188196057 0.70097395744464253
-0.78194698793190998 -0.78099729462804979 -0.4013949857352519
-0.21951881323379763 -0.0061462801910215914 0.76885738845043439
0.22402394954122959 0.59812065761800581 -0.18214351644091109
-0.75019376562531426 -0.78798851842829343 -0.29729411975600073
0.011147360427240627 0.18481566662000737 0.67318241016790603
0.033198438700613231 0.26236214869695507 0.69284849055992237
0.099578416058791197 0.16804885506868106 0.55806524872993291
-0.75988548242032894 -0.73147066512365588 -0.44544602953909929
0.29452989738294427 0.94472186181243778 -0.34237616487696498
0.22062800934414592 -0.093484750158633556 0.45755736988223039
0.3881515683347837 -0.31679587645942153 0.71927463779992817
-0.0084097197479017782 0.29420862922223923 0.65767475230649852
-0.52370490337920894 -0.45663221716107072 -0.065499951033080039
0.15970882051107693 0.41209624096402997 0.024565105856717895
0.040212464172544093 -0.19781913726506262 0.37080333864825904
-0.13653054987172408 0.23147440503526018 0.59113860994536549
-0.25281537271787469 0.21109976256926899 0.52624561177335227
0.043210194982020667 0.24683100577462147 0.69271348905685504
0.058913244783636576 -0.21342946230223636 0.43619655085552389
0.054184860177217908 -0.009457275272170107 0.70373454947704295
0.42129490571285955 -0.33058095656767161 0.70731613470623045
0.36284089143594528 -0.39564776875165042 0.69084988147816206
-0.61863033234052167 -0.66662480799280532 -0.20856404059739486
0.31634374205982513 -0.14549084793374789 0.67702216748866728
-0.62296260446196072 -0.62173996203652471 -0.20174991102691497
0.21341589249356197 0.54584446711116108 -0.12965103167689757
-0.018220399782948649 0.19202205510095272 0.67701887074032574
0.16980394104963867 0.68599130515571616 -0.13698559513714714
-0.00092465896403942649 -0.033208523948529911 0.72761779881662458
0.11314415157665375 0.93865357091094526 -0.26216310503075002
0.25038877436923046 0.74316138556977329 -0.25702248310085379
0.17004921539385592 -0.22790169806584537 0.72729144214669939
0.15596947131824759 0.38448907318309 0.042985130287954476
-0.25362717188694461 0.10462006148769643 0.67835585577033375
0.21987499752388512 0.65610672673664772 -0.21308043673343902
-0.013262434897396091 0.0063119508174760419 0.71541457793746144
-0.041183094436705259 0.12290061880672332 0.68496489777286029
0.36844114020357455 -0.29696940022192864 0.67783137007184446
-0.01561127852269345 0.32501908484545605 0.65817192141961334
-0.14625397880543145 -0.10661304179873698 0.69248980395552129
-0.21605456238709381 -0.31815466266460124 -0.10859555255330178
0.0041222065802746788 0.20942988847795496 0.6633892662221158
0.065622344800310206 0.53169400993542359 0.51486518300761808
0.37312445239541681 0.89701777197471322 -0.3616421826882481
-0.012677545135182822 -0.21704700239413688 0.27141112533826345
-0.25150734760564863 0.092851461090663556 0.70851737427688621
0.057868487779946354 -0.030647271648689633 0.75196376834784351
-0.73270818453267661 -0.71829545366743586 -0.35650149215709825
-0.51337184737740704 -0.54967845868846954 0.051276452825533558
0.18384549330979061 0.46350602424307041 -0.14557329995941926
-0.33302817637156934 -0.23663926063446206 0.53550299223275188
-0.23566024170690392 -0.2011886586713163 0.56998916772666086
0.033116839807104892 0.17122314585726717 0.66655593998850915
-0.31607980100080024 -0.3122780942794452 0.37684229055828478
-0.50294440867166634 -0.32338103067296764 0.12224642149820747
-0.3162153847680016 0.024732990681803568 0.67204061470572818
-0.25599854931703336 0.10693615036728854 0.69425016638132231
-0.11295536439649634 -0.10732324277630134 0.67857940191054755
0.12469925934098111 0.93577364775549954 -0.25313615459074407
-0.35960827197941625 -0.093279970984099791 0.66137264708227095
-0.32767250096828782 0.15331051375264926 0.63756938135628016
0.090262091504417441 0.017775538407772573 0.71518391932366843
-0.54670371620138802 -0.58913858582464895 -0.050314357898182893
-0.80812456791794529 -0.80709594139835628 -0.31785100726689097
0.40035834474351301 -0.24985802864414308 0.67582765741965845
0.059219203976497159 0.30856524453860101 0.67053777371701062
-0.23079200181336401 -0.08947309754509436 0.70945606043613452
-0.0032649054250389886 0.37047513895884282 0.63891125091433798
-0.54974265078044038 -0.42778748118218812 -0.24018696819786867
0.17327593086140158 -0.02443817510655566 0.45889504957830418
-0.451418427854967 -0.35251061367130643 0.29132864989251239
-0.1430904703526194 0.010666352875205676 0.72977121306057613
0.16277980444824419 -0.054622917961865469 0.68866463242610909
0.2243634409365278 0.57477427890766541 -0.16072225294353099
-0.69697289680392316 -0.59472291697710655 -0.42347985721484749
-0.016484685542907052 0.24974017853035302 0.66452726063010537
-0.56687729349481863 -0.61306926327890809 -0.078301559148669875
0.46209417104086059 -0.30580225849010656 0.68370783559768744
-0.65128734634053298 -0.52421417714962115 -0.42286251065205949
-0.057032814074999272 0.35424909116386116 0.68597134852967157
0.14134392619122241 0.73079229246777822 -0.26604123885596326
-0.55826231611325061 -0.55822286156287693 -0.14262961826486131
-0.34811500141064411 0.074117210073144535 0.66606140520475088
0.063320574102564697 0.43574726732034941 0.59437480515020324
-0.42097332632151374 -0.13647645060377678 -0.41664086224582209
0.47532576757537853 -0.33204434458888699 0.54926159631616422
-0.13219087966903781 0.081057906589376838 0.71531470367746475
-0.070198630708996179 0.48088290031666081 -0.50876348391816517
0.12070786829478225 -0.12260185023769232 0.71768743863718543
-0.11278098021120297 -0.14428365344917371 0.58379828670702327
0.11032179690996965 0.91263598885418706 -0.15837402474956624
-0.53973753455316731 -0.57722969795275503 0.031466363048180901
-0.10251616052670909 -0.22146179022556989 0.47184794869690838
-0.033145422211356357 0.19367825095160929 0.68016859098245219
-0.050552967153697392 -0.16386603140103362 0.59241040377443244
0.20223811147615728 0.54602907306575188 -0.14912016004517603
-0.27464397733399515 -0.017709384844841414 0.74491720526656735
0.12932994939266867 -0.027817447600929412 0.73203462457654533
-0.031172401211461254 0.25285628202787103 0.67614056978732195
-0.0055711224248300995 0.22329575966035853 0.66439002386280355
0.27067642147517568 0.71285192345538739 -0.26851382120495926
0.16215735819716121 0.42517715328304889 0.51261084574665661
0.072680357465966072 0.1865517222919667 0.65145265907597005
0.12317743943962794 0.66340795576154299 0.20147311255073769
0.28910271342289323 0.66124954109405187 -0.22716777457895854
-0.38319836250875949 -0.00015951648301804067 -0.061457853328731771
0.038705606452836272 0.59883830002082628 0.28294188790704428
-0.34066236245060022 -0.038944611075451885 0.65570680691758476
0.38674813054371981 0.97645834586544999 -0.35841602820820084
0.18541603905622422 -0.28457138365097179 0.50081716547194421
0.12985052378843687 0.24697475711172212 0.59634223803680853
0.026762147243047096 0.32342797939444951 0.67144641985882414
0.15143209495005933 -0.16446570745128541 0.72338640826772627
0.19887224846251117 -0.40286433299053936 0.66209516464429496
-0.60161802489850225 -0.69068660868292031 -0.057359971216247641
0.17942200223224231 0.17540602859474275 0.4751121245861506
-0.034017904261724075 0.43182345938439304 0.50917364016450917
-0.058596382422769266 0.42311498698812544 -0.44932215602780012
-0.65499812905629584 -0.70551920861467565 -0.12565322550629626
-0.17933304701835207 -0.013100880390459757 0.7312392024283707
-0.51990583652003863 -0.40802871785069028 -0.0083290196358570823
-0.26535033878429548 0.23611763337914549 0.538279316842039
-0.27651748221818329 0.20793764916580915 0.52624230476687195
0.18408287357349551 0.53854005729598287 0.47896620140597723
-0.17893572510068517 0.042855059066081891 0.76083451660782053
0.0034125457302500162 0.14092192908089707 0.67282431432561507
-0.27481268948329141 0.10432541825004726 0.6876501155324517
0.23960154371061748 0.58376981944581541 -0.15893757432991179
-0.12769802163839511 -0.1160771230266977 -0.1791035564055804
0.021668314414125533 -0.037374581793647721 0.74903274917300111
0.25002591056727486 0.96410777733646857 -0.31076163189198813
0.13762874986873641 -0.021776159579315446 0.72720202362622943
-0.6801254909040938 -0.62620223936852559 -0.39417591075934
0.079736573316262938 0.24175329999652095 0.67797672064675618
-0.21149799177350181 -0.065238073109302186 0.72365866885501418
0.0014859863782180072 -0.1178602400097678 0.68892633213650989
0.087470473926528181 0.22851378579397985 0.67204962234850996
0.024428290904959848 0.58876067107174035 -0.39368801652051294
0.19204711613376968 0.77321602315886495 -0.16547415520958897
-0.31702600252336299 -0.16747332852814256 0.65462705970409318
0.14653686152362916 0.0015936300137164849 0.70701986899559932
0.32158867808684671 0.75295247553535694 -0.31683411401084516
-0.045258982170084061 0.29174288320375541 0.67393839976808001
0.15037589105588117 0.11176921518080762 0.5077296615208543
0.15463589524673124 0.58421905179008815 0.36512318099513719
0.41468889993511449 -0.19681727246016134 0.48554326809058779
-0.10967323097588566 -0.18331651155312068 0.53229578330598804
-0.01455122476211862 0.52135132672991125 0.56688027463022816
-0.48665128823588788 -0.54816384682380792 0.091374505330940159
0.075325008290980544 -0.011686023954617375 0.72856426570715516
-0.71980524246651201 -0.6336763498378708 -0.43583819386621903
-0.36294909251379692 -0.058216200941651031 0.6575034585828492
-0.74022310728538432 -0.66360598093806455 -0.44185723136780686
0.45066426029312812 -0.28664498772863922 0.66429399898077934
0.09655254676609859 0.0030249388750119843 0.72957927643974052
0.13932787079205317 0.42344197975117281 0.53204799039537864
-0.70679810185034075 -0.68107982742578577 -0.34217511291928082
-0.37836394122547501 -0.093258370237048083 0.6475112712492308
-0.081285627525308657 0.65807944670362539 -0.41225079105363321
0.33259052775259301 -0.35120197494197025 0.72329036051463547
0.0097269293519974265 0.068034951705847391 0.68816772087138389
-0.46452891837601029 -0.47365946027801253 0.10004529185155198
0.078519871815720121 -0.14038456187054993 0.35322041209342575
0.02495476864886953 -0.10077554135044942 0.17944410338409605
-0.20270648927223828 0.15942014800233228 0.70345277436794551
-0.56772530072566207 -0.60943111414139972 -0.092565343563466296
0.098372221361749501 0.01110834424724505 0.72371457053560539
0.3209863531035268 0.66446559214273115 -0.23257105951107718
-0.27917843645512108 0.059982934823526901 0.7209937364385467
0.30165187914639507 -0.40899303229228778 0.60515906330648706
-0.4117664340768713 -0.099717762704081614 -0.39016046300580642
0.19926665158269741 0.5157778766689789 -0.099090984195287168
0.016166533838534058 -0.030996379297009824 0.72965766848127489
-0.15680657484698879 0.20770122887946441 0.72309500058410103
-0.76525999251695254 -0.79459555695882633 -0.32637864793280746
-0.066822460391755267 -0.018689780286082813 0.73303160858480387
0.35300583917179895 0.82661227995810316 -0.35428497304431317
0.25582023819442168 -0.2493848459412451 0.73021557563670769
0.030430370041958699 0.18976258964360748 0.65665394045993486
-0.40236164330971258 -0.057639059340371501 -0.30206847899970735
-0.27773111404531647 0.081463496609314845 0.69099817590724677
-0.45673060552984912 -0.20429857148257391 -0.3442465765726278
0.19823886690034515 -0.31441510366015812 0.51924366877062544
0.097465438416004635 0.23272745251035798 0.66207366906310372
-0.17943290142521706 0.14396089578596938 0.62675523845045689
-0.018345661659037282 0.50114396462966981 0.51594142360761919
-0.28887126324391665 -0.18954726955460921 0.63531249508788501
-0.23316703941707184 0.15549989696404731 0.69252073442800821
-0.82284007159978056 -0.84654124098147343 -0.31556266690025458
0.051904482390598472 0.89984549873095687 -0.32428930844456016
0.12494703636908561 0.24468517814021284 0.61049386120197124
0.036228092990949756 0.18321185878102575 0.66769763717956476
0.11509849607653583 -0.25456514100820793 0.48995886037581948
-0.25060921467436681 0.066842975415032257 0.7545376923468976
-0.52773167104655705 -0.5255867159345089 -0.093201801892502989
-0.16868515693208835 0.22445544108698634 0.71477630573725659
0.1775362210074477 -0.40648725058861468 0.60753376159497474
-0.010991185199674236 0.48063402943700573 -0.39505096939303191
0.20736072856352245 0.4245998956718976 0.30508854369447286
-0.021491290863831225 0.28094624479648134 0.66509341754518281
-0.15671841925271957 0.014029958768072337 0.7340592656063365
0.061367318342361032 -0.021726255898931734 0.7430968420051729
-0.76622252735874741 -0.70884387167960916 -0.56093410601962168
-0.64323485227201838 -0.55538590466641502 -0.32959785711618295
-0.0099852760566740972 -0.095668594105693394 0.69479618528131659
0.023001830332148976 0.73862795208726761 -0.4566367973577401
0.42506867041002866 -0.34705287724154488 0.69995878246927423
0.45665801426772323 -0.30483264808464727 0.68087307551816145
-0.26963126810024929 0.1970148347500168 0.52004537301943288
-0.35371170397043361 -0.042756530649908364 0.66002683150217367
0.48648092286175393 -0.35759674531767582 0.60196301035020339
0.27310724678714993 -0.25037601025401934 0.48765777014806599
-0.78260147097153832 -0.80329887578948089 -0.35618687475929867
-0.40049446673295119 -0.066042986016827787 0.63172895348840585
-0.37672511889058313 -0.14252356429506974 -0.50211091268578667
0.50691034126322898 -0.20338858504753099 0.55542533466054245
0.093960256248445617 -0.058462989083178707 0.74740885973682381
0.11138680867407769 0.25180627530342636 0.64823492128653348
0.0089217628812544025 0.49974228804905391 0.49108171946789847
0.55541280155102024 -0.28014921686857552 0.56441579187667401
0.20613041146577263 0.60676939965317933 -0.19224633626295656
0.34734552188935924 -0.29578639807565821 0.68605549992009285
0.13509041462698418 0.087278118250705528 0.50755737248627542
0.015137872981186795 -0.22052376098525084 0.37707021503657728
-0.18205213338609111 0.033350735904266848 0.76677651714703876
-0.17156543760009307 0.38758689794674805 0.25257758258798635
-0.1676462109561368 0.23981178473161213 0.63444703691405369
-0.44118951999920819 -0.50491264819032189 0.081512619954094756
-0.30590975300852452 -0.091421480518548259 0.69255097559849599
-0.16820217824343292 0.039285038090053348 0.74094972116121405
0.45400564804717752 -0.34711112755740148 0.68322711006831449
0.35095210312953384 -0.34334153941935708 0.53777702779538705
-0.44553031245593089 -0.38956479083765683 -0.35069030845506988
0.21896656698076278 0.47966768019196299 0.42096243957475465
-0.46934773084801384 -0.20744227601745702 -0.18913887741697977
0.15344213837660237 0.74654602881530252 -0.26010306052233495
0.31336515622925243 1.0207467578109592 -0.30885023009626206
0.41289812645523943 -0.24511689951283755 0.66196857300507461
0.010561582091052457 0.39045056135424588 0.62891401735128638
0.41868747032681902 -0.2385548411959465 0.67392739379489608
