# XYZ point cloud file
0.2365253843256479 0.53282180112358812 0.43127140964394861
-0.17702516895622483 -0.05072502728602446 0.74430247739434507
0.43689624418802653 -0.3605300261802058 0.70713821987842351
0.3644104419037138 1.1665084036400322 -0.38021582631541295
-0.0075242739320321855 0.30382182189498552 0.75440195802195609
-0.065100178253249513 0.20400468933386606 0.71872593763539139
0.52515507322214017 -0.35476970513823725 0.67449702865569172
-0.51902122914604309 -0.63235222971096894 -0.10550898971683598
0.35989343790435385 -0.42555324282359064 0.67471284562473732
0.34205648581840215 -0.46593450629041011 0.51475373766622323
0.58440700323516781 -0.37733390201141792 0.68622041106314047
-0.327309759594611 0.082180557756879491 0.74898929673559511
-0.33290674851683438 0.064288207165453359 0.76600831415760529
-0.61597185309130631 -0.47492723099512424 -0.18543310949621339
-0.70776613330494775 -0.76805724198951641 -0.33516667629076702
-0.41654470815997979 -0.13567014654041509 0.71741772496503131
-0.053179571569061473 0.9039626128022813 0.059068924576309634
0.23467521774773675 0.92528262538258499 -0.27228341358383701
-0.63651258861113313 -0.74673526966682835 -0.23950094647482678
-0.52180408498119446 -0.54175225856560294 -0.11125297323393291
-0.63520652018239332 -0.79798152176957404 -0.14052318128145092
0.079033447564589757 0.35810270002910483 0.70702446592369561
0.20707487358293394 -0.1835543873321801 0.30417886939274452
-0.041036903583596074 0.97066198807994031 -0.14370201288507389
-0.13124996958752175 0.38681623137833943 0.73598375277338224
0.26677828675974646 -0.028462758464216531 0.66374290636493305
-0.54656698736206599 -0.1359188768667654 0.26206586071206694
-0.27179498670373436 0.098078190786471398 0.76078136322420975
-0.049634481334717408 -0.21414216991870272 0.51756195971592689
0.46912955519315991 -0.40794127920742018 0.69767434337564604
0.41716837233051424 -0.077228547163437966 0.43065284773587909
0.49867236042081525 -0.13010367025909542 0.42357795677211441
0.093248913103019859 -0.13593957682676816 -0.12867741873929495
0.2382620448028071 0.69831167333026256 -0.27429982316988166
0.61435519364634006 -0.2166338623654156 0.62738424557582118
-0.70569490281976144 -0.74261638116822226 -0.33575537462958693
-0.38945810055080043 -0.083437405925398167 0.77685576225230235
0.25138005210721326 0.96970188613644748 -0.28900566808790029
0.097745624502480755 0.63419243061150921 0.62242844447495616
0.2453206649617376 0.65387938913676313 -0.25818743826131696
0.11958973943746112 0.68573321299866685 0.55641359720277683
-0.3741653914559927 -0.44259426926913936 0.24330705524381668
-0.26195532310696756 -0.10866939938387477 0.74221251906346863
-0.60095168956034217 -0.64532929213110291 -0.22737479637908065
-0.43172973462790198 -0.35498998046373909 0.46688657747574203
0.02309828846112788 0.92961682155669312 -0.38138155821685138
0.45519528872615866 -0.1863598266825095 0.39709894152377079
0.18730686711542097 0.012599579477691192 0.68888559912876768
0.21574990528361357 -0.0084428768848920921 0.67783147338782868
-0.59329503400011951 -0.57425510667309987 -0.22098055138095551
0.047306479830034519 -0.024204979594681708 0.76328378342800685
-0.66796880109738288 -0.58965748220271808 -0.31567609365662119
0.63725507423467931 -0.3014753591330237 0.64052437223899039
0.11490408531438823 0.88821740183644349 -0.065654271228888339
-0.15306648763791908 0.72444165789544046 -0.56164368911743789
-0.061690988819701559 0.38402132901743458 0.73420320749085788
0.10883667096347344 -0.057206725435072325 0.76387871385690065
0.23223884563365488 0.61983888816784494 -0.21076686395363375
0.069876049663104678 0.53328022123240615 0.6256614451928425
0.41872312466710943 1.0420242473848846 -0.47514717354462288
0.035668868538102194 0.5218784893010584 0.64904238640627043
0.38127618608400926 -0.31507348319915773 0.4140976679512236
-0.60139437113612204 -0.26375030327051152 0.13500600645190652
-0.23245457318930696 0.72146643071243433 -0.071281678734581355
0.21844943995980498 0.032264412480901283 0.61870695729873371
0.45076945673151231 -0.062397139896002152 0.56711672320433359
0.20304353867945024 0.64253181913910984 -0.21948081114088169
0.36310476747274123 0.74250819328528506 -0.34687991463894452
-0.49252978343490217 -0.41208849049854468 0.33540049693394125
-0.091997083613877012 -0.010682988038796637 0.7470272021876897
0.2594199775187977 0.96733701237285752 -0.31627680964257676
-0.42354135666623716 0.20473421489319166 0.62273366792563545
-0.75230211623375975 -0.76765082959605113 -0.41617122973462739
-0.55541116912587507 -0.064234309925929933 0.62763250867569242
-0.58507486293813726 -0.67315565361383145 -0.19842242094326523
-0.27973945906258241 0.23209254126574042 0.72329200907174673
-0.43272651936904349 0.28782720559061081 0.1229976464188105
0.096694852122687691 0.75773704719374613 0.24650456136529741
0.15179753741631205 0.65514138956339307 0.55832618438523074
0.07855552267797121 0.012747921636879322 0.73465487626885995
-0.65944539503164012 -0.59772899462150453 -0.31492653151503758
-0.41432259233591817 0.11409770282370024 0.74976646477478925
0.6695110321630322 -0.35270644830195752 0.6528218808289179
-0.0026732219985887151 0.2799687315807855 0.74226080791469728
0.56705302400223412 -0.32790746151635797 0.63643909349947747
0.14606730162835185 0.032682006734054747 0.73878771844818936
-0.67566075102579981 -0.83852285866477283 -0.19273458942327704
-0.43404267819079712 0.012246501709754387 0.73796778750896252
-0.54762742849680479 -0.53325397169539035 -0.13068267121592836
-0.48959844856141821 -0.51978107997389777 0.030111646522439806
0.094512585154426093 -0.18056243249463844 0.69725926830176743
0.37290763794112181 1.0681718656335328 -0.45787148117203169
0.26216047585313113 0.70886035631469868 -0.28353477954827877
0.2031718437191366 0.19313090514260622 0.49573736682087166
-0.57996477420077019 -0.1782445834259645 0.13003892823579122
0.2235890436204494 0.42942753817339918 0.29950931715917539
0.006055667665900627 0.1713510683272137 -0.48325027938647014
0.035831310676624969 0.39652732345843655 0.72370480880787369
0.098752087329453647 0.65108741182839092 0.60951985481798199
0.047184182634774911 -0.2230495641372674 0.6386722592391143
-0.50333037017772642 -0.49850955743214054 0.12023716622558189
-0.27776489316987785 -0.095181171866979053 0.74980256923425115
0.46082787106557005 0.89350542448007442 -0.40287323052882806
0.14406275578908645 0.051737674680591539 -0.11981762812770391
-0.43273362340470817 -0.58633380098361032 0.01735136111842861
-0.70700436282689472 -0.83796992613654386 -0.31468498467947326
-0.43239282442970056 -0.16711332168726911 0.67921566662539212
-0.10908254131998553 0.40528812500719469 0.67869533813505767
0.21723922636631471 0.88464323109767173 -0.2362038041286485
0.21737002740125261 0.6565821803723253 -0.24512885536015316
0.036950904017797659 0.25564681452335147 -0.4581312741832384
-0.66182548860908963 -0.72744635228971943 -0.28186125189295197
0.012774581450350875 0.5669957676874755 0.68142802528057655
-0.59235265326871989 -0.61197031220470022 -0.22769860617026172
-0.068367631358142 -0.28897640613976439 0.36312026457688207
-0.25671641171839799 -0.057000801783116728 0.74967446603239152
0.5661497944562065 -0.24714717609131931 0.66743372421082825
-0.29133630995891163 0.1171494332950318 0.76026218423327019
-0.22424776104941496 0.30129299413171173 0.69669236042219307
-0.29236161073247208 0.010691628324143165 0.80637836540300734
0.045331996479727965 0.83254899548515504 0.17879315509226723
0.26572539136928031 0.00069929363833964864 0.63325904913778508
0.76082546276159113 -0.31272374202179765 0.44665945566653076
-0.54007184352669824 -0.60207673266259754 -0.15567610379907904
0.51820678513289664 -0.19732564397880736 0.39909053049081367
-0.1301198022406328 0.28446499508660539 0.67780919952831575
0.42863899120081461 1.0240022139930309 -0.37947020866756875
-0.30122048309361815 0.50443468097070143 0.26679166942005861
-0.62752353465609545 -0.55365596108327786 -0.22511471392480087
0.22855850218229906 0.46060923948426002 -0.073255393545832881
-0.18763424191144401 -0.29193018672442284 -0.45686125681544154
0.12046745421313498 0.60187581046361083 0.60283986143516344
0.7893552888123393 -0.31701681647501956 0.48770137918482248
0.012027888107295224 -0.048801646795985754 0.73443342884166851
-0.25454716776425701 0.041228479874431123 0.75999771982882469
-0.13104691054795556 0.46634942092573151 -0.65410089945593586
-0.30759852598273868 0.019640889033670561 0.80650507488996481
-0.20082877933776688 -0.020518700101949117 0.74958873827845229
-0.38608252039451463 0.14306006365383772 0.52277149020709079
-0.60581583520542492 -0.58103235965737188 -0.33254273511048527
-0.33035746594073356 -0.18364837579648108 0.70827452164449423
0.57546828218461521 -0.35677128340688302 0.6374592432071633
0.35897204343916206 1.0811843071943774 -0.36415907128907898
0.63010966417123038 -0.17642631078724746 0.4628071123382772
0.41596174158308408 -0.40505473097263911 0.69666396574597766
-0.28725946476320463 0.055814659224687535 0.76955830745749143
-0.57230433135679704 -0.10065815834086322 0.64243679884272442
-0.57374756712338815 -0.41144826069874041 -0.31415972591344454
0.55948646817275316 -0.36713699926704213 0.67530989806418873
-0.046759948577077284 0.44260773518578844 0.7044673526347256
0.33163238796725342 1.0454395264563583 -0.39130131959607994
-0.24924396668730708 -0.047277525160372091 0.76110306531576077
0.033663104515246178 0.19747951555523691 0.6271537951152768
0.63926184790557772 -0.35467048607046237 0.63740321542572331
-0.11905614976523399 0.36915823241685497 0.73527853114055275
-0.77855745090685247 -0.85089179111363134 -0.34079377477189676
0.052250542773645235 -0.047850448520849742 0.77321396499115846
0.7781519274236508 -0.28479429189880467 0.50371825376698198
0.3057049615910975 0.80175544517701836 -0.32882066463818549
0.1815748448107169 0.84625791087042801 -0.17353526104044392
0.76483521291991396 -0.3708786758552407 0.56440106712165417
0.24957462833588695 1.0203905236630599 -0.25534985710247704
0.22978381147141635 -0.30858902165251978 0.68929200809653446
-0.1843062169068182 0.5255827791326777 0.6408727561842319
0.1703088434472417 -0.36285506436947923 0.5377823546447219
-0.20697575530798049 -0.11450474111811593 0.72948445756152791
-0.56336107007205938 -0.46569652014687812 0.1063142985218164
-0.56788835198248311 -0.62923683846959322 -0.20073609200510756
-0.096380013177563909 0.37985930924379496 0.72609518872078538
0.042131295359657234 0.28025188034563442 0.71493170078503598
-0.36957948441244559 -0.019551064142110608 0.79875391553154595
0.12432679147047263 0.061660295805942233 0.69883039320508733
0.62453257065629486 -0.42884726558312991 0.66020458816656424
0.21999365927431819 -0.084805154328278176 0.69923331180737758
-0.19389344230545069 0.51856552132259814 0.73920424837288734
0.11866062462883437 0.69605037016662252 0.4371083547701724
-0.3326395452395578 0.11121791842736428 0.75861104386663514
0.6190802375930341 -0.31157291971858858 0.61611671368993637
0.23032664287841448 0.58405825813269252 -0.18376191702538258
0.07629769614494894 0.49450102916328342 0.6212153897541246
0.19427486339419126 0.75720364858309974 -0.20602493997493321
-0.26486911258737678 0.19382083058073718 -0.6886704118654241
0.14452326054909131 0.58359581588349374 0.57623554274925981
-0.14158919560580577 0.38944622456678957 0.74214253527230145
-0.42788665128787085 -0.075138231037968239 0.74135990245899963
0.031775730094635274 0.33387899222220785 0.7411375370838007
-0.50268795386328247 0.073279820046071809 0.68428214981028024
0.43248636543055441 -0.2315619108639444 0.40036678754776167
-0.34321596838292229 0.2467837199842644 0.72072214717575345
0.15349691399144905 0.0079452259799668301 0.74882862070020006
-0.085353081713193696 0.39872863714027607 0.72015412630586961
0.10495345003742125 0.19897601891255734 0.66620189241036609
0.22824183539805903 0.48822582701451056 -0.085811053934001347
0.035740273367889652 0.68610950171532314 0.36496684600185691
0.21566714089620487 -0.38691528387413809 0.60283051925954001
0.301997995864002 0.55987676688947952 -0.14865869724247593
-0.62739228322042206 -0.237995994389403 0.55107578613715336
-0.049471365382440138 0.21859045286728018 0.68307220945463432
-0.40298940126344107 0.085386251430658033 0.73972818872124413
-0.59694663190189179 -0.53915309628877406 -0.18081161676361979
0.1762931922088784 0.14005294113481503 0.46887656306074854
-0.34341822349263035 0.15512743910268578 0.7678066916760804
-0.71904091666857717 -0.87456089010089677 -0.2515277543061829
0.10287687703319714 0.89092065556246292 -0.308472792720073
0.10365949841618979 -0.24624312572611662 0.66739801522734221
0.23554094142399429 0.31223759419772978 0.46196063045226032
-0.49825703567090379 -0.044726970845685665 0.47193717197687213
0.0405625532045812 -0.074146572688351897 0.76439986393430781
-0.3658375308843016 0.22443031385650558 0.77588135058620389
0.19924446490186021 0.67806645336758375 -0.24969816244015108
-0.15317536121615824 0.26917522504221236 0.75208198142945926
-0.53775489370041174 -0.66118514441898379 -0.14871413046482251
-0.13790407275484343 0.3172340612442528 0.74245610851403399
-0.49532270882613888 -0.13430038566407099 0.68943581242756546
-0.62237110248232996 -0.51343279199947123 -0.1912993471800688
-0.55514585323358867 -0.66771416183141152 -0.1683338575759683
-0.42048366401289095 -0.067916074722311093 0.75328391220249347
-0.57657692146693651 -0.15276057517009023 0.67422878653681839
0.19642877826783328 0.19127668050285296 0.54317836209434112
-0.20164892845268589 0.70264585086200615 -0.52748821292538128
0.54126832417543358 -0.36520467085402664 0.65498933281276972
-0.25574692838538415 0.064378337675149444 0.7558918568996007
0.15349212871402723 0.38611299114884101 0.60388605702180143
0.095191006916009416 -0.19826207398824591 -0.032990960456737106
0.41772714286195373 0.72174567505797516 -0.36539407518715916
0.40752937978217224 0.95448687151892542 -0.42800952382161284
0.18070580256295479 -0.053456569855775626 0.72941142326375552
0.19986184900141252 0.61411957932803052 -0.062286944668481059
-0.089662232530682881 0.38924121121382882 0.72223979943296412
0.7292811809385743 -0.40376868995602222 0.51137050023378061
-0.063387393975578757 0.33614053484165329 0.74774153358048268
-0.11344850159853101 0.018768985324183696 -0.58092326134627781
-0.054809277244752805 0.60802025133361104 0.65411016324088089
-0.727958299142765 -0.84275181746233563 -0.30147795121482468
0.55211856111866942 -0.31178001349491713 0.65066063589333567
0.050516385951734175 -0.012742674718066116 0.73549638047942545
-0.72600870643661486 -0.64084705269882813 -0.40322582045748212
0.19827977321502438 0.65964371917108844 -0.24060354629824299
0.32923765227460411 1.0291951574444878 -0.38960398281584707
0.087939357048337191 0.035682944439222819 0.71971858460903781
0.46675997709572087 1.0692788367679442 -0.45874194062449836
0.42619096139008816 0.88369229375849034 -0.37544706302061304
0.22494329988429212 1.0195078660578147 -0.24238740315592366
0.19881998400017498 0.62519448188613191 -0.18707981237503968
0.34319310755188459 1.1205715926953774 -0.33406104680353521
-0.10830471481011961 0.5516558944984975 0.73987578480301619
0.29803660051368702 -0.13399866460462118 0.36586021454500262
0.23034100557944825 0.48140070986439709 0.48552623079296009
0.16997805863461743 0.50391862652523067 0.56172351223564421
0.62528051160590703 -0.31005591909507224 0.61999634505841372
0.16530667873920857 0.78165273674269953 -0.016448093945654829
-0.46019852884936818 -0.037396869939190891 0.66930820557558479
-0.071348212982078066 0.44801186926131353 0.67890278224406997
-0.23782617131319558 -0.081600345226500615 0.73294113260888172
0.25545118309190251 0.9679753481034532 -0.30344736418426632
-0.60980224046249087 -0.49677013580973228 -0.17135704633259596
0.2625111052537884 0.030396670611714471 0.50315469691552339
0.014125969359598135 -0.03754617598139065 0.73621733348395779
-0.67943748879372923 -0.51331391417766747 -0.34602272114899169
0.068482936392294913 0.29942293728274905 0.70211156384138074
0.19113130848385285 0.17962933327724739 0.42933988224085051
-0.37119713859430026 -0.058865712834986761 0.79283505003018684
0.56256859149644178 -0.2906798940881572 0.67020638679186273
-0.19255722432436567 0.40972558016814919 0.78192715826269443
0.64326285623845136 -0.40938888707702703 0.65956504728925347
0.32365087341742299 0.9236082995999324 -0.35132136950412685
0.22569055372889313 0.92850579723907689 -0.24233078430335109
0.29269947857917117 1.0744008874922995 -0.29780728497374986
-0.639579187282593 -0.78695896313353719 -0.14919240626344465
0.76143694359810832 -0.35019626197731757 0.46823319550985132
-0.60599371763040855 -0.3497316373299364 -0.10798823824328729
0.46257909310902984 -0.48366682701841324 0.66473637177760381
-0.44592578040506736 -0.55614672030522261 0.016726344199308185
-0.21696304815205589 0.30924221299219923 0.64495106826857729
0.17019717538356788 0.15579879677595088 0.59188535984587987
0.69886910894630139 -0.26030968155616896 0.59884372632265603
-0.42627174924255717 -0.24731169504232753 -0.5425101886828736
0.29493112804066218 -0.044104768747835976 0.66159253641652527
-0.49501299361442752 -0.67384617031924554 -0.12760762911093315
-0.056666708179388112 0.30507509410541367 0.74072581329578413
0.28290411673820892 0.71225752943968024 -0.2884338508483637
-0.47682857864242523 0.14860916513949252 0.67243884223727313
0.17265780737069583 0.31580100218918372 0.59628220871786786
-0.55400193978492196 -0.62989744988084584 -0.18172751725389302
0.54894305332054905 -0.37188225225243365 0.69663025836360204
0.12006422143135029 0.55854004106232269 0.59447856124405474
-0.19544712831123384 0.063353633361159511 0.74466343299274806
-0.43779167027312355 0.1685418757766779 0.60127209641436807
-0.53583631563926404 -0.070206456891141134 0.21488165956290572
0.51455050190814233 -0.34473002951065856 0.68552050395111852
0.40517499638510168 0.98273840914471911 -0.42765173835659054
-0.46338073276951686 -0.59440438717474997 0.015228481542472583
-0.20441137830263958 0.41572098647625766 0.77750536520075009
0.53679139613126836 -0.30754236381361166 0.68040102300451843
-0.30759071927413295 0.08662564505013437 -0.66777524770502983
-0.58549556296519767 -0.19334921780458103 0.65408638895482984
0.072392086853172014 -0.012089899326282572 0.73506577681931573
0.25323151359928747 0.50167602142478285 -0.24702884661331437
-0.10120752486815252 0.34455564747726108 0.72619522271069747
0.03068660475795057 0.47875000647622556 0.65063554073616747
0.009440996788310646 0.6345137600155113 0.61952178434177263
-0.42211749990779357 0.056737873760463575 0.73418881524985857
0.069329598479501722 0.36911162268677256 0.71184117886885767
-0.19689827127993859 0.64711830355707622 -0.59415775931745407
0.20288901577306617 0.84357321664850526 -0.21066008964963578
-0.22528363550192448 0.28664885948649266 0.62536163671830558
-0.2054938757201355 0.021889063441449252 0.75374017300386364
0.3291128295028467 -0.11600946034461934 0.68402428194915721
0.077554212010706211 0.0013729692047619313 0.73103818677424237
0.026378692813295149 0.28756662838590286 0.74109589152547861
0.082458518262788882 -0.0093285805159730728 0.74803173985635041
0.21653525688744507 0.60125863887934261 0.10670229177900192
0.091693480557942103 -0.091543423052394379 0.74877866841914753
0.37045397584325007 0.62369421428407312 -0.2526168876551147
0.27450326158563054 0.94174239146769967 -0.33146853460843939
0.48592953168103503 -0.45070679596976326 0.49260221511979385
0.31594759382229387 1.1171510482643774 -0.40236725864095457
0.42671908391107216 -0.38279973172135895 0.70333857686861034
0.1698752297295073 0.14649579779156507 -0.038901389509029993
0.17769553406176775 0.063074036403003353 0.5813158052172831
-0.47495462000556177 -0.13192493108736847 0.69413611541318798
-0.77656308097116411 -0.84563070068850443 -0.41172534539418049
0.61222115194214488 -0.32896168271822601 0.6215000337475588
-0.55362360936560207 -0.33373952259035522 -0.40080328985164559
0.44267824087834456 1.1302567773777434 -0.420828682176147
0.17175169277395547 -0.014716565186754904 0.74164915185205704
0.34625198066410551 0.95414857432388045 -0.37172890597836949
0.21817156140135169 0.53010709465233008 0.2803178967356641
0.47371196983077724 -0.16908792043223642 0.39926609592508877
0.29849727240548757 0.83105446462530619 -0.32821204852570385
0.69794138572490783 -0.43725478275724861 0.59756475772317963
-0.085978229413691182 0.26626073463689393 0.7326804174833641
-0.50467485276598401 -0.043918844175141247 0.50411089715918345
-0.60923358782524972 -0.18964125929703757 0.63167735009111681
-0.035664292775013998 0.33105998424996064 0.75927096541326533
0.061419171127169964 0.67049947388866493 0.50581084042601887
0.32191997564744551 0.96735528563465922 -0.35860777612553729
0.15529276350944377 0.81297064616069825 -0.045967168501803934
-0.37217517829930097 -0.41154455831606573 0.31251925306771722
0.015515383724257759 0.50290532539151167 0.66847312872497988
0.17218709723225725 0.12579266998018213 0.48363427119072622
0.32987188385198102 -0.0045288000537073714 0.57888496954814228
-0.69180683250316821 -0.6565572475403203 -0.36676226770438203
0.058726793918490575 -0.03955875206181636 0.77152108211111992
-0.13599406738078709 0.10153967344079584 0.72987273038982736
0.032051440835669076 -0.044601704768317374 0.76901217688539003
0.0028043110592346765 0.33539366639394208 -0.51350773064190869
-0.2119709505548347 -0.068876610098482782 -0.61356177065867445
-0.56725727387819003 -0.55213269820131128 -0.17143326594673525
0.084886920033284408 0.95970765721083784 -0.1951330648832601
0.35692317118203531 1.0310246174324038 -0.40329578496103458
0.61337298924850869 -0.28033382746788948 0.64466739897062186
-0.058772368368980796 0.21695475730970637 0.72012735333293398
0.21517696906911571 0.33013671918013898 0.33152061761178897
-0.49098573607483553 0.11027723054339122 0.66523212128069953
0.22135166170383563 0.045992533957239567 0.48839186055266415
-0.42137010297561389 0.027520122497208366 0.74398863386888037
0.11595136941405737 0.34086484344746948 0.64167120290158752
0.50333384879322629 -0.5158634908097226 0.62446803801251394
-0.07857036790277408 0.2774304098683904 0.72079032214519567
-0.2441084061608477 -0.43050672918073962 0.053276476602434286
-0.34189715678707533 -0.013785844937144187 0.80780888414160712
-0.52303635811088744 -0.0081000796900305705 0.70911302363467832
0.14912463234745499 -0.14330624149635174 0.057290297413121971
0.19982848745235687 0.71684788528172061 -0.24269123853913799
0.10789123083156443 0.34134511118697142 0.65848203459310983
0.22068545651148541 0.55347993778146276 -0.0223661501958341
-0.59556558037002094 -0.21185077093856663 0.06959032557385636
0.56376930207950471 -0.22588785473784623 0.40002899150484073
-0.2242277748407476 0.0073854590841699874 0.75849260438060795
0.67971030110966957 -0.32512529279372782 0.6468613870773513
0.62254672044062398 -0.30364694141308779 0.6223129916059511
-0.68122691907211819 -0.69880411562440048 -0.31626489101102062
-0.17742584087572255 0.45932364777492407 0.60980190413499202
0.032440284655746554 0.49434107592671062 0.63197153484139523
-0.14612113945806973 0.07042319071157821 0.73189633328478199
0.19760341947223137 0.69332240638668319 -0.2416438037905333
0.25793702433175097 0.61847567900702538 -0.24871291767659454
-0.55120224100878334 -0.61713120972481827 -0.18476386632364727
-0.23059557438330774 -0.063723159476875235 0.74965289857895612
0.11898821954873823 0.13355007388955742 0.67470239584493741
0.027437508507116227 -0.020225335995950333 0.73783682065990353
0.118666647380756 0.40232906851280248 0.62235880641541974
-0.69400488621555645 -0.62784855399125816 -0.37920521097534565
0.73748910406064438 -0.37285648633454205 0.60206461123404675
-0.47085141356479721 0.09824024971647094 0.31330271511657237
-0.1468517677026972 0.48619151745151967 0.76417734000196247
0.27145643730593638 0.56595509912709474 -0.16374344022496778
0.20855790122078416 0.57211963677368249 -0.068862877828289815
0.29892065462803413 -0.45138022611967865 0.52447729095256734
0.15544357820172661 0.8490819767243154 -0.28624025745979531
0.17789333736327534 -0.03256759376021412 0.051491419679530415
-0.37077323986748345 0.085659522770126895 0.69809254360827944
0.17178465300577644 0.78989384137046281 -0.14208197227194486
-0.21675705990536653 0.27277305135951191 0.75871229545079044
-0.70375044725485525 -0.83174985709755989 -0.24198763655409983
0.022657876344367382 -0.2609650382544273 0.45556423813447977
-0.093258532736256311 0.30993926557781371 0.71987703451499074
0.034990087859663711 -0.08187032707367714 0.73800630899281505
-0.60737446412414386 -0.63200815651103182 -0.23847166431895728
-0.6958904204315175 -0.73954794050522565 -0.324132321868144
0.14391871706602602 0.43564579685695448 0.60194900157401077
0.063979459713178338 -0.011596630210450654 0.72825666194090199
-0.0063978252751076409 -0.13752638276536233 0.66678514701890823
-0.02288606596492531 -0.19433599096762988 0.56633330743272703
-0.19594182543625568 -0.0027457498613330245 0.75001306188701178
-0.37255184803022334 0.066759427875928701 0.74848517649488455
0.68233734477674002 -0.28782150543219909 0.62944781680168105
-0.058469678557364874 0.43617759080717944 0.71065466932473464
-0.69822539532510897 -0.53501591833750628 -0.38320909196272557
0.12107011802525755 -0.079854407753526591 0.74952139226584213
-0.60017704165905927 -0.49600165992085343 -0.15881524367372446
-0.51010888177535074 -0.52095454844489808 -0.034783149721946405
0.077585322290229602 0.37165016385979444 0.70455412839672793
-0.3982105303920751 -0.14112480127559834 0.72202571780930214
-0.67891731254470655 -0.81497730669248969 -0.24729156211628078
-0.19677079529170066 -0.42714248196520921 -0.040180976229820864
0.19965840136854626 0.50275529364805571 0.52840412112842827
0.31237886897166717 -0.30599318007594989 0.70707340542151942
-0.83495054676061398 -0.79117052108854913 -0.50585299320376698
-0.03031463956944136 0.25664626334369545 0.71837411946766461
0.22199671033916502 0.37018844651764504 0.36438053653789182
-0.48407170128827498 -0.55828956770094806 -0.25994940781882248
-0.57263755168991914 -0.5730728771051139 -0.20682319034346719
-0.56560797501490245 -0.49582364704923476 -0.083766965472179322
0.14937575493455127 -0.27397481270368185 0.38885332219676261
-0.54786466345051255 -0.14440813560413002 0.6801025174856401
-0.19424673554991762 0.29374471641640976 0.77742890460903824
0.36471912188489863 1.0615250416414708 -0.39813390121324299
0.10669897376122853 0.45774912089227993 0.61261817377785888
-0.36808015830322593 -0.10198477681629869 0.76447936228960989
-0.22950837805557284 0.088349896241681547 0.75406734209249049
-0.1965708650643232 0.26965059245826994 0.77542340729812176
-0.5756589210686418 -0.26001008886851373 0.61876679822485992
-0.28345677890249055 0.093302577750006277 0.72957342248738899
-0.39713435094439764 0.109724967770916 0.74605154586095601
-0.38998390768326463 0.087355832451440074 0.74332802565375733
-0.36365957625359357 -0.083036309016069954 0.78609224869811345
-0.12649582799533635 0.89024677925371476 -0.30282800724711278
0.008985512047880978 0.11781032853352835 0.71429375098653547
0.047631090098204751 -0.19630996376137122 0.65959729082077112
-0.67164728266385232 -0.66733571069347519 -0.31655902690650617
-0.033756846470329074 0.36370683197159859 0.75628465068670669
-0.21944160790358608 0.31756013453717435 0.6062166506743526
0.31823895312534434 1.1086632214654903 -0.31585917822902698
0.61392655865083801 -0.37066530990701896 0.64819051974216779
0.4285608345168026 -0.095721255332859023 0.63379128090664261
-0.053853516007808563 0.2859713152068557 0.73215224720888827
-0.17271600138199816 0.012144471652857813 -0.62483747479405327
0.45620268722044155 -0.4601218317589777 0.50001873172265654
0.3318476611911092 -0.13074014819528346 0.38197021400318731
-0.23580937219818432 -0.131917670750197 0.67753597947661492
0.34468426199206825 0.76556821289246035 -0.35436977347311016
0.71604564776580026 -0.27699779810942782 0.59623845233137029
-0.31779538370385291 0.12160525317946225 0.7594755945519851
0.13040784268558669 0.54709566494370065 -0.36206065367988693
0.23909426795817923 0.45309873356264685 -0.20802103787403348
-0.065318921929958557 0.23139989026632102 0.72511217525696381
0.60914040340703413 -0.25407643261914048 0.40277662377286783
-0.57854691242994605 -0.36762064110524295 -0.3170429229432099
0.13301537995837248 0.39823190095335725 -0.30457873710125272
0.76834990032103745 -0.35243021188094836 0.57036084139107202
-0.11473882708291569 0.35493517056159307 0.73611895555869011
-0.53144140186009126 -0.5795656415348871 -0.15640596240065952
-0.32602610624226713 0.095988121783091129 0.72545843003701416
0.10680124928018714 0.26160847353493177 0.63023222646905031
0.4592827597028476 1.0935357208517447 -0.45105167271350832
-0.64111528264852979 -0.55861207656222867 -0.38535092151890749
-0.29310935398674293 -0.18831224860927964 0.64945726535548753
0.23397217111560012 -0.060369412062710071 0.69041966146969824
0.082600520827930596 0.014034960348085157 0.74042734842872104
-0.65742729002767497 -0.79876961469724783 -0.25026282350401075
0.30323500767932399 0.9301565762849533 -0.3403845748487917
0.64444583044125514 -0.42140071006442414 0.65350368556286476
0.14106386905803697 0.3683659551936409 0.59485106490194561
0.69760849863669705 -0.43733532593123514 0.53794363990708061
0.04288347074748694 0.63953295349678396 0.62446315856769008
0.19351895091168225 -0.32114962216329945 0.45101141765281705
-0.041607784384666696 -0.18841021582959505 0.55349927616100758
0.092568374903238715 -0.094285116400687485 0.7423528402938
0.044492338663078043 -0.27965898617915141 0.38386208903094154
0.096641526745347761 0.48434384111785067 0.61630609071604592
0.12103950273051706 0.85737897659600248 0.022109256302856206
0.24642822497632952 0.44096029649861102 0.44927327608737433
-0.29099303946075383 0.035381153429525414 0.80072554438128274
-0.18616119485440222 -0.04412517379941594 0.68221333772134196
-0.30721028904107539 -0.3051087141142188 0.50522480434372996
-0.54935810864807932 -0.67561488508668388 -0.10703826329157473
-0.021923539738037387 0.58298021780137987 0.69481202439770962
-0.096069332610880326 0.3919249358880843 0.72709535109825818
-0.54924251751110043 -0.076891239817136414 0.57399196691538124
0.40567363595827594 0.7508613270219695 -0.41378965869593665
0.15312308639538957 0.021790552593744072 0.74431197462135579
0.14164617575269478 -0.21586205513182821 0.69949922753119698
0.025178616098532409 -0.054509616345778333 0.76584829115510711
0.21017583060134803 0.83657439413503409 -0.33456289075880119
-0.066641417492438737 0.15525077949748911 0.71574903171094695
0.39479055477819824 -0.23883981020822742 0.70172873373359512
0.25292545379398013 0.88401176941806625 -0.30563478001836719
0.29063703836142052 -0.37842389075407223 0.67571127762618566
0.086832670523922656 0.54261478051833678 0.61366291884817925
0.19975695013965922 0.65541593521496821 -0.0010361274558867706
0.30907996882305017 1.130128626873933 -0.37428202088790341
0.0055744037928999596 -0.25600811716959715 0.44971019285009628
0.015549512475237271 -0.037135363392817755 0.75580277029086251
0.22687151831561747 0.53697654644258974 0.0049534318724395732
-0.26351380369153088 -0.15576885589842848 0.67401879850324187
0.012720522678987614 0.29499176021474094 0.74822309108157536
-0.42404777603355726 -0.0065113426147282993 0.7314874632863364
0.28946972032407148 -0.22694739767318328 0.38362558607698483
0.32843590726293304 -0.47458962083583467 0.57682490187998037
-0.40143230128780483 -0.039074521970299925 0.78319209713081894
-0.24317170822958756 0.55343408872636912 -0.61439029202108819
-0.82418286734508361 -0.77508130693372412 -0.46927082025578581
-0.39771239570689138 0.078802168171859366 0.64894416454684256
-0.065347462970374873 -0.17038272057817339 0.56648158640706425
0.32794612314204841 -0.0705022305902121 0.39575718095879941
-0.42144633110204521 0.13339050226739335 0.75839299714544528
0.30270571957842912 0.85193624245212929 -0.33408939905037571
-0.73965840411703299 -0.58976357697402881 -0.43613127442894406
0.54857321474534926 -0.36682023781864959 0.66000154928233601
0.25480206101977548 0.61340735595162021 -0.23660235409939911
-0.25987796899375282 -0.16681808363086281 0.65426958843294547
-0.27557912214600377 0.24182602745054749 0.60340527052362991
0.1968320705904989 0.67344274091704559 -0.24078562352294663
0.21024039599270322 -0.094878399455688989 0.70279343277819939
0.3002819753559029 0.77883991114963891 -0.31856597053249502
0.24751739041175169 0.55905380063430776 -0.17214082030903666
0.27838449948837818 0.60554883766703593 -0.22814172661832721
0.64264965804750196 -0.34859577615593151 0.63512157519323353
0.20880544714141541 0.9757592293005013 -0.32106896819579989
0.1292543516841711 0.80894414384007263 0.099517703886081499
0.28347208678229641 -0.40322158491350168 0.48428368281320544
0.069437109234599281 0.97766981735548475 -0.19934027841327917
0.64068117703429639 -0.28624993351179406 0.65310182236275971
-0.58434438608510908 -0.15516077195550881 0.55113264683495911
-0.47467428904221659 -0.045581379538147226 0.62154381120959701
-0.52647471914476651 -0.089684867288901016 0.69950230345628706
0.12449055031632075 0.045970770030232977 0.70033852664500518
-0.50489757405782343 -0.30606283028645787 0.60453470649316676
0.19135661959704892 0.05921954379297234 0.52335238597026235
-0.23060389125339226 0.23984181867161936 0.75772329446740039
-0.26349816390231845 0.23390634605320271 0.72204585493877316
0.66303776529463299 -0.35149803785437195 0.65168976261619826
0.0012659101114572413 -0.19568231867873331 0.60906839326034801
0.70975245753197536 -0.43458266962736247 0.55599079827587772
0.35041730294221507 0.69234225468917554 -0.27772153203594119
-0.42764298638834797 -0.2739277396134745 0.64798299429702655
0.25583031488024455 -0.0071373661777420772 0.6512955170765925
-0.77473058808856266 -0.84500043820732551 -0.4153879233916471
0.45881247915491241 -0.1312546730397357 0.40851807506677862
0.2246170720010594 0.53356866727293051 -0.13101641708513556
-0.53338804813767848 -0.12735788397588355 0.38628887107334009
-0.24259809553016928 -0.3084163936482307 -0.47807190007122147
-0.59657249191982753 -0.46545795911525367 -0.27793806262684595
-0.032658255387799068 0.70196537414405169 0.32824176369794811
0.29423876141367922 1.0106141364384755 -0.36048560872782853
-0.43756067217447076 0.061701532716454732 0.54513196436822176
-0.70772577709685491 -0.84291247956979354 -0.22868512363848748
0.36702818759687073 1.0587381883938081 -0.40753720974906149
-0.47559581841235105 0.0073863160562357422 0.52489910078946678
0.43801864374447591 1.033598522558099 -0.3826695425236224
-0.13594396336521386 0.053579578784504811 0.73197752240960201
-0.47563612113830078 -0.058663637627267784 0.70951857996706558
-0.10200803162037746 0.31780976277552964 0.7303185603375616
0.13963970368704345 0.68881125561269418 0.54006327704587231
0.23276821286992994 -0.11488957040491643 0.29361517592579522
0.41772078995822776 -0.34857857264353664 0.70849613867936878
-0.17407632669896531 0.55212769237660853 0.65858518337418037
0.51096797313113618 -0.30620697949333242 0.69693134563144821
0.037373490033976928 -0.033282303726648976 0.76715042422054625
0.1608594201493182 0.030869203862203376 0.69356077494454627
-0.34958109010145655 0.048719905755996162 0.79144098812501407
-0.49719916093673755 -0.51317679806569738 -0.32191899752589204
-0.59534464254855912 -0.58415426276311933 -0.2291542214256681
-0.10332474836810469 0.42425456265665451 0.72238506530921398
0.049799118406044701 -0.066895695363261565 0.77262618250796322
-0.2672678488231684 -0.19230092273073196 0.69378301893355931
-0.055051319807701976 0.94348526354922235 -0.34488528305745025
0.32503232130115606 0.69655367987859718 -0.30199862696040047
-0.66381405011084682 -0.78140218284276552 -0.35444926310854052
0.15925982104342476 0.2124848806095021 -0.11595694080016949
0.61200460038848414 -0.40602698816695693 0.67514879243559611
0.24534115598230255 1.0516997113880875 -0.26281422803116916
0.094430146496470913 0.68275991750024945 -0.4110512416934895
0.12358757461357503 0.052367796812297973 0.70089219391855195
-0.038533671805259684 0.51287149700540691 0.69719348459966224
0.32960741944754096 1.146853290907119 -0.34293848302561059
0.30848896053450858 -0.46362414055688994 0.54898915571357132
0.15719526594765271 0.20595574183837595 0.62274498913813348
-0.34335792510673685 0.18899275445064689 0.78400432523455654
-0.45857614883647002 -0.34531228755940901 -0.4781897314383774
0.25824213544561664 0.55973683621918813 -0.16691243739347073
-0.26955301233950857 -0.020152253327996972 0.7944844171976746
0.1943086330455292 0.68436658783746074 -0.21687884234880328
0.10323216722679796 0.0068182489382691003 0.75441247330536232
0.058509722475443698 0.344113852377395 0.72476695236574029
0.53071397835128575 -0.35282576758918371 0.69063568288883592
-0.3044464466761399 0.12043736997772081 0.76018739725700513
0.097428699190977297 0.92924471982311863 -0.24924845968648923
0.15097493972225523 -0.28812602313121505 0.41548842336071368
0.21929090869205753 0.84492006837300826 -0.26283773795660692
-0.21955958907611633 0.36437737152112915 0.67231920637721565
0.066005153163282551 0.3023173591201973 0.70986435545858706
0.13154821575323364 0.36566922162732651 0.61588120919873057
-0.73089637200223112 -0.84495315851071018 -0.27906483023261308
-0.26475751474444614 0.2876989046049796 0.58239996051742859
-0.55376624029805388 -0.070592529050996333 0.60099917676114822
0.23287919082302574 0.31209036560470071 0.50350235565357282
0.19967420993185206 0.19496805664940253 0.47901362181423968
-0.60489309621676846 -0.27357130268960383 0.46084455200219998
0.092983117166462487 -0.012949223494995499 0.75861560135147477
0.22721839947727762 0.90466397073825622 -0.25983993806660077
0.16909022066101137 0.086289055934035019 0.49816067179709067
0.15123580652617352 0.70310188964897691 0.25168846489797114
-0.099906505903708975 0.39342243229940532 0.72884607418442526
0.26336706085153377 0.57509092519808491 -0.18712181976550446
0.071763112097202097 -0.010543091880632183 0.72484608420314067
0.7174047213616106 -0.31889640826168608 0.4279587788199305
-0.75767544264749664 -0.69349397968574111 -0.44380110944840889
-0.45077318927417376 -0.075298732655738387 0.707922762096447
0.26506177924718988 1.0142929088786039 -0.38950383060763882
-0.38382739914984143 -0.53774252096423125 -0.05710578985839021
-0.71842801934753742 -0.56585333890876965 -0.4514370508299772
0.070118991171241402 0.5036893946001626 0.62752011490314819
0.070914006648338079 0.79299557412944166 0.22070431618971276
-0.58294871071214827 -0.51286263625049489 -0.1468522131022052
0.40105822146902625 -0.11865989369027052 0.66209518086743002
-0.32961196643873147 -0.38552882772101404 -0.4375165405746444
-0.29736009308325906 -0.052955656574208865 0.79885615589599634
0.28076148477897017 0.67724986055798864 -0.27692225774466284
-0.10636742534686772 0.49456037301608213 0.73945258817075477
-0.63807333344542927 -0.67214138021242231 -0.26495378043671702
0.17054674981686924 -0.045818118308849964 0.73923238203699471
-0.13342260591727056 0.57574641486930034 0.6219260370750046
0.36474561998917465 0.73381514818985583 -0.32374800488993216
-0.57689096298697828 -0.22248522647461888 0.40461432220142313
-0.036727353247425099 0.38603175824572999 0.75125077788948502
0.50337717588779274 -0.52061963682425239 0.58388443462356232
-0.30348117995232177 0.22382667389553612 0.67248858255836341
0.45802350744733666 -0.27784029004048461 0.70015177052680799
0.53341890062961983 -0.22630579559503516 0.66816414022099091
-0.28072241511027674 -0.093863179316331147 0.74698496277704518
-0.6191601626876615 -0.21104312641132683 0.55952106952948677
0.12447772108368974 0.38096036880235529 0.62928049554022536
0.050063890732782168 0.4189621074376717 0.70297774760024223
0.1192423328515296 0.31993417342331587 0.65010716888146702
-0.13538979352940139 0.31392252292239475 0.67636508586556676
-0.012671319012489163 0.64863705420960405 0.40707807720189704
0.13177250940140348 0.48016670561098218 0.51938237719599867
-0.21388603521137067 0.46928794023293841 0.67228291506609572
-0.45856678914462601 -0.49689621530607453 0.15910561145965296
0.068148474521495001 -0.023684039519106026 0.76478308944367424
-0.76723349202437097 -0.66678158620610728 -0.44407313844121776
0.53108838562000649 -0.36142631324910979 0.65337995313944386
0.3173640834036533 0.53403574102299345 -0.24755603497270728
0.36627154603523204 1.1205206918676645 -0.34815439008494553
0.19823399300621891 -0.21477198279786913 0.33537847654546171
0.33734062852735708 0.92479002833431423 -0.3624739394988441
-0.29627218457318821 0.41020209199705127 0.41344154744087691
0.43667434009607486 -0.20864639731264112 0.68560111877975838
-0.50958028898206387 -0.33858396825280646 0.55773049448262446
0.24948789107421504 -0.13286051934331167 0.70394161604556937
-0.076051998302303692 0.82694767336096309 -0.49056971644432634
-0.29616511264534928 -0.10824836911885338 0.74346513784966384
-0.70431711900167338 -0.82950854052219603 -0.31812873239174166
0.75307624731069978 -0.27660168560334841 0.45588883562809923
0.4016216074539613 1.1362327689681075 -0.36894798458028433
0.43796518612064539 0.89794810085959442 -0.46427437626368806
0.48537439559719259 -0.51899131032401624 0.56436012101601596
-0.098769030234760524 0.31977152562319855 0.72560945466692206
-0.59253305975510551 -0.51103845911768175 -0.15708544052078355
-0.73479698854998499 -0.59843180444766775 -0.40413628428707082
0.44267388404960517 1.1043902400692542 -0.46785966123938483
0.27698815663046233 -0.32505695474374607 0.43467421903243086
-0.41986524097247557 0.18856849962528566 0.77012195756656721
-0.068080414660114302 0.44923855975299265 0.71255292059607533
-0.053996594236730214 0.25951460416364869 0.7091583018450115
0.32615638934229829 0.81600365920132623 -0.34989909656744289
0.202633048563443 0.74121490593138795 -0.24363101872898207
-0.56932188901717518 -0.55954044048311236 -0.18490095318872224
0.19991081868639526 -0.011412200712898724 0.69546691432539076
-0.54252068418395516 -0.59215837229889057 -0.18802723066183602
0.50934112609234627 -0.32169787894328383 0.68279241154678838
-0.37562338038346832 0.034752424819253891 0.78097328707640501
-0.40447878497376799 -0.15762566308164283 0.70444205517321645
-0.72936122554091543 -0.84949731286860319 -0.34308413933801862
-0.22077313182113051 0.29725245487650698 0.74303182415280022
0.48831528129843021 -0.32368177853063784 0.70443379981321053
0.61540570492041047 -0.48161762828013055 0.6073605327846705
0.15387831943566438 0.42633100167026905 -0.28800299018952247
-0.20081770572513438 0.24568094402952623 0.77425109939935954
-0.38323348256530726 0.18581381224885152 0.77835094628715118
-0.30263189096465631 -0.077457692933114775 0.77556679753900482
0.63182528930772008 -0.24351302941162412 0.40560487518245036
-0.49454308673339065 -0.12068609076589132 0.69168066972889619
0.2822038617979255 0.98695560849284059 -0.35030946255527007
0.48423143899690929 -0.49001651301044524 0.66120836339174227
0.20263706379732926 0.7188511796137389 -0.25255809763255654
0.091210779550204735 -0.088098973671583147 0.75427089898632393
0.56276693340071704 -0.40368708413503751 0.68995567126499158
0.04503809110934863 0.27217067668298989 0.70586718902708445
0.044557751110466629 -0.071132871526782271 0.76924139768071209
0.69839378489795012 -0.24684868669041227 0.43324837558666307
-0.066835983533866467 -0.15378602709577582 0.62051322023409305
0.53540798110421495 -0.37818566104328166 0.44251582443064197
-0.18846563854184947 0.43835528366929588 0.78070184977618484
0.18371667249621365 0.61943280632507736 0.51396684979746587
0.27015765637555528 0.79709400583133183 -0.30356475306959885
-0.25227277060480474 0.054046572028367601 0.75075894028653567
0.18963614951401392 0.41238327516445428 -0.22264979975765842
-0.42868703717054468 -0.29179757054586308 0.62982167647687115
-0.51642164921600187 -0.65191597903284482 -0.0064921523917167434
-0.24482713233493572 0.25186365351984019 0.62626551129981323
0.33318705553810579 0.66985360249350134 -0.25860883544510171
-0.054019592561706131 0.61271619313625103 0.62835179142598108
0.025107530679227417 -0.069041511392252897 0.75020931175681393
-0.24105612493425965 0.18788616536501168 0.77680481118740285
-0.34718757473730782 -0.057926440978441462 0.79844815115184997
-0.20986780482226963 -0.042858815881363199 0.74772606749029469
-0.18800080211867617 -0.41637046379114606 -0.22190350373006229
0.081187530181266565 0.94760393931981945 -0.08654501692676897
-0.64621486930989136 -0.5505406128673056 -0.24507193279565898
0.66422407011346851 -0.27242856526301473 0.63215649777032457
0.74636905925760366 -0.37903834266405623 0.58910688839511427
-0.57165660832198184 -0.49731901602675999 -0.31760497292348133
-0.70655128593512262 -0.75985079697904445 -0.43631139870354674
-0.16741501693451594 0.83071868115630987 -0.33078248786470943
0.19245412426556002 0.64944405893185086 0.44764834855707225
-0.19554332241713901 0.39605085770788695 0.62216416420390508
0.37966070445902939 0.76985916174836322 -0.35116967607689475
-0.50595862853490448 -0.35780020658853973 0.48035522486345017
-0.010530143134698564 0.41200696102552747 0.73680843956542619
-0.80352460241200152 -0.87853787141341155 -0.35547777265606806
-0.43868790645263961 -0.20294191982173304 0.6898097692792724
-0.19352395270418216 0.31949902681972442 0.77960783864558825
-0.21292504263151973 -0.010587182171634124 0.73486836449509729
0.19380315810176096 0.6383222108115838 0.23694825411946741
0.67751925995583717 -0.30082104619971428 0.64014358364352653
0.26875375967117082 1.0606366652212653 -0.2730939713548719
0.013085436610568352 0.55327357673757827 0.67482232868289893
0.73152767701310262 -0.39329413805858349 0.59963424329223236
0.60694834783042106 -0.29128559530087017 0.62178048197961455
0.14504665198705324 0.72585005509755174 0.21011491461801324
-0.13113012713277553 -0.39668091186116627 0.036299293155059864
-0.44812096971629972 -0.61864561916685146 -0.00071433989405877973
-0.15978664958281585 0.32757749880709386 0.75734605590228299
-0.08903132124884891 0.43061571343960936 0.71870729339943507
0.023890571783142245 0.97417267760713 -0.10011762629056831
-0.53115364669664422 -0.18443079819191466 0.66771456962121323
-0.53863102733296686 -0.089674096210116794 0.70161303275167586
0.083882170139172457 0.39226107808092836 0.6781508055537705
-0.69941047962382041 -0.65530004649708617 -0.39095010663709773
-0.39902151402543229 -0.076967779160686867 0.77496098516600498
-0.1245865749051385 0.34611298911071042 0.68905766955116932
-0.76555289135716831 -0.86294802999823506 -0.30677391323207637
0.012018129997653254 0.38178826777667574 0.74004472931610787
0.62721377413622081 -0.1937162254015512 0.43588481527200229
-0.45286933341650876 -0.16771698382843425 0.70162966893838385
0.49622317414837375 -0.079849877737289132 0.53559987946435728
-0.56007354482731242 -0.16671588383172531 0.45530143410194812
0.13545640477293286 -0.018217584637267414 0.7560785357467672
0.069529745889128122 0.31854220598027849 0.71950764991842697
-0.26158423279943194 -0.44704807738801655 -0.026407391320343088
-0.4620289256894119 -0.52303765202475883 0.074952398133680598
-0.30306123292939335 0.090253515399921547 0.75686977158072422
-0.58461091370302309 -0.1333276073337144 0.65421910821380691
0.66910669400584588 -0.41277628786283738 0.48718521106570756
0.16564051628035395 0.32343532572750622 -0.17997941965911823
-0.64163843299646783 -0.6238394371674314 -0.28421860460205006
-0.12582248971349808 0.4146514985568448 0.64360549800523648
-0.49010422595071024 -0.059496937962498109 0.70215661743044055
0.40083113394504777 -0.028760595039124759 0.54464584145653283
0.19049451787097077 0.53396291553204978 0.53065551890431628
0.32361137732117168 1.0146358080418767 -0.38071749502378505
0.28899145288238776 0.013437427256260293 0.47138997763918189
0.50100979796580691 -0.33325377308803072 0.70262467110924964
0.40643073306521676 -0.17446947252453771 0.68275486124258156
-0.59921631948604026 -0.42955553285289416 -0.11945841330174423
-0.59194732198499489 -0.56663044146109942 -0.21053189373279513
-0.21973714702552699 -0.27555715160976013 0.48210107528035528
