# XYZ point cloud file
0.095224453585695201 -0.11095703520793165 0.76695392779682692
0.11094581784858981 0.51570917328555588 0.68651007674175446
-0.82486255892087179 -0.72849642582828977 -0.38962755243839808
0.85750781061460657 -0.37821392168416512 0.64051831964359351
-0.7829497218931305 -0.031127846183765406 0.35761439705656528
-0.34800980375506718 0.54683169785313002 0.80148225097752857
0.42374567438397648 0.68823727379763344 -0.1898656677794186
0.31528486924049481 0.6708990494127347 -0.092601461352671777
0.51163272185336162 -0.60659994504142123 0.41343630396488606
0.1268790788782308 0.89928115405665743 -0.33477890152329337
0.43246449951309884 0.047598663991474943 -0.031747030089341877
-0.50866289176616419 -0.030569381338945156 0.70664388344371076
0.16953002624442703 0.86364466909890947 -0.176167743018663
-0.35134532448263478 0.24656651802100615 0.78679504830806479
-0.61476017943186889 -0.95296135157865614 -0.37852980510399448
0.21142683096535464 -0.37074286788439714 0.36107790405166185
-0.17052751020277945 0.32904655954308559 0.7569235461260817
0.11967307786088455 -0.20264926674012695 0.75619239004446825
-0.60320417844514118 -0.71207933646294652 -0.33632684920836198
-0.71137508071522859 -0.83903777365596266 -0.39980861802251866
0.13768972578146155 0.56744510507220447 0.66832346711910162
0.13627628351897414 -0.088010301170085903 0.7636191695914718
0.1025138437286337 -0.27488468189718507 0.64751494967487844
0.11861077020928512 -0.32755663134907476 0.50790214513856569
-0.18951816417387946 -0.1291575663675486 0.75190385173990393
-0.49331120945402596 -0.060504527035956102 0.75918913724470372
0.79585145523977019 -0.28431205988637664 0.69545001285490216
-0.17105901447017402 0.50767302720009511 0.75316436039662449
-0.9192459956493142 -0.65304962974990666 -0.34213974276350712
0.20880314849973125 -0.18259797378231557 0.78800612613594012
-0.6801011959771639 -0.59846354638191013 -0.21155750628388859
-0.45312519644086713 -0.61406945714532579 -0.16272082116797293
0.051301269899990842 0.47101733835365511 0.77453634656346537
-0.40723442106810381 -0.3477307865171575 0.69446768655077307
-0.58712343285882973 -0.92254468182929461 -0.38865214301037554
0.035628941703540917 -0.42135828360114402 -0.23083915198618143
0.20414176967769748 0.66554455436015036 0.59372058743728928
0.4428068551768547 -0.47471274885355275 0.70249585491112043
-0.99167352506843365 -0.93724609934372527 -0.46564531576748891
-0.05849919508034418 0.27514485547613976 0.76406327600650314
0.31071760425103356 0.47623226841364019 0.3998654312714649
-0.41316469652662491 -0.58018494988454172 -0.39927201579126148
-0.57194280274057974 -0.64726137504754355 -0.3055527794776367
-0.59091858183805535 -0.5981359184425159 -0.16719323167937006
0.37184818035033551 -0.33724072101303726 0.2926877793363758
-0.64919572734357978 -0.36145081240069743 0.67914351738731682
-0.32535756030951468 0.28156394455329092 0.81064570499874833
0.32942236468379171 1.1814225293554732 -0.45863686084970468
0.078091033103939722 0.58409442057311178 0.67237624967967236
-0.3819522992064428 -0.29969414459706734 0.74836059308843517
-0.27856179034378137 -0.0062718294601973312 0.76579699985639849
-0.31681164815027074 0.24852516847171113 0.80715908738018527
-0.61896188289853882 -0.50649923746182424 0.59037949182983596
-0.36442475629574211 -0.0070012454674595048 0.73637783817778057
-0.56426030449638986 -0.0081156014072227833 0.76653819682292124
-0.53711267405169139 -0.035810948439949364 0.75896015250113891
-0.38450446429314056 -0.27731400573879306 0.77648644353028118
-0.54519755393634028 0.76944562007220263 -0.28466446296376802
0.038831082382113635 0.089871538282055852 0.75494793350031131
0.17893847799167339 -0.34958025047514329 0.63134670222354572
-0.72502497756544848 -0.76133415734433552 -0.37446853893941068
-0.10812173259393276 0.42585621170979504 0.81125838615026424
-0.37901884231576943 0.29239151601573443 0.61865313294931923
0.22033287375919386 1.2137995033176585 -0.37472807847946399
0.73243740020177839 -0.4455878312283339 0.66779847589610242
0.55093010154283739 -0.092498092631870144 0.70345745919542324
-0.10417664018842743 0.30947095252203916 0.77733798212260297
-0.085206528989834496 0.11762683240130878 -0.73551794557965167
0.6624335746723311 -0.55941116781111688 0.40989975346611018
0.54239886280696226 -0.11084049641873062 0.35694236767727006
-0.18354627864562723 -0.30323416708981554 0.64026975191028868
0.46658819722677869 0.90243804043990483 -0.39208223184595781
0.83886051655202998 -0.24357226956333289 0.66619304314065886
-0.43470552361708314 0.022250774638983728 0.77448016996305569
0.24458528863206119 0.6283283051462023 -0.42468487831360591
0.4272902955743767 0.57320355829777414 -0.24896665008230201
-0.098944340126763564 0.23034867426735328 0.76414280976422333
0.82166794408554544 -0.1891290804002197 0.40798251558690168
-0.77065240987011663 -0.44992279996386131 -0.31743134079899704
0.30230985932077736 0.49732501168314203 -0.3716352115594006
0.89758483689347024 -0.32269024924902023 0.61800496934305826
-0.22526400440807315 0.38391285690010246 0.77365355297731497
-0.47457928385952997 -0.64799219192673885 -0.28675194396268466
-0.43575301296205105 -0.010868472370385796 0.73357055161621787
0.1362221526095162 0.31912005251049358 0.68695958776982735
0.43916716201216754 1.2501522767782904 -0.51681100238988975
-0.77208163503396143 -0.636429426323736 -0.40620659012472515
-0.23461169766818379 -0.38164529637317024 0.59495100248033594
0.33704446705642255 -0.11073143510798467 0.74097542866076793
0.14829975028352038 -0.046713539948981087 0.7874723740784404
-0.56320090755851737 -0.89516310523435294 -0.39542069338783392
0.31850142056897468 1.0373357523466593 -0.38874858658695643
0.75764197700624436 -0.51322116709218513 0.65929411531288906
0.15621216963453932 0.47345488748183584 0.65798660167091327
0.85396954205758213 -0.45981717127812871 0.52297698093770251
-0.093693525089607377 0.79481071547816118 0.66452260058380119
0.41138407775567032 -0.4147863587199847 0.35787645665442369
0.097044375012091066 -0.31827153427431298 0.49198097308993027
0.18371310728987922 -0.21009705584273064 0.76978556209685678
0.25630296050680457 -0.36354476808023772 0.27312880941417461
0.053963948380605586 0.6162764111226755 0.6740302371694824
0.019257743617460577 0.92870672906063678 -0.00033958967497227377
0.30071329747074138 0.58675913301180493 0.51001862973820522
-0.34270952966951995 -0.097912276815276478 0.81132858742320479
-0.1544022458855423 -0.17348854326508611 0.66500041242674257
-0.19661030664989454 -0.49472022869087517 0.40160538965960768
-0.42811358096436258 -0.7672892756816676 -0.27241249654429822
-0.18021849042174409 0.70980604107593326 0.73584066150552019
-0.21201574716339522 0.43809258309822674 0.76629900323122513
-0.73910574943378471 -0.2566463490808859 0.59620024744871358
0.56157438497929846 0.91165591903390375 -0.44940799881802818
0.22296940188361702 -0.016433904316660808 0.80925731072309048
0.27020965862638846 -0.37410696445388769 0.69149020650837656
0.096193092958554161 -0.16916830619539169 0.79526317741040486
0.22942900865458959 0.91070890121568393 -0.38470880635101423
-0.071795637723907291 0.12404267125274604 0.74669372081872609
0.51123094233782673 -0.34062010743316584 0.73806910929846126
0.26629473110304858 0.97469635480393713 -0.35186936185603201
0.44327893605604984 -0.58078107638327126 0.62926190074835375
0.0181201455655291 0.68854287423107952 0.66687346098022715
0.2550785320232869 0.75506319365604924 -0.015862730480556309
0.19662352909005065 1.2180809371794243 -0.43905672910762661
0.1914052861445068 -0.36506347017938001 0.35396291618179276
0.082779821232785267 -0.14252092036356334 0.78415319185351962
0.34123749883605825 0.64407076768664329 -0.0077747087134625303
-0.20997074141678951 -0.33959962235533325 0.63055863020818492
-0.017401401051817089 0.34481844890047952 0.81050145330254253
-0.53358969237675957 -0.16545902719032046 0.73546208314420625
0.51355291527924862 -0.24317953126806646 0.32307139416045061
0.52295877904731292 -0.66264213531654637 0.47164297046857939
-0.46771640366246814 -0.21737409803259666 0.78345646208659048
-0.58984370294347954 0.45887548949789636 -0.5977141649308706
-0.97457821530429989 -0.92204479318625943 -0.43585811773519367
-0.55902282599974562 -0.041030716528763556 0.65770838846862034
0.060689258592008244 -0.30137524666568805 0.509865236888281
0.52394511843413483 -0.0399041705293115 0.38865359684417911
-0.62171327681983257 0.016650009338286864 0.78826278398394578
0.36129189628872638 0.9653933148306475 -0.37775095108483114
-0.97355250438266694 -0.71825386807135416 -0.376440867820655
0.67175277112705167 -0.470292699123533 0.66873810414710633
0.39275142416702735 0.72787354487483125 -0.27218498739171082
-0.1994302532753025 -0.34892497405217959 0.60504511134210759
-0.4392989309627886 0.18595447135445209 0.61208531163912028
0.28075067971503209 0.76061656555479651 -0.28276608434516604
0.3154912411880666 -0.17226317191861096 0.74316143949256741
0.39380751265036551 0.89773661884342459 -0.35815133897581219
0.39417563005250678 0.67305911373732874 -0.20300392540041656
0.42820374471165223 0.72924439721369927 -0.25966009006148028
0.7615633197327778 -0.39496671148847096 0.66783684032010626
0.14069550521785601 1.0347584814284185 -0.3737424730601866
0.048891968176455691 0.89858154803384416 0.086388237071204799
0.50370606913029903 -0.52103774893036281 0.38211703984666201
-0.13259114435055253 0.97524102434500826 -0.23713818207326653
0.74982686211539828 -0.30687406404138073 0.71573592228035565
-0.74409902661216343 -0.35648112397749188 0.56492424944494246
-0.61490593252967685 -0.2085809990839449 0.62329894383821483
-0.65143655641277931 -0.28849451739611709 0.70735644351221794
0.19667049476805332 0.01652944470985318 0.75135935216805194
-0.47629807885038566 -0.55589496710478592 0.54059066488960639
0.31260730480653187 0.069887908614881589 0.54646950621617663
-0.35674650757743898 0.1993322389529828 0.78308783953313821
-0.40984122064276107 0.18272542672643954 0.74191248498298989
0.77193058151751792 -0.39734440724650799 0.69282162825109239
0.13854194069647008 -0.33964974158769934 0.56252273831230326
0.85614384499321794 -0.45958466862981684 0.54932851320442921
0.49778822574785053 0.83797417826474629 -0.30452340802040467
-0.37641043719159484 -0.51802998180745519 0.58227739781828092
0.36140237071400705 -0.019025401905913064 0.70799426198808391
-0.79369962329407429 -0.96097306269370364 -0.47504855979253335
0.66279349372573471 -0.08193879788196945 0.41675785826983969
0.36439806235927108 0.63953632012761696 -0.16140265820737199
-0.71701082374274883 -0.28892061556869297 0.39213468170480326
-0.083944854732157737 -0.19944697408455347 -0.63179860541042387
-0.72459061904710076 -0.54843130181173372 -0.30757375669048059
-0.2207729878162219 0.75391692395332122 0.32945324781309182
0.25700254917701404 1.1045939439271031 -0.41609333365794399
-0.63973509974359999 -0.064501328683513215 0.55825541335302376
-0.60680351585909165 -0.97019818890508791 -0.37199518657158848
0.33541669230678295 1.1787211493386713 -0.46849071390864339
-0.67791462098766786 -0.13517766379193841 0.53967459005042429
0.44461679771691553 1.1931874178263895 -0.43605389784186244
-0.12969001567942939 -0.035343551928550099 0.74451659789389879
-0.58728455587383266 -0.24018969836032333 0.71165033830569513
-0.18823231076796887 0.33781228602175339 0.76799377744845998
0.046360201992813543 0.88266505784373273 0.58404091147625792
0.4573425924823411 -0.092506163812314135 0.23675079982260883
0.53926444692293352 -0.51006592407066176 0.70908450626237141
-0.43921977891645625 0.59513298901442546 0.68612192768803482
0.6210102237435855 -0.4045407765187452 0.73271955880455053
0.10400589811415273 -0.13404053828763995 0.80339872282865343
0.24181189041775042 0.0048830289121788439 0.74811099267973447
-0.43998402347885701 -0.086877520977010292 0.80284942230887424
-0.4791373809369901 -0.53006664576039864 -0.43396088720107429
-0.61493328333317976 -0.66346352204728376 -0.31522997317997437
-0.23882784631683407 0.477135867615468 0.75986635409444148
0.12489289421140448 -0.18446366966249972 0.80605067543803699
-0.19812634800262074 -0.39973332120919913 0.64544964222700685
-0.38788144179201556 0.85417177473853867 -0.35868183136839349
0.46497904138177404 0.83189181696628567 -0.3349587730292356
-0.62105097919074659 -0.85336097366932417 -0.46891344695290371
0.37554410648198733 0.31434872989882034 -0.18122347621393686
0.72068066368244743 -0.51288055690278167 0.68571735357190633
0.14162195252946397 1.1306624893501585 -0.3140201273065486
0.12227102076935559 0.7288992760428874 -0.47311447433942533
0.19407398822441024 0.025670041432167778 0.75294186830716825
-0.17335943365089612 0.61312526569725279 0.73923330047851721
0.2119317590568901 1.2500621969007226 -0.40701043137156745
0.51358465551678734 -0.63575080544418761 0.43934004636104618
0.21446631157369289 0.25763632558520566 0.68406580762309943
-0.51712289134362166 0.10535661508098748 0.81100526711704646
-0.52474846358050087 -0.33682254059087402 -0.54993717081981686
0.40820589423547737 0.67752126057071038 -0.19557702198678584
-0.28407286914548635 -0.17445177915130206 0.79723034740025867
0.26859750296631191 0.76991592193937652 -0.25657388572766493
0.16971875857155716 -0.054289330942584257 0.80832254335123821
0.031387407135099465 0.42796083914813643 0.79392363533179378
0.64327472045141931 -0.46834001608343456 0.70975430799649075
-0.41207011170307695 0.023201530487245492 0.77470093829883524
-0.034201362652453327 0.94339445588963544 -0.29401859278349463
0.36973145937063734 -0.36562678705803719 0.32014933748005348
0.23127979622959671 0.92671633942338616 -0.30613689171319791
-0.40798065050275945 0.35561979565324986 0.69495039062691433
0.056888739971649116 0.36970808812630374 0.77659691741686743
0.14047033292808031 0.46942733866542152 0.68092100114848364
-0.66408518886730938 -0.96915681130548403 -0.39848729116467752
-0.44729335354292132 0.24224912974040436 0.59309392400304972
-0.74436389524369773 -0.25347622116913904 0.62607042370140675
0.30677997181329175 0.41926941041115739 0.56530516318132129
0.30208527322790069 0.2528684072789229 0.51541342830563508
-0.70792740929694986 -0.48795217930042067 0.44667852765899596
0.16207938979500014 -0.087896619086859751 0.80780044830948583
0.20878829485490868 0.98589850531201639 -0.30426106116168583
0.28698108440283043 0.1018992315423306 0.51575156281776913
0.11126563446122262 0.82620054274857857 0.26160191655472431
-0.21899619492090494 0.43895394516576314 0.76775078960100274
0.41277121468231925 0.6943519739249373 -0.21689681678753203
0.14546379081008354 -0.084030078223173099 0.7610747379913505
0.91411779379438762 -0.24325305937903074 0.44400219676860786
-0.91581993353502966 -0.81422329316350872 -0.42359477026593595
-0.53460269716214093 -0.25849615896096978 0.70088077405756621
0.21227492908065848 1.0899957707593637 -0.44833829601064323
-0.21722395467975097 -0.58332477879639555 -0.24057407852160395
-0.95440753385864774 -0.68293596729909734 -0.39654556291336007
0.0068692307289648369 0.6330272716329004 0.68079741991037679
-0.064558142905974947 0.87887908453192232 0.21552427898583204
-0.62726122590153111 -0.60846836683977745 -0.22000816283766511
0.51780664330505743 -0.1418419217374165 0.72699286392900575
-0.21778293295272988 -0.31279143599915216 -0.5844353761307346
-0.30627696616082289 -0.22789200576041768 0.79625659521791192
0.40822075153124615 0.79705584661842344 -0.31287344119932214
-0.28093272507547695 0.56945374505424695 0.77768000088935452
-0.63850490820898287 -0.75899000022932128 -0.35707227524050467
0.2560511366258158 -0.11488461521587823 0.79302027815691645
-0.37223240922645928 0.63266845846636866 0.64589161920151383
0.50474940479739416 0.88160522569230082 -0.35467474325144011
-0.71793654324895506 -0.40981823699483666 0.39944812309721556
-0.12076680930292305 0.45479568810015003 0.80468314610823199
0.67417975419318488 -0.67900499186812446 0.49302010131842877
-0.47780961449199921 0.1591460948855481 0.68862493700652294
0.57160311261512398 -0.3800904478390299 0.73584037073110053
0.64659119886267646 -0.2614201768551716 0.73129774601876818
-0.26377592822828255 -0.27272885741985942 0.72846774789263691
-0.75353326995050196 -0.4353938928112342 0.56877458107851453
0.12397989096999495 0.4898804086894506 0.69572981915974452
-0.0020426593052658149 0.52567456356577225 0.76621267286454042
0.13136620709115654 0.40642606962109262 0.71749706081359221
-0.23461497299739165 0.31800764469315279 0.70106629541474774
-0.16200894813453992 0.72285554475959568 0.41637302584430813
0.12241325713046614 0.60487878339537371 0.56854825969430323
-0.46355516820693232 0.4841819554003548 0.70021497217446438
-0.34626159400539969 -0.63282607690060289 0.010191731923917757
0.13609952361833599 -0.11161550560958933 0.8084116585776826
-0.96059684905868714 -0.79832648602685374 -0.40041775151165382
0.65919044306301799 -0.46565029608524622 0.65854606790569648
0.51258725228952073 0.67741817294542761 -0.27676142797747261
0.28537241089047782 1.2449837126464971 -0.41025715035549482
0.42735995087381085 -0.23313909431079161 0.25388253802168492
0.37299470575160854 1.04596510284045 -0.4101722469507969
-0.60639460625757735 0.35052987198078256 0.43948277085166154
0.55191792375203796 -0.27408636420877386 0.73725011126744633
-0.46977187470959691 -0.58444007265724096 0.48257540162897072
0.36056154208094071 -0.22001786023637582 0.74290132645391083
-0.33502704970833186 0.75163875297898652 -0.51817849340562816
-0.2779399558417861 -0.29470436529117094 0.72139413261792384
-0.64364318122864539 -0.92984246195182063 -0.43800507019535928
0.93173965056480768 -0.18329270442668966 0.50262253666316781
0.32546019965134843 1.2747341645865051 -0.43401751419923329
0.53300326502831119 1.0571439405636778 -0.51144700051479219
0.66689627614650959 -0.67109217145442912 0.46639970828461585
-0.18369943290410262 0.34103858535120679 0.76305676590483529
-0.65118443282058003 -0.60912660136552965 -0.22184924195710209
-0.94566081222739484 -0.72609940926111083 -0.35908802286785146
0.41172607829747854 1.2496205733526891 -0.53663646071415982
0.50113618096765045 -0.39321988032031019 0.35024318685726286
-0.65634136036941371 0.087120299759964048 0.80914182484908537
-0.19258546760892337 0.52139793198401918 0.75357861265319315
-0.091512460031536236 0.27160846137963102 0.74877458114283257
0.41533620268895888 0.94142514224624296 -0.39124670801474437
0.25759496935172521 0.82502723708790349 -0.28496616480805059
-0.57087061218814483 -0.63800093045443163 -0.28239769184931163
0.29160920382364885 -0.047430283966314768 0.75090008868514957
-0.49325806682751505 -0.65661466530279089 -0.3143809538843314
0.62618428601460785 -0.42414525278807602 0.70779116618219362
-0.47397344256657448 -0.10901279818114862 0.79076950518501121
-0.40848456494598828 -0.36689446648302049 0.67178437915652012
-0.67971766086726682 -0.95589214574799719 -0.45275034940779335
-0.37143267947082315 0.27669986051846429 0.7701266281883008
0.59969178809889456 -0.44363712625881568 0.73000552246555372
0.75570118055417801 -0.5926150651610147 0.5663463279159302
0.32241252569859036 0.52714608843094179 -0.3494916974388218
-0.3115356243754448 0.21505170243115934 0.80428163576571166
-0.58632618827617655 0.092194924202959605 0.80976004690094072
-0.30178604073469195 -0.2588903100901998 0.76461721581254949
0.84064010341883133 -0.16853447305745251 0.42076301673216676
-0.57695208114585483 -0.32332368970466341 0.68255769137428501
0.25313011114815964 1.0783276965536208 -0.4040266145986422
0.62455478069396975 -0.68559377127590526 0.59860382843033833
0.26973433257782098 0.80428797988508904 -0.29477544857453353
0.17813064062516304 -0.20370729013972522 0.78614994943396255
0.6731819346799508 -0.53592413034563524 0.69376684340016226
0.03953264125801681 0.31962494510334327 0.76562482661347531
0.12096342162779194 -0.19145041449718203 0.79984259468589869
0.89047318835470968 -0.15765515934635665 0.47059398820769616
0.045051079336351663 -0.29471985655788924 0.57912829228303053
0.74868405699890062 -0.392750393003368 0.39236477150422644
-0.39467388111804702 0.47268122924995382 0.81756968267717411
0.1436988049786514 0.80833629040099009 0.5687466188046244
0.33913293367889707 0.90255906579991851 -0.34527142432355973
-0.29573560608251093 -0.057745044126094491 0.75665740938654835
0.37247885953433268 0.52062246066050744 -0.27481608304210425
-0.36894904297302489 -0.53696861438284049 0.55738035889920212
-0.3668904643434221 -0.76513492243219083 -0.18608676482188002
-0.38802548172101936 0.20690348952678761 0.63608567099289104
0.48151620722896915 0.81037897933052871 -0.28541053585444587
-0.24515443318385088 0.71483139614507341 0.65650919706014577
0.10299100207940626 -0.18799726404623485 0.77252461202454015
-0.34614516199235545 0.12698000859818226 0.80084586951064551
-0.37402877989905292 -0.24145972220734979 0.79467963755499937
-0.19100533804525455 -0.18899346959081331 0.74175924780994507
0.052979559690854217 -0.34656264998071684 -0.41304081598403997
-0.099947137941551745 0.97342489805395171 -0.11856281411254344
-0.75417308100149327 -0.65595154586927151 -0.27675804498364442
0.77841320112108825 -0.26943772590017634 0.70021537618351815
0.87099199869886412 -0.37827223557863299 0.62412988453089824
-0.65162080901578889 -0.55547287304637738 -0.37525812877107256
-0.74861597022927739 -0.84000789350532123 -0.49509018440269159
-0.61014479892722129 0.6967703467258568 -0.29808020708361482
0.15676265053175165 0.83205064318546373 0.49288168915144581
-0.38088876982314623 0.39583457058432536 0.64098449418680303
0.51115412011535888 0.92034049314988042 -0.38452226103806098
-0.46650879662576195 -0.58161747457899882 0.39616034798923039
-0.090884016930875333 0.49800572114608421 0.79282316016541898
-0.78965962143879054 -1.0216093894090887 -0.42939534046891481
-0.43244866373458279 -0.4312406148873178 0.64896081757787272
-0.3375700786240845 0.3162148988552822 0.81405968810829421
-0.20866750073873064 -0.1402683294795164 0.73126595539778805
0.20649992190668165 0.76758327508418489 0.25314735514646713
0.78760776256374676 -0.30953959080172133 0.7027371677584533
0.17386197842009032 1.1499385875358354 -0.32547174663272571
-0.10708889590343418 0.68336550206764812 0.72123219421311546
0.85398356909089657 -0.4100010312743505 0.62706228434089795
0.73370480375007574 -0.31779214755675333 0.66524083722530492
0.098572338339900867 0.83973481425155327 0.21341711741334279
0.11665536853714009 -0.40073141331384576 -0.14896565611911683
-0.27277151796771726 -0.70970007182614392 -0.19368383070968065
-0.28573265382677171 0.3353797100487661 0.79194256515415873
-0.21822199014877341 0.49014130387503041 0.75763655028231369
-0.24189379552776735 0.95989268005137252 -0.12485909454866118
-0.59393415334065658 -0.41006937685741995 0.64998950987401116
-0.67114585267704285 -0.2911329112616805 0.71323690953641261
0.057558025098231269 0.49788852475306822 0.74470300323223881
-0.81487523415359497 -0.75334882391844005 -0.40893809956615712
-0.44141315258976732 -0.26970065329046822 0.76707162791405636
-0.23334027819188385 0.36415285977901934 0.71806405489293468
-0.71888724395501669 -0.99757587710849105 -0.40821422282281361
-0.047442645065300937 0.46551679284155778 0.8017485157965254
0.82020500249308448 -0.11463707677692403 0.47252308534149989
-0.47541979291439773 -0.3860339527939356 0.67291493289052795
0.64808714012098534 -0.028853411152954145 0.59842052463329054
-0.71869428601984886 -0.34924405377724632 0.45850849060175847
0.20950721168867403 -0.084520731464039045 0.81270763727632556
0.054829130570304585 0.39507802006997128 0.78960338782356132
-0.058119681483946195 -0.46424599744489559 -0.21250087335822343
-0.34693321986525483 -0.63462977690081779 -0.080025599807946435
-0.392936172400006 -0.017245536368504233 0.76739471438320095
-0.72800560361242539 -0.34805882837237334 0.67011522751347741
0.85077296732009167 -0.41268390735774307 0.46492073081379814
0.36085333779897866 0.42747309617995199 -0.23861463612210798
-0.6918878071821819 -0.71207187343019207 -0.34835529891422112
-0.26596652341208582 0.44516380462735761 0.66812737799858013
-0.61273983299587087 -0.24235567515563261 0.70740519630576415
0.54512929717742331 0.0092597113046677393 0.60051639256950651
0.18106265721797854 0.70359695490220897 0.59359294095369108
0.29993889518221017 1.1203396809649149 -0.43725430140738197
0.44460336195940364 0.042840830176405831 0.49324594064084692
0.61193447440594717 -0.45345907391138152 0.72660317477997083
0.52187344950619519 -0.23049654765830851 0.73793494648651148
-0.72390691581045985 -0.54381566003557058 -0.14872189692715665
-0.61758671978648927 -0.64955634960111652 -0.29350951564312311
-0.088974837755433356 -0.43609969447055263 0.37850503804108371
-0.8969291117777427 -0.16150156876329902 0.14672526722171142
-0.54679136544113938 -0.051534642180497414 0.75562856147620039
0.084398823481777185 0.56074142995244269 0.67302435677572703
0.66040215263342716 -0.61168569530287442 0.4257609789780723
-0.10229376999976125 0.86851832530619166 0.21987220595188717
-0.91394931646820687 -0.73982563954072056 -0.36586821591073715
0.29407170769028212 0.67125910724979532 -0.37623033348190305
0.29185923538761216 0.13249154991347378 0.49163226027037865
-0.50587977699137454 -0.32415994370110379 0.67146892263815516
-0.42262158024777285 -0.40478758232178702 0.66781159103236121
0.39933430977087347 0.7193312810019572 -0.27050150441253606
0.46818051570719632 -0.0080382269719008193 0.3794000801928803
0.27296151668496016 1.1297507028342628 -0.43450532144395382
0.085272638851439098 -0.17543034075644481 0.75283864483670726
0.29661491333430945 -0.16215333989291469 0.74550704997282224
0.77439192286761482 -0.36922741487815003 0.69763197536006771
-0.11391482753805349 -0.060656275521218994 0.7478451586284649
-0.34979366033833159 0.4777907061588742 0.53380580171726422
-0.88360731882898413 -0.90464527092856173 -0.45331713354475767
-0.28694673205917987 -0.45907085469578846 0.62234726843701083
-0.66043487523038635 -0.85413068307508588 -0.40255605319494947
0.015888398151634675 0.67408470523135033 0.67158940544396017
0.19765459265195595 -0.36871082368860275 0.63256049814492599
-0.27341450468766659 -0.17542553610691325 0.78181202361422919
0.68267351393561349 -0.65259368176866239 0.59973209641027836
-0.75822084652850918 -0.43049357580268932 -0.36422211103560187
-0.33513424178895157 0.24591137182623868 0.80059742485443053
-0.42991876788803474 -0.7853810517401465 -0.24843908357549793
0.26312584299300212 -0.30197281091368922 0.72340614004879455
-0.82962235497149805 -0.77920062778530319 -0.42341156857128937
0.21211243929941404 0.19840858463469946 -0.57831462155461111
0.71786066487437417 -0.50558433975636419 0.41249273751576965
0.071621934592245751 0.60798585952811735 0.61997646136833851
0.62222936030387466 -0.44948100435976013 0.70583983707285114
-0.20045361234317483 0.32902576122269878 0.77435653171953334
-0.46095640951188344 -0.26159792731197218 0.76184568098539529
0.060549669605379108 0.39301231275756088 0.78467454456693275
-0.37250249781974354 -0.36809122179132281 0.67547456019131147
-0.73346315890635516 -0.46399121991093217 0.49540253195104356
0.16456982287986399 0.79732643620560228 0.27822596927000376
-0.083428024668505074 -0.34225788131761004 -0.51813905132753746
-0.22147787830191845 0.52665442648545113 0.67386200505568894
0.41897410926216416 -0.22761095030458822 0.22592786052664593
-0.78928151110688916 -0.49534414586029651 -0.0012764595932068801
-0.33947374373742534 0.025038805498410532 0.77210741141968242
0.48548131446673892 -0.54737735736086091 0.39343515193083789
0.0042386274518388944 0.9365660830120035 -0.2040771303715303
0.28692400167235377 0.4626521139306865 -0.39532356414018466
0.33548507805707128 1.127497265265216 -0.44556700148225303
0.72476167392987634 -0.31664788659225795 0.66724322740938291
0.68475383490768849 -0.61117530403594778 0.64237343179904727
0.39140576534136073 0.53603757791750617 -0.093950200540071194
0.19811806864686687 -0.20086259419578312 0.77600497701377691
0.34974366611583996 0.21997686058654597 0.30459043120396956
-0.33906597371448122 0.82673226847292192 -0.43375116790220858
0.028242332138557202 0.40672828104692282 0.79880128228679581
-0.71029132200246003 0.60742065148561242 -0.11005143292099717
0.083891871722395095 0.58999704038542333 0.6739128640066383
-0.54161776644880177 -0.29963370588722071 0.679809508227045
-0.7619069330132664 0.32037814115250818 0.31116613089100298
0.031834565395717718 0.65920477927464471 0.6732170612442161
0.30341440133509145 0.1016115765548733 0.49170903674259847
0.22054987220056432 0.009048868628151574 0.75482050459426375
0.39024374989255151 1.1711969522066683 -0.47912181850785984
-0.81888284150259594 -0.68950758459584094 -0.32524635898821685
0.46831760986988158 -0.15814478767844431 0.27723539885358406
0.83504455780029474 -0.19662205072215411 0.65498079260604314
0.60211299458369716 -0.22401905980999626 0.35609012083973823
-0.54118215830289351 -0.40055748908403288 0.65577793546553664
-0.92297806606952726 -0.77461975534185168 -0.49880063195571012
0.56404846540061904 -0.4847711101361778 0.719464387117835
-0.54997160343301132 -0.37789312708805056 0.66493664010362608
-0.56878226606255744 -0.54707201854138443 -0.40695923857326477
0.68762384007667521 -0.47012341969117166 0.67523836755292876
-0.62941419020473077 -0.35314794315856268 0.67457864764478614
-0.87731189919922237 -0.91155994275730645 -0.47336960662080685
0.62704082016895235 -0.40557153900182108 0.729946224064836
-0.35456149224645728 -0.63223351455224819 -0.13639769832312254
-0.12397011950842263 0.75381987217652568 0.39161735398624131
-0.49089005349115133 0.41347473737767082 0.48604709800946466
0.28674671214652481 1.1539864083826163 -0.44335521342828343
0.46467215552724284 0.030693623820143401 0.59947638143346182
-0.33230244313968704 -0.084176541501040703 0.78760681061067572
0.11144024407730058 0.49582081460896887 0.69748561722888525
-0.10530536951610969 0.44670455732428671 0.80796540894903757
0.30066078729558221 1.0185869592376178 -0.37900897090072405
-0.17951828497630551 0.51401914661120252 0.75679204606544914
-0.30975557282489596 -0.63728094075993447 -0.13334454890614467
0.55569662356312577 -0.47212250930866695 0.37103946754866968
-0.13539508046309301 -0.30272707002236654 0.69797987865884181
0.70143308603513432 -0.34872315720892733 0.66981197190644082
0.042734108821345984 -0.32967223317801508 0.47196857324983199
-0.3690902570326049 -0.4020743957599846 0.6256985204477985
-0.57415438823156961 -0.92593405919245519 -0.36323759129115274
0.34988116754088239 0.00044181371235740841 -0.34890241953293355
-0.80648673214022359 -0.78188434681888364 -0.40895264236307582
0.75006573726817649 -0.38369603878469238 0.65241979583510457
-0.16522656560101723 0.39007066738585827 0.77608424510084006
-0.014692321569512501 0.39624249098942643 -0.68187360395242536
0.13808382002671848 0.37381318690950227 0.71796473960356622
0.12525153393549537 -0.25833994626287726 0.70081762535311753
-0.33157033212717302 -0.79922055185535612 -0.26189323823822974
0.10687840458765052 -0.15930434223455414 0.80547496775427163
-0.52516626222573493 -0.11140689791075076 0.74960212881188681
-0.58930777752748398 -0.35757925759642006 0.66651583101302947
0.38575221103765323 0.71935811998858812 -0.25648262514716436
-0.020682165087791304 -0.35828197451072885 0.51524944815133011
-0.75726261976698517 -0.52263374793844086 -0.079101815646211548
-0.72252164442646993 -0.56485694314792045 -0.20835951931408658
-0.41139461402180011 -0.023516948152186856 0.76278885391285201
-0.078029703415808171 0.26118251967482031 0.75462680495665069
0.2983024707215165 0.83413438977362642 -0.31655282895641434
0.047517660607557133 0.87326582157121901 0.60757642215459384
-0.44254789513120585 -0.44824735554821249 0.63849420434097937
-0.60446348098849612 -0.98092110889300876 -0.37617391837503078
-0.61177807019491048 -0.053345658878431124 0.76400314892737953
-0.0044713385546959472 0.51950298960546792 0.77209695013016955
0.43804057146751063 -0.60610325374483498 0.51849796210471055
0.25529029306695605 -0.0046490709316620027 0.76426313347142383
-0.5541355564796433 -0.25894787824991816 0.70378848283635875
-0.066043249160665951 0.54157341268022741 0.75248888411145032
-0.41523513008876556 -0.76395010702201471 -0.36755084487680989
0.00061223029900148163 0.53209106929416272 0.75348050718297088
-0.24745143010715687 -0.2813246899965236 0.73193633413438874
0.11442681951395528 0.40872898575863292 0.71024796687437686
-0.56400923188442853 -0.23454621768267891 0.72277344285416945
-0.50741166569973828 -0.60905548658959408 -0.13068515415346127
0.16874414269482685 0.27676433550039015 0.70729370920160051
0.022881180415179614 0.63045502032499989 0.67765590976551238
-0.78341464035235653 -0.60971066458243328 -0.23242456439403725
0.095324605401712503 0.53817488651395085 0.67785691929794467
0.40529080143170049 0.5993267722453508 -0.29412807780674655
-0.14570627749184695 0.76268034624919956 0.59573220573356878
0.32012623968176257 -0.51233233091195896 0.52555525901596667
-0.90830877605013249 -0.16224990807682893 -0.31738349923350739
-0.91128396753877539 -0.99848990148311412 -0.52474327526697095
0.28537794165264074 1.1835849200167066 -0.42229976018881032
0.25187705062760024 -0.024287360421812565 0.80356610033726383
-0.36787492356311446 -0.41748039788580726 0.59915683571234979
0.18381730548241748 -0.12804043124894893 0.81306594878995497
-0.66398168269587643 -1.0003695318502386 -0.39713926261661925
0.84249745657524677 -0.3629748767217098 0.43661576797429547
-0.4442422801373489 -0.35805835325553304 0.67301782774474361
0.48800366881342327 -0.18732486735135812 0.73772196695538028
-0.44528244805904116 -0.36500805448372642 0.67525896497763682
-0.40010510130920629 -0.067152799013083353 0.78673475190619513
-0.44783423061417338 -0.37982562720677748 0.6769833096739859
0.29735333666590691 0.20771754507571849 0.47597806395497599
-0.24144412892452216 0.68920255882989956 0.6000923473791886
0.11676993751650322 0.8615251890780371 0.54202294082127622
0.18692725447741054 0.78502451066461809 0.41717907976187263
-0.37119690759287494 0.25004752554958731 0.68746790161428351
-0.19696922067479505 -0.49115855391477581 0.53281961363590113
-0.17066243549404447 -0.34483034089693998 0.67840526546002167
-0.51801443833055494 -0.37114900744820645 0.67371583942072277
0.096022754663961152 0.60340617978907307 0.67230813546652257
-0.89492822977809183 -0.88284068660937631 -0.46187747966344972
0.025993558925815563 0.34006043999056779 0.79170033143918772
0.46706647143402868 -0.53298717060267453 0.68073464912529147
0.3088366334256154 0.74815939671798493 -0.28439364338827744
-0.48230008777630573 0.0028692594320620657 0.69140592121095068
0.27103097191111569 1.1594369077871227 -0.41891073249042066
0.50912082981773565 1.0415278877575298 -0.41775538020997516
0.11900916887423918 -0.29112471492139758 0.63905197480649178
-0.2656313969975983 0.44242627625898212 0.76856627283256529
-0.61575816945631878 -0.082306558485014669 0.75741489996747902
-0.58791490281239334 -0.16669782971529834 0.73160647848856541
-0.5718103484118604 -0.64213791016488297 -0.29482601373203465
0.57083204158048417 0.83562110760940778 -0.38904149363492735
-0.23948025795427519 -0.19528773631792795 -0.64902137959600026
-0.64257417690029861 -0.55631082545793475 0.46417740360786297
-0.83935975386154382 -0.66992641632394978 -0.29661048065791817
-0.85998977128423348 -0.78392821794769496 -0.44084927271786967
-0.3771776469616821 0.20750976330079585 0.74029628877686093
0.017930952989754445 0.30597480097895069 0.76957413359544802
-0.15551663594276377 -0.296110230237006 -0.58860103669136521
0.36238134000305955 0.74840012681640022 -0.35228604788023787
0.8812427769516038 -0.24917466611348793 0.64038113425466037
-0.24390469744466436 0.70904664691268149 0.71164459220727849
-0.21300695687363103 -0.34728316891684674 -0.55281681897464807
0.76349676683901357 -0.32087144123163291 0.71162443313985335
-0.40660665785205552 0.58062494471665627 0.64218351494982784
-0.19256879024317008 0.47473364736668788 0.73843854383769525
-0.26942152783768769 0.0099969611345924747 0.76466795845296787
0.26601047067570782 0.058266918208371266 0.65605542124350791
-0.5935475114371549 -0.20340479274135781 0.72046536621553514
0.6978498943066711 -0.31954938937528077 0.69433257818372951
0.27339650508341329 -0.042013364586239277 0.78554348727431744
-0.61696183401355142 0.20354543026733918 -0.63498114815670448
-0.35852653111936128 -0.084078265747081105 0.80737068560250691
-0.66455391830094612 -0.58137880330837799 -0.16108724054065959
-0.6322529616783914 -0.61746613528930716 -0.38470164206279378
-0.36923964149608146 -0.74053410321602176 -0.18909498998433349
0.36535624437976644 1.0975551285460852 -0.43246007657967311
0.27942532224602523 0.75585313362993478 -0.27058938456698911
-0.16910474858923408 -0.17435766775582717 0.68714737055034192
-0.30089105974126085 0.4972442640513739 0.77972072375458623
-0.68570185880671453 -0.50090355057362324 0.30122957741421175
-0.07681284571458491 0.59002701236116373 0.71702758117353227
0.57641185313998911 -0.13423461579903684 0.36646604035648522
-0.65174916266688321 -0.32974661356828605 0.69248830280542961
0.44041393364458514 -0.54477654364476003 0.41149837608481477
0.12000776749358266 1.0581918094585392 -0.26943867132981936
0.29948561434468779 0.76086725398527966 -0.29937718211364839
-0.25197136354391247 -0.66887965765907076 -0.1904182923298734
0.49314941316252536 1.0028152429608472 -0.45403284094322771
0.16971010497225514 0.46680912149257381 0.67936957654258379
0.16755578026566909 0.94190075294236397 -0.22673759495236467
-0.61296787111445816 0.17471603164477312 0.72271655406750313
-0.49518084978151755 -0.64619566314529298 -0.31221113684001978
-0.70808347371630376 -0.24061993675484139 0.72099468865361871
-0.048261237767203369 0.24482862133819872 0.76292153600132195
0.23657301942080622 0.0051588294206830199 0.78226504808686315
0.28922848706631754 0.81134823677783796 -0.36638288511949924
-0.77312622216675209 0.51275851056442256 -0.11248206213012679
0.14807840618900592 -0.31916328820193751 0.63130420393646602
0.17681946243272684 1.011483134058615 -0.27016754458636072
0.59997878558168516 -0.70507485568832351 0.57161981683081819
0.0079803051624161014 -0.30284059144431996 0.61182622134622022
-0.36603074721972817 -0.63012758500832167 -0.14709943113268054
0.86956301770905498 -0.2309612689222571 0.6446264544112239
-0.30938521995787838 -0.017328117975388579 0.77114097483534039
-0.32719155656164389 -0.6338016049453925 -0.056111349262522481
-0.46528534551236156 -0.58469520301294597 0.4291868431575665
0.7493267871243674 -0.32949541731812904 0.67120879014897383
0.39563158432438605 0.87487716367142943 -0.34623148416418204
-0.23413308857135462 0.53280611739874484 0.65147946502948884
-0.34504994053025584 -0.23854546093256079 0.79677170268720943
0.11026635459166911 0.35456490468527324 0.7312240488122157
-0.41595254393910785 0.15221737132044844 0.80203509268072537
-0.85188869669440237 -0.61451083185345468 -0.2763941941247765
-0.1441540935268435 -0.39970390904394115 -0.45125354722510025
-0.38899216545963 -0.2475404000162964 0.7908001495169259
-0.4315910691110787 -0.10267484234872715 0.81038736581081139
-0.3694687401184602 0.29145907469255761 0.63630899141988806
-0.79542746285894772 -0.9596287912111201 -0.45266476392266952
-0.33888152646012415 0.1895754795560336 0.79665777528526149
-0.52569783314646834 -0.35117809679847145 0.62250072572918214
0.50616722951164839 -0.66093640420451738 0.51059416928421086
-0.60441054548212136 -0.78640159428837553 -0.35989693133999623
0.28757903127144679 -0.13940460457384951 -0.37760781164719504
0.127317659471748 0.92666592769907297 -0.33394144667581216
0.14505571959980124 0.82745506932227908 0.17032364967084135
0.16424114034687598 0.96531144348356257 -0.23345809554098551
0.28976130085988316 -0.0649639842038221 0.75885224363239701
0.28575446617270472 0.089063547686336619 0.55315440172253716
-0.62602292791325098 -0.1970851691093074 0.72742718055756228
0.84715317775417098 -0.23836866723029804 0.41238405911956733
0.40146605162850157 0.53362687186412394 -0.12688077396723685
0.18359870362772313 0.48194367139052297 0.60836450362979377
0.71659286554626256 -0.17303166953130145 0.38906880358952733
0.031016668921845181 0.83339677493956366 0.33361564071082483
-0.53893994534495349 -0.60489401954338984 -0.19151439276681259
-0.54085265327663379 -0.14875717248612652 0.74796763913044373
-0.69615707538848959 0.12465444308281004 0.78935663254218014
0.81374777636852791 -0.47618338464655174 0.63052247956359864
-0.33772194476377315 -0.090770686601899797 0.80230674952020564
-0.49446531893263312 -0.035748209015504351 0.76685743610524781
-0.81896029164961526 -0.94145026526873732 -0.4746528504580283
-0.3171322793906981 -0.24412835554419132 0.79164350342070122
0.43365406565679443 0.79054986783848036 -0.30117247185254215
-0.68161879192595087 -0.9446954032428776 -0.45112676418187192
-0.063376240671871642 0.2330345646302483 0.76371726509918858
-0.086544916740923128 0.37588963936268449 0.81467415319529835
0.14387100574805345 0.25797369955955674 0.62476629490180358
-0.87609476988342472 -0.88368617518763859 -0.47413949149126466
0.26426659328605506 1.1032855545896598 -0.42188505169252366
0.55843288975385441 -0.059244682649579161 0.39257777804148475
0.67504506626960037 -0.49616946754627111 0.70908721899820648
-0.18089697698891172 0.38399067338569282 0.76451939112961753
-0.57790911910772991 -0.60232592863637269 -0.19419301107960507
0.37638977184038147 0.58219139807406073 -0.0679465224787279
0.41146340802302994 -0.22177894868872627 0.1841240776586659
-0.39573398912728663 0.18611213936856608 0.65879008521230276
-0.6712717863056703 0.061782028419042234 0.62655868976949591
-0.058005033082364932 0.35920683369917139 0.81450399114989835
0.41290200793138432 -0.27556469978511799 0.27080054966513245
0.13233818644459205 -0.074730502617976313 0.75110670357220499
0.72113804519104896 -0.49471635992638152 0.69406453958139025
0.70320711809514158 -0.63179920195717099 0.60256893588631755
-0.52621005300321677 -0.76938433716797316 -0.41289208642164255
0.55141527510410171 -0.1865986364383394 0.7310941617238349
-0.61638869526423257 -0.75389498408092948 -0.35132010965536864
0.43925316783398038 0.73902378128257862 -0.24308414643482834
-0.12248969464304871 0.2231426908146652 0.76311458011424094
0.20917656959674602 0.83360013121159637 -0.21020914737703933
0.060442945183451613 -0.15342917304041404 0.75875761979171585
-0.27503339170649621 0.94599002660557829 -0.25106221441344445
0.37018412824640734 0.92340083891306945 -0.36288377674788208
0.40185780303582064 -0.44200040593814904 0.70541003868098784
0.38289711674563698 0.55265058981925996 -0.050714974068448271
-0.51190940273823671 -0.077491352153463033 0.73708597543527077
0.38230426957238528 0.8366110227054544 -0.32810360742172762
0.016785253586714788 -0.085873200879055922 0.75503252211059646
-0.11112965827642718 0.097852365623465332 0.74846012000705286
0.67686455856915728 -0.44018506850741801 0.65410542043122533
-0.22035482917817895 0.42200826517662104 0.76969665876864468
-0.097575589360967996 -0.33880856627531042 0.65537237621338562
0.20359364992771489 -0.18392143170162711 -0.4576782652858995
-0.091975566047837631 0.26635516958106109 0.75537623802773624
-0.19524482522763442 0.74072815489245958 0.64128961081564029
0.4616630810401805 1.1077490100289573 -0.45963468425413367
0.39082398331851564 -0.20482193500223733 0.035512819711307486
-0.4878730265815765 -0.097608227964006034 0.76480701025344899
0.13315914414237184 -0.12457828208752275 0.8111216519989739
-0.79397988322438273 -0.87298473319044234 -0.43102412778306842
-0.35906882561285691 -0.7138118543576546 -0.18852652906514322
0.46509863441467303 0.65691949419546436 -0.2927030033740543
-0.29476630856904862 -0.53947555256726076 0.423708997589614
-0.14878465657517737 -0.46130638992461304 0.45882198821603026
-0.013514614644320133 0.22628637790541362 0.75736864759787181
-0.17864477281136004 -0.5311386154565767 0.18929619772054451
-0.68350729275993416 -0.55946615920802145 0.082566397169387074
-0.54806570812753463 -0.22862290809045316 0.71325598084271036
-0.51525513472419959 -0.079030650084343179 0.75594270131656316
-0.040571702120361763 -0.3173740578581814 0.63945011106367389
-0.22509391802208789 0.9611043970663502 -0.25093692773543808
-0.4911187206765959 -0.41748124668930764 0.65387356212345082
-0.72857789572300469 -0.071432216573793283 0.74792389289484618
0.16080212306662567 -0.0076254188474109696 0.79042362413335354
-0.41059412107244952 -0.71973442993550485 -0.28400888921155598
-0.78158646841045964 -1.0087591104559763 -0.42141743573851187
0.68968056339391026 -0.33635481557804869 0.69425537911968505
-0.068153377369011281 0.46722469899361752 0.80293268546436991
-0.256840917705766 -0.3611285762377543 0.68442029349914435
-0.22956556912967763 0.49380483446957868 0.75646607753778738
-0.76280306490864547 -0.56163044002500939 -0.27779640951339957
0.44856708233474052 0.017497674925784246 0.41565397247705249
-0.44741839042844411 -0.6133232000616351 0.15682077552990847
-0.20261404850243458 -0.15604595891942097 0.75303146855336678
0.31432342907673316 -0.097657316823544171 0.74381585097656
0.44691027683041185 0.77044504471302044 -0.27762406960102126
-0.94929843299292749 -0.76416657320737613 -0.3822274351921422
-0.16228471791510835 0.3120904177092747 0.76169156211322075
-0.4333130573839501 -0.74234391401181998 -0.30933163514495021
0.76792892371326005 -0.40973801370330065 0.6917601230173851
-0.95215001244294051 -0.68297367037545254 -0.36911213939946919
-0.33361098565305802 0.42654120283311769 0.80254437849599469
0.14633778605668901 0.84479183930284352 -0.37374710569643455
-0.52341397008452084 -0.66866062133673765 -0.32235752723995859
-0.66711496304798423 -0.18703306041652645 0.74453475038551886
-0.13743507032561553 0.638720481988857 0.72658689225826834
-0.86399338637508194 -0.23978441475047774 -0.3687308048936444
0.89862087900400667 -0.34800439148899542 0.4807828398034566
-0.24584656814609929 -0.032577125323219214 0.76094875453090793
-0.16430260027084387 0.5378994422924066 -0.6819973154365826
0.28744979976531582 -0.25623737663486157 0.7373651042221141
0.014226868121493652 -0.32843603065639915 0.49647228731320325
-0.29150580283163663 0.94330893804676386 -0.12109336997337294
-0.38743647171151174 -0.74880975677908435 -0.20583890202987476
0.13514146947616368 -0.37323650138124442 0.30798259931673044
-0.15204997688712396 0.2146490405636774 0.76426807367852234
0.13054885570785579 -0.33842703519065598 0.50210379717849207
0.42691527463431456 0.73451241528055 -0.27171042384045307
-0.4040234305787429 -0.28747570831233116 0.7626810501539083
0.23418391796229621 -0.07474423866890767 0.80849058652241723
-0.19527343562021571 0.30560800517667897 0.77406706307886708
-0.12074702475168309 0.28056161517361922 0.75773731173527636
0.44243651199865219 0.90924187195332307 -0.38622347149889791
0.081797920856342188 0.68614280616859169 0.64940994141783648
0.046612696052545033 0.27775456094479534 0.7537081668280905
-0.074101100490644001 0.84260901423826073 0.26904030159114711
0.50803942165257965 0.87630801624990706 -0.34004196293288302
-0.91818907472404376 -0.19536228335781924 0.065124332747977576
-0.26599449223528815 0.71466908858827782 0.36364096310900607
-0.52475898675925237 -0.32656073787653206 0.67194183133659635
0.39843794879482619 1.1835232772898676 -0.43392998269572658
0.58933372669652684 -0.37071760116637442 0.34913401093415075
0.1196861367855746 0.40826774412925815 0.71380454898663714
-0.13850439400648895 0.46108902552912223 0.79657453554214896
0.34662711449116479 -0.32474556755908868 0.73213316280343577
0.56132062833172824 -0.70086568153459528 0.50593437686994136
-0.38369262328168574 -0.84366949377883049 -0.33101370761437465
0.31224866256842887 0.30768484107287097 0.52861323705693053
-0.33917702792888527 0.51342844985081282 0.60776410538317549
-0.035811096529766218 0.5178339454838552 -0.65296811049370973
-0.5173740758852805 -0.8707100564882575 -0.34365207929125319
-0.24347581080025549 -0.21682928159548887 0.74358527525225071
-0.63457257563897684 -0.58983738206050607 -0.09650370072746739
-0.7267947741389591 0.076443193742456117 0.6596227010350546
-0.72486606142602916 0.037199639488850522 0.64095415519430077
0.04761729676646631 0.85607915358853948 0.62760613223685624
