# XYZ point cloud file
-0.59222345576838065 -0.59008209637323583 -0.20230631654366216
-0.10513173264183634 -0.26212016182573072 0.39372074232784027
-0.23453726928480056 -0.028220613782420356 0.74460457604167429
0.51392448745113251 -0.24137493311568847 0.66891295443650689
-0.24984970786286687 0.13326135828613395 0.74540597460636726
-0.17834606428910704 0.29499957983603409 0.67542670494375301
-0.26030045233130628 0.03805973689243336 0.79605185381285604
0.083002839628148445 0.78802038354244586 0.15413162279326603
0.23771290590737013 -0.0089921084400672591 0.62914649257374833
0.67421495351704541 -0.30294095999208404 0.46989415163890996
-0.55021591166833028 -0.57651300587016707 -0.12401083885990394
0.44191115625244537 -0.19146933222938611 0.42490052631448344
-0.10142915766872523 0.26960575310438384 0.65913976420101139
0.4169302932157819 1.0004181178157032 -0.37523533083601324
-0.20212515638330042 0.49454207624556545 0.23769526759053439
-0.60603684620149423 -0.5328868836427918 -0.21091991573378766
0.18773361644996056 0.43918806323081228 -0.047174583480787513
-0.25712780233782861 -0.29741035074708888 -0.38551486179912287
0.13523433435006396 0.54420218226822836 0.56878065769781694
0.70717850396900239 -0.30799060731203931 0.50600289088981598
0.0047819408811801134 -0.04036673615905717 0.73044416841119275
-0.22493195421049844 0.060432920244611221 0.74971699923547674
-0.11956631162580614 0.4480009105951468 -0.61608880240107666
-0.27261276230875575 0.047667837672811242 0.79544728096169837
-0.18323594420234568 -2.491702423346176e-05 0.7434712810496904
-0.3165161545683764 0.1596774269575898 0.50528164262534303
-0.59762722668385404 -0.56751605768133273 -0.31081674181947971
-0.30923024473127747 -0.13813981245694729 0.70910522636005024
0.51268092227180506 -0.33879196966913949 0.6483056264272169
0.3612540834301054 1.0551450610505282 -0.36574338758576841
0.55868733111641156 -0.17547486869500095 0.4785048641867049
0.36139341088659505 -0.37458168323405894 0.70854320215815714
-0.25166936719851973 0.077100322074964645 0.75770993135836273
-0.49877921900139088 -0.044801746280774601 0.62543026298102167
-0.54096355627892267 -0.40291455697177847 -0.30101662378623983
0.50053322036211001 -0.34748545239839523 0.68366113077443258
-0.020584685325977181 0.40718765177228677 0.67719461537234893
0.33112125718491164 1.0210785061907477 -0.38770189048512405
-0.22730616998863712 -0.019674539495371901 0.75536589820131084
0.035185050647034588 0.17881603573489957 0.61507546118468037
0.57505007337826686 -0.33930359771257823 0.6465328291766923
-0.087022607439708688 0.34640867432090383 0.71097160315853369
-0.7870211146316507 -0.82298218138115042 -0.32360905642326587
0.043270904103995755 -0.041831545095768918 0.76670178262275235
0.70058152720274958 -0.27851985810429403 0.51846567821798972
0.27931310137174248 0.77901071785448717 -0.30862879195716852
0.18413557941344744 0.81564089479205049 -0.17111177804739397
0.68859102992195709 -0.35732506359014438 0.57860227256008323
0.2608198946737581 0.98930749995465583 -0.26046777681714117
0.1891153381321419 -0.28098272793753964 0.69970635010507176
-0.12636588338057447 0.5022018354724207 0.6108124132799293
0.11743291218914181 -0.33046575990566462 0.5628536228938783
-0.1959036645065117 -0.084156090406112716 0.72876907357069853
-0.53893311464922466 -0.42669687254885491 0.11952094904139077
-0.57699452544154228 -0.60517861286555963 -0.17039331780479139
-0.066975520423707691 0.35393621791493979 0.70145344653288322
0.049562020577705423 0.25106658009997385 0.69379862182058483
-0.32847275130833203 0.018054905793003062 0.78822317340723824
0.11281400868330829 0.050769766737805977 0.68918233224083369
0.55834347609748947 -0.40500128042724715 0.67196047451087537
0.19399106882708222 -0.083670580053808452 0.69637961489144895
-0.13817436051258031 0.4970883425268251 0.70825328625573136
0.13754402997706344 0.64116196326538433 0.40618986856480899
-0.28450173368410164 0.13228305988365641 0.7429031448405462
0.55581935527180548 -0.29985308869628224 0.62516782191314646
0.19524503085994402 0.56153343132083 -0.15797332491468452
0.090134430345327088 0.44707017403952753 0.59259163256118286
0.18269769022582469 0.73039778629736163 -0.19327197866116796
-0.24864753404801515 0.17526938262268632 -0.65049133698269068
0.15576934727769962 0.52702271238877296 0.54366963409552826
-0.10484063010119987 0.36778028583254041 0.7168073585167255
-0.38124313637852253 -0.029851675713216563 0.7320776013478173
0.043163411857016748 0.29970630336722359 0.71642657502768592
-0.42215788622906386 0.11410661621500107 0.66171715398365272
0.3581092129967256 -0.22111916603624859 0.42915459235968201
-0.27885145068408435 0.25916740185545817 0.69797595146766656
0.13938494144226213 0.00092840506954861013 0.73871636528647111
-0.056376547699299062 0.37028706459778027 0.69475487253460377
0.10119664244472984 0.17507736784894012 0.65089219560410505
0.18944346646519608 0.46612374039871507 -0.06077254276326316
0.064620825975790983 0.64001664659896274 0.33894517471344598
0.16364154451791624 -0.35176925105116208 0.62395187172044819
0.25839717300632836 0.53738344558853068 -0.12310356482144802
-0.55956876739954542 -0.17486492364080819 0.53820429474818865
-0.035992112561266998 0.20275141258320772 0.66762303589807726
-0.34371013913477821 0.11571315434418361 0.72269931117924169
-0.58046684614432775 -0.51670639298591525 -0.16292114946207903
0.15256140644262758 0.1239328395437389 0.47010208369587114
-0.28966974796376244 0.17458417698776274 0.74944911658864799
-0.74479112191434338 -0.83950262878733284 -0.22227281160103285
0.1203917436167098 0.86460950770948686 -0.3025621126912289
0.073426436520947935 -0.2204451085219612 0.67730885984789257
0.21844424554242675 0.27969137958977952 0.45166326560602421
-0.42480730427980273 -0.0096344715057226082 0.45708519544337634
0.030674923964213618 -0.064194459491547562 0.75991766547804085
-0.30169399181606987 0.24284257906342099 0.75323680551740457
0.17535706781548377 0.65476686002507867 -0.22684734250532945
-0.12248116768881867 0.25793947281634311 0.73194700028557402
-0.55906509743331301 -0.63227822724992255 -0.11244825273633086
-0.10633682531984529 0.30048239550425526 0.72035049568236986
-0.44229203924422128 -0.080865223751168003 0.68028907833601771
-0.59376800106672389 -0.49192934018723511 -0.18005440538001016
-0.57395350252645394 -0.63964851638423048 -0.133664045094397
-0.37467541354176059 -0.023304434333242918 0.74384949654132304
-0.51130838181776839 -0.091038132424181128 0.66086546728819406
0.17910175952946572 0.16755541004689722 0.53508183367178486
-0.11505587509846418 0.68390883145452319 -0.52830095153811352
0.4807941077996104 -0.34499502766706192 0.66551581786425984
-0.224103294253366 0.08139739035179927 0.74451738406420254
0.15389404381887264 0.34376548527016659 0.58041966009609292
0.01234745379647445 -0.19261366596295892 0.028041766796241485
0.36974374718135239 0.70276070351142028 -0.33562117018164173
0.38656588289374849 0.93388070311818372 -0.41371158892015969
0.16060736726988417 -0.054336479708207763 0.72347493067653978
0.17935392832328334 0.58662583668578372 -0.04956669344072151
-0.060640930360488121 0.36194066435260019 0.69723924285609851
0.64467334177501279 -0.38589586702451628 0.53407318507289148
-0.041142688437624697 0.31020250867519805 0.72422725205753546
-0.1683822281339139 0.0045639894224702715 -0.51314808106493648
-0.016676503201428772 0.56427517389890502 0.6211593204029856
-0.74493105067002441 -0.81333157026961533 -0.27685163725616768
0.49432087722734042 -0.29793677013132314 0.65811879679498997
0.042158234343371181 -0.010947055144490347 0.72907028497832183
-0.69845350833950248 -0.62684064422225028 -0.39889313569206264
0.17285157711791352 0.63653268123477402 -0.21698196329988417
0.3268813145018804 1.0049978419140935 -0.38468892013544542
0.078661629028602936 0.029618856170727792 0.71093548031838305
0.45534415101928899 1.0491260288339723 -0.45298491397860985
0.39707414230657812 0.86233123250940824 -0.3590604169848024
0.24010522732908368 0.98772374910483451 -0.24875211240724826
0.17231563056154611 0.60145651788086885 -0.16491156954055552
0.35333014169060867 1.0920757053556784 -0.34137436313112479
-0.066762546383289822 0.5162226004556606 0.70796121373786514
0.23602154355788671 -0.12871091742796992 0.39286036738540087
0.2260649481184131 0.43382458858099548 0.46228970429722771
0.17436079791693401 0.45281439698220294 0.53358708843674485
0.56241360208918656 -0.29875848641335989 0.62841230630280576
0.17004902527374519 0.74593186824981228 -0.021477276602841711
-0.40088863213640247 0.0042244258745509633 0.65637967101913786
-0.04108123734694244 0.41512975071688851 0.6523293830285295
-0.22020167928147316 -0.052393265902612729 0.72994239155802598
0.25725504913989045 0.94042118390432461 -0.30022495381028524
-0.58118912675680057 -0.474923855459922 -0.15949919816078206
0.22698931752654272 0.020759096365928098 0.50781525133781036
0.0074255600473361882 -0.030552344689643629 0.73151053194927274
-0.63576835069486437 -0.500500388135239 -0.34510366279991411
0.074175586395462345 0.26678404970633962 0.6800502905972754
0.16623297950217705 0.16074076505520063 0.43111426223914845
-0.33335038076950679 -0.017765573132722645 0.78435386200278345
0.50790196009205257 -0.27983584155674368 0.67428636009231235
-0.14683538202591306 0.39341626459700774 0.75498676952820754
0.57785745447844516 -0.38839969270893993 0.66976645128708834
0.30960530802476099 0.89953887750307393 -0.33994409349365295
0.22898165792223726 0.89889634158413789 -0.24078768978663123
0.30384427311395573 1.0445412053765972 -0.30401004810629495
-0.6621275041990009 -0.74915997616647312 -0.11707366765406935
0.67470087528076128 -0.33754810364176291 0.49148967903769186
-0.54874061565221455 -0.32912623580162981 -0.10914833862879691
0.39818311031660597 -0.44694167988459887 0.68257634097909792
-0.46577982673379692 -0.52221869262997833 0.053022799118586317
-0.17087547290531258 0.30109181036050714 0.62458936590589087
0.15539137248353935 0.13504648409613451 0.58286021942758448
0.63565271775955046 -0.25619209631225415 0.6041320069719095
-0.42017280884341812 -0.25677723368859828 -0.50726634325218201
0.26465299570125178 -0.050656603932876187 0.65748242560844394
-0.52791797531630813 -0.64352153806026591 -0.085233018967163177
-0.036930372093655017 0.28129819953443835 0.71881265547519257
0.25026129279448533 0.68987112068591672 -0.26398583751236293
-0.39171193811286192 0.18213805992600152 0.64704530242860792
0.16732495497258787 0.2792621883131241 0.57704847024449579
-0.56635834335132995 -0.60468722132851482 -0.14953154632155785
0.49219850066105797 -0.3512829438740106 0.7036130397294087
0.13254022223023232 0.5044299138593471 0.56289958085099145
-0.17252703037572958 0.074744844885532569 0.73450028888467778
-0.35507668314454133 0.19299953142361737 0.57731877248862373
-0.44990330674607582 -0.044597074519955537 0.1987230465596237
0.45933023300290388 -0.32578343155057921 0.69273594633278157
0.38807595225763059 0.96169023758302585 -0.41587417872260268
-0.48551826518809404 -0.55792000980546153 0.052085176700932823
-0.15593205239699759 0.40071616334167848 0.75027082939019951
0.48276783287068881 -0.29382499700014564 0.68527445787999564
-0.29233926656534148 0.068942447342563717 -0.63020275236897738
-0.52337663219764052 -0.12939515285110481 0.64264111956363634
0.062315396200309847 -0.011718477913881475 0.72832753825477736
0.20229535010240957 0.48299551918108863 -0.20928659068925926
-0.073216740735983776 0.32187489207739861 0.70318996236672648
0.049022623462409209 0.43495416800693731 0.62240548581695743
0.039544121347813321 0.58337064821087037 0.58566215457373705
-0.36200278399732916 0.090996326164840768 0.71780897667407761
0.078501358003707417 0.3294967242925575 0.68574419484245297
-0.12508493776969856 0.62850213592098481 -0.58570622317935517
0.20025532401575571 0.81465677608367737 -0.20467208532774805
-0.17921072048107761 0.28064832419938979 0.60642669880100053
-0.18418504635849353 0.038501111385466302 0.74529609024833376
0.29459076558269703 -0.11610982927216562 0.6818644080796159
0.067657181262102684 -0.00014573565496811547 0.72369954146844617
0.03606610791269399 0.25828574799382165 0.71877982913397909
0.072302808731201207 -0.0099390800017018499 0.74027499546814257
0.20297812269716892 0.56709381505704815 0.105962123883104
0.07634673819629148 -0.082700490567742646 0.7453792203630476
0.32096555356533579 0.60298660949325789 -0.22335093898467273
0.26930866254357988 0.91608498758347157 -0.32356523851079499
0.40388640762714545 -0.42160457287339814 0.52406186324804493
0.32669800461930865 1.0920535304740007 -0.40445384903535464
0.37376725332815397 -0.35537761380839372 0.71322465414224201
0.10813982627876817 0.13687665591876996 0.0051609302904329635
0.15596196327323178 0.05160004688228792 0.57870006593190881
-0.42530694280147219 -0.080282310969512327 0.68601503851211509
-0.78443285978315846 -0.82405274772717796 -0.39529376152699491
0.54855784729217649 -0.3152177512340304 0.631282089282581
-0.51362436202660389 -0.33265283404731916 -0.38885062164636008
0.44217696995875283 1.1071616169381742 -0.42296335405918051
0.15495139515596762 -0.019949380941714168 0.73288419801241478
0.33295915202993609 0.93059516091993699 -0.36144581628844552
0.20830106012903593 0.49111668634040795 0.2700017812242877
0.40162696666904429 -0.16464252181080119 0.42389563380137729
0.27655404110898002 0.80764372729703959 -0.31065028106252923
0.62227641995850957 -0.41533281508909292 0.61411074800474541
-0.064720199989482308 0.24871789531453947 0.71313011405944693
-0.4306700360589007 -0.0065016703003244469 0.48843412202534686
-0.54139250018655505 -0.12527276233292284 0.61788402655545038
-0.017102138916953502 0.3027617507826259 0.73528265868303821
0.08671322565801827 0.61730261514744189 0.47368997575429433
0.31339394487235539 0.94277583414553234 -0.35055259639672864
0.16369022848816886 0.77761147068440806 -0.051331243190873344
-0.37668731263497673 -0.36812557905326759 0.33662367879920074
0.037006816012845473 0.45803880043960921 0.63872370423801783
0.14880063885573289 0.11071132223061886 0.48462678139715754
0.29394628599384376 -0.014761611861941137 0.57825817071261298
-0.67628769885491202 -0.64054244374055624 -0.35422500842814653
0.049644646842459006 -0.03498917343124508 0.76454926832865255
-0.11844777167182652 0.1039246470524835 0.71868112055333622
0.02466250485792737 -0.037685262710783096 0.7628220937363015
-0.037986265804671959 0.31948116716308528 -0.45791543898680054
-0.25243743442193778 -0.083495591084137066 -0.55138809397918886
-0.56127713784002153 -0.52930729958312805 -0.14760803423773416
0.11975152355929874 0.92760297520530899 -0.20389294982226358
0.35141087106309288 1.007686680692323 -0.39747137060160131
0.5554888083379339 -0.27218841311355324 0.64911929067224716
-0.043815500770807148 0.20172544242052171 0.70331139342057003
0.19275516230006487 0.30239115927286764 0.33119030422476331
-0.40710872332427855 0.14697188042842657 0.64104867371756025
0.18877542252530191 0.036478945359137205 0.49371976908147674
-0.36493985113163169 0.06419746317942554 0.72925208438595712
0.11816082325292346 0.30319976437853047 0.61944440381465915
0.43113061260755831 -0.47833293333578863 0.64676727998901629
-0.057636756794641697 0.25829311355769424 0.70104993737632637
-0.28717457739860658 -0.40547180823793516 0.10020618931304648
-0.30470406124854743 0.020903460446703326 0.7976420314495396
-0.45018878578646637 0.040864387429887739 0.69044344622384535
0.072001387867464128 -0.13861516536720986 0.11006635243791574
0.18080574165139282 0.69237866838616324 -0.22356755235233217
0.11125595004436334 0.30349457909560607 0.63550017487683574
0.19376671691942382 0.52687787665038921 -0.0080161895331886113
-0.51550166058013602 -0.18537533832119335 0.056650464229901942
0.48353806202198946 -0.21864086558638918 0.42682995999595597
-0.20146380127675434 0.027190539885151965 0.75041959774571365
0.61779426075218291 -0.31452250931747772 0.65210556963995847
0.56043377221108892 -0.29296497754585227 0.63016960008032652
-0.67717862839952125 -0.67778646066955361 -0.29784293119214511
-0.12607517705065419 0.43798383005331409 0.58366704977411032
0.051345565476079769 0.44985490060298672 0.60369005486362182
-0.12931937446109276 0.076773738089052079 0.72217536784819614
0.17616862043221998 0.66939618464172712 -0.2207099718198775
0.21947757468398668 0.59695817223231562 -0.21999524667984016
-0.56196662857443647 -0.59280082012121205 -0.15306363326737782
-0.21241856491728162 -0.036323175767559057 0.74535604501871877
0.11081351630814279 0.11550934957921588 0.66243280442519048
0.020659030456725513 -0.016097434194097149 0.7319726861846132
0.12343756711077304 0.35971706103662537 0.59769134291388781
-0.67169102920006174 -0.61357595226654049 -0.3698802029045184
0.6661103289859811 -0.35866798884715601 0.61322170930299857
-0.37859569547125504 0.11711872180843064 0.29221393720276256
-0.10353835640266179 0.45926241783289479 0.73454264732868702
0.23076049537481846 0.54358061254484191 -0.13762534894719758
0.18208307478471208 0.54641676132718375 -0.052119535346300316
0.2300964401134365 -0.41516780715709189 0.55466923616442254
0.15791657489030822 0.8228873531349199 -0.27618401266239112
0.10640639914729622 -0.03378220523114206 0.099234852688594777
-0.31610914427148257 0.11057670767691907 0.68283256294368166
0.17054839392160243 0.75959420879132589 -0.13761692311552565
-0.17578443981000974 0.26835769114418362 0.73780369177546112
-0.72304087356635394 -0.79825743290097173 -0.21465792385576754
-0.016052402255056997 -0.23601964578210199 0.4804809537445297
-0.068430620336562609 0.28935326432445097 0.69865921316862967
0.024019055785423349 -0.070880542749963471 0.73539168478525552
-0.60742703673449905 -0.60970594037440295 -0.21378810675009041
-0.69722908000211226 -0.71717273941870752 -0.30436799244813506
0.14777179059055079 0.3895733715582832 0.57598368936698197
0.054310340693149384 -0.010761057684972597 0.72198344874786113
-0.020451695102621403 -0.1187469860163628 0.67133067573294458
-0.044559680240392474 -0.17098669987923931 0.57981399723497462
-0.17768363087842698 0.015511052236651501 0.74303068013696616
-0.32112458184273746 0.095280139818431531 0.73373727834030655
0.62095685180633242 -0.28098498280969419 0.63393153572164418
-0.031079554410601257 0.40230909174053742 0.68361760733532495
-0.65430568094188457 -0.5234519283836101 -0.38397058080640289
0.10438655576364442 -0.074191589379025702 0.74496148205464863
-0.57399923219872695 -0.47362720401542924 -0.14544336721989004
-0.51054312852905048 -0.49120085620412768 -0.0074665192657327184
0.086025250900895744 0.33141837317493095 0.67844976616230668
-0.36290085453151322 -0.093732149248396013 0.71789015506180742
-0.69992834333938236 -0.78343554719083275 -0.21779754727471201
-0.25446678302697201 -0.40822780613511256 0.015462770089763378
0.20061082369467148 0.45218529289926268 0.50165284249100928
0.26911923532941912 -0.28241457686580196 0.71467402346596964
-0.81850157253954392 -0.77679321610958862 -0.50652142818104551
-0.016461230405732552 0.23532321909058074 0.6993651277688826
0.20419098787279444 0.33795559479137571 0.35836188563378368
-0.50427634915927011 -0.54314757992924423 -0.22047853935325323
-0.56986884621265554 -0.5517783510754477 -0.18162673002962626
-0.54800766315547866 -0.46924188827727242 -0.065626176123556368
0.091687528326922618 -0.25338585256979318 0.42108304924620488
-0.48665641526270553 -0.085743379267554154 0.66822323287691421
-0.15599301947598421 0.28532972138927581 0.75547225813004248
0.36265638482395435 1.037544184330107 -0.39542104286886437
0.11535602366631642 0.41157361477549714 0.58569189804548616
-0.33417050906286749 -0.058542541221218158 0.75870726438793079
-0.19994105085908798 0.10062859691301207 0.7419702505528889
-0.15952534825505266 0.26332536318058608 0.75456783204271838
-0.52322954460838833 -0.19467938044582977 0.61240954232852496
-0.24468406932866044 0.10965839679391132 0.71665497987978177
-0.33674040552254575 0.13800686897887315 0.72797004757014194
-0.33310850812742165 0.11616521220193921 0.72677821743212401
-0.32903437648718448 -0.040684502730602645 0.77917021344467918
-0.033718575146952229 0.86686590495607119 -0.31929797622171563
0.010938891855765798 0.10768524459399931 0.70232871741117764
0.024550626612297122 -0.17374472268610175 0.66761806745665786
-0.66323058498509879 -0.64779040195581405 -0.29938743526444633
-0.013765277094702655 0.33240578201328397 0.73086727876851487
-0.17160197886754647 0.30881873406434313 0.58632408481225262
0.33021479986753871 1.0792284375784837 -0.32355785834325823
0.55043692380998976 -0.35269341735641135 0.65790895344322009
0.38700857586620807 -0.10114306313023569 0.63213027501576846
-0.035520036989914627 0.26375717979482283 0.71141783519243018
-0.21391490929941825 -0.0033954828054489905 -0.56193882740733769
0.3757449788095652 -0.42906234705206714 0.53158961153628259
0.26920034897083012 -0.12643630646194559 0.40717112090103014
-0.22318399236162062 -0.099844258127061325 0.67900642338832606
0.30864073852260315 0.7447268565353703 -0.32893532392099678
0.65108148584306202 -0.27165099630509104 0.60240776621673131
-0.27137499477706661 0.14023267549049123 0.7436914664787716
0.096287676401257266 0.52852623633659634 -0.32293787887609504
0.18706227797489486 0.43488579160161445 -0.1699363254820706
-0.048700473431386948 0.21530553408704756 0.70742250855369382
0.52544426234109809 -0.24549955160596526 0.43027635667517944
-0.5353928026904442 -0.36032076335555696 -0.30872039310029598
0.084271538635013105 0.38199631764367359 -0.25836238990357308
0.69412991222744447 -0.34079584602048518 0.58266468878621946
-0.084238483746049808 0.33279217805846706 0.71242179626630053
-0.53973162947601705 -0.55530546410939419 -0.125119719412637
-0.27952364036602911 0.11634814126776249 0.71116090420897371
0.10510967360646389 0.23241936617389247 0.61336503817096466
0.45179496325715873 1.072629014291361 -0.44790569478333508
-0.61875023236267912 -0.54846182401641053 -0.37202949125378348
-0.2779821104244713 -0.14806081065559673 0.65331316003243334
0.20800402496557019 -0.062723481877468235 0.68645372175894126
0.073393318710795991 0.010668935909806887 0.73178835720892177
-0.67977917508278263 -0.7688097267876004 -0.21897462710110971
0.29273234615836058 0.90532853586866624 -0.33052794402301333
0.57753868285897991 -0.39915166948323955 0.66496189676064221
0.14123543533402377 0.32868870711653919 0.57321936560883402
0.61464995986363524 -0.41550076958906756 0.56056792872027428
0.068566111509528738 0.58474513652334048 0.58968418150067436
0.13412943599449065 -0.2960369926075046 0.48090124238113652
-0.061548037153537127 -0.16521558686245874 0.56724501425557883
0.076694721412700062 -0.085189049530500549 0.73945912629444277
-0.0034642612795542371 -0.25595764546825039 0.41530612135767264
0.10776927794569265 0.43650377342983915 0.58801120902936477
0.14277764831599185 0.81741635803707557 0.0074665873447234965
0.23662284142998055 0.3981997066977736 0.43107097683975309
-0.2570589965769538 0.06003108073292851 0.78929688970965706
-0.17299959153111027 -0.024266086344704618 0.67983444714629426
-0.30459665763954158 -0.26087391453504583 0.51995967826928446
-0.56955981815365242 -0.64234513992083064 -0.072130322547977244
0.0087034342561605749 0.53589284440174456 0.66157612596932691
-0.066002228944433694 0.36505280129858719 0.70188348114872001
-0.47319927681998813 -0.029142584977944308 0.55658854438310512
0.35975108139312328 0.73268169240327885 -0.38276711880789349
0.13955065429241076 0.013186552891053749 0.73368068183316981
0.11277299242152372 -0.19498228514051585 0.7053067297913781
0.017670555425809142 -0.045959097612132238 0.76043374574003209
0.20017448600750459 0.81261153055920621 -0.31833558500681014
-0.054428898450664565 0.14670770629979502 0.70232026493393784
0.35164545537520331 -0.22731828529863041 0.70411827243431224
0.24417710804283399 0.8582987907399402 -0.29491022349992335
0.24127035667776947 -0.34564085041505455 0.68999878464060638
0.10205168860371958 0.49109499475989127 0.5827610471663458
0.18722033392487863 0.62382672986223664 0.0031644607514152989
0.3233027407701603 1.1033506727532192 -0.37960850289089243
-0.031321402412342436 -0.23114828685973077 0.47450559360330691
0.0094580468411812335 -0.030135224301465646 0.7500717112936065
0.19935439542314026 0.51006122266321485 0.018259997866076461
-0.24924922798730598 -0.11954897886368676 0.67620370691007026
0.024200526028106878 0.2659574852484643 0.7255176460027043
-0.37028797470064861 0.032358972207813919 0.71856108613888381
0.22299651078008043 -0.21380071063421346 0.4144108891513234
0.26161282703228955 -0.4355027402170748 0.60352454057223559
-0.3567230734723329 0.0027423326227904443 0.77275353155783966
-0.16811501060139472 0.53508467799165749 -0.60576227661676607
-0.80586448055667237 -0.75867804497972913 -0.46944757235368806
-0.33673897574727568 0.10512619880340934 0.63307762557978586
-0.080581822341550147 -0.14760359749059693 0.57818458989138888
0.27135163065277745 -0.0711533112491054 0.41595103452664017
-0.35451337429568847 0.16384786356500658 0.73788988802753508
0.28262670708699966 0.82836817128674856 -0.31785741086131025
-0.69735949536822028 -0.57891498028087951 -0.43989324000360164
0.48831665851977818 -0.3467291660715297 0.66999341586145333
0.21684504825249828 0.59166812260791457 -0.20849093343724678
-0.24737015095391879 -0.13063073226449218 0.65780001775080776
-0.22279290103064825 0.24355848173311423 0.58552920413621123
0.17321528878804787 0.64998421365171977 -0.21830770347504469
0.18445560274858808 -0.092077409828300372 0.70047242856055136
0.27217260028371726 0.75615658602199121 -0.29724245506784042
0.20828931860634747 0.53701947036546138 -0.14505842878786246
0.23729701928581745 0.58392612815728318 -0.19978438010873767
0.57851357205591725 -0.333981999252285 0.64400971027729326
0.21787225698210627 0.94859815932208502 -0.31805649913748746
0.14719492465427464 0.76664479607682812 0.083018337044972079
0.21491925409344523 -0.37231779447289792 0.51558100233002457
0.11053967697201465 0.94555642797403083 -0.21014255799041803
0.58277293785096396 -0.27859332659240343 0.65635477722471258
-0.51169462923940867 -0.10099008512133922 0.53596549768189383
-0.41171028217514399 -0.0045576123387214285 0.60826567007863386
-0.46278867483189634 -0.035763202844508291 0.68564592436375815
0.11216649202523521 0.036826853934108561 0.69150258718274016
-0.47032275534208745 -0.24342376359327256 0.60611987713665449
0.16453146981995564 0.048770138956342857 0.5252694799489781
-0.18967372600268934 0.23947478679330292 0.73817415175986112
-0.21631699115237429 0.237111693368246 0.70270259144395253
0.60018120980334411 -0.33749716151802334 0.65859633932667117
-0.020508275980837209 -0.17214704196313124 0.62015349441995493
0.6289449973134954 -0.41333946609719407 0.57632426813679394
0.30913951074588414 0.67061179551484185 -0.25212561677007872
-0.40176573986531267 -0.21639653642255463 0.65131348109282139
0.2291435308291592 -0.015936570701722497 0.64649803890231494
-0.78285768806889589 -0.82381042745608912 -0.39873552385678523
0.39127748372129367 -0.12971613202704213 0.43001346524756695
0.18805204551872556 0.51112773192754291 -0.10571563662808026
-0.46149758427396803 -0.089794120999838745 0.37403641276769506
-0.30130249127844955 -0.31445384292550704 -0.41145134215023749
-0.56684178013153197 -0.45234981856443479 -0.26514325291785146
0.010245233206449517 0.66095508559746829 0.30229023567398033
0.2945312442215422 0.98510558425762973 -0.35630715830094828
-0.36632651842112468 0.088805164970947148 0.52829601033807805
-0.72858457470872129 -0.80758245992520616 -0.20086040448892417
0.3640459405017909 1.0352669758408735 -0.40387722833069684
-0.40191313254136529 0.040309872980675232 0.50839587300473954
0.42673641102895699 1.0101025589203985 -0.37914115748443733
-0.12154307065049752 0.060850003751123261 0.7231640838198331
-0.41765100994056009 -0.011676872137519778 0.69691146361265377
-0.075536815616105923 0.29735280572852729 0.70844912582608421
0.15676459695603415 0.62744184816475479 0.50414368231228512
0.17076665815616038 -0.11002932641458973 0.32586586782735827
0.36767768998878791 -0.32479742049922855 0.71623161865640839
-0.11669596486407119 0.52632582462604294 0.62730214617718072
0.45940211598518921 -0.29169048619993254 0.70092618604342161
0.030120619503506252 -0.028104289642097768 0.76037435472782855
0.14479117752213796 0.021561049988862546 0.68537580776425411
-0.30520314660750092 0.077931864057413591 0.77807137127276804
-0.50777582814113331 -0.50353070745782214 -0.28619945044458173
-0.58893821423668702 -0.56343402745724891 -0.20657025549702801
-0.070133879773090602 0.39589649502517199 0.69589213479906886
0.039935220239685043 -0.058365373481717997 0.76720565669565677
-0.25554285977131302 -0.15102914870152517 0.69717785442253966
0.01661876579107871 0.91880167281209302 -0.35437171486011054
0.28530477781740038 0.67527291109613485 -0.27485805327777568
-0.68242833319922624 -0.76072570060719702 -0.32512954505244462
0.099429259507175433 0.20055608405044878 -0.070249275276722645
0.54924515105458172 -0.38417665010841318 0.68448945386661175
0.2610525664386214 1.0202847200083358 -0.27014455624324951
0.08192504774285822 0.66258857691101691 -0.38107348531727736
0.11170959153050242 0.04253976907003687 0.69166911784101781
-0.0094766476108033848 0.47185104756845575 0.66696722686223475
0.34452127238988528 1.1182539630624067 -0.35190911961473303
0.24072123782256843 -0.42576608950225947 0.57765026107509554
0.14787912339523199 0.17982137574601631 0.60875823105770943
-0.28722558077641513 0.20671409700995858 0.76389952850531873
-0.45648593390429254 -0.34963732692214511 -0.44376315058028704
0.21816094126350777 0.53758342779586887 -0.14017933899271495
-0.24293296039210166 0.0076880949436062274 0.78628384423873654
0.17359357268480147 0.65988700846997306 -0.19723140314452647
0.092690955439714035 0.0029393788454963321 0.7450483952424396
0.067651828620459015 0.30726714623681461 0.69962485621289872
0.47504298944274059 -0.33364347578850517 0.69748074985502462
-0.26045959039217276 0.13770071724470312 0.74483037014746045
0.12345109955704717 0.89995636271982993 -0.25105164227807608
0.094434845252241217 -0.26568696652206825 0.44631468051830303
0.21210664962673301 0.81817114053699058 -0.25257872371484646
-0.16882464933482999 0.35339968615123341 0.64854354380970602
0.07221083554291266 0.26935102336810868 0.68734359347337481
0.13302932608408277 0.32585306045728002 0.5933667489531409
-0.74763597291593853 -0.81336659224149521 -0.25461707434683734
-0.20952275118667696 0.28522383837414522 0.56295179036462872
-0.47728959718319591 -0.021049563301004159 0.58298161895909861
0.21837661071258485 0.27767364527727723 0.48995325897965158
0.1784132635439486 0.17297055439768139 0.47564942982753522
-0.54309140747556217 -0.21693847436338576 0.45202108455069245
0.082297763283669945 -0.013816671197676822 0.75030440949403199
0.22654384533611616 0.87642140661615286 -0.25484430913396461
0.14422646866157107 0.074578756260021972 0.50053595558051256
0.16172514334999327 0.65695070030989822 0.23175122399609216
-0.06920155153076224 0.36683569894325319 0.70354303880416202
0.22310231204423248 0.55307349413234896 -0.15986352169846874
0.06139337126396488 -0.010295291730421985 0.7185981821223304
0.62883117575972158 -0.30754901340703489 0.45463561810832903
-0.73461206333609341 -0.67987721204144891 -0.44029495224217363
-0.39909651174485156 -0.029657055149146627 0.69768835742690305
0.26867258770954333 0.98977597061738276 -0.38386241063318738
-0.41767320410951136 -0.51140576730348286 -0.012393428167557174
-0.67637851798917681 -0.55742300314131477 -0.4532956871637126
0.085172944548673038 0.45574503084454288 0.59828481426616698
0.1005864295268929 0.74688651285930063 0.19654633723705739
-0.56473590899029991 -0.48950064497680623 -0.12922332365819666
0.36156895033559866 -0.12109791222033905 0.66016310308040949
-0.37320871176969617 -0.38777020913257032 -0.37991360382092221
-0.26964305764165725 -0.019053598503075975 0.79174367196403039
0.24485130421770118 0.65528853704999368 -0.25048912007976876
-0.068721288113507084 0.46192094859451638 0.70970827060202701
-0.63872786924421654 -0.64939851985282249 -0.24173706935802131
0.15202075064844572 -0.047155975623707658 0.73243861952851519
-0.081869829304699604 0.54363436063812831 0.59082189570393429
0.32459142667069324 0.71279579963919848 -0.29799119932592555
-0.51067375228125944 -0.17513717012647878 0.39461519471197171
-0.015221149641833576 0.35321773784533161 0.7250257056417867
0.42635803549618501 -0.48354745501436325 0.61010369057355485
-0.2479868219573359 0.23123548434004637 0.65309237402501785
0.41013316878100781 -0.26442257871038621 0.70349234463354771
0.48343530171352067 -0.22167340133598201 0.66913996619301652
-0.25832733614748943 -0.059454443181828909 0.74341233734259571
-0.54899541481546588 -0.14968413425251992 0.54544654680804905
0.12776081247734311 0.33960603256901822 0.60530294121628969
0.063439560601584233 0.37671944340198071 0.67522566935671324
0.12028814763837273 0.28371906432950422 0.62852647363574088
-0.10384875154962908 0.29724640994981377 0.65623705927069753
0.022118219618759122 0.60591740169814234 0.38079258831356366
0.13708218629192889 0.4351097532474193 0.49590276858743648
-0.15531224419173389 0.45237621048872478 0.64366855666589573
-0.46231410912491611 -0.45561751258596428 0.18587117526077257
0.058956883760705514 -0.021678777001314486 0.75715000362721763
-0.73580889809576311 -0.65353614648820546 -0.44525150531454816
0.47099003449853905 -0.34122748546399118 0.66406680908299009
0.26291482046752207 0.51500102468765196 -0.21153521266166808
0.37353508526650853 1.092982456653665 -0.35441820933020174
0.13563599258030429 -0.20125431452376552 0.3693620862698046
0.3215561422847395 0.90128566947458544 -0.35030820024555986
-0.21549325923444057 0.4035441841091969 0.38834797063425952
0.39240766668471172 -0.2024328456279878 0.6864641501016594
-0.47789666249563018 -0.27640897349911797 0.56154581221343702
0.21938176261451012 -0.12743020961364215 0.70301541169370441
-0.020790378422483741 0.80635204505047708 -0.48366041737157306
-0.27288613607559165 -0.071285887159187267 0.74038116935645126
-0.72358392247319347 -0.80277842273103905 -0.29106465043315977
0.67052397167220468 -0.26969390080994082 0.47597494353809622
0.40693676990488026 1.1098651350556834 -0.37515823661312508
0.40605001428649412 0.87976909951097326 -0.44260032447303654
0.40697597775647321 -0.48187609016400579 0.59254986206783988
-0.07260851209270186 0.29886113860089436 0.70377212119767296
-0.57143819821826281 -0.48818160705847014 -0.14111324291562011
-0.69548393758937932 -0.58530411158886264 -0.40592301652562135
0.4372676319083354 1.0839367532878239 -0.46425809078070523
0.20943254363670419 -0.3023534875262972 0.46626381874324019
-0.34818372575596457 0.21635040862792909 0.74685172521203846
-0.038580423398381469 0.41540607869612289 0.68498042502529233
-0.037261510998990277 0.23997667769576525 0.690572168176113
0.29836743403757815 0.79390642641918463 -0.32920081676707413
0.18606787456276017 0.71618447856917133 -0.22640047909599204
-0.56444425664737641 -0.53731619414827292 -0.1605992529215261
0.17905298800269043 -0.017896175392249081 0.68890574106561253
-0.55099632295627288 -0.56939360091390778 -0.15683094295170497
0.45544673442381084 -0.30520264738658875 0.6890034342852609
-0.32787802686118883 0.067514967456509201 0.76756759928227003
-0.36964354318644577 -0.10921160993926993 0.70121411654466681
-0.74783683091650288 -0.82338035454361047 -0.31809128126456354
-0.1769077729780596 0.29137270825593964 0.72119379600050992
0.43706382569596541 -0.30612659890852978 0.70940511150291619
0.53993699305534926 -0.45225118447140256 0.6273192790549591
0.10587535643941208 0.40944439385798037 -0.24417427295826799
-0.16470351320066856 0.24171720347228587 0.75447916154576022
-0.3195149725192632 0.20888787381169782 0.75692701075639979
-0.27599510050911469 -0.041627527592154268 0.77004254305709841
0.5485163866196574 -0.23624195983405372 0.43171726512804098
-0.44003361508557709 -0.068237483385500175 0.68173486052739063
0.28123122043452425 0.96132249349761878 -0.34490343970187409
0.41830111815488924 -0.45362578370238404 0.67928061373590398
0.18295010511469925 0.69466219782367511 -0.23276849460960125
0.076351437635858249 -0.079626529430546489 0.75037855127827879
0.50295609029940902 -0.38001702920927904 0.69904716701102909
0.051617153866684251 0.2437831495814462 0.68551446345870382
0.034723274695521777 -0.061766660468316914 0.76429542427546593
0.61638700221202669 -0.24092612522456869 0.45518959959020538
-0.07809144356588249 -0.1311676140212632 0.62826449883879409
0.4503266135455834 -0.35762157571352193 0.47438218878379929
-0.14146053862546359 0.4198753866638496 0.75265478220581861
0.19239005018524385 0.56166519018843641 0.48179083194585326
0.24848976354182281 0.77326630958118014 -0.28526152923264614
-0.22190899429156069 0.0715492880526023 0.74008385796844167
0.1387872323514627 0.39526236991411046 -0.18154838560631048
-0.40465174501168194 -0.23376162247118626 0.63446702418605938
-0.53731630796126784 -0.61246895581785377 0.028718430149629381
-0.19789949587695038 0.25016303257144168 0.60851900850076668
0.29198340468856326 0.64790635485035031 -0.23270286391904516
-0.015227389027645227 0.56919252635966178 0.5957926888202838
0.016183952960892145 -0.058866225496501778 0.74636703936259297
-0.20267066837432207 0.19314015373744464 0.75922973793293635
-0.31291060118631775 -0.018934433789296268 0.79051072478550533
-0.19278149488540491 -0.019356389744926705 0.7426999866193652
-0.25829761812825497 -0.40753777562454729 -0.15598907865872302
0.11838717968830523 0.91092857793956028 -0.10180960041791021
-0.61909456036674504 -0.5307084350826794 -0.23446160987084785
0.60451219900094211 -0.26667831445537105 0.63588528643024511
0.67284880069461206 -0.36439080188649564 0.60174366119390599
-0.55662696060383965 -0.48643066729091644 -0.29669551053103982
-0.71099622702570908 -0.74529237257674485 -0.41631870081920974
-0.067808555506213619 0.80940123178629519 -0.34680560262947058
0.20067231375740308 0.59330354549940567 0.41745254627369655
-0.14604339162972879 0.38017311843696833 0.5984742146762928
0.34118532774038834 0.74917884287129444 -0.32639182152785762
-0.47664515479399139 -0.30025367977774065 0.48656735351311831
0.0092044925174437353 0.37478260343462533 0.70941569259579129
-0.81364730443196842 -0.85000726477803701 -0.33939023384088862
-0.40333318628412568 -0.1484803644930579 0.68784773839531854
-0.15370749638356079 0.30913215162039842 0.75648581223350841
-0.19307940600590839 0.0093971329837316819 0.72854470480963596
0.19318594250582771 0.59562017223976049 0.22251307650585067
0.61653541035568382 -0.292641730039783 0.64454901400540354
0.28203331676894866 1.029642435084609 -0.28016011656353812
0.037538969076500756 0.50493627131407925 0.64270476868933146
0.65851916353426465 -0.37685786740617999 0.61247232814352959
0.54597232751977054 -0.28137148041297189 0.62931415440543015
0.15678617581315329 0.68100380795687143 0.19161975978636314
-0.19208291955007467 -0.37618571364602582 0.090567831274270039
-0.47791412269815015 -0.58231983784364516 0.039886697217477285
-0.12440274280022934 0.31247648594128397 0.73440758400949202
-0.05759452607438631 0.40027102129461922 0.69195146538938357
0.079091004400127132 0.93891052599389857 -0.11945852177676586
-0.47761561813009717 -0.1252275262063629 0.65950219999620652
-0.47291991916607734 -0.034319613710020569 0.68697957436962465
0.092384299913968515 0.35062798120273664 0.65202074206357086
-0.68185367409331887 -0.64087084825892737 -0.37995825836438624
-0.35822352274846847 -0.032450981568874271 0.76670204324389757
-0.092666039264211852 0.32588600833075465 0.66703554969396306
-0.77941403989313962 -0.8319758708787659 -0.28598068061122572
0.027729038000416234 0.34498042617929192 0.71349889053275484
0.55141731534141636 -0.19075792737926989 0.45565410618236507
-0.41140930627274763 -0.11451783394997594 0.69678897824719832
0.44398470967155212 -0.086375695580666267 0.54039790445563129
-0.49026889317271782 -0.12048845367492755 0.4429112665626761
0.12146846265991673 -0.021039261746233606 0.74740484753516157
0.076365077660349029 0.28345689841293797 0.69563935315264891
-0.30792782616416575 -0.42548314096606954 0.024069899009408591
-0.47131466057937721 -0.48632847083141173 0.10550315659470921
-0.26180040315551761 0.10972476311593349 0.74311468024861915
-0.51413723514157561 -0.073414543026260493 0.63867109306090808
0.58229962182442097 -0.39249069404260939 0.51423958462086605
0.11160337406268479 0.30828662997608158 -0.13655780173505416
-0.63153580360563843 -0.60434541396779951 -0.26580001989496571
-0.088555040026285337 0.39002853537586291 0.61957249400640158
-0.429279997951169 -0.011358647621501961 0.68872535048211703
0.35688381207387371 -0.037877573750912275 0.54722836943363262
0.19406573385507853 0.48121896474812775 0.50214835932396118
0.32026182816176579 0.99022559644842023 -0.37519025161363018
0.24790641521478474 0.0052782106450521837 0.47961603731968483
0.44861196561806105 -0.31511421546798868 0.70800324826377159
0.36509243795781188 -0.17098462219037613 0.6824812346977045
-0.55983921145918281 -0.40709787103770623 -0.11212330587076658
-0.58270527688061557 -0.54535707084580132 -0.18907921474016243
-0.22793962124829092 -0.23925054463678852 0.4999465897478923
-0.43916036140398584 0.0027573221299168615 0.052343427840425671
-0.34182984179207115 0.10713588793900453 0.72404948727222351
0.11465558028386445 0.39551142471338019 0.58701694849991126
0.38125210059606729 -0.45498930802037352 0.55393192609471809
0.08386974970320013 0.74682478711915512 0.20104962206898236
-0.69580688249136369 -0.60334122703164339 -0.39301265266025187
0.13777980220988084 0.56170715920923442 -0.28665136923912204
0.14740451366521509 0.09443254248091093 0.47776727296431043
-0.4060351673930237 -0.076893636091315276 0.68365186051568305
-0.38931949449410486 -0.13011497944524852 0.70136347687313305
0.21744357060499406 0.58193733308846185 -0.20631985351538484
0.22910802356731508 -0.038157187418439875 0.40811417633715025
0.31275300285226787 1.0054663217876727 -0.37300770424149521
0.0010892487763616288 -0.050657556485723232 0.73219116494747993
0.17001528876199989 -0.082617577855962798 0.70260777297664334
0.60335733880089415 -0.32231031999076221 0.65532330976557063
-0.11665680503618897 0.044030527013146248 0.72801435082089727
-0.11055999148704243 0.44433865143723772 0.49801378461012558
-0.77499429517461116 -0.76394308897211638 -0.43715959026164453
-0.32888330284159412 -0.18054846034331473 0.6837803521793967
-0.69053867463796736 -0.73425562866056282 -0.27935623323254233
0.098057257565852873 0.48149861897138391 0.58758625760749106
0.03745547459923998 -0.18694348284857298 0.67053245309120624
-0.2373892655669676 0.0037341873491492095 0.77393850784154461
0.47985450497695564 -0.45527673650455114 0.66762254133615984
-0.52688190891468567 -0.35521381945413388 -0.35072623095079913
-0.16875298193606797 0.26497685863328724 0.74955294457835775
-0.57552060532441107 -0.64610229243447792 -0.046876700306209718
0.1220574367116658 -0.15250276959020392 0.71466194561120377
-0.69802821574172669 -0.66406714539231948 -0.39809609541773439
-0.071468899503308064 0.053294752189640748 -0.39122015427412393
0.43055147309907993 -0.41361571809484787 0.51615674446733317
0.11264898290367437 0.4377263949535275 0.54269264195137112
0.45111432294649922 -0.3176101641837914 0.69339689484805178
-0.08358996065566382 0.293724304335369 0.71525923266997748
-0.36600822301760816 -0.026947004015527964 0.75968200888816739
0.079220887950939817 0.28163332879572334 0.69118740726603756
-0.35006576149593505 -0.11202934067603953 0.70774268049739175
-0.54627193664532192 -0.18754215918462847 0.48628756568135445
0.1814226529433077 0.62062945189861696 0.24372249647521049
-0.32873287997001133 -0.41677319121753853 -0.27892893971599642
-0.050277021952353368 0.43519528512382544 0.61791725408908449
0.12214033151546494 -0.20081888874805154 0.34881824344388501
-0.55341851509278461 -0.32390955133755628 -0.0058604794227596901
-0.2242138386000983 0.12848245425597793 0.74417734123240364
0.20088671478949469 -0.38080825855332234 0.52986585944532805
0.13460415283641081 0.86893270460620298 -0.16961667042413453
0.063392862751800894 0.34754351583140686 -0.27324248940860452
0.3398102117076367 0.98778016606827324 -0.38293633837338581
0.53769313259483975 -0.27787767306505962 0.6313176315208433
0.49789121143432757 -0.42870907586949425 0.68360165259753858
0.18221477601023178 0.40834467536435337 -0.037905804355614192
0.090894562738000478 -0.082557419698865653 0.74073779830029229
0.16219037664656852 0.14815947145791153 0.32198076926084662
0.011028241130462912 0.88403079719729027 -0.4117223325689372
0.062385871811926313 0.29471417410921541 0.70550473371412059
-0.11338643677104032 0.72340744377582222 -0.19250698975185065
0.12001148137712103 0.41378999900433966 0.58580743832776982
-0.41517502023077174 -0.057706287058405747 0.68263279081199912
-0.24526743467609269 0.41746742714890539 0.22429098081667043
0.10384675184095143 0.46835274316542752 0.58772148437246086
0.15076432266672735 0.071509609329866608 0.4818124840896596
0.1301295754475876 0.028010968353710641 0.69211631398730655
0.38678650329183334 1.0149546549051858 -0.41373727727943088
-0.65039701682635376 -0.56391794734593437 -0.30927324298090131
0.18228112001500019 -0.15347586163849836 0.36754398421296919
0.64100337024291076 -0.24232587384586957 0.58627287692294472
0.30911081222207859 -0.21611680927954291 0.42574105679486762
-0.44912586639288232 -0.1220187908486583 0.67354499581366312
-0.71764159383960779 -0.66807543005115733 -0.52417161617264596
0.39686283299579583 -0.31790946171861623 0.7149721004959807
-0.44572192819181311 -0.10618978196563345 0.67729775263255043
-0.53546238764100107 -0.49890921977045544 -0.29315597950822736
0.50757740175626176 -0.35109705506988487 0.67229484367433967
-0.47425402034046549 -0.083448709434768897 0.66751958999785732
-0.77752865708867347 -0.77647201073569905 -0.45222881773834123
0.4645552555003718 -0.2941840769672881 0.69876698330224007
-0.47871869277023354 -0.50278674417948688 0.051933590105713412
0.044748310343343645 0.62560830591608241 0.35674408988649764
-0.17025327336645052 0.4278002260197975 0.44701209003727671
0.33014834449964642 1.023856494424964 -0.38135598351475497
0.29105228306490816 -0.0066925682496541405 0.55225279524166326
-0.24795676177551917 0.063903369097564111 0.76830163825448594
0.12115619350482809 0.34554246074402806 0.60782808173732239
-0.0082625530415528503 0.34479296174296814 0.72654470846072761
0.27680841251255217 0.89213265723287294 -0.32097842162741819
-0.033858561769110146 0.40761520538097262 0.68706051906617982
-0.46203502145733538 -0.50815867026425177 0.068864802276669024
0.26055819844902106 -0.35807176120922946 0.49418856542738543
-0.18649831224328101 -0.095365584647404189 0.72338571308666555
0.51579075584588385 -0.28879502232423215 0.64208702751832725
-0.10495705990102805 -0.1687234158669717 0.55548181209043213
-0.35971697895571902 -0.14222186310659524 0.6713936414889099
-0.6958648776996571 -0.77684910976081678 -0.18665692767818332
-0.020640680956380331 -0.12530183122418759 -0.14524791531346981
-0.69364511401453821 -0.66490476978398805 -0.37128027999021063
0.55956554706105366 -0.32474941983777894 0.63344394154326289
-0.052520213924126147 0.32495715276804527 0.70965869404758719
-0.096525461182841943 0.3088173565627772 -0.54053614684712314
0.11926433241270906 0.26240638039053676 0.63112231051612933
0.0097257242048020554 -0.10708288444460679 0.70464668104499317
-0.54302986333446068 -0.66565184257378718 -0.021621637720268039
0.029140703884118602 -0.04192128288535435 0.76512419461811321
-0.35037289106816388 0.066550198761890167 0.72679294230905711
-0.4570553270065742 -0.091022716954350713 0.66900313438223724
0.21231546958990549 0.58461841670484538 -0.19428771289259095
-0.14619112918176208 -0.1707774498191974 0.59300485746808207
-0.55765792373708045 -0.36838975853242806 -0.062900368373703275
-0.56996964189040233 -0.44036569228085209 -0.16608735250381979
-0.2723800640524412 0.10792265731973694 0.73900894757819124
-0.031178863323704953 0.23085762728696646 0.69502243333575409
0.20512903021480594 0.71737019081621756 -0.25431247713780947
0.1556863836350417 0.61506976036859506 0.52397254252999481
