# XYZ point cloud file
-0.36929376662233437 0.25559195362111709 0.63833165625426957
-0.21238520055424814 -0.093016751274303644 0.76042524248112642
0.44317092572234884 -0.16104592531886297 0.7380139531348
0.14951371365650346 -0.061593518416026782 0.77180916126582844
0.0096297158441380759 0.33753853177728388 0.80299578467978705
0.15405679323891164 -0.078554451762646416 0.79244398247497827
0.28109829273797615 0.71406279112773507 0.10486912132308746
0.18115915614678357 -0.2016177509287882 0.7792288785285173
0.54805142940477936 0.78236223972470231 -0.27597640142296953
0.2698198246039496 1.0338296425253839 -0.37823327171801679
0.6809105120926624 -0.53820197455987628 0.4136759026121517
0.22174806209162412 1.2004150367422914 -0.4629744371941058
0.54752221570774395 -0.55449331484497311 0.69392512484683522
0.39084386677637895 0.23738098195251833 -0.10607696983852932
0.2821877462390745 0.067107154823158766 0.6139009483335407
-0.53963055027760376 -0.33075615277950021 0.67923531449083541
-0.79490192512287194 -0.96576893868667213 -0.46866893787874986
0.73970913317842246 -0.37215893298416258 0.65102291702973503
-0.75208996219470592 -0.37346488100092756 -0.41146061468649364
0.38903966172425442 1.2746690567599925 -0.48942577563889955
0.25351160583360866 -0.061700288113968327 0.80162048969163635
0.37021336489027945 1.0747924009578496 -0.42058149653860255
0.27385907644984542 0.65643071539830178 0.30268315151408487
0.68146742063612464 -0.12684372811163147 0.39397920680680087
0.36683514494191627 0.94480264177548268 -0.36958956774765639
0.82448636901786898 -0.49190458366083689 0.5974656910004903
-0.13843753304334427 0.27181641283151592 0.77148314876643553
-0.70398674838910225 -0.18907871599268056 0.51359862136004253
-0.73537095752507398 -0.41349277500868808 0.63907882272897965
-0.092871249541651935 0.37828273562730796 0.81357915695084415
-0.058091547540680466 0.80254491644639536 0.53490982035767232
0.3265383809436031 1.0765976194608449 -0.40786762534079912
0.11646205578468383 0.88809715491386676 -0.069814662672904149
-0.25043336543139105 -0.56971008116521205 0.17269966533819314
-0.075100607007936304 0.61230108580379206 0.71665207377200346
0.28462732998795559 0.15462610049232062 0.50212003333048116
0.46014685589766202 0.018330910769504882 0.6294197627125051
-0.7930099709253895 -0.74690597792801383 -0.39978842266188863
0.12991688778623001 -0.13393094551563767 0.81228459981092627
-0.14621532569738349 0.03396480985177508 0.74836439520209197
0.10196420181291188 -0.14745695539391335 0.80317710502855988
0.12506809915063144 0.42718487503388802 -0.5987720206128877
-0.12469548815117548 0.038720479442738487 -0.72691190461668498
-0.5727739343764533 -0.63119611016353261 -0.27205185814893085
-0.081505735692843473 0.97093198827052518 -0.22572376951733375
0.34044399707985207 1.1456080435862703 -0.45961176571730533
0.73111289947441449 -0.30442718903569599 0.6991185400427824
-0.080073967886473696 0.2118261309916285 0.75810661561349235
0.32151257584349935 0.42200767007898587 0.35133843744212712
-0.75750157187782463 -0.015167609678007565 0.70763379041727603
0.35776804270587803 0.064067767215224336 0.50375963045010508
-0.54998819535117605 -0.11669470995116438 0.75487388496015129
0.12691467948970825 0.43207089321554548 0.70416637401265092
0.64749411096333276 -0.69720659334522761 0.55080559578713562
-0.13090071518283253 0.28835163346015769 0.75915077176176382
-0.046175828188978585 -0.4784416370272031 -0.12940113474266113
-0.38943555849568767 -0.17374711936347254 0.81434503712334205
-0.70959519832890194 -0.17520859714546777 0.73535167952787361
0.41265816243376108 -0.08426427403238268 -0.055374848970391355
0.2666433841749587 0.80221244652443957 -0.28229120073019942
0.11337657073238105 0.43206355463191848 0.72265976063528825
0.33104037334831204 0.65748521545870631 -0.041537236527208421
-0.86544590446392178 -0.34233159912334843 0.099961593540669469
0.77372252340265035 -0.17188128407111325 0.39851207875602412
-0.23242698512975579 -0.1173310504570928 0.7627770090289161
0.78941371423996287 -0.34722428036714081 0.701175678586619
0.74821377187700477 -0.32984520551928753 0.66400881616125673
-0.71844376470896876 -0.79348626906763053 -0.38487139622611011
-0.37923369477142543 0.475241879934309 0.63247344542424955
-0.041270820381541284 0.6009974151251507 0.67798366403359367
-0.14848695455237859 -0.011519717822838338 0.74610638364317339
0.27418613651542856 0.77985882636089343 -0.28166122053201903
0.39691719575418105 0.73465902596552013 -0.28533400877007509
-0.49398997417856449 -0.68831471299680569 -0.31818419930473496
-0.21025483276116219 -0.2185061326366311 0.74139084749193529
0.17846190751258817 0.14570583581743879 0.72881201058642375
0.096339812207187236 -0.10666314513674369 0.76727588609994157
0.11517452722955213 0.51357243162490995 0.68324761033087711
-0.82745774952779527 -0.71825526196954637 -0.39515708355529355
0.85794813430841188 -0.38039170013595314 0.63976808362705739
-0.78595400763117951 -0.0093918467617593038 0.34961123690609597
-0.34067495728361408 0.54242166501519673 0.80359912047097026
0.42301161822365785 0.68864030801503961 -0.19196267996853678
0.31505995327081848 0.67072847801304203 -0.094184285491795805
0.50046299029409269 -0.60813725979128108 0.41780132058326558
0.13072975382919338 0.90028884732387748 -0.32930111431825537
0.42608692809265492 0.040159956156757382 -0.034989871965159125
-0.50793957308900062 -0.026833581868773493 0.70644438957726408
0.17126270896565998 0.86313876863591688 -0.17395537338294886
-0.34649216289066942 0.24600055661370401 0.78765212494907288
-0.61595313539991281 -0.95899387443139505 -0.37452475052050715
0.2038076790579062 -0.37254085669743908 0.36277685388326475
-0.16583207802072408 0.32731306196042897 0.75721920983873758
0.11964120771061459 -0.19735800244333657 0.75730128938929653
-0.60564082072507119 -0.71170127388325977 -0.33879897948417792
-0.71288374151290412 -0.83925966654289019 -0.4004639615429717
0.14180391340270049 0.56503203840752203 0.6644715240399357
0.1376506125067003 -0.083877504400669878 0.76345775559390816
0.099816220989673354 -0.27109572194521103 0.64943659964794875
0.11336849941026372 -0.32618641761876965 0.50997351959185622
-0.18885392115206656 -0.12588060657101785 0.75348463609865846
-0.49214962156511177 -0.057106669796056053 0.75955227685885163
0.79868181926299897 -0.28328811052188119 0.69330923446620929
-0.1654021587621024 0.50372668819049959 0.75383083912409177
-0.92360508279803 -0.63276085357538381 -0.35157285067431587
0.20985506181571978 -0.17662449240625211 0.78830344864700308
-0.68441371339282853 -0.59033038145082717 -0.21737446759244605
-0.45793849801685127 -0.61504420029607942 -0.16465687919653504
0.056716625074738403 0.46907624449666052 0.77192667774911072
-0.40975091686799914 -0.34231234680184652 0.69715562113824703
-0.58824251152064022 -0.9288475150487967 -0.38535972325556145
0.029052616451796354 -0.43185588699648036 -0.23192384673489386
0.20743946558344817 0.66284902062407802 0.58847641120016192
0.43934742230262813 -0.46860587129395004 0.70575578508640291
-0.99414575123683235 -0.92941443544543845 -0.46679101421190694
-0.054230536033134769 0.27445579483563343 0.7633917588295418
0.31154624937224895 0.47537649020020734 0.39483359525501172
-0.41443036256568533 -0.5835571800486381 -0.40177695565792249
-0.57469515376388003 -0.64584576266002891 -0.30889639342324315
-0.59557567590736582 -0.59394933450697129 -0.17136382070024325
0.36334140331406672 -0.3418017639793911 0.29314924788683427
-0.65354776462617536 -0.35445034201793035 0.67952799128416785
-0.31987692971698678 0.28036813496847834 0.8115134568003306
0.33042652429206143 1.1771935401967806 -0.45662095789774071
0.082272019988071321 0.58083011919089778 0.66963575939116993
-0.38317355983150492 -0.29431079782098646 0.7510413833278804
-0.27641692260642614 -0.0043962792262481898 0.76681442366555785
-0.31167263906945308 0.24770330560810816 0.80796016301153273
-0.62532532194670765 -0.4993460147433133 0.5923181537479465
-0.3627263179015543 -0.0049460700847241412 0.73717045050106833
-0.56277576922985517 -0.004232359260951668 0.76614882166250453
-0.53589009539823707 -0.032084384900694651 0.75886153350940688
-0.3850727541458312 -0.27191382527492447 0.77910495050825546
-0.52890183096934962 0.80039593717683921 -0.27397098349669946
0.041560671157949258 0.091553695288757453 0.75417282362976579
0.17506765107219024 -0.34528167334333748 0.63383514970355392
-0.72722090635058478 -0.75776450962726649 -0.37751605418196732
-0.10214956441046397 0.42320635191646438 0.81076924001134998
-0.37573552551037537 0.29348299749370366 0.61960377180285064
0.22122082786993147 1.2073177873485497 -0.37140455539105588
0.73114538115914129 -0.44519508824882337 0.66914857445128462
0.55350059671070895 -0.088905281695502936 0.70000622081175123
-0.09942370989437066 0.30821201268450338 0.77700265169901428
-0.07920055489692146 0.12190434341790546 -0.73327394301106708
0.65206305819266674 -0.56434177364248139 0.41277404237239423
0.53743014566767755 -0.11461221882030159 0.35407724224495851
-0.18626985754643499 -0.29932964840247145 0.64288901417374333
0.46691558351898976 0.90359417204168135 -0.39220463061778688
0.84189436586460076 -0.24335514591281093 0.6629411558795546
-0.4322521995659514 0.024433668196989444 0.77506429891024808
0.24681655722886831 0.63013673267522208 -0.42107968216456726
0.42596443064812561 0.57280760378838558 -0.25020660135013983
-0.094947142855833278 0.22994454372859785 0.76391397730127153
0.81762530032262504 -0.19417343825868993 0.40382440196931668
-0.772322136318909 -0.42918458951801375 -0.32718121153820334
0.30229733304941675 0.49703366388986403 -0.37027032499315737
0.89861803483792002 -0.32539669649179626 0.61583092631439484
-0.21982101122842579 0.38145374840953572 0.77438780379011618
-0.47773784913016826 -0.65007930940711045 -0.28879002814020538
-0.43423287994754034 -0.0082655756079921261 0.73403509785004672
0.13963216118548871 0.31890205447130437 0.68412749448697241
0.43880105982424666 1.2453678032627016 -0.51768961300008698
-0.77359078263858194 -0.62457328119054001 -0.4128414781343217
-0.23862521289930783 -0.37741318232014009 0.59804298266166001
0.33855704788725305 -0.1062907321491755 0.73956435324457814
0.15057321495907061 -0.042499198919420778 0.7867784656866128
-0.56429960255256972 -0.90164385029311922 -0.39272569208570118
0.31998475727224118 1.0359865341445413 -0.38669567117628034
0.75533195085061777 -0.51380361905591698 0.6618296357592115
0.15994902905209329 0.47208524664840468 0.65424066398726666
0.84924272434921377 -0.4656990080420238 0.52351014364983683
-0.088900509148608364 0.78710487257231954 0.66564966186946606
0.40245485092771816 -0.41790408451349137 0.35943707259852786
0.091785447733965242 -0.31725518091295601 0.49393694383911324
0.18400090745414843 -0.20426271712453303 0.77059380011151291
0.24782479082366038 -0.36755170300388329 0.27418661925351628
0.058238070433944245 0.61237160946117442 0.67170694672856257
0.021160235979248654 0.92580514994518648 0.0034509980741326274
0.30312985334082398 0.58584053709132888 0.50367782712232412
-0.34078865770895916 -0.094640632606593833 0.81282187711840947
-0.15546530938695469 -0.17075544235248863 0.66662465360304068
-0.20345495872201269 -0.49255351750325715 0.40480261498348469
-0.43196927743153424 -0.77287509627090545 -0.2714737341278628
-0.1740532261462171 0.70288017103713596 0.73762015088599853
-0.2063881188726242 0.43497834985272821 0.76710204634728996
-0.74432648410157753 -0.24676124099450458 0.59264089377883877
0.56136982153135406 0.91372513634918739 -0.45011062140271463
0.2262721037022537 -0.011693285678175513 0.8075571219682196
0.26719037354297015 -0.36820718137647557 0.69398063763796713
0.097212870606973922 -0.16352989342152657 0.79610782477094588
0.23241471441645345 0.91132239852121177 -0.38037254990589275
-0.068920831479797329 0.12474518914396526 0.74659548036533252
0.51111991793722567 -0.3353967317260329 0.73875927079630799
0.26828864941089137 0.97403403034749747 -0.34901351934683333
0.43653996600017919 -0.5754556694012809 0.63423587807347559
0.02243297524910659 0.68331105007099069 0.66531370764743158
0.25526877893702249 0.75418189664515456 -0.017379224597714682
0.19876428559958725 1.2119480727457823 -0.43369172575977544
0.18387968948336209 -0.36692991207983106 0.35560734839482322
0.083856283306431578 -0.13753181349164034 0.78482687811575857
0.34066109096902508 0.64363345425184271 -0.010725301070745985
-0.21316635172916776 -0.33536476012973271 0.63346165848972547
-0.011966885029014662 0.34390333222143532 0.80901474956871411
-0.5341226959919041 -0.16086970277048085 0.73584062905259628
0.50632377570709863 -0.24813859327273402 0.32182544519556799
0.51189435994518817 -0.66221650185291381 0.47724409035088655
-0.46777804330971051 -0.2126436366097888 0.78514341988890379
-0.57089941554899326 0.50286959380627527 -0.59350696096453248
-0.9776342940227174 -0.91414770973089166 -0.43749167434853931
-0.55923136616594249 -0.035858249972070766 0.65662953562795678
0.055925356810806903 -0.30006906431481895 0.51178675925955019
0.52035464826886368 -0.042553314622972849 0.38519181245817435
-0.62005306783584402 0.021106344220963358 0.78731947985282602
0.36249202461961616 0.96529695448436659 -0.37644142864655805
-0.97826558709041223 -0.69797506969193779 -0.38522450980637402
0.6694183503173754 -0.46873777865228572 0.67086108502221364
0.39272075402721995 0.72853416313893593 -0.27258075074006882
-0.20303756450948995 -0.34499209535311159 0.60792073462750906
-0.43705125419930368 0.18881048282860746 0.61223973495832951
0.2820321546889204 0.76142045395068703 -0.28117767052350473
0.31622527370354803 -0.16733008363419888 0.74268001747726942
0.39461102773692502 0.89835891049029737 -0.35752990788780536
0.39363594570414051 0.67334482479370106 -0.20441069527641886
0.4278097910044778 0.72996209041300375 -0.26083674913512311
0.76140060952181798 -0.3948988394050712 0.66805107648523432
0.14438608783334317 1.0334433652617294 -0.3676264900547892
0.050129713887923089 0.89496632706228674 0.088514464828222117
0.49338664608855609 -0.52399678703661134 0.38495278712188608
-0.12585385346767097 0.97785270592864038 -0.22701609562552605
0.75235369869497504 -0.3049210587747071 0.71434535155372814
-0.75078318320894866 -0.34685809073009288 0.56197914150015649
-0.61785200174306354 -0.20193601686781015 0.62184453864198019
-0.65469764046689249 -0.28179363269839186 0.7071452764754369
0.19902519165661303 0.019728900458762411 0.74976732782219813
-0.48264619814122867 -0.54966619431351926 0.5443254436517897
0.31227760748928191 0.070038699733394161 0.54374257996613551
-0.35236607337920489 0.19930772114829232 0.78386851132268731
-0.40618649316480671 0.18356797928278201 0.74252719812928092
0.77268929334889691 -0.39683028592773439 0.69304432812293371
0.13380829690435547 -0.33701049819736184 0.56486436496377479
0.85226981095166465 -0.46485436880403874 0.54994451746003392
0.49731485564397104 0.83938346813537912 -0.30661503951779423
-0.38186541949404074 -0.51188359222950996 0.58652975059771251
0.36335053954136498 -0.015711646593454809 0.70534721803996092
-0.79335548741477524 -0.96334738800608077 -0.47255324272192212
0.65962631581861686 -0.084702027996529594 0.41252661326003448
0.36382483756295869 0.63953933457570322 -0.16288852372250773
-0.72317540228565491 -0.27660922294196588 0.38660258901715494
-0.082499736548228952 -0.2054472599847581 -0.63308532955628039
-0.72714923631083295 -0.53549367265038295 -0.31512622751414909
-0.2170363051455233 0.75226594810162872 0.33436578846930232
0.25911531586413616 1.1017534280620271 -0.41232654514301359
-0.64162409917639351 -0.055565294448543412 0.55514044344423752
-0.60803511508445851 -0.97654983470818957 -0.36733804942888426
0.33650827198116673 1.174668305638539 -0.46638815495082042
-0.68119334214190275 -0.12512190130739764 0.53582191168745297
0.44395579757087233 1.1898899678268684 -0.43819483367131085
-0.12824608149455941 -0.033150110220713458 0.74539814382107039
-0.58934114859564346 -0.23452312271070497 0.71181268246271046
-0.18327363148918607 0.3359422832241874 0.76839766255006126
0.049341841397144037 0.87479608254879704 0.582553915907706
0.45107322265074501 -0.097968380281544754 0.23419706704354226
0.53615329531096734 -0.50484747910059369 0.71255840531051007
-0.43259970002409531 0.59341237609912589 0.68944152983400642
0.62098787296705282 -0.40051739168073208 0.73391581850887988
0.10557321537080711 -0.12866754284252302 0.80382600064190513
0.24417403858302933 0.0083467513210830901 0.74622344945011676
-0.43825723025558716 -0.083630756137349493 0.8039188466957512
-0.47927136241585444 -0.52928881309199483 -0.43778198796078627
-0.61763145322515101 -0.66083266998104451 -0.31888651795166822
-0.23297188569791416 0.4735718839744969 0.76105752924850734
0.12601424619131762 -0.17826760051513357 0.80686743615841294
-0.20181388777292852 -0.39432800466754792 0.64915665429852965
-0.37326658982449601 0.8740596342589706 -0.34577411456226415
0.46490496370404344 0.8330986990977447 -0.33579605868792228
-0.62072003676518861 -0.85815307341718738 -0.46791459465718432
0.37231307710110073 0.31070354930174116 -0.18324975981489189
0.71876718999640943 -0.51191643718346391 0.68846467076916795
0.14373205708715631 1.126107322610272 -0.30902094368732591
0.12756933022293637 0.73312402528662268 -0.4665407267763122
0.19653487324642782 0.028809403901275843 0.7512855372070284
-0.1674632344379674 0.60773371291427303 0.74039964405816505
0.21292122459153617 1.2425699696715267 -0.40298842004972713
0.5023800244466301 -0.63631800745884348 0.44433540610935651
0.21764123394487456 0.25844399162734533 0.6805591012893224
-0.51347559842138324 0.10739305770670438 0.81115163335970664
-0.5211650671585879 -0.32580650847630377 -0.55523179826299085
0.40755476611246877 0.67783907645530395 -0.19731778310786652
-0.28314163843966966 -0.17017693271513235 0.79926714767223928
0.26984720618778724 0.77055571231032705 -0.25516758927152239
0.17239815358013644 -0.049466364697392962 0.80747057693980651
0.036950794297215594 0.42641994213695789 0.79163352746794757
0.64187199521927596 -0.46516349143260438 0.71201644272267117
-0.40956246682336328 0.025221785672583152 0.77538735139819082
-0.028384540497871313 0.9453969169384413 -0.28561293344935734
0.36114940612298696 -0.36948022143892345 0.32107921379166626
0.23336678787664411 0.92642188588003016 -0.3032332247397953
-0.40329363245858474 0.35559462020774291 0.6962538643888756
0.061908909970284753 0.36897286991694855 0.77422025482911394
0.1445046846537501 0.46802744196510204 0.67734152575812345
-0.6648192395494732 -0.97468490639506977 -0.39443022347632706
-0.44460939296581259 0.2453887675177624 0.59344190860987212
-0.74937502475328799 -0.24391538392247369 0.62280246402417205
0.3093694292928717 0.41929184106074135 0.5597674914937194
0.30288254049291297 0.25261126069467821 0.51143637362201488
-0.71607011987511626 -0.47937701577254321 0.44472457096119555
0.16438042066877401 -0.08274488314785966 0.80734760036767739
0.21091987089197772 0.98464438312725999 -0.3009703001695172
0.28644821032248302 0.10155120341280366 0.51306456965036773
0.1120879770236165 0.82197384871039159 0.26059441945503181
-0.21331894663228468 0.43582320771259297 0.76860917469606349
0.41221798418662203 0.69479970802584035 -0.21842523516755818
0.14685423717249435 -0.079952965714178426 0.76081498064529995
0.91090308739949677 -0.2491233996049802 0.43994039090103954
-0.91872175869598749 -0.80337362336643281 -0.42813663468942664
-0.53661895104347224 -0.25326316461336429 0.70167851287924066
0.21559035584283848 1.0877873447675217 -0.44266014719742941
-0.22220386940352199 -0.59071265678919938 -0.24109120541777784
-0.95822541802549566 -0.66162391271576793 -0.40577990393510888
0.011338782063955222 0.62845748062958595 0.67935500554975903
-0.06246696760250714 0.87461826205989368 0.21929714972622705
-0.6313002176113649 -0.60314848310029134 -0.22475961654519239
0.52005879376816466 -0.13763448424693525 0.72452309631988498
-0.2161255677525098 -0.3168327439963563 -0.58670489585316332
-0.3059297432166197 -0.22286655420171186 0.79870767946239596
0.40847497336264027 0.79794437020006193 -0.31297487315797667
-0.27413488784626239 0.56457752579183484 0.77959743172785423
-0.64068298447001126 -0.75892847513694139 -0.3589340900476472
0.25817308269084549 -0.10941520010917483 0.79217414862592861
-0.36614768858639124 0.62985515255885804 0.64957698773143946
0.5045023900874881 0.88309585144377589 -0.3561902840721487
-0.72554546486781391 -0.3995875391807493 0.39533776816326238
-0.11473089969336314 0.45166750775448072 0.80439403737544524
0.66370041387179057 -0.68168800396445928 0.49847915818600441
-0.47510983048996991 0.16174238961478604 0.68868840607500204
0.57147496726354063 -0.3753861257110831 0.73686211096531551
0.64885718975053308 -0.25778558645010996 0.7297730573683765
-0.26492800602339628 -0.26792532046552076 0.731105872231538
-0.76114679924307893 -0.42618093409634916 0.56696623787339462
0.12828116917118138 0.48817765453229356 0.69227211075653372
0.0034376249780123658 0.52246977624505853 0.76443801938902922
0.13569756577476255 0.40568709677891324 0.71415556074295949
-0.23059995429279923 0.31661401160935831 0.70187124595352302
-0.15873757757093543 0.71932472862485408 0.4196905175158463
0.12531298243798972 0.60181949870738727 0.56549422129626592
-0.45757090577506432 0.48394477564228833 0.70238833447444193
-0.35325907583179017 -0.63466193007179728 0.010935858215955108
0.13808284617971722 -0.10628318384829871 0.80838749275934418
-0.96469651241780241 -0.78384466169336342 -0.40640131598284412
0.65649981679257863 -0.46413333602501972 0.66062823237234625
0.51127305419808877 0.67819747290924326 -0.2788356178927387
0.28547038652158463 1.2381422345728925 -0.40862587717812815
0.4195970076377904 -0.23886831289930832 0.25281404697716781
0.3740468334121303 1.0449059436596171 -0.40905054803293694
-0.60293601494507243 0.36336593891738111 0.43897185928301141
0.5530946505459724 -0.26950616970610675 0.73659009388080676
-0.47675358870463569 -0.57874720863700535 0.48621540453294543
0.3609801886318813 -0.21472736074672305 0.74272834952751765
-0.31922303913114902 0.7738216782533649 -0.50643852786718568
-0.27942342870569092 -0.28969853206583451 0.72418813750624267
-0.64368425883857938 -0.93563854911612054 -0.43502303188660107
0.93139414548461019 -0.18688974000165537 0.49741708691377085
0.3249489478007348 1.2674118467755244 -0.43356921244190616
0.5333185857329994 1.0577955797542309 -0.51175556520218279
0.65589529080314435 -0.67429957756930037 0.47158926208445351
-0.17880333972907181 0.33914209651845528 0.7634457630254694
-0.6552783449558639 -0.60274866941707117 -0.22699247212774409
-0.95036491193922146 -0.70831628515246814 -0.36712832872343526
0.41195140118509599 1.2445247748783412 -0.53611747459340009
0.49223168264085615 -0.39753244942121313 0.35106090426382508
-0.65384826889247449 0.091652024120072895 0.80782077179206269
-0.18677399619974722 0.51723836873910134 0.7545280660429512
-0.087467768566867221 0.27072785122052068 0.74846072137682285
0.41613948337674955 0.94195102436876166 -0.39063917737595233
0.25926500275519615 0.82559353250354039 -0.28289290029059444
-0.57396951635901416 -0.63621896056908112 -0.2858711177424631
0.29375079969771889 -0.043323180497008451 0.74910505392186266
-0.49595923395497366 -0.65852084543698464 -0.31653273508403856
0.62519972987922756 -0.42082352936892509 0.70931723582929962
-0.47278649001553674 -0.10539785080719355 0.79169444122682719
-0.41148938505152088 -0.36149248619491914 0.67450281116778044
-0.67933811733607286 -0.9615546869403504 -0.44925582072345449
-0.36653564538604755 0.27607742981057015 0.77107004861310102
0.59876873183140589 -0.43923897597488981 0.73202076537824468
0.74921387309116483 -0.59576742939762894 0.57015327568929308
0.32226933547150693 0.52694042061989466 -0.34839971867209485
-0.30673287227915225 0.21460853934242419 0.80504231198243659
-0.58320006716721551 0.095331010284632534 0.80928917741933759
-0.30225856579786381 -0.2538227341205932 0.76722524218540045
0.83735028080191043 -0.17312707300679886 0.41612863329733329
-0.58018471950633455 -0.31730206719840037 0.68339405135784403
0.25533987743094499 1.0760204520866665 -0.40026120061489223
0.6163302943615605 -0.68402766489792377 0.60484458582968159
0.27132328392784899 0.80502427777552921 -0.29277260483871714
0.1787964015098602 -0.19757654755419907 0.78689247099866577
0.67058722810475757 -0.53366286000905916 0.69717608480015159
0.044087531139108904 0.31917422870819401 0.7637214149388285
0.12187741468582658 -0.18531295483412613 0.80076968674663718
0.88912245403940204 -0.16126318919165339 0.46533434518564221
0.041228943242533234 -0.29210475308247386 0.5812668721044929
0.74083566761877151 -0.39937858947288696 0.3918868181594739
-0.38743712164834676 0.46948604175953346 0.81932328037630242
0.14648716908388337 0.80298339091906001 0.56468552563713459
0.34040134038588121 0.90287963194086007 -0.34383465168756544
-0.29423757898595682 -0.055344169598879667 0.75784864023150433
0.3713649984229157 0.51984519877069779 -0.27519950670873072
-0.37481147614881394 -0.53097663213051938 0.56174956787731034
-0.37233402313703223 -0.77047061803770323 -0.18423572696534052
-0.38537455049892699 0.20841163272100438 0.63663011952590765
0.48104009531067149 0.8116133709105835 -0.28739193731917467
-0.23950649220329012 0.70889077934290334 0.65975925713858175
0.10339364953468078 -0.18258272538186748 0.77355504366980199
-0.34216818750064704 0.12761047817467119 0.80161745838320186
-0.37391638961359419 -0.23636879099731534 0.79709102965088263
-0.19111358529156064 -0.18506541890947048 0.74375617944215122
0.048611444596296849 -0.35879451469386359 -0.41483726473829208
-0.095403325041541365 0.97308854053921046 -0.11042178841750072
-0.75815643845230696 -0.64627146611949549 -0.28287592170261888
0.781362321122959 -0.26796820645957453 0.69791346214412897
0.87104527032230195 -0.38109931228503768 0.62326206341552037
-0.65276749268894108 -0.54687150110574212 -0.3813140047974457
-0.74818896463566986 -0.83946473937462796 -0.49590378307516758
-0.592964126754147 0.73469097514956871 -0.28961285044181295
0.15870078571443358 0.82673281606900773 0.4889437903897722
-0.37648863305122049 0.39585448204402152 0.64260688152561585
0.51102790928932151 0.92180546405587371 -0.38584858500331265
-0.47387155973649797 -0.57711112419897148 0.39872675548872039
-0.084919995030109163 0.49446926383763845 0.79224801764369346
-0.78984195829331938 -1.0255713866699818 -0.42467925333283318
-0.43643537657868237 -0.42524007322885016 0.65216825086105246
-0.33173356175091939 0.31463358349516035 0.81502769442683132
-0.20841325144952805 -0.13713360375855022 0.73288277205096719
0.20701098824865127 0.76472266286615476 0.24997604828925546
0.7902052588519517 -0.3084305364967932 0.70114384782584338
0.17546941258949289 1.1449039128215581 -0.3212931464022617
-0.10158674940741363 0.67715618084822093 0.72176082930333152
0.85342998823462679 -0.41278418666077599 0.62694418547370034
0.73425037835770368 -0.31697155302413726 0.66417526938207416
0.099376097119545648 0.83569451421683283 0.21311188747138488
0.10872029078107204 -0.41112386312943627 -0.14976868104070462
-0.2785345352472639 -0.71642309938793147 -0.19228290296800665
-0.28019542535525943 0.33351818632303321 0.79284411270185728
-0.21240668027239096 0.48638992905809086 0.75870764934648349
-0.23453495082661036 0.96420958949269142 -0.1138361600667217
-0.59856840113779342 -0.40343935736143699 0.6514023806589968
-0.67459038993041176 -0.284173720471248 0.71285530863100632
0.062586758179239865 0.49557244070361683 0.74209705651009727
-0.81699897335860072 -0.74495230646993704 -0.41357007672818824
-0.44218522682052708 -0.26449525595514967 0.76928416832054936
-0.22878135177543513 0.36218737403012202 0.71895637485248187
-0.71937795392225823 -1.0025159290098777 -0.40369697333561305
-0.041549796681241702 0.46277668734621002 0.80051000249278914
0.81892154453224109 -0.11716490719172867 0.46724067290787374
-0.47881080159512024 -0.38019344401973143 0.67541836564654645
0.64969502758981434 -0.027367429359081541 0.59331616699114065
-0.72549251461942177 -0.33887463201102808 0.45441645228092042
0.21213497816114213 -0.07909050266639106 0.81183281430337573
0.060189006909105558 0.39413549347609322 0.78709180026444869
-0.064149145286819476 -0.47314458983552221 -0.21342298205170707
-0.353152416453554 -0.63766050206579683 -0.079940594765258055
-0.39092674348837519 -0.014948436503180673 0.76823301249061515
-0.73336494902106253 -0.33983828945207062 0.66897608333370684
0.84504067970444652 -0.41946516113823229 0.46437360896986135
0.3589486434369924 0.42556335329534711 -0.23962532665151315
-0.69436508974562727 -0.70793290009116072 -0.352131001267324
-0.26135978317324415 0.44289190031424308 0.66967038701343284
-0.61509937734296116 -0.23633964710318001 0.70722633064446327
0.54634693265047574 0.010885432875349821 0.59594338791973556
0.18431600776201762 0.70015311463267604 0.58873076127478896
0.30163596769181567 1.1174148724589958 -0.4343005403559701
0.44351111657721276 0.042432469623486568 0.48955702144689539
0.61090087952387151 -0.44931839649989236 0.72874059980083672
0.52333753042554676 -0.2258337914458135 0.73678021558820106
-0.72900932456960987 -0.53158255440062163 -0.15612014227477999
-0.62061282577888477 -0.64624038501389736 -0.29746612069548917
-0.095782739438362796 -0.43543491231167142 0.38111963820053418
-0.90201100986342198 -0.12815216187655576 0.13358917082407373
-0.54584778358870167 -0.047566451977666624 0.75546300898689722
0.088539984244956571 0.55781065765076221 0.67020864859168228
0.64949396138485582 -0.61601840379077366 0.42965368413810268
-0.099772434896955531 0.86479384786705626 0.22438433751526432
-0.91809559741662738 -0.72488183639917469 -0.37285226951758688
0.29550186375712428 0.67248582645184651 -0.37367293182337491
0.29128109576833694 0.13187379603717186 0.48870891156278873
-0.50879615165726833 -0.31876036696684729 0.67293087910212535
-0.4260943192841431 -0.39891511043972727 0.67089387605568618
0.39919985830535154 0.719973769826737 -0.27101875635495887
0.46474583563218275 -0.010568630370407561 0.37611337757545371
0.27489063011624282 1.1264505045349926 -0.43094658078381443
0.085433780179879903 -0.17066175708344478 0.75385345645202051
0.29741688399520427 -0.15726224859740956 0.74503261666444232
0.77576251612864411 -0.36846510493234952 0.69729116846732353
-0.11267667072167242 -0.058088786414207227 0.74882293089586582
-0.34571307891433278 0.47836111177407314 0.5361884381613109
-0.88507271535107535 -0.90049379986544398 -0.45412752564059389
-0.29141825789942644 -0.45317602779288979 0.62646557084463339
-0.66163309762088218 -0.85678772570267037 -0.4021114709808451
0.020259590680201001 0.66903269392934206 0.67003936486965543
0.19356267079450973 -0.36417019997495004 0.63522524077103526
-0.27273737253041119 -0.17130924592021657 0.78381534798032604
0.67549740283735815 -0.6528104615521837 0.60514110130349863
-0.7587573098216609 -0.40922453898088351 -0.37378722284961441
-0.33009600407159212 0.2452046188716599 0.80143075731160351
-0.43418071817803749 -0.79077960413956427 -0.24700471442033134
0.26164467160217342 -0.29614746581292195 0.72494788315316683
-0.83157177704959651 -0.77133309846103848 -0.42752338912845644
0.21195425615866625 0.19430921549732361 -0.57706657252386506
0.7085737468408837 -0.51161465863497391 0.41416291306108377
0.075170593928824303 0.60438132658767607 0.61763576969759981
0.62076485728319852 -0.44608448935237988 0.70784791696259219
-0.19543040986199145 0.32723798702584084 0.77481816246672608
-0.46178981438804456 -0.25650029318093281 0.76382150481346045
0.065821811553156806 0.39211860147521005 0.78211353305517761
-0.37541338809433 -0.36268816260885828 0.67844016991524114
-0.74151706982658183 -0.45489645162923509 0.49329286066063105
0.16525778849839412 0.79366869571756293 0.27578835440417748
-0.08460887705238207 -0.35170925796921182 -0.52005730947437812
-0.21653992956246526 0.52307764761971409 0.67548135788477026
0.41103332927992753 -0.23380780504140475 0.22475362162341384
-0.79643949091376598 -0.47903161732309796 -0.01008214516448902
-0.33692298236260498 0.026711854093544041 0.77299121325687636
0.47495661342679796 -0.54955994547940445 0.39682187659423818
0.0082358349723712365 0.93662497339510686 -0.19767279688091577
0.28695148108522872 0.46215638791478719 -0.39380596165892712
0.3367829710594421 1.1246575905903615 -0.44345626166572671
0.72527716308522017 -0.31565626558221904 0.66621711658044447
0.67952075915074062 -0.61042692020889699 0.64710049992768504
0.38993332622166577 0.53525443153057584 -0.096560158758801862
0.19868089082288876 -0.19497169734675879 0.77660728503935061
0.34778580854139562 0.21793272119957141 0.30089840627930897
-0.32431071699734559 0.84600634503610461 -0.42115174753284634
0.033794291548357336 0.40543579273797992 0.7965907452905796
-0.69642738542702176 0.64899794875045291 -0.10616373912078103
0.088102474828556154 0.58672669223801144 0.67103642941157915
-0.54438249881064849 -0.29409495111507233 0.68073344311230244
-0.75847776069392125 0.34809176757433402 0.30708470336990601
0.036180267124599652 0.65451004663717249 0.67132287489650722
0.30256058782826045 0.10099952518523558 0.48889976679495817
0.22299194398351574 0.012497695742109016 0.75306949239513088
0.39089470454816677 1.1678983610080258 -0.47824916729105738
-0.82263379340082565 -0.67771150454424856 -0.33179048700841207
0.46166431782256367 -0.16336648681790322 0.27526333768096478
0.83830385896409965 -0.19609188149563828 0.65086350160438755
0.59568098672690795 -0.22884447063952962 0.3541011425636249
-0.54526446957614638 -0.39437441267012296 0.65770149156184488
-0.92420884020317828 -0.76094001624468732 -0.50423288554979706
0.56183592231105095 -0.47986540735364702 0.72238467663251527
-0.5537782379946492 -0.37178277130128379 0.6665605792821232
-0.56927122529010887 -0.54253240296002403 -0.41179727776541952
0.6856608224962244 -0.46870325843145544 0.67729146260507989
-0.6335260486785117 -0.34641243608068173 0.6750507815983795
-0.87817091250513712 -0.90817748176048108 -0.47374620851505611
0.6269918014576028 -0.4017101120596136 0.73113037602254849
-0.36013120578834901 -0.63579067861547411 -0.13678826897762519
-0.12107435149734869 0.74977920107298957 0.39465698070381094
-0.48691481958896077 0.4196767450975587 0.48750736503123093
0.28838130325044986 1.1501538066814998 -0.4401799637830095
0.46554247069645527 0.032165281866094908 0.5954854345860312
-0.33061222501255827 -0.081248641663762555 0.7889671560819167
0.11577229169019887 0.49392881505534891 0.69421962612310395
-0.099290591353359048 0.44378685014677188 0.8074652193794023
0.30234640619488218 1.0174447677604785 -0.37661043446228959
-0.17374749417116675 0.50995723230565737 0.75755570592270516
-0.31562714431310823 -0.64180037345575691 -0.1332125599693228
0.54590072280256408 -0.47638924385017845 0.37282356224923063
-0.13741766730056071 -0.29777468407138663 0.70085528374175965
0.70128588326448948 -0.34747936857640482 0.66952462906938237
0.037299605697949545 -0.3287811644321188 0.47404326063311331
-0.37293417401980733 -0.39689574499600955 0.62869299427566716
-0.57579918921403817 -0.93214510192308841 -0.35968998462663748
0.34404668174710551 -0.010072417793427046 -0.35114488048900938
-0.80854377840755021 -0.7753540965580199 -0.4126570276886703
0.74943982243717144 -0.38377174361114097 0.652471361865814
-0.15987352649852582 0.38760454284005519 0.77633302966586726
-0.0072659116057529616 0.40408728639650615 -0.67613772519688098
0.14228328540190915 0.37342491103205333 0.71467685656948987
0.1236121030018289 -0.25356167571307253 0.7025181800751561
-0.33619656430458988 -0.80675508950313013 -0.25937712704018523
0.10822134802170069 -0.15353451758945269 0.80613640786845764
-0.52485522439492982 -0.10729992520422549 0.74985482118403723
-0.59318855963455874 -0.35126089200018118 0.66744637002235763
0.38568246145095841 0.71994014282943741 -0.25700633362943748
-0.025802229844529734 -0.35610498599972473 0.517889228286883
-0.76340254468356505 -0.50830109060859474 -0.087231284086112026
-0.7268756392594149 -0.55321685356333083 -0.21554913805386633
-0.40954728179766064 -0.02106051628834571 0.76355005865923076
-0.073983617915303057 0.26049587992793022 0.75419359572959976
0.29978163090452981 0.83478129025730663 -0.31470244473435116
0.050786359274802351 0.86547781758207964 0.60587829797362147
-0.44684927530975926 -0.44213709270256274 0.64177645120199145
-0.60553863331494995 -0.98754421437288453 -0.37114233626115478
-0.61120397964756989 -0.048471220108915247 0.76318262899995304
0.0010854315461585884 0.51636854969240531 0.77033219842644129
0.42870133830382429 -0.60347914525299906 0.52359938234367576
0.25794575410779785 -0.00073790837955645117 0.76229603830473991
-0.55624693257750835 -0.2535267345972736 0.70441767372923181
-0.060602756475503838 0.53761460309921816 0.7518230614911694
-0.41750257287419146 -0.77126665637639391 -0.36679845549967638
0.0059107591665714665 0.52880394733732938 0.75173353689962497
-0.24865154071807183 -0.27631346137094148 0.73469673623283782
0.11862623276601525 0.40775070623247256 0.70720392170995083
-0.56567499369589314 -0.22919116669992334 0.72326438838223339
-0.51253065552871391 -0.60802912570413126 -0.13325123649984505
0.17229434610370475 0.27730280280933961 0.7041711637021244
0.027271416590327391 0.62606489592009229 0.67591908600932271
-0.78814226598233716 -0.59649106401041552 -0.24003506670125319
0.099480784986621273 0.53561329176616379 0.67486454531658424
0.40450274902550731 0.59926652321138363 -0.29442862560667749
-0.14132576108564976 0.7561202873567332 0.59813982812100974
0.31234420700163668 -0.50934111705647833 0.52955586899042117
-0.90596820921215127 -0.11451876793797711 -0.33158155126623967
-0.91048235008377887 -0.99825696734127944 -0.52196852596303245
0.28642410070320778 1.1787562009169577 -0.41981057282757916
0.25513639400601917 -0.019440346340459769 0.80170338178993816
-0.37215769197149129 -0.41246992529092097 0.60212493651294352
0.18588408979759663 -0.12221104453155451 0.812860403226626
-0.66451873157236463 -1.0064755993784185 -0.39198811375623066
0.83669870009943281 -0.36976833502509265 0.43515344839453007
-0.44723507972613419 -0.35264499968414054 0.67540150137852706
0.4896866129714823 -0.18266769616087863 0.73615617931378452
-0.44832208865800993 -0.35949017064811439 0.67774146814161895
-0.39833256646075554 -0.064297953335123559 0.78781321577200103
-0.45101180449985989 -0.37410657464094399 0.6796516730899036
0.29723966042178418 0.20702604382156231 0.47250151132553597
-0.2364627093996603 0.68439868320290564 0.60338592915026013
0.11915512981129339 0.85503532593160969 0.53881780239781563
0.18832484171254293 0.78100772552880215 0.41312610346554379
-0.36760523882033169 0.25045397474530517 0.68829929242472332
-0.20284319849033494 -0.4865348439519348 0.5370139204192661
-0.17336869668582366 -0.33964582852643499 0.68165898595414376
-0.52145017821208839 -0.36525461612268817 0.67566435752203802
0.10023010334149163 0.60011058834118725 0.66916654304056422
-0.89643736649392736 -0.87703315615209043 -0.46358872212286428
0.031090818483757943 0.33946172632326466 0.78977198858069642
0.46235624641709094 -0.52716920496105324 0.68487250934996879
0.30978697056628235 0.74891820192120129 -0.28325017216449666
-0.48129188468636031 0.0062058320032081227 0.69128782593799087
0.27248233062618255 1.1552027228650426 -0.4158604372464012
0.50894728151813595 1.0419916535475577 -0.41969448172255852
0.11598430641241819 -0.28732442753873499 0.64107910048556249
-0.25975973313129685 0.43932130984669104 0.76978251850976775
-0.6156495939218587 -0.077185034604914549 0.7566044551851725
-0.58889367948537341 -0.16144700448640048 0.73137415455894583
-0.57472201202108764 -0.64050903639229873 -0.29825253189225265
0.57008860344173229 0.83776975510952578 -0.39065173355402294
-0.23562031198872546 -0.19440259369404567 -0.6508436557394468
-0.65048102145603437 -0.54934431877107404 0.46492044586784331
-0.84379374663337359 -0.65602821088019803 -0.30405585588004769
-0.86184964550877297 -0.77463505564380186 -0.44526272303599512
-0.37331460114079107 0.20783281261664044 0.74104206657021976
0.022460507457097378 0.30551504415025921 0.76796756949731204
-0.15443800747588909 -0.30217060956084651 -0.59054649144712101
0.36319464723370132 0.74938050880760443 -0.35088024859411249
0.88391067483461327 -0.2501098448819743 0.63689770031756154
-0.23763622369015636 0.70251516068560349 0.7144954684378888
-0.21213304063383021 -0.35246969548771689 -0.55516031555410095
0.76588274236139142 -0.31928813784841559 0.71041290769615983
-0.40068096337803993 0.57926149207054056 0.64546535224772938
-0.18720183203892304 0.47127778311561563 0.73929412640482539
-0.26713844010304655 0.011684738558329855 0.76562671562424356
0.26726055344602528 0.059941982590096643 0.65367045000325064
-0.59513373474442233 -0.19786030380709896 0.72032755398872084
0.69882631593958422 -0.31754034990443891 0.69353552381664585
0.27621825066212935 -0.037294571494279616 0.78374279376009781
-0.6022790626205321 0.24492283653885716 -0.6365464474039193
-0.35654314808951781 -0.08101133433939367 0.80874163121560372
-0.6694359671344543 -0.57346211159347593 -0.16677216414056417
-0.63353449104112514 -0.61250401214265993 -0.38942898326572362
-0.37455355396783929 -0.74569678165953057 -0.1878220196476974
0.36639392554910444 1.095551160115809 -0.43114318179695488
0.28062202110321621 0.75659727400928034 -0.26916919270692574
-0.16986217636226542 -0.17133462239749164 0.68885728884743003
-0.29438392822930126 0.4934633482355828 0.78137487808313111
-0.6938694384314239 -0.49224674224716702 0.29785753371769985
-0.071701767656541904 0.58539524097587048 0.71680738972490943
0.57134012390577382 -0.13812029438899476 0.36360293890657402
-0.65563959976839925 -0.32285424813959995 0.6925862742304254
0.43027293738830252 -0.54584934638529692 0.41510934340791295
0.12246756344819332 1.0551968491535488 -0.2645231670979058
0.30067931079443255 0.76171370353236423 -0.29783733813659907
-0.25774668024453007 -0.67564409892289268 -0.18960215318769258
0.49355626371038852 1.0035813688849751 -0.45420347066368905
0.17376744763454965 0.46575002984457115 0.67529285122516924
0.16956333892612818 0.94074865317705036 -0.22370527636157433
-0.61020441795091784 0.17973081599900365 0.72163245204638216
-0.49787632669403337 -0.64773115423411243 -0.31457286225280612
-0.71135818176621513 -0.23316903916149112 0.7195841418033595
-0.044223556958126409 0.24451512286999932 0.76222767756670962
0.23959572279814623 0.0092464261115861035 0.78031282893471499
0.29120648801065485 0.81246626928575605 -0.36351630209457042
-0.76004232009737649 0.56067400181178773 -0.11227780243708807
0.14458739316966174 -0.3152106186184529 0.63353538296060208
0.17883899369550349 1.0094243809753989 -0.26671053268571043
0.59057931830269084 -0.70339616734161936 0.57820948717647269
0.0045571000519117888 -0.29945362375844553 0.61423444995462262
-0.37141229294492106 -0.63352423401761326 -0.14770205943926129
0.87247354033840807 -0.23142521622855039 0.64088303393059221
-0.30726497414025644 -0.015276435337771233 0.77219222560827916
-0.33372726094318494 -0.63688250306131033 -0.055683803155346823
-0.47254032145098179 -0.57976182457376435 0.43222549619895645
0.75008371408839736 -0.32879502503617442 0.67025747865891461
0.39633036908672992 0.87560178436826774 -0.34576960024044467
-0.2293503941759738 0.52945011044185186 0.6533352622743962
-0.34483552934987216 -0.23342935515620766 0.79924752768659246
0.11453073341298037 0.35416652934443249 0.72837797906055002
-0.41173503644526122 0.15293831083272025 0.80268918724456029
-0.85650887335580705 -0.5970712337395172 -0.2853479173601734
-0.1459140776935044 -0.40805259057205179 -0.45335484278688298
-0.38903150218999727 -0.24241794313986809 0.79319554207869558
-0.42988684871965077 -0.099256373981363666 0.81161986173911416
-0.36604872717219195 0.29215651647789276 0.6372854630617546
-0.7956542714528112 -0.96163416336918872 -0.45031190049602898
-0.33439598941988535 0.18951644169601156 0.79743192799015361
-0.5295580566613296 -0.34562063462104931 0.62355158584160719
0.49585735623475458 -0.65909323839604905 0.51640091933506937
-0.60646610455536987 -0.78849963125014066 -0.36062405998325886
0.28136551204892868 -0.15212657277692498 -0.37987576800295031
0.13110443348495693 0.92721201472127834 -0.32839264121567524
0.14559905730355993 0.82411847307536945 0.16923976829977505
0.16626097065121925 0.96381773218516997 -0.23024490302176659
0.29187585932049487 -0.060570053570603299 0.7572493389558943
0.28565299516278131 0.08921229200847236 0.55051851690538101
-0.62774187521504032 -0.19115081692532598 0.72690219437638248
0.84264653037092785 -0.24422627664103924 0.40877239626060202
0.39990859127575007 0.53282515416041765 -0.12927413333913051
0.18671635377171825 0.48059211940371505 0.60436586224523836
0.71181588163294052 -0.1775529134212972 0.38556991959379516
0.032478481007920834 0.82817294064218938 0.33409332826779092
-0.54323771081055483 -0.60297374270076576 -0.19487808898630021
-0.54106986338651808 -0.14423808423893369 0.74827373030226596
-0.69390035700262942 0.13054207274014473 0.78731954161901285
0.81177231117632687 -0.47860608682658334 0.63196842039804224
-0.33586978933826117 -0.087657655379749677 0.80374011850639349
-0.49292654057342133 -0.032554343412688702 0.76717279871020949
-0.81898914323381788 -0.94205271562190351 -0.47316850130403054
-0.31703593487165804 -0.2389364175604074 0.79420579074048092
0.43359545377347786 0.79150592151950683 -0.30190760076195389
-0.68136063431276739 -0.94997465545783877 -0.44802779829922201
-0.059399045210728474 0.23276856576665317 0.76318769260356945
-0.080816045899801736 0.37405376797533307 0.81393533617198344
0.14597451047248811 0.25770765695587095 0.62238183631642485
-0.87707834032566367 -0.87894533853768786 -0.4754726040258177
0.26637026179438905 1.1005408194891944 -0.41818242158155172
0.55474243723872263 -0.06202432872274688 0.38902155659288695
0.67356681454111467 -0.4935906795965872 0.71173772096344834
-0.17571240080060591 0.38158336579064311 0.76494130683853001
-0.5821876901623888 -0.59884341065631297 -0.19819040089631912
0.37530868454065214 0.58171726211504637 -0.070668413070745117
0.40325874531366424 -0.22869181240709047 0.1827871047815961
-0.39304780526301286 0.18759095793371028 0.65928701106431831
-0.67128835775765694 0.07093375828696491 0.62359886700636835
-0.05240284202275447 0.35779797371828614 0.81345662365111693
0.40481995811496674 -0.28093636343271555 0.27030289396957841
0.13360983675397264 -0.07099781835569452 0.75087064542293902
0.71978107950574 -0.4935170026474065 0.69646491418595957
0.69664431330305376 -0.63256928662942791 0.6075049422272869
-0.52724356939726391 -0.77424345469796307 -0.41310510532926514
0.55356106914651448 -0.18233839291779042 0.72903220634847798
-0.61862413990024123 -0.75447531357404873 -0.35300724655927596
0.43874914001699139 0.73978187769179016 -0.24474777550221916
-0.11853339919221639 0.22272061257062781 0.76307741867661605
0.21077831184787144 0.83362215738057799 -0.20834846717071542
0.060919580429310116 -0.1489036955970322 0.75968705553387039
-0.26495090503417629 0.95490502577268099 -0.23857078128353493
0.37124648005092098 0.92372703222402919 -0.36182569132152764
0.39870652768570736 -0.43573796010934984 0.70831653105491199
0.38160564014653175 0.55197656976628728 -0.053672328362939226
-0.51132811238001352 -0.073682407381568282 0.73721115385621161
0.38298083703619668 0.83738839214772653 -0.32758693506174552
0.017867291497939419 -0.082421621783332455 0.75561122871863873
-0.10841941591301563 0.098700837235735861 0.74868404864283278
0.67461677789674113 -0.43911355888952031 0.65562256186187184
-0.2147457899621088 0.41908629360949146 0.77050826946267037
-0.10064085552248514 -0.33408418820679042 0.65845821212142042
0.19882780396217115 -0.19677086278560862 -0.45963337198166343
-0.087866184792630975 0.26555393493353918 0.75505446021912803
-0.19006882297936656 0.73422708643066681 0.64411447267950095
0.46189641650958535 1.1066269692438158 -0.46029605959625997
0.38206316329804935 -0.21409956802981522 0.033616743836212493
-0.48701202311222502 -0.093988946633128734 0.76540940237942223
0.13505079197647163 -0.11903676353980597 0.81124317516112399
-0.79523138185953712 -0.87135492243586388 -0.43170128386051942
-0.36435046680345451 -0.71891574755481313 -0.18771712477088798
