# XYZ point cloud file
0.24140596612006426 0.0041788176494308438 0.7481275835506338
-0.4398945704527506 -0.086364996126673477 0.80314639317481351
-0.47682272757777788 -0.53034009635225932 -0.43210041965501489
-0.61323381015639988 -0.66355882176320402 -0.31409130684561148
-0.23921859262719813 0.47772064998658981 0.75942383718302864
0.12474722366201974 -0.18516984111978263 0.80565595008515345
-0.19807521207804335 -0.39996261437721237 0.64519200248333419
-0.39975162932021147 0.83993510199882504 -0.37184987533843739
0.46490635777359746 0.83172588535845016 -0.33480212251435049
-0.62108373917702764 -0.85149342332642952 -0.46879423030758005
0.37604319904217043 0.31598748500289275 -0.1801752422770555
0.7209389678924083 -0.51225700560819987 0.68580904205303739
0.14012708796059181 1.1315665499217822 -0.31526962047794171
0.11723554739182163 0.72531100091040734 -0.47611473761918433
0.1936819992617167 0.025081132407592355 0.75297751003223823
-0.17346021227813058 0.61397426892501716 0.73889442573117492
0.21180624058187769 1.2520593422074198 -0.40729122967540121
0.51416731629608137 -0.6365129958127751 0.4386617641743058
0.21418848073007979 0.25713030268148218 0.68454529628428773
-0.51717000779283939 0.10547520430228241 0.81097084913796635
-0.52248134691049675 -0.34074925685206203 -0.54822022206870713
0.40817590254697134 0.67799230849741576 -0.19502595589401395
-0.28402382614337718 -0.17413066331334859 0.7973059733142378
0.26700285967536264 0.76959605553617827 -0.25704331686049997
0.16938186366101604 -0.055103047893017454 0.8080797425301256
0.031304757091115576 0.42763370779915366 0.79410796888212687
0.64341357241275787 -0.46823671513644438 0.70965394220665345
-0.41211986695334701 0.02357246103392785 0.7748443589848506
-0.039451573191997102 0.94057043678723229 -0.29848365142207456
0.37013625753694157 -0.36515620093597967 0.32033774510927771
0.22932788147184846 0.92628231145551432 -0.30708423273163277
-0.40870199788069428 0.35521511241126991 0.69386739993052515
0.056700509121666798 0.36933597092548798 0.77680729468631426
0.14056294105982303 0.46911655918457962 0.6815584011638407
-0.66639543502348708 -0.96769610183182686 -0.40025247216837556
-0.44807370416665293 0.24089263287774809 0.59183304446104046
-0.74360489436810706 -0.25461374892210897 0.62634790158163867
0.30702115201241753 0.41880476025891866 0.56636839668540517
0.30198147140112397 0.25304514945250656 0.51633691513332991
-0.70734294175737311 -0.48856954820911214 0.44697891388381095
0.16178229943308153 -0.08867414771598825 0.8075219178746238
0.20696105011653199 0.98573692498520238 -0.30524616291692297
0.28678016920449778 0.10233948136033044 0.51652417088070735
0.11196350874245287 0.82769820761147717 0.26252476907534827
-0.2193671546040159 0.43950223552033396 0.7674397572988596
0.41268828414626668 0.69474097668550794 -0.21642107218366746
0.14518016563574143 -0.084480763231140177 0.76097413807565317
0.91469212707087166 -0.24260605517857048 0.4439716524695676
-0.9139053266993411 -0.81351305668072871 -0.42238747578498703
-0.53435606010574155 -0.25824836811693219 0.70127519328948296
0.20937921377399427 1.0892861053020937 -0.45025227818529601
-0.21622883685113159 -0.58303169198618576 -0.24000269587489953
-0.95117985099074431 -0.68603028993996684 -0.39527707216996077
0.0072275152285632416 0.63355551016823597 0.68123872845889721
-0.065313271202591672 0.88009829325235778 0.21438399476469883
-0.62544919796903731 -0.60939836600937669 -0.21897968905634713
0.5173631587457912 -0.1428336312223335 0.72687971582423572
-0.21523640334330807 -0.3123752205697965 -0.58189176503439199
-0.30619976903611779 -0.22762359014705791 0.79628662873388834
0.4076428727429624 0.79693950786803036 -0.31286134466097337
-0.2812637821787094 0.57018284119795526 0.77696751206716641
-0.63749702004487752 -0.75817671655715491 -0.35633686136995379
0.25570730319088852 -0.11582911213484204 0.79272521141965413
-0.37327094524581206 0.63244529537157135 0.64373152411512535
0.50514583840790195 0.8813168338311943 -0.35438509298385767
-0.7169072432337904 -0.41139426131644452 0.39971145300790312
-0.12093716495823958 0.45514858739102615 0.80462255306310482
0.67503753865488392 -0.67881443743642289 0.49279376604906133
-0.47815435883405666 0.15849865433797738 0.68803469425293429
0.57151988478759108 -0.38050258536364034 0.7355925647329542
0.64621076396003119 -0.26209430821436897 0.73114628889662825
-0.26370505624015195 -0.27255428820969052 0.72848468935130484
-0.75302423459945622 -0.43573602104315801 0.56918095675239044
0.12411656334141075 0.48957556380644629 0.69633211945453866
-0.0019514621088596584 0.52573112825214618 0.76645746626913436
0.13129025779533521 0.40597703656642548 0.71796616668347824
-0.23514279450368569 0.3183931704639742 0.70080516649218083
-0.1629820102781645 0.72345360692615035 0.41501065811855398
0.12285326029589427 0.60526003124628724 0.56947112541359957
-0.46451603729599356 0.48327242602930287 0.69825066694270532
-0.34602740876977656 -0.63326679754606552 0.01011030203109442
0.13585059368916319 -0.1123203643628814 0.80811325039073267
-0.95831317354165257 -0.79837938856773571 -0.39920710780820201
0.65936637668824361 -0.46540088716067984 0.65849949670022667
0.51304251746341123 0.67783629195847084 -0.2763075526404819
0.28631363732699344 1.2469381807504636 -0.40959889050429155
0.42793774102786841 -0.23197326271580287 0.25451319012861262
0.37246733936436804 1.0457950194834158 -0.4102987652074539
-0.6084598508880088 0.3441115738926559 0.43480362624073621
0.55161621500757008 -0.27479241180562886 0.7370251026495751
-0.47012890484644032 -0.58491961333977138 0.48210605470008971
0.3603044323671849 -0.22077866508644406 0.74263223364999575
-0.34745309248408063 0.73579820622065206 -0.53000159564061988
-0.27786462280322155 -0.29455645898826943 0.72139413773673056
-0.64507686998874547 -0.92809321479303364 -0.43903455931185675
0.93211907958475493 -0.18318437588449843 0.50256229127800012
0.32719190507568729 1.276895979887632 -0.43280726718963436
0.53328495200678327 1.0562297167178958 -0.51151473169186801
0.66772132050166633 -0.67103573381522441 0.46609409394947576
-0.18408388494848094 0.34148887814487128 0.76294322662370462
-0.64928640807199756 -0.61022928210497618 -0.22081531643615904
-0.94285823409921576 -0.72786886116043625 -0.35789685346173172
0.41260833985279421 1.2503109276741107 -0.53603463299751652
0.50158797495316243 -0.39280718784418589 0.35028883550931766
-0.65620393304807667 0.086477115806641969 0.80896716631062304
-0.19286651319786685 0.52205441244596207 0.75324621277193415
-0.091883723333125999 0.27190647848487015 0.74885980650135053
0.41471232703795158 0.94098973623045357 -0.39142681218656605
0.25575355810958378 0.82453697026293504 -0.28568008450636384
-0.56924455788440032 -0.63819173424421183 -0.28131335005971181
0.29120124971873196 -0.048254902974838254 0.75083253218486234
-0.49192426242514742 -0.65629898598112701 -0.31342425192613632
0.62620875903757955 -0.42421393736832558 0.7076549215780723
-0.4738434144085284 -0.10854042282521337 0.7911051075739195
-0.40840904355519747 -0.3667436684058023 0.67187030859737007
-0.68146942032530156 -0.95383579242174532 -0.45394873477666664
-0.37184400694192554 0.27693620850646083 0.76972480633281037
0.59976832681106806 -0.44380379555710925 0.72980170859806393
0.75632326549182416 -0.59166186016956512 0.56647658847695226
0.32130661012930073 0.52722517259296975 -0.34955212990464446
-0.31182544446219662 0.21551252873884907 0.80418294566745629
-0.58628658124277244 0.092001810041241194 0.80968175931018749
-0.30170784383305538 -0.25866311164714051 0.7646432765735014
0.84121189280196518 -0.16800008805004563 0.42090659835050914
-0.57671100981724788 -0.32310476124058551 0.68295209717863514
0.2513841356330806 1.0781904910269926 -0.40503955332803088
0.62545380551430085 -0.68541576606252108 0.59842884463545687
0.26788936562049415 0.80376092555257461 -0.29547008965719002
0.17797073947481579 -0.20443719071778821 0.7857703324638976
0.67353589133031555 -0.53547745499993304 0.69377156281725405
0.039256320746537732 0.31940898464344514 0.76581598014191599
0.12082898252472773 -0.1921208402514718 0.7994596324115264
0.89093223624091245 -0.15745856073161324 0.47063074447912001
0.045081662921425902 -0.29462355489931058 0.5791830464404697
0.74926867079037152 -0.39195130808242951 0.39238591519101007
-0.39511686788836631 0.47307741927229974 0.81672775751575699
0.14545521835926145 0.80902758064393687 0.57028727853621319
0.33790172430835419 0.90217124251901915 -0.34568938992217468
-0.29578375233349519 -0.057295925784879964 0.75685553794128424
0.37204821513649389 0.52127007576183182 -0.27446572386942591
-0.36917757346358115 -0.5374834714945671 0.55688027703320131
-0.36738552577256378 -0.76563404230060228 -0.1869373670547958
-0.38859538518595649 0.20644921933359228 0.63545194110898962
0.48192198156937849 0.81041532596747246 -0.28493240941826059
-0.24552143490356748 0.71580341441467654 0.65536149267345678
0.10285846662578635 -0.18848112780163495 0.77224935422707119
-0.34633895305693585 0.12743497495009581 0.80086478630035174
-0.37393482063857597 -0.24109106413527781 0.79480086421948926
-0.19099927745530998 -0.18876939961567585 0.7418130555136031
0.055221912539719753 -0.34477838821431606 -0.41131248289875089
-0.1037673320470387 0.97220404510256397 -0.12267440989206335
-0.75198770476708443 -0.65721419043694729 -0.2756515815520757
0.77805361515685334 -0.26982638289620109 0.70016817653730001
0.87100176884670333 -0.37760787969985188 0.62423762600582933
-0.64910822174527549 -0.55729492680145487 -0.37371523754878666
-0.74771852791988724 -0.83791347150005535 -0.49415547466875154
-0.62336744425849711 0.67339999847090404 -0.31544594045811181
0.15863583569905604 0.83307111109103005 0.49458897999366158
-0.3818120883158258 0.39526209010550484 0.63964180419223737
0.51156025482072831 0.91991349902263586 -0.38429211394199925
-0.46667765043091691 -0.58207652453733738 0.39587319983439073
-0.090960897331960666 0.49833624141709976 0.792827455293029
-0.7924614486801973 -1.0189795845647964 -0.43124725591088975
-0.43246817939255244 -0.43123024978006308 0.64890463665165043
-0.33791930892932598 0.31667261102902766 0.8137483831050929
-0.20869474979659586 -0.13992931620339721 0.73141322897858885
0.20745664018336463 0.76869844944608534 0.25457938061872909
0.78729747344295831 -0.30969977512355751 0.7027156031100219
0.17293344347681261 1.1511373572254735 -0.32623361569169163
-0.10682298371351795 0.68433172319221436 0.72119530272146548
0.85404169938269803 -0.4092182159756228 0.62720300856179279
0.7335200236664523 -0.31782224295564276 0.66524567142917945
0.099011344042842175 0.84122685190701674 0.21409002605811622
0.11795035371958384 -0.39975632852959953 -0.14815037844115153
-0.27282508592018218 -0.71014628083287312 -0.19421719348453337
-0.28611738689597033 0.33585151472096908 0.79165651564231609
-0.21857497460847775 0.49075157738877406 0.7572482187261329
-0.24797554574413749 0.95567173653380255 -0.1322185995196854
-0.59382387620999655 -0.4098821833729227 0.65026422384085691
-0.67078644514176045 -0.29098640715133262 0.71375510442729961
0.057643568307342186 0.49769936502232826 0.74508631037271655
-0.81282613060247755 -0.75316492749253472 -0.40760691581285613
-0.44130061803154597 -0.26929033640446476 0.76729589564232015
-0.2338500885980066 0.36458252054502482 0.71774773668646219
-0.72155191445834888 -0.99568141096920471 -0.41013654696021717
-0.047517617747899976 0.46559020348587432 0.8018249597074103
0.82057382878042162 -0.11453151820855112 0.47271646489609864
-0.47535786462059804 -0.38585186196431132 0.67304688712739846
0.64791041757552748 -0.029580719496392405 0.59871019947958004
-0.71771438923970443 -0.35092509340333344 0.45871212866465072
0.20916501471522153 -0.085479342495666577 0.81239292843974908
0.054694579585674141 0.39463940012663112 0.78979913149015601
-0.056805633310046844 -0.46355013801311262 -0.21158408846599741
-0.34648484563410875 -0.63488769150183977 -0.079915508480290498
-0.3929558751629223 -0.016831622591959361 0.76759273621740931
-0.72757088288636851 -0.34810162303694714 0.67063090404317904
0.85127656417314235 -0.41168759874569272 0.46496119587052931
0.36077702766881448 0.42853206051098702 -0.23795670313662853
-0.69018633459959755 -0.71192956034038724 -0.34722204114345345
-0.26665784893010258 0.44544803975760927 0.66739541442657924
-0.61239230562117442 -0.24226626331115741 0.70785777340614686
0.54491034904469338 0.008660316987049832 0.60091403431165702
0.18229524289779775 0.70363646270844704 0.59495673621037781
0.29883848772483601 1.1204355099206769 -0.43783534986107142
0.4445612153549483 0.043139174245539813 0.49398847654638445
0.61203450794971381 -0.45355026734666759 0.72642626518967646
0.52151926123785408 -0.23132038417889356 0.73772047900311577
-0.7217026417904302 -0.54657068185960833 -0.14795218091853002
-0.61584283864932754 -0.64986232611542016 -0.29238334689301126
-0.088804217856356615 -0.43617717151212165 0.37854753720041145
-0.89588533077993482 -0.17381208597518949 0.14304261890905678
-0.54662493762004516 -0.051504826975504736 0.7558487929020643
0.084678817975031961 0.56080829342019189 0.67365782937016405
0.66110274771934563 -0.61162879714237528 0.4254287109542858
-0.10343712540263406 0.86940650376383921 0.21820799446985362
-0.91140606502619192 -0.74088785205114038 -0.36463915385495227
0.29194712928753752 0.67045576123867967 -0.37703893180303538
0.29169178157367348 0.13300520390704218 0.4924821302513962
-0.5056905590342744 -0.32392867716334695 0.67178345261872607
-0.42260375615098589 -0.4047132102886879 0.66780463462111328
0.39884292930882737 0.71947295770031694 -0.27033131740440908
0.46841393283084187 -0.0071121754852954133 0.38026753190080953
0.27162137220928351 1.1299054768566119 -0.43528887378199599
0.085132614937482032 -0.17576261647394875 0.75265847293961485
0.29632052572524259 -0.16286319913483971 0.74530824858010902
0.77421288824895207 -0.36906243782577342 0.69765853393579746
-0.11406858190672331 -0.060402483738434265 0.74795156266557683
-0.35118507321016779 0.4767564507963904 0.53180617554743748
-0.88318394605396477 -0.90212469150575547 -0.4527863749774923
-0.28698046707819458 -0.459405387534497 0.62199961650824065
-0.6605131825967927 -0.85256333032894727 -0.4025429320713414
0.016438018425464662 0.67470112358392109 0.67212488847411933
0.19772999247776646 -0.36912134079644754 0.63224716752729648
-0.27337308293316376 -0.17510723119588611 0.78190014850492418
0.68346802906331305 -0.65198194699535028 0.59975220209067004
-0.75562087724369231 -0.4368878504535596 -0.36364648492932616
-0.33545517185456664 0.24633901933688773 0.80040785830212968
-0.43034744641113143 -0.78543563379627379 -0.24911509918538854
0.2630740612182656 -0.30259674815463278 0.72303735545155945
-0.82773599951374965 -0.77860597720406699 -0.42212758932086558
0.21263024902526428 0.19904980604022793 -0.57710068819552518
0.71847403004750454 -0.50502507422258169 0.41237431288865523
0.071982686273612373 0.60840152456791241 0.62067669765897548
0.62232891071604435 -0.44949611509850107 0.70570012835979057
-0.20082895688890723 0.32947953918276474 0.7742289516908869
-0.46082706737103951 -0.26116877124755877 0.76211966046154345
0.06041199232881489 0.39256968567205419 0.78488624047696121
-0.37243901680917268 -0.36798431360546047 0.67549690927313577
-0.73286988051811353 -0.46456546383528163 0.49574337800513746
0.16553838192508152 0.7986273268768791 0.2795343717316463
-0.080911209347821256 -0.34071600571465677 -0.5158766302764306
-0.22202674477118567 0.52720855574795422 0.6732203469508562
0.41961540748786419 -0.22635967219323572 0.22660804710983484
-0.78711245265017471 -0.4992608105530032 -0.0010377227445701465
-0.33957768597713933 0.025488363137872838 0.77225465953416972
0.48594226482528313 -0.54779517823859658 0.39296077291682963
0.00063802683075486755 0.9353494410472063 -0.207072113031181
0.28577527486170684 0.46259930568470775 -0.39535688729723262
0.33486006356460241 1.1276462397280032 -0.44582235754236876
0.72457285004327687 -0.31670413182720303 0.66724142979737522
0.68539477110839186 -0.610513947757515 0.64243377052089556
0.39157898960152515 0.53700222656859786 -0.093066234079838495
0.1979392955728958 -0.20157280060071514 0.77565938043913008
0.34990171737001319 0.22106732142960439 0.30578056175407653
-0.35104048542878274 0.81263326040680184 -0.44591165586385273
0.028117762456727036 0.40638921646488058 0.79895690044579126
-0.72100571545872216 0.58373112032485519 -0.12700603091198559
0.084287293632289817 0.59009138681045759 0.67458555870731374
-0.54137494250127993 -0.2994197232815331 0.68018853110639554
-0.76496228129429422 0.30695422304604714 0.30299581608854709
0.032373120659404009 0.65970004617961653 0.67380035435239449
0.30325652406239456 0.1021388105767036 0.49253438039723108
0.22015000285511199 0.0083690616569203069 0.7548240491397209
0.39048886829512153 1.1714994850536122 -0.47886313129943403
-0.81650415838047152 -0.69073695051186212 -0.32404849374619005
0.46885780634132246 -0.15686888094005536 0.27798463440543486
0.83476139853723019 -0.19719533918871202 0.65494686660685986
0.6025906711700042 -0.22310753645420256 0.35650597015772334
-0.54109564142155087 -0.40037127130427219 0.65599266031743753
-0.9203522106011528 -0.77465073764919001 -0.49709060168557073
0.56428003373971158 -0.48496699680041777 0.71919791128661714
-0.54983744045132088 -0.37767814062377814 0.66521337822360493
-0.5663855337911885 -0.54804408416471784 -0.40522982031895083
0.68778089573551959 -0.46977616642310882 0.67523624197891152
-0.62915922439864946 -0.35296294364020042 0.67499990267420173
-0.87698077126160356 -0.90883490166507985 -0.47284344184566152
0.62698924574382708 -0.40575621825251296 0.72978356706385838
-0.35393038660977361 -0.63234425031841557 -0.13611449719630286
-0.12472412979485981 0.75470095618786104 0.39055078384414799
-0.49273262111934368 0.40995724945644607 0.48265928594830143
0.28578238616931229 1.1543653431889283 -0.4438973274157334
0.46442894217398134 0.030275825400661649 0.59994140973161691
-0.33229200973389705 -0.083705671315590591 0.78780951305983393
0.11157418547777809 0.49557886922780536 0.69806588045812745
-0.10546642911400106 0.44698505474145511 0.80793344386172805
0.29934517180354447 1.0183582638485413 -0.37960196317064643
-0.17977861476919355 0.51465314490876657 0.75651890455014126
-0.30925932166117498 -0.63744255111853843 -0.13321888414221661
0.5561944575185791 -0.47197180648114956 0.37085353043504554
-0.13534155395357317 -0.30278094125238053 0.69784473107066702
0.70130379754999517 -0.34870734868318554 0.66979766263193596
0.042851383399256093 -0.32943506291619951 0.4721542684296125
-0.36903686182993489 -0.40206090579578857 0.62569480883638562
-0.57606460310761953 -0.92524381491699415 -0.36490212249382381
0.35196573404535059 0.0031015982637487838 -0.3472151710484539
-0.80479376816192527 -0.78115992245215571 -0.40778105829352285
0.75002654179007422 -0.38338221856251575 0.65246792406091458
-0.16555654386723795 0.39052101535202022 0.77596696669091614
-0.018937772860156521 0.39041582849145584 -0.68387678192940626
0.13794201817398211 0.37334577862153573 0.71840734192879907
0.12519660224633711 -0.25865098699725797 0.70061624625829211
-0.3324006897725944 -0.79984883939290263 -0.26314099649266609
0.1067115497552571 -0.15993915771233813 0.80513340041581216
-0.52497293058152028 -0.11119101062949766 0.74993033625659677
-0.58909244130180483 -0.35738452008048283 0.66688369865774177
0.38522377194364754 0.71951609559804552 -0.25629697208272262
-0.020584347018804294 -0.35823532883002218 0.51528514670980741
-0.75506730781546594 -0.52597394152675836 -0.078586075412395928
-0.72022594757661906 -0.56733970578341886 -0.20741579036263857
-0.41139456083028847 -0.023136378465253848 0.76299326667816558
-0.078392274547091745 0.26143174374353984 0.75472388490958764
0.29663657396198406 0.8336446272173097 -0.31716623324534865
0.049294026691372839 0.87471080840787874 0.60872326811244548
-0.4425984262640057 -0.44827428848190864 0.63840466470504964
-0.60738503454937742 -0.98030503444564809 -0.37862981613503166
-0.61152236357251955 -0.053541154819126247 0.76421528800816674
-0.0043945194471577409 0.51953919769610746 0.77232399089132642
0.43853763130479706 -0.60693793966306098 0.51781208073245821
0.25487094537335864 -0.0054999870070895351 0.76420702207387947
-0.55387149736217101 -0.25871567250791583 0.7042005084375802
-0.066045476449272833 0.54199343905381925 0.75258207053667192
-0.41509527077100117 -0.76335335508065727 -0.36765423550500742
0.00071088347664804985 0.53219755244554934 0.75375222209450854
-0.24738281207470969 -0.28120285537997969 0.73190500415519466
0.1143326325294689 0.40841336447082055 0.71071149061047123
-0.5637408679394067 -0.23429057259735242 0.7232017279255416
-0.50625315976769869 -0.60943569941503828 -0.12999218451753336
0.16846079289262139 0.2763005345784082 0.70769968201690503
0.023273014691199023 0.63091560097455934 0.67816088358635795
-0.78098589690383857 -0.61212032372807834 -0.23146416250893509
0.095552725865974075 0.53814218794824509 0.67848498706654325
0.40482338988178057 0.59975519003812039 -0.29392153370196894
-0.14566940048351995 0.76402996376706334 0.59519055753036199
0.32040531200461331 -0.51301546696682521 0.52500567782561092
-0.90837223499470099 -0.18154079285977698 -0.32237416276211661
-0.91240069923187495 -0.99440752329448112 -0.52500816243881587
0.2851421804180656 1.184542727733394 -0.42237452215470483
0.25144965104012762 -0.025381185411959661 0.80334056217232686
-0.36782395180924787 -0.41751144503465465 0.5991446158319107
0.18354830467652761 -0.12891275675708824 0.81270400220048344
-0.66702542188336089 -0.99912875094162978 -0.39951729524548796
0.84303603470402244 -0.36205195815366853 0.43664677892741466
-0.44414265765283467 -0.35785891501348122 0.67317895979518028
0.48761258821228459 -0.18822944788252416 0.73753302658778708
-0.44519563854276001 -0.36481661013376598 0.67540028626881821
-0.40006288965726444 -0.066671596734131366 0.78698709014857116
-0.44777384600569548 -0.37965688873107961 0.6770838334604008
0.29723446792425534 0.20818905495979978 0.4769232129886376
-0.24207996491242056 0.68990988225407168 0.59877164616131751
0.11874252141123076 0.8627346162452838 0.54359358401828217
0.18843006491970105 0.78597331691276207 0.41884661165069659
-0.37174285514047956 0.24992354860369992 0.68690447611510308
-0.19699422565596869 -0.49168011198280115 0.53239813955067916
-0.17059678666862865 -0.34493623654277816 0.67823148326147731
-0.51790169261830599 -0.37092020072013909 0.67395331033142725
0.096507265492630445 0.60345311712578287 0.67304336386431274
-0.89402429802949079 -0.88061413778208952 -0.46104674588455907
0.025754350756709954 0.33977197299503681 0.7918318163454785
0.46747743651197204 -0.53350717039205331 0.68025039763357853
0.30740714226663979 0.74787330683503761 -0.28475645555252882
-0.48230462678917085 0.0026429845803659369 0.69139313787483303
0.27028833166454058 1.160096689235937 -0.41932183062266404
0.51017666411178375 1.0411552744672434 -0.41714729899306136
0.1190038256540813 -0.29126909372639997 0.6389432696379771
-0.26605531810295346 0.44295569047348793 0.76810198921734241
-0.61546796938036863 -0.08246081318852061 0.75768706212861048
-0.58760841604804881 -0.16662458905165844 0.73200162397180435
-0.57017181850800647 -0.64226803664920862 -0.29371770261374763
0.57140513770596346 0.83522577015279609 -0.38894788505838207
-0.23745220335583284 -0.19653267032990485 -0.64665780738895506
-0.64256834720383793 -0.55651529224259499 0.46419803622038813
-0.83683542821525325 -0.67179110691927457 -0.29550686849095342
-0.85794939134242121 -0.78339040411203098 -0.43947580490024762
-0.37755359050022896 0.20764844004608984 0.73999309561037308
0.01763424377498346 0.30583861789005118 0.76973343364541336
-0.15292313217558906 -0.29519429661501917 -0.58602530956246568
0.36097836278807893 0.74799002026659345 -0.3527349192924838
0.88105275863767396 -0.24934062799101131 0.64035698128798302
-0.24408071541543919 0.71013119370842581 0.71073363933945188
-0.21046705705983548 -0.34658650178967054 -0.55037145163085199
0.76319432772667284 -0.32104259133860769 0.71158961938900944
-0.40777544815653322 0.5799137406047532 0.63986985336492808
-0.19294095338772532 0.47531386502872919 0.73813117302932341
-0.26955526369888272 0.010449866164145449 0.76482224345349437
0.26565513911664596 0.058021563937598053 0.65642684105068483
-0.59322438045662729 -0.20330444294015815 0.7208918004369167
0.69761662834211258 -0.31974989381418606 0.69428050121182849
0.27297372709425183 -0.043029713399949543 0.78535975202761676
-0.62382483401023681 0.18166441427481672 -0.64276303278887781
-0.35849373592399658 -0.083576886332671574 0.80758458636336172
-0.66265112661322245 -0.58294760611438257 -0.16018599396791444
-0.62999880563745503 -0.61808185910939439 -0.38315018334783701
-0.36943564248682392 -0.74084844484582857 -0.18964048252562549
0.36497960745993341 1.0975728988028415 -0.43252770684520669
0.27781356233873122 0.75549825768646706 -0.27106432729423702
-0.16912558475730854 -0.17404087871949137 0.68731414794613954
-0.3013124714021318 0.49781063872969589 0.77905419248387631
-0.68476578500785656 -0.50207632699487426 0.30154724372704322
-0.07677230968670834 0.59066570267147522 0.71709533219490851
0.57681928208995537 -0.13330741338513352 0.3670625610910605
-0.65145022348074288 -0.32956041052292417 0.692961132926456
0.44082336899617225 -0.54530031718537697 0.41099146459620073
0.11803926145993771 1.0585397307102005 -0.27094645104303083
0.29785657587045389 0.7604441663186936 -0.29988986521988181
-0.25168765034769081 -0.66911931866993357 -0.19060424857395475
0.49317289629101779 1.0021509622421121 -0.45407218725852161
0.16984582224902844 0.46633804826556169 0.6800610897486159
0.16580480166929146 0.94189076581886155 -0.22767645741465614
-0.61319422695607528 0.17308569988449807 0.72169091497175231
-0.49376752962634285 -0.64594614094575498 -0.31119385912381148
-0.7076005549249258 -0.2407537585270012 0.72150631902448481
-0.048613043969406355 0.24496720370498926 0.76303500994190188
0.23615108506779947 0.0042373481070814289 0.7821592480661117
0.28695664019624179 0.81043035064820579 -0.36740765085371052
-0.7832011330934403 0.48647314313227152 -0.12943581627654765
0.1481002845692565 -0.31938606483446086 0.6311350113361911
0.175200160662349 1.0116812414497316 -0.2711219570409753
0.60091186382510742 -0.70519501751356684 0.57129708539522994
0.0080124589914269961 -0.30283591964653866 0.61179834684507028
-0.36533012097079798 -0.63020643560204181 -0.14674667582426082
0.86934302998994006 -0.23126822439925121 0.64459515722906957
-0.30946089166962842 -0.016864341094709134 0.77131912215660492
-0.32683446529228455 -0.63412835360805664 -0.056095984133321508
-0.465541047117906 -0.58517081620051536 0.42881475943810443
0.7491429903956135 -0.32947473245863801 0.67121803257642298
0.39489509654727151 0.8745718175238073 -0.34637350137658274
-0.23477696413409532 0.5332801163416776 0.6506890107075094
-0.34496256309605933 -0.2382241365128358 0.79684531242637036
0.11006706544806377 0.35417771881986582 0.73158578903068161
-0.4161430147492462 0.15254778837754013 0.80195423456653714
-0.84908530943103866 -0.61778344330756951 -0.27543846457346888
-0.14190360969637617 -0.39853203839253437 -0.4492815594520394
-0.38889504447103729 -0.24715698991988211 0.79094240533168403
-0.43149805371567318 -0.10213836828436484 0.81068219513844753
-0.37021019401107047 0.29101868784985263 0.63542982241786916
-0.79662865146644712 -0.95683330668622113 -0.45326634505750718
-0.33915258484506161 0.19000387220505677 0.79656741428144073
-0.52545778754236316 -0.35108374780478324 0.62282577128506489
0.50683384352166527 -0.6617173640119165 0.50992191246127661
-0.60388201840019207 -0.78541048312159001 -0.3595138177309849
0.28997306948632584 -0.13679860424729107 -0.37583679646508728
0.12372810439893067 0.92520660308056613 -0.33628941802264478
0.14555525129461167 0.82880786650900085 0.17121126519921148
0.1625344405380873 0.96539433778417028 -0.23441870368888829
0.28936148563100694 -0.065817235019666187 0.75873547094732174
0.28550971552148496 0.089326169365953945 0.55383183793342283
-0.62565907904825657 -0.19706234681774226 0.72786756104945738
0.84774932998716857 -0.23761894979710796 0.41246782210412292
0.40162625817482844 0.53458949034147007 -0.12606018730816615
0.1837785605967639 0.48180305597882089 0.60923819167285487
0.71709898880644296 -0.17226390885295562 0.38942102696275427
0.031491630505291024 0.83503027866942592 0.334045238300682
-0.53748149194731099 -0.60535352254791186 -0.19060603579836055
-0.54062291062373458 -0.14850887236352162 0.74834675173456588
-0.6960471433778519 0.12322089041188167 0.78876345762677857
0.81395112426923966 -0.47523519053347751 0.63071052040162456
-0.33769837205440112 -0.090292293613637442 0.80250176315017541
-0.49437445955450343 -0.035515332910223796 0.76708113053041416
-0.81955531319254327 -0.93850509410971994 -0.47475514263145868
-0.31705067671146203 -0.24386779436637263 0.79166973983205935
0.43340373733346649 0.7905330641889794 -0.30099077319789913
-0.68312551909313868 -0.94261440939894969 -0.45212745514632502
-0.063730241034837931 0.23321478226309678 0.76382026902214051
-0.086772988894350256 0.37602084360639076 0.81466929704472335
0.14355100375012242 0.25808286211624143 0.62533006768514099
-0.87527089887342058 -0.88134438846146401 -0.47331476614829171
0.26268299398990358 1.1032571782421297 -0.42280901038915886
0.55874199811608349 -0.05845554294977795 0.3932791743091002
0.6752521339498152 -0.49584598705560934 0.7090660160068758
-0.1812644295268715 0.3844655732995641 0.7643683903187366
-0.57630522431923303 -0.60301377894426378 -0.19323968200209407
0.37654533474168694 0.58303848994563623 -0.067038581415697962
0.41220892164951195 -0.22041024058527947 0.18486707876887465
-0.3962143963320317 0.18577603846508839 0.65827655915506966
-0.67123689151640509 0.058864215426067457 0.62534647894204909
-0.058236846142624366 0.35921171694550602 0.81452757164286993
0.41343135705066913 -0.27458595872930491 0.27130624660885161
0.13205565851658108 -0.075087676447158636 0.75105689308674783
0.72132814608014861 -0.49416528628342693 0.69413939037524131
0.70392986416062975 -0.63105579571468406 0.60264534946353621
-0.52560986241165608 -0.76825180405611504 -0.41242743596739473
0.55099148005992937 -0.18752201961264081 0.73093858734064554
-0.61543356176426123 -0.75311318223038426 -0.35062858592861801
0.43933042817278434 0.73928745642789551 -0.2426173828254683
-0.12284700671832915 0.22346619123788414 0.76317770177428201
0.20751977463292182 0.83340122990659626 -0.21082191803125738
0.060291641923502226 -0.15370549430429992 0.7586093795112987
-0.28349765509721148 0.9385762805107607 -0.26056876791873762
0.36923587880996722 0.92302961159811048 -0.36317171351453226
0.40204077982952846 -0.44265080279428304 0.70491991506608898
0.38312752274124584 0.55358697617597308 -0.04973946928484807
-0.51175647898350718 -0.077377159880208435 0.73733840090174851
0.38144441722073896 0.83635075949543225 -0.32826531115939162
0.016585034088844708 -0.085955175619670809 0.75501638013256667
-0.11143372046906386 0.098171781826771776 0.74859410743351162
0.67697392120121336 -0.43991973823437869 0.65408637794725877
-0.22073235131424163 0.42253949970761462 0.76940591842640771
-0.097514431612044206 -0.33893863857172879 0.65520390167145592
0.20616596370892459 -0.18141412818049751 -0.45567356074274556
-0.092340238463426871 0.26663728617059479 0.7554563143441797
-0.19536859056860667 0.74193736943454702 0.64047939798643228
0.46233051307679585 1.1075647840829639 -0.45918355518187681
0.39198507949198458 -0.2030784927416347 0.036460692822693375
-0.48773280328734891 -0.097263569657645821 0.76512337183773127
0.13292844873132381 -0.12529488010776224 0.81079696816274804
-0.79358633945642687 -0.87093460839837999 -0.4305650541253101
-0.35900311630406279 -0.71401822618263133 -0.18882043986245378
0.46506434624827087 0.65731880640287255 -0.29240626383916535
-0.29485466105534464 -0.54000784700781068 0.42335796729069841
-0.14871404633907837 -0.461597655057713 0.45865063499793024
-0.01387060232265469 0.22633476158937915 0.75751379406739972
-0.17841574283678874 -0.53148317948519708 0.18926933574241644
-0.68215730191692714 -0.56096685939870361 0.083021116564076181
-0.54780143402571291 -0.22839350312064699 0.71366585063672972
-0.51509923105687516 -0.078824330918786156 0.75622702930595409
-0.040526235400285771 -0.31744959959395969 0.63934232522609591
-0.23269181130263683 0.95523337310753931 -0.25918446425456665
-0.49109872674325139 -0.41735713248610207 0.65395775317072236
-0.72808195993529523 -0.072456432245349811 0.74800799986082467
0.16043792282221148 -0.0083140090115034759 0.79030383766937717
-0.41019375787061918 -0.71944251899156808 -0.28391272215569074
-0.78413891071171715 -1.0062362559828684 -0.42310618635954711
0.68948340440458011 -0.3365019280047683 0.69420035956319381
-0.068246812772304821 0.46739087299712168 0.80297197349685234
-0.25678032611302193 -0.36117416441241268 0.68428304716690036
-0.22993648335920547 0.49441604732308497 0.75602833490774657
-0.76018883378553248 -0.56480498520727096 -0.27676034831304719
0.44869137837862638 0.018249442285591222 0.41650825848624606
-0.44723989137611753 -0.61382721298947529 0.15676107186246213
-0.20262647682297086 -0.15576975462064913 0.75311589654686628
0.31394665057136883 -0.09843979085640564 0.74370659487292912
0.44690661350773553 0.77055606522471898 -0.27728260792768111
-0.9467567478611425 -0.76498204132395031 -0.38099442003034056
-0.16266266771579918 0.3125047223199251 0.76164454442693597
-0.43302379113276146 -0.7419324187773817 -0.30930728322930179
0.76785842692043182 -0.40936837234904422 0.6918228226449159
-0.94899539680682388 -0.68602233407074298 -0.36793709573638722
-0.33402490285443776 0.4270235709911121 0.80197592605841805
0.14234188323292463 0.84269640026168613 -0.37617405637595525
-0.5220554252651759 -0.66833126261754083 -0.32138359895791524
-0.66670561520441307 -0.18707310839232405 0.7450033871655819
-0.13739855412270607 0.63960541110154434 0.72639614069583303
-0.86300603613921201 -0.25513225987117405 -0.37157048103904344
0.89906494124167224 -0.34710030315055729 0.48079917434281683
-0.24594985080407206 -0.032147039042773162 0.76111337852091054
-0.17276295363522465 0.52639548675236458 -0.68793210541834071
0.28730384887535365 -0.25689981384072813 0.73704508900992494
0.014326671621629927 -0.32824108751136438 0.49662459568629913
-0.298356066675457 0.93768639986994451 -0.12964269532013972
-0.38763983968595284 -0.74903382601312241 -0.20636654041874181
0.13545633841856741 -0.37286840946326927 0.30826149466878405
-0.15240398477240458 0.21502087313878882 0.76431090779667699
0.13064798976252945 -0.33831484322571659 0.50217093771702537
0.42668962464775984 0.73468037277809906 -0.27143820291643195
-0.40393065607044498 -0.28714251668312296 0.76281457765723104
0.23381096046053251 -0.075759147797116455 0.80819415369401781
-0.19564588565982088 0.30604702862408706 0.77397405644279615
-0.12111614604148713 0.28090351287926318 0.75777496678562528
0.44198941050659357 0.90881104354091491 -0.38633018864746305
0.082609477503277517 0.6865233076411883 0.65026853360563308
0.046290909474163477 0.27757979049277814 0.75391296202749203
-0.074784891633355777 0.84377801614106751 0.26802148412161131
0.50857550150148967 0.87607462422635507 -0.33965607478510762
-0.91694302852141618 -0.20875835851048175 0.061368887155275331
-0.26798156321715005 0.71387663966545567 0.36068101556224974
-0.52455753731106913 -0.32633602908459691 0.67227505935058218
0.39970097770195068 1.1843159734467807 -0.43297580318976969
0.58985516268420923 -0.37010284483609102 0.34922790811477711
0.11959903430247909 0.40790385452053046 0.71426761275433037
-0.13869963814715014 0.46152211023726797 0.79647612113492983
0.34657103258791899 -0.32544740864886057 0.7317312755326455
0.56213944597374166 -0.70148277108781532 0.5053454646130966
-0.38488185095283178 -0.84399960556518638 -0.33247782802119019
0.31223430894340165 0.3076457309191527 0.52958346788901878
-0.34026318312112824 0.51304313999625428 0.60610235526392131
-0.042043823542677217 0.51036548579055818 -0.65669606888423004
-0.51853936438195802 -0.87022534364849236 -0.34479690729441614
-0.24342985840012155 -0.21658156188768185 0.74365128370664024
-0.63300205369530715 -0.59102065385165137 -0.09575422227553787
-0.72666205471492962 0.073067091228344427 0.65823403337681441
-0.7246289534100141 0.033907354453555971 0.63973741460401357
0.049305001437629059 0.85735581142038253 0.62870479503012788
-0.29506814952454796 -0.1349518440879216 0.80137445084661607
-0.044118947084628601 0.15717532103446397 0.74857903093767675
-0.55151743773774964 -0.095668952902968174 0.7533077358244924
0.46581274832541553 0.78578350595895774 -0.27039506404414126
0.27632069604078957 0.064129397415533695 -0.49528994658632541
0.088633990561744369 -0.1566446100433101 0.79259002988602845
0.1297104784513583 1.0916756144287545 -0.36923844477370693
0.2430759287224511 -0.058607266705417604 0.80698005047409538
-0.83867548879909926 -0.7620367600545368 -0.42310869979738186
0.010981704389731561 0.37759287450656087 0.80654082303350094
-0.24780261772239953 -0.31764526141363536 0.71190738299399925
0.13824110644297605 -0.28970044006866602 0.66645551745381226
0.03446321132533825 0.36047091012125398 0.79826111672903011
0.016539898190676361 0.66577960535782488 -0.56551551550130341
0.17080556179319739 0.91925043933377104 -0.22299443095309357
-0.32700812011574953 -0.50156958799920437 0.5919386465416423
0.25008863701038031 -0.0059159847249254938 0.79148219842738143
0.50691561985753042 0.96529395999323775 -0.43798501874179507
-0.25560447332263792 0.35020273983250561 0.77696739481034882
0.29185675691339874 0.19791426098063569 0.54475191078549301
0.00018199225728787738 0.84153497363080199 0.47709412770467807
0.82812872781039637 -0.13698942667682701 0.44104983041927781
0.069130465081448378 -0.35749101655335358 0.4086167522487969
-0.38471764585856194 0.65214929268671407 0.69273295401561086
-0.28396711470580804 -0.71431161543520982 -0.17462971113707937
0.15335952364431549 -0.073841376303346751 0.79182156455147634
-0.9416517392059518 -0.80251415385177083 -0.40354812692223874
-0.54156906761144619 -0.36837028622830204 0.67138450796522875
-0.94184993798535199 -0.83535541145157866 -0.41507200904572272
0.76387028800921897 -0.36877322369549503 0.67109337203957864
0.17251033572193997 -0.034773945021432828 0.80675838229798558
0.035781484332241931 0.67193723322581711 0.66816679753329211
-0.78919355507040745 -0.8300112413078975 -0.41054278619660067
-0.5299069292677796 -0.42295172717443608 0.64666783425452934
-0.74887202664877472 0.490221928733102 -0.33595691665382788
0.63365951767383955 -0.59516209838256739 0.66991542670108828
0.01576329396278453 0.038925927349812151 0.74698458520867206
-0.34002526955545775 -0.63472016881640614 -0.12200686450356812
0.44725659783409455 -0.12395420072333074 0.19045123588676915
0.43221238675435814 -0.011204927665704467 -0.040426325467841195
-0.45994057275564248 0.032613472751222838 0.77529376891610013
-0.44587068993129897 -0.73307883039315946 -0.31719359558096016
0.1723204364574773 -0.017557908426694357 0.80245917175036396
0.56010596574370108 0.89368869479582003 -0.34174863440390979
-0.50219671537032085 -0.16642548238621846 0.77119410831831914
0.70952443054092207 -0.60260056397320438 0.45347036801955198
-0.89790521497380738 -0.23969745298150613 -0.31810234388522929
0.42569511589246378 0.70474366033474301 -0.20935183870546581
0.08283826105100367 -0.14142039601556622 0.76698782362476692
-0.41054379069452462 0.13574613336529429 0.80875290395530897
-0.72066156367145329 -0.95132059762251897 -0.46168204481430308
-0.052109513389252626 -0.16429319121303276 0.75674844704965238
0.49802999320084451 1.038912999970643 -0.46841137933985166
0.50439915559080895 -0.44404307628489348 0.72378263059815851
-0.02895683307948449 0.25405097572056046 0.74859315520474468
-0.93312802877735734 -0.23025691862471076 -0.19647160679325992
-0.53130673285970076 -0.12883956835612009 0.74786188120175012
-0.87122275475721978 -0.34107266517815304 -0.29519630257726703
0.60895422852065906 -0.42366984004005293 0.36178641049579952
0.051225840164420333 0.37339364412920961 0.78941569654558919
-0.40291752155524474 0.038069666848124628 0.67714448978745878
-0.37167473675711005 0.61033838176028565 0.629247591359956
-0.25501530785914461 -0.51017666868554157 0.55167783379773994
-0.52068686902789363 0.0037992287798922497 0.76767568597971092
-0.74474190048143551 -1.0419189655275736 -0.45530322154832703
-0.49359799765987944 0.8115894097472367 -0.29228552970199217
0.10724771981541714 0.40359191552333584 0.73161941708458755
-0.01763749828759309 0.248076290022337 0.76338565637495748
0.48775548592331042 -0.34677812428148735 0.33517004028067277
-0.44823529116658722 -0.14475015738913433 0.80594790067654998
-0.4745592802312899 -0.63655947259132795 -0.28424690216316861
-0.45192656054933966 0.1486072347903038 0.80465758865051384
0.57426104748085471 -0.66142961218493124 0.42322597225433611
0.040994445074682417 0.57736587098786973 -0.59398689631753498
0.27329449685791651 0.64582999110649641 0.36757925023502125
-0.19766879168924945 0.35462409111930771 0.76812955066696986
-0.22958860042057871 -0.15972011199313374 0.75880844252744595
0.13514350011467613 -0.1039597159812764 0.80339104336968603
-0.97631388578704037 -0.85197256092612728 -0.5212726331909181
-0.83911259657976522 -0.70845808845529001 -0.34454948064303181
0.10349291675316685 -0.25790500999195576 0.6828933313322878
-0.2155816266867272 0.73203699295986002 -0.56753408930879345
0.73704585313599935 -0.5166075576620377 0.67305643357833134
0.76444323533247527 -0.40874036308648209 0.68612312851222512
-0.69746159480086334 0.029064886569502679 0.62315339018453386
-0.5425557093796769 -0.34189585656939514 0.67923812956166074
0.87687481049342431 -0.42249484428914608 0.54569656598646787
0.68954083794381305 -0.27447135962949432 0.37138634337165755
-0.75939984402375149 -0.96369358899076296 -0.47138614324850181
-0.61020695793583357 -0.39439322059121817 0.65710554482974715
-0.60088442055461577 -0.1409934787062177 -0.60686454000770595
0.87118902464522208 -0.14178352588339838 0.57694874054178058
0.20029605819287788 -0.15807766268868417 0.80356707347280576
0.065876263435114879 0.41309932171630237 0.78033403337560969
-0.29624328748306183 0.63329410093650829 0.59901746744938578
0.94441023970580673 -0.24055519643714662 0.56404243990136393
0.39465591747111084 0.78848066850826903 -0.31425570656757884
0.64940206186217075 -0.45465056281843141 0.6595453846535726
0.28522056570074028 0.15377685132752905 0.5300804535710455
0.38270205630639609 -0.26309934239446253 0.18094320223602267
-0.29124669157086114 -0.15433271591880859 0.80501546755436948
-0.71817122350961249 0.27668166029029795 0.36877641489518709
-0.4755634038847969 0.1693617735994839 0.71742243206008283
-0.2329621660193002 -0.63131886831911421 -0.18845662143755249
-0.3883517209174947 -0.39728417048196007 0.67372735549997742
-0.27338722489829159 -0.12793230701209102 0.77619682293910586
0.77713052767139246 -0.48732087499928078 0.65940790871046673
0.78363583990101127 -0.4142114898885203 0.41477544402243183
-0.43834583182758191 -0.35932727502521633 -0.54885055115669701
0.18080119398910721 0.77472435712629917 0.55368947167888294
-0.88107712058380105 -0.38854666927234671 -0.12264001332312091
0.15184064099904626 0.86305903872018419 -0.36400175042510341
0.19417655077861218 1.1857741978682403 -0.35126706386126827
0.71026013503975349 -0.31355173759742661 0.68080202765814946
-0.21598857241396718 0.53339950537175573 0.74978736358269771
0.70418168615109522 -0.30521133815953672 0.70561807754049966
0.95187320690223842 -0.22826235555496233 0.50754569173098218
0.37609743711012555 -0.55993456948403475 0.56285908855777933
0.33894570543586866 0.74747577152763256 -0.26773152115391596
-0.071761216442647324 0.18414155221322659 0.6753370912141321
-0.46647264274439282 0.48902854800340112 -0.6704937189713327
0.054049946338298849 0.84125859761204591 0.41358271569588112
0.28387910356479118 -0.15609696021459718 0.75051513817897231
-0.28142980300183851 -0.3941935926737743 0.61238155925360616
0.0211338949534845 -0.22599225082542751 0.71124806558098896
-0.69668965958218898 -0.13027970385473164 0.57265540155379568
-0.35061592135361153 0.22095192096038563 0.78412832098620555
0.49106016361203331 -0.067645449798109158 0.33190909901557575
-0.17520139260723688 -0.27837786508088391 0.71221195558898387
0.12977631072375706 0.88544377693664256 -0.13344725251796774
-0.73961125575041375 -0.57383069650886886 -0.22028704571081192
0.24635991803160451 -0.11051658851200474 0.79825509042494502
-0.19228976689536204 -0.041591245460654847 0.65677882999032988
0.13859444378751995 -0.016960671750802181 0.74797559891865717
-0.07277003318122599 0.32630201395179159 0.80632534373556553
-0.43781284789544905 -0.26260415699172568 0.77340595625632602
0.26205237132295522 -0.047883985564081133 0.79706993897249845
0.19198378759695522 -0.24207850100418771 0.7329047729801772
-0.67926631195059617 -0.022899126006300285 -0.58661599261208153
0.66844330149133313 -0.62137663072146587 0.64321132565935102
0.26004782097760959 0.74785102761566957 -0.20066382765679336
0.68339552432885498 -0.40929484498032798 0.65975338111231352
-0.40624037733224938 -0.73349107715036332 -0.26970362804245696
-0.63798297057454967 -0.94249658123565383 -0.43386949589837087
-0.44049597213170077 0.17245371199119197 0.7156909977786583
-0.4910295943119829 -0.23058209751276038 0.75945217067226878
-0.68975201841238754 0.14044060262991143 0.69175652586270786
0.31504041874295829 0.92098158046692902 -0.34717164980785853
-0.47100020912434104 -0.044659321566092869 0.76142083302990216
-0.026344839904629325 0.50154895489277784 0.78604980306565864
0.53811412530037916 1.1416792508813636 -0.5086297994880411
-0.35682644534628594 0.58592152855699187 0.79952237518423885
0.66107949498912078 -0.4607851465572268 0.65502289288319204
0.089396651887270195 -0.12238448040071193 0.75846903169589552
-0.03461337615554605 0.25067842655884887 0.75999902428374355
-0.53364212932517496 -0.10649054105165434 0.75531319168983657
-0.72584207665625033 -0.35489684160861734 0.49729263776671218
0.035654077690383978 0.50754774213560871 0.76037520650854162
-0.76424013114352807 -0.57224436196250306 -0.24830606152715973
-0.37754178301064911 -0.32957185290957303 0.71790501101408211
-0.15767412971905248 0.52337067402794646 0.75135039696368722
-0.53460129768807274 -0.36361124293150537 0.59693596081276468
-0.6308304371596325 -0.94175394563243375 -0.41225558004777696
-0.41512197614455282 0.35078448244958449 0.7229974873202849
0.42644045762926375 0.028249588845798534 0.41564094865820778
0.74867413328493804 -0.44191051428739203 0.69181962684602638
-0.2917243147721269 -0.13433128514431947 0.79472110322312517
0.077945989081029232 0.33883046349112123 0.73034384933406216
-0.72523728159417011 -0.54710122516823767 0.0027078691328910054
0.1097443458345877 0.62115140543054892 0.66220142758427158
-0.69052793418609859 0.15801271448684728 0.74679620297625604
0.43585793229431413 0.74990367548411108 -0.27017728461192903
-0.7929100951114556 -0.73922950998670767 -0.39246215007220542
-0.19708532084791841 -0.22588305923084429 0.73303907755797582
0.91159277546522866 -0.35018533316870881 0.55869862444658835
0.77790778763207413 -0.35169547206224916 0.70368922444789206
0.10625751129204009 0.96277625987021143 -0.24492109024466657
0.018459198520844655 0.88590738108395151 0.16902775775724876
0.55597714813192489 -0.23091683530330087 0.34030025629267868
-0.52341971397759579 -0.65479921960956933 -0.31781122674265561
-0.012651086197433159 0.58734932733773615 0.69594727572059156
0.16665137334495661 -0.12417970179086901 0.81459468111667377
-0.38344661344348019 -0.2880225549110903 0.76502884154916018
-0.11497472444095269 0.52943962258832222 0.74974458504434693
-0.74627337404795124 -0.14217813305971871 0.65729634348888055
-0.8722780889808659 -0.40142160094152723 -0.0064286076875958997
-0.1571502159008249 0.41807168042233434 0.78335878274248927
0.29119344561483551 0.76106945274834281 -0.29744571374183337
0.144532937117968 0.87162324087668708 -0.10722773764310389
0.2863364709697831 1.0571120919113213 -0.39583765110702984
