# XYZ point cloud file
-0.010240190423289164 0.83249048169136675 0.65677487777239207
0.18921449942727975 -0.38120555929272726 0.59816268903106007
-0.43075331389662708 -0.63328280794958935 -0.011177204082358116
-0.25916373730525777 -0.27476253945808615 0.7320052197372533
0.55710021293236345 1.0679214702506714 -0.4427206578689038
0.39851996205916151 0.15845644612601895 -0.2114672203467336
-0.26583991776917415 -0.67729327524667227 -0.16951813767887813
-0.63834340052395433 -0.94387331796113472 -0.43647315363500638
-0.44862398409524573 -0.37572078745224324 0.64567408980227725
-0.23500110647778882 0.44322945202512987 0.70987652631690423
0.20308118514308404 0.96474023866466485 -0.27732383979921238
0.32130023826835696 0.75342839072754852 -0.28522980207779725
0.21139967926237091 0.36626141817436242 -0.55260395591922062
-0.64360002982641262 -0.82072326512075477 -0.38242634273964171
-0.1145422578072175 0.70088134311551098 0.72806518033015877
-0.5885186479848592 -0.687892713881328 -0.32928960881945812
0.12494047762029226 -0.3885724279395717 0.23893849687661373
-0.24854668686722903 -0.21633912638719011 0.73920285592996748
0.67763454204056828 -0.28029314196280897 0.73062226907336125
-0.38884641567487321 0.020927133924538488 0.77425741790545288
-0.3792526298054355 0.27763899118446567 0.71866696885330583
-0.33142871408711017 -0.13505013892069151 0.81489580697060404
-0.12940843810041613 0.89602785591617629 0.17047756084975418
0.37603625300858923 -0.0014865358160029984 0.68847180915520312
0.94411032932303485 -0.22620302610747967 0.48015249564144113
-0.476752852650975 -0.67431870946852257 -0.29136888832415053
0.73147102545580012 -0.14649352432823282 0.39884031275835952
-0.21218387152197593 0.28076075802860068 0.70204099626855054
0.43665224211322951 1.1795968666053973 -0.43323611826211561
-0.7026816832607885 0.43553653439585904 0.31799435732051506
-0.70939631620843002 -0.64924508584171114 -0.27740452821090855
0.3861457674262283 0.56814408855167642 -0.1008625579862219
0.009361327299899358 -0.1694720525604394 -0.62038239003742035
0.044266653398647549 0.7786725504991665 0.65716412537901903
0.95164489097356508 -0.23478863924073323 0.53602063992403615
0.086209797350353057 -0.15572980236365552 0.75459137172084567
-0.29271913265973737 -0.077597188777911441 0.76584661193508197
-0.21843242654371409 0.48583226507709698 -0.70824735698951358
-0.35832307063707702 -0.12442395611466228 0.81584725048752915
-0.1885142484519271 -0.15543981162362819 0.74850317835792168
-0.59886420240852445 0.046067998121851694 0.53424165223363929
-0.66641913778022754 -0.64204882498551452 -0.39992104418730179
-0.28725817620734162 -0.39780680756141962 0.66561844666895098
0.70305471147520748 -0.4355303340252803 0.65101558151362582
0.30394047966619375 1.2002498104078607 -0.42380082431763455
0.81098552958222925 -0.098084253535722254 0.51101494682222537
0.5458751637227941 -0.59447672126411444 0.66959791093783494
-0.34890542047174478 -0.063875116703966839 0.77781655093155422
-0.73975398505523771 -0.29963031474403756 0.66351149392204434
-0.72678933373218157 -0.47559816125523913 -0.33958515188101757
0.67424544766725347 -0.4734423969579451 0.69100731300774498
-0.15432373728256188 0.51843162558619493 0.74824687394575307
0.29288747728571707 1.1500198851386303 -0.4498270630184571
-0.24291820722371327 -0.20380773985242939 0.75473042299358184
0.062029734226367594 0.20882716857812866 0.66167566308290304
0.75774441927644176 -0.40714454667751188 0.66739025503932581
-0.23811215855810275 0.40016208436495404 0.77268584551492125
-0.76546464514959212 -0.98874863099064125 -0.41581590208320307
0.12317679859564734 -0.15300011674612612 0.81143376062395944
0.93382764583424915 -0.20010241053276356 0.56424072300447392
0.39199063614853102 0.92087738310039935 -0.36934130145187893
0.15965138607515605 0.91848903342007482 -0.20992324042821053
0.89756490713520165 -0.34983574105608817 0.60185329682997235
0.1700761409986189 1.1040371893012857 -0.30293872537727395
0.37312067084153 -0.49232758820279354 0.66368836106270734
-0.44057140403144146 0.5564966418710009 0.66868520867176784
0.37045983767941237 -0.51739655383318883 0.44535689606371776
-0.15584691000976392 -0.28871300585397375 0.70753511329324681
-0.56971205516877177 -0.61023463917955745 0.01710861588244228
-0.5199061649405472 -0.70082329437944857 -0.32738515753666775
-0.20620958568183134 0.42087950391297735 0.7653763732718275
0.032264525356353602 0.33106161865698525 0.77596010029846241
-0.42914475607373959 -0.18849309413131543 0.80222475672856319
0.19382817646245343 0.04063577244561678 0.75177472437981407
0.73745119562113359 -0.53708101213065795 0.65962361083500554
0.32501153459227794 -0.15228787742431393 0.74325205916717607
-0.45417402010855312 0.56210937914070502 0.77449271582377577
0.028095305645324586 0.84850222554689481 0.46397389189544924
-0.45312714102047025 0.0053458273202959816 0.77301551058673823
0.74767904227482873 -0.34190606283466352 0.65300567789667952
0.36180406476404059 0.69039259233274208 -0.21792243382540732
0.020363423927417301 0.62158154871324811 0.67447699415268403
0.23268616314591739 0.83807275139851889 -0.24378549052287468
-0.39172827560269141 0.22511016550575036 -0.73415590773369743
0.090476828191269121 0.75950306426161696 0.63275142263762874
-0.28537949031093923 0.41987204384120425 0.77816747174895085
-0.49225105829301441 -0.26241877216086795 0.73338492987742399
-0.0030308892760224637 0.40588806948036815 0.80687970206828652
-0.74381287276252195 -0.070705030460770146 0.72478236490797343
0.65179849112375621 -0.21750665743687403 0.37013262150334825
-0.56292878590987172 0.17988131513980576 0.74929606699328133
0.22582065761670123 -0.036561084126311982 0.81246057968229124
-0.19686623286896676 0.44881020842642982 0.76030401617992638
0.14428081870024201 0.23351735916303706 0.72448143637688744
0.3782993651925004 0.59550744830200308 -0.11335331585886266
-0.089612596989523396 0.77727780378917277 0.37446605769540753
0.39891388691933116 -0.57457849814656026 0.52288150560859847
0.46493542177360325 0.69342747323756448 -0.16950954488308057
-0.74803483261723258 -0.46798302505695855 0.55398963958709402
-0.066193316727893858 0.21557578722052284 0.71567955549134865
-0.55913920770495196 -0.040169092133131024 0.75663946029136042
-0.64598625037410429 -0.63010318281614719 -0.25390810550342735
0.28988705217203403 0.17501540579213248 0.48920672066530457
-0.49742263935614872 0.061154170540115516 0.78934681846548926
-0.60220386068229814 -1.0047629549377648 -0.39891574504564886
0.012526146207264333 0.91016063986688245 -0.35404586031082985
0.24631496183013724 -0.41567641635635688 0.63568950204785324
0.32002562587439343 0.41696993775520674 0.51381136259407612
-0.6953021505198258 -0.19136033264080421 0.48169547062042994
0.1186436514241791 -0.19454669021266024 0.79261625525994006
-0.58158273590565024 0.14634855995605545 0.80920305849056007
0.28477884605510795 0.76594160269163503 -0.29161638861327788
-0.24642081173898234 0.25801240423047567 0.78479718914305607
-0.4273388368430453 -0.73597952779162146 -0.30972090687705389
-0.24421781080099692 0.32616968012215608 0.77735415688277243
-0.56918066578068505 -0.34114854227307312 0.67685676048560595
-0.72414852638518568 -0.61522205131292917 -0.23379365019304998
-0.45890524468767069 -0.74357880539498833 -0.32116730114159253
-0.48339769375341035 -0.25408898751001452 0.74699848310696382
-0.69209451208994821 -0.37590680107592878 0.68009319532330892
0.28365398250280904 0.24792726448360369 0.59195897235554895
-0.57800931888774976 0.60814267563045732 -0.49437759456024821
0.66690024274837256 -0.46869990907576042 0.66166101989476545
-0.30595949115759069 -0.044822268112691077 0.76385329030348004
0.16522331843472671 0.50463251420112609 0.67100035078639664
0.37920629038179499 -0.11925472285089889 -0.17061198104701347
0.5844903591875763 0.89095661717291463 -0.39369561495578864
0.45785551609751529 1.0991451030537216 -0.47922888361337712
0.27110405920316083 -0.12070191488223081 0.78096122951665592
0.2842154081630639 0.70921319731392796 -0.085942442023494436
-0.19953809589984139 0.43508660910478358 0.76200616947932076
0.89114385774071891 -0.38946650709359609 0.51374563385078531
-0.13891003224107301 0.37602670271840388 0.79537717995154367
0.030792302756839973 0.14277686459218852 -0.70065760976216751
-0.2457356185754449 0.71314754531442937 0.68616381037698915
-0.66726131149230028 -0.96303086868486965 -0.41473976273407942
0.67531022729579604 -0.38049258436784861 0.68080819301370354
0.12028146400454531 -0.093181006192311955 0.76994745995801495
-0.89035094565090844 -0.75184786336675291 -0.39095402276594626
0.29047445496146906 0.74875075663916313 -0.28208810865691447
0.30012882073108393 1.1344040701386522 -0.44682177124230549
0.15408854716212517 -0.0095025454074164628 0.76608586706603532
0.46406685831200889 1.229334337444719 -0.52288297955970364
0.51588794083149914 1.0458920285869819 -0.41467228684887658
0.12966406418180298 1.092201481002677 -0.28875876883492424
0.29873305691763008 0.71706079178414495 -0.22410613691041092
0.24982046359831145 1.2329231457464971 -0.39503348132947025
-0.31490919209100632 0.63870644378700803 0.77742895563007863
0.51137148909190344 -0.12098725607242056 0.32920984964866662
0.2591917398394763 0.64161745283758442 0.54799189975961937
0.15728335274388527 0.66233982472789954 0.6245939759593746
0.75141530163240944 -0.33852130052573681 0.66007720851323626
0.14366756458442609 0.86699636470999408 -0.037953384396736567
-0.58600364174369446 -0.20158037840021503 0.67011312780159926
-0.19346612878087832 0.51160428933869984 0.71522244996164019
-0.21106282344531024 -0.2454971987480592 0.71595967028245866
0.22024684671995054 1.052591559956304 -0.35190942684967297
-0.706277296023476 -0.59724785379259959 -0.21833769053456109
0.40358895074904666 0.053346653106626007 0.52982298984641929
0.085243825971826226 -0.13874056074114538 0.75936646352127113
-0.89088641040048344 -0.6196369966314359 -0.32011862311705386
0.062922881754850835 0.36603162866756467 0.76716942708465297
0.30770728101781941 0.23109057837030633 0.44979277236987159
-0.4088530879346095 -0.24439754998726748 0.78912352563831689
0.67555560808006732 -0.35058882860567486 0.71679450160920766
-0.38440033239858096 0.43339646229281215 0.8193011997956674
0.752993949459551 -0.49896380265412343 0.67241073610241386
0.35356242365609702 1.0394468744855669 -0.39853321956111998
0.19071825036396639 1.0088125980954104 -0.28511032187729057
0.20431732618773246 1.1696933559991276 -0.35194544054120058
-0.50957129853896888 -0.90925476324567533 -0.31355912506738548
0.93662469944184323 -0.28460717088332999 0.49217685152985879
-0.80811953414858095 -0.46728551416370046 -0.1017145440539764
0.60293318809259588 -0.68533357042820242 0.60224150652789277
-0.30719495317680412 -0.64746450737988681 -0.15469631456669219
-0.37014634368307142 0.28622307498896227 0.66146298792376967
0.24954431581521774 0.19181598483788775 0.64187345732700507
0.82278218790549573 -0.22671641061062253 0.67088009557569706
-0.51978590131377445 -0.22079487003028309 -0.60559622491560816
0.40511693753302325 -0.062249417901108828 0.72128921464248208
-0.33743331117876707 -0.74036284518596407 -0.31528254241106879
-0.11598366655331205 0.33505404167838559 0.78761702571024372
0.39767003782638 0.8302609928091389 -0.32547786071609508
-0.75831323033729703 0.028227923162607027 0.72122243883464421
0.21110966021011279 0.41415858812445006 0.66331733641304069
-0.48824626779539315 -0.70079937030015227 -0.31843684671550676
0.65673045633912253 -0.49405207662778228 0.71375436739100806
0.062550752121628861 0.71957534383833721 0.6501278295198496
-0.21702005387417245 -0.034249071530375375 0.7545066144956607
-0.71325749792108439 0.062646744367285123 0.63940628628261464
-0.81325764043475246 -0.20576543040024653 0.25067616624150446
0.63062736460549829 -0.4593723572865569 0.7032321362893228
0.43769960436391919 1.1240906102379542 -0.48159874696696647
-0.31263738610152814 -0.69414197100183817 -0.16362349704514401
-0.4090144702336449 0.4364446634867738 0.81407919785984006
0.6499194040995917 -0.39047928693379763 0.71712619147867329
-0.43563399664543923 0.1207388418611357 -0.71391769540746353
-0.67950236549776122 -0.42715523276205047 0.65072073495659311
0.14476554536561892 -0.08686201882405431 0.77388125056265267
0.43617684295981718 0.6249484310488107 -0.28764312085783317
-0.19783709992747056 0.37255799121980626 0.76421154444801687
-0.044640578271874176 0.58738366161300437 0.69977694458679807
-0.14548540364233631 0.76821451870724999 0.65449147997307477
-0.57370753432928723 -0.08078620396024494 0.74930716621375382
0.04036210210608715 0.46563212228514139 0.78073003632505689
-0.51634988918049451 0.57499937442103821 -0.57989372097926406
0.20057949264373853 0.92223185306559952 -0.24925747530306808
-0.37209490078301144 0.25503433368956063 0.63794379754398989
-0.21341853856723603 -0.095975270280606928 0.75916322143034876
0.44213239438142793 -0.16452910927000453 0.73946232606237672
0.14816933099033136 -0.064749808224725314 0.77229506081290467
0.0049934966628910615 0.33841624157370376 0.80440730497182855
0.15252697182772934 -0.08212249808274219 0.79289397148538399
0.28050259524922438 0.71515694559990273 0.10654684557123417
0.18093701706015253 -0.20625772625414385 0.77873881703841974
0.54872760428451173 0.78124651384942556 -0.27377828389073144
0.26895996077599627 1.0349706945834756 -0.38029304943123421
0.6892227421154864 -0.53405307334018026 0.41180294278496277
0.22044012650738942 1.2041031862001179 -0.46642129801659138
0.5508269392802525 -0.55865725034030422 0.69024802190018164
0.39399431442427613 0.24012078342689414 -0.10450270690640551
0.28177524989221325 0.066178932704887394 0.61582136739636795
-0.53697964152016198 -0.33618937366211288 0.67786424092928854
-0.79414746293274519 -0.9669584740816024 -0.46967233933527552
0.74020820841722923 -0.37280598017095912 0.65117183721743288
-0.75593533729023221 -0.3842170494839241 -0.40496706898130697
0.38773595577542785 1.2795389059588342 -0.48996084755121672
0.25137818240200716 -0.065350113465030724 0.80294920469337328
0.36946052425676967 1.076091098527725 -0.42153598710562079
0.2724326319704069 0.65820692934455316 0.30537165874570249
0.68504890431401577 -0.12439191774592473 0.39717668962943975
0.36649601126941356 0.94476502724043421 -0.37038553727593992
0.8267862784112765 -0.48991427912653496 0.59609606711597962
-0.14236076716947466 0.27227618503249662 0.77149446756370565
-0.70133338197654993 -0.19538012534685301 0.51658025577629729
-0.72979958048122384 -0.42096539126594212 0.63921970175292131
-0.097955787108707781 0.37977983313389352 0.81415588132112049
-0.061755608674825879 0.80759218811469768 0.53369991255284432
0.32569659100600923 1.0781155075527433 -0.40934737425080669
0.11550225150580928 0.88951450120795972 -0.071480893168956783
-0.24394736387440119 -0.56896230642812906 0.17083139519654367
-0.080051412797280008 0.61620750522831003 0.71673098804116009
0.28484129478863807 0.15473081520619214 0.50424497338858387
0.45927782573265574 0.016957191242829239 0.63256843835588228
-0.7932486711249318 -0.75194271955601266 -0.39716563610166844
0.12861361225164458 -0.13829225952796609 0.81219276419445663
-0.14812671212468587 0.03230137056346738 0.74777017207217966
0.10097940632874725 -0.15180754257636053 0.80278765316332823
0.12315098110654432 0.42604242910242851 -0.6016900478932854
-0.13094532434927331 0.038561838928254932 -0.72859438113585284
-0.57201216986747738 -0.6317503430076048 -0.27025442065259142
-0.083438688121391991 0.97094563079007834 -0.23017212542038834
0.33945623011364034 1.1480210073546795 -0.461229257401925
0.72971628581368364 -0.30614295033970151 0.70029602479141673
-0.083343476539425865 0.21170675854892451 0.75833346859169382
0.32110095089187141 0.42283755392418598 0.3543498454530507
-0.75695744504757023 -0.021278175816206613 0.71064401588752446
0.35866622268650872 0.063986333128436712 0.50600306736306422
-0.55039515773302483 -0.12088137672406951 0.75453561997738916
0.12299171201878778 0.43367952323184689 0.70657221349000565
0.65505400532597946 -0.69687120141440406 0.54539517888177969
-0.1347594027811283 0.28898429103005441 0.759182728695734
-0.041191074683940343 -0.47187297938332584 -0.12985612257710244
-0.3903048798122164 -0.17821528707589618 0.81266102114022232
-0.70796129356445192 -0.18125077534560408 0.73644585881370972
0.41859472360437877 -0.077732934513299767 -0.053758892769433686
0.26641537407173033 0.80171939535253145 -0.28349274612211772
0.10922939726147618 0.43371537905511381 0.72500293959236117
0.33130475491799771 0.65763957788253169 -0.040209568433461129
-0.86154089907584464 -0.35401876508595542 0.10831570420098302
0.77734197312696907 -0.16859730687072627 0.40198980746487933
-0.23327792260680269 -0.12056127931893279 0.76137321963970805
0.78766343421827401 -0.34833649816245238 0.70195177167289557
0.74782015567167903 -0.33071862671139929 0.66488250303098795
-0.71804606736377963 -0.79540623533816213 -0.38366716375217891
-0.38330434969883598 0.47597165313197198 0.63149598183485267
-0.045663532310571853 0.60462105686129419 0.67827303583544918
-0.14999458315960013 -0.013584371986102184 0.74533112677240609
0.27406002455069967 0.77928266165490712 -0.28275782912103153
0.39746692904831704 0.73395090217827175 -0.28517497080263965
-0.49308745099199314 -0.68598955532907091 -0.31764219121247095
-0.20982305708448479 -0.22257329810774706 0.73943431103088386
0.17601072631112302 0.14462633499078059 0.73072656935744362
0.095535206113801507 -0.11012194351167715 0.76708542118003109
0.11109723032914687 0.51600910873788308 0.68554878491904248
-0.82772726362212623 -0.72499513475317645 -0.39166544726032271
0.85742464274110475 -0.37935047726517634 0.64043274830782337
-0.78455410813506887 -0.01925870390474671 0.35653974194028848
-0.34701867770551686 0.54512805470255188 0.80251519119201475
0.42371186365124913 0.68817848163674888 -0.19070025881692132
0.31534947173430083 0.6707159805922549 -0.093396289250112119
0.51009917540011074 -0.60658070376339879 0.41427392123566875
0.12964202237756517 0.89997760587792275 -0.33231609791458183
0.43096548634926535 0.045014929271904869 -0.033071269097231237
-0.50898918556730166 -0.029981530331565587 0.70641207729006794
0.17054052986563661 0.86361919366543205 -0.17550203512671558
-0.35077406398520949 0.24584682484206155 0.78711470419205654
-0.61298342338534439 -0.95621722176518009 -0.37633384483699217
0.21035824692025784 -0.37153521717185978 0.36120381956665426
-0.16996972341181404 0.32830973934597107 0.75706371633796721
0.11982637830053378 -0.20160567234180515 0.75648897104679946
-0.60523977656168881 -0.7117854488645623 -0.3375690316930644
-0.71227630657947216 -0.84026125503915949 -0.39998534221625448
0.13765211939119837 0.56788172350688537 0.66711850883066859
0.13665209985421356 -0.087126795622296527 0.76367461098816847
0.10224375175771527 -0.27442308845609187 0.64784718629510962
0.11791706971503046 -0.3277221550284013 0.5081473041760205
-0.1894669843334853 -0.12910606165432004 0.7520875590175109
-0.49343564635426773 -0.060464034609696071 0.75905683586093886
0.79636954011436956 -0.28430152151687604 0.6952414235637292
-0.17047982520988114 0.50648808388196009 0.75348668040240341
-0.92306820645051957 -0.6445928752447001 -0.34516184115403092
0.20916252649787381 -0.18115552995707418 0.78823374732872509
-0.68321637991552819 -0.59455131435360808 -0.21385868865535684
-0.45526221410603895 -0.61369030385214174 -0.16392661825274502
0.051760509936929822 0.47130047975001155 0.77393119099532726
-0.40748159242894388 -0.34747485041966542 0.69481981373619561
-0.58587945227829152 -0.92559264480000092 -0.38692466969682471
0.033385740785359275 -0.42343796850498627 -0.23198991273652325
0.20353534387943562 0.66625673931714591 0.59184840529936977
0.44223491959025196 -0.47350981116183544 0.70312511313181503
-0.99235108728367472 -0.93794888629551121 -0.46540440449981091
-0.057954767135520058 0.27488969052420131 0.76393639577025851
0.31039676530621563 0.47640795273838332 0.39811148125885509
-0.4156670805735132 -0.58024895743008731 -0.40101989874958122
-0.57442043581243496 -0.64612776180024767 -0.30723274952460855
-0.59364305514113624 -0.59584418312865495 -0.16905302803033351
0.37064214386736083 -0.33869888753244659 0.29259600925886886
-0.64982683373793648 -0.36091975590695569 0.67896217945018122
-0.32467505898164539 0.28064208937361279 0.81099324917452975
0.3293400273626137 1.1802623443362479 -0.45827733358344247
0.078074699510469969 0.58403745636714888 0.67147401523313377
-0.38200746970196775 -0.2994993921850666 0.74873897847411541
-0.27839649431934532 -0.0065864936588582168 0.76587032727437077
-0.31618525901199135 0.24768773436159552 0.80744610171991837
-0.61942764976829068 -0.5060421035842495 0.59071182283143742
-0.36443064188281937 -0.007204253974900432 0.73636677225781
-0.56439437964805528 -0.0077046797629227726 0.76632769101625797
-0.53727470522500553 -0.035538184181416632 0.75876364859593792
-0.38445396200517479 -0.27716546424480981 0.77686778044233051
-0.53391171763341738 0.78858840154473153 -0.27331785863878366
0.039293840393519019 0.090153852825247682 0.75479364169582297
0.1785394856063256 -0.34888626063757933 0.63183939732825323
-0.72706964591442613 -0.76053525102523789 -0.37571578928555738
-0.10746025316533547 0.42521332495537401 0.81126602109795698
-0.37863272820071714 0.293013408788795 0.6192061080316833
0.21996600388092169 1.2116788133991889 -0.37412818247133472
0.73203682532757597 -0.44623999803567216 0.66798619493280142
0.55168648540783494 -0.091321450932484005 0.70302754439270032
-0.10359269456540332 0.3090060626510498 0.77731603792993553
-0.084952117632926871 0.12129277834428898 -0.73547289986546716
0.66084174748748836 -0.56054022610265353 0.41040284773729141
0.54176758094191513 -0.11232380765052685 0.3562507778866042
-0.1839477490180137 -0.3029892222339523 0.64059196248221895
0.46705547245677437 0.90284650489923068 -0.39203568806089706
0.83944590878888548 -0.24357305759888881 0.6658316706256322
-0.43459423901888172 0.022019349029300805 0.77447842423452329
0.2467282598074334 0.62898066590978896 -0.42314923771528612
0.42740659401655279 0.57267366106799411 -0.24944029886471597
-0.098433188833691787 0.2299936567416907 0.76410197306254446
0.8211631033281428 -0.19045307613270523 0.40740324886564139
-0.77424822989280884 -0.43916563936108588 -0.3206337582365677
0.30314106384864203 0.4970412146073695 -0.3712372598335314
0.89767397040834496 -0.32370318008747034 0.61776421258274539
-0.2246078248209038 0.38292442754174338 0.77398634149749057
-0.47668823921447512 -0.64800975621758017 -0.28802281545402053
-0.43584695682440611 -0.010851486703312929 0.73349073593612957
0.13663995535890194 0.31948559224183803 0.68623578740851698
0.43760861456774514 1.2492140772277347 -0.51773798420859762
-0.77540611649817492 -0.63124319349349634 -0.40882757174465922
-0.23513496555477786 -0.38129046855436144 0.59537019580035633
0.33756288027750614 -0.10955675881994598 0.74087669017023217
0.14882407134719244 -0.045646516234201684 0.78746364914792011
-0.5624005123338911 -0.8980213118314806 -0.39408380484417904
0.31923828687088474 1.0370291303116623 -0.38813836121426348
0.75686587301182584 -0.51428369872853352 0.65954594111205722
0.15637670375594226 0.47393513383820007 0.6568891994908661
0.85300426427200549 -0.46181029447505928 0.52304455543995232
-0.093925443964531397 0.79280688070969862 0.6647200857707567
0.41023542141559943 -0.41571865539716946 0.35813213964301127
0.09630974138578452 -0.3185472100356801 0.49216454014073463
0.18394076145968796 -0.20879972569439254 0.77007570258791702
0.25503450366821667 -0.36480832972046962 0.27307470007487922
0.053892985699102169 0.61599116580977498 0.67322377990973337
0.019850186186031848 0.9280136441614335 0.00081669486798219282
0.30020704149804445 0.58778520696862202 0.50786464665934616
-0.34249662814023196 -0.098136588973440908 0.81148760960374489
-0.15465734988431024 -0.17352819751912918 0.66510571833572385
-0.19751189652641443 -0.49447870631227797 0.40203545190345125
-0.42876280323792315 -0.76874107171059425 -0.27221475023014108
-0.179846018232654 0.70775835698354239 0.73650075955387706
-0.21135964088746739 0.43699457448660262 0.76667343137577149
-0.74074249194272923 -0.25359771739518422 0.59506883760521134
0.56184637485890221 0.91246556447378335 -0.4493444690551982
0.2237058387517088 -0.014909257818503718 0.80913160852924548
0.26991553717676808 -0.37289468154184657 0.69205455961403217
0.096497557893293617 -0.16795333080072528 0.79554298734927187
0.23170164390544556 0.91103123763488014 -0.38284145840401607
-0.071409547809302865 0.12386179423586441 0.74662889645429686
0.51132137258613852 -0.33960351594405225 0.73833679836129207
0.2675741845876054 0.9745677658977252 -0.35084891245096372
0.44215709046033425 -0.57959139359569889 0.63012805410852479
0.017882151091308529 0.68779033151417757 0.66622144620968982
0.25489341863309178 0.75486698984842171 -0.016803532025665646
0.19742651672353873 1.216043387189842 -0.43727155726067934
0.19032086376865109 -0.36588709329987346 0.35405071860104442
0.08308358919361325 -0.14150913135894605 0.78437368861375845
0.34092031111090648 0.64387011128279514 -0.0090842529694690199
-0.21040123614702821 -0.33927638950614813 0.63094614311327746
-0.01672878153264179 0.3448895908351215 0.81025959846348172
-0.5339467696616218 -0.16522319606346159 0.7352538248966809
0.5125698118114137 -0.24489258882694021 0.32271665914406356
0.52126593262353182 -0.66215195799945548 0.47260855979026672
-0.46772537956929128 -0.21747753559397154 0.78358652311874266
-0.57902802379303964 0.48525574333644617 -0.58932894369523936
-0.97545242779946228 -0.9223912837736119 -0.43581425072528646
-0.55964219774341828 -0.039526982492125384 0.65729893407457496
0.060000556362734159 -0.30161227549102154 0.51002586959006635
0.52353382405637205 -0.041059905232490479 0.38781394270541014
-0.62181374322227256 0.017285555555429433 0.78800168895152467
0.36207194149224975 0.96543731860541637 -0.37732621854783588
-0.97717431623676454 -0.71073049962511892 -0.37915888759794569
0.6711929207006051 -0.47060999062438036 0.66905012314207113
0.39326692215961145 0.72786861330209263 -0.27235240653574877
-0.1999377885939424 -0.348638639487584 0.60540984712857693
-0.43923971815882723 0.1872308363486459 0.6123314952415484
0.28200017940927324 0.76079436438171388 -0.28217318429223681
0.31585899929326899 -0.17109237394984778 0.74323483169953164
0.3945196250806724 0.89793275106352954 -0.35792960629187576
0.39435252150335387 0.6729121701623928 -0.20359621787086724
0.4284533444725902 0.72927699663876666 -0.26010546747007623
0.76143417732873431 -0.39559965024383548 0.66789840825665436
0.14313955283799551 1.0345710676771631 -0.3711464656517407
0.048802139716187298 0.89764142378430112 0.086685514840795008
0.502354710267916 -0.52160764868456688 0.3826889216610283
-0.12802532188782934 0.97746354688129067 -0.23171423625942467
0.75028189777542664 -0.30671714730038246 0.71563604893830046
-0.74577662365033248 -0.35400767804390654 0.56389334457774964
-0.61600439768094262 -0.20694410934738627 0.62261196448516642
-0.65208519607885052 -0.28788050236854978 0.70701051873011522
0.19722373387045522 0.017431600138179348 0.75113485683336023
-0.47656809252520205 -0.55534180297067337 0.54139567524917709
0.31269820808755355 0.069658552232088056 0.54573945012262115
-0.3562650043015303 0.19871681367720129 0.7833289564588668
-0.40951800398619298 0.18256078624747296 0.74213844707818311
0.77190242646864959 -0.39789294370599304 0.69287213727149322
0.13798050218489166 -0.33945458500897008 0.56289868058103565
0.85528069283318331 -0.46151018869637728 0.54939192614934029
0.49764844286354659 0.83849630859932489 -0.30525706584477064
-0.37665505095747065 -0.51734767883944244 0.58314684312134801
0.36199875731043463 -0.018003978844705948 0.70760192375479036
-0.79273526469867051 -0.96450918213994985 -0.47354442728964585
0.66249836101012605 -0.082888120412693667 0.41596612404266509
0.36454019876201116 0.6392909923582959 -0.16206803160832095
-0.71944746480748378 -0.28353165308625083 0.39044194120203457
-0.086543391992865537 -0.19989832412785624 -0.63380077828092141
-0.72809737062835111 -0.54198730771219594 -0.31043431125599596
-0.21962356817851969 0.75405779649925009 0.33167359332202295
0.25807517381294787 1.1037831768363944 -0.41480496301115366
-0.64092144159080178 -0.06063048418977246 0.55747363538284134
-0.60459741891141761 -0.97352758173125409 -0.36942569291012006
0.3354398052643468 1.1776236107263829 -0.46805135124672859
-0.67946005418864885 -0.13095316172993599 0.53861177540392902
0.44282319689776806 1.1928074700647375 -0.43752509028755782
-0.12952977773043628 -0.035417690751812003 0.74458840880343047
-0.58783475351786407 -0.23972762244898949 0.71136837519747331
-0.18763849228920293 0.33701172695816695 0.76818239764915575
0.045056110421850093 0.88124788497101303 0.58295557161075351
0.45631308050088037 -0.094546923716496423 0.23589793174798501
0.53856241570281682 -0.50927470034456501 0.70964406280000247
-0.43795584314423763 0.59490499158922461 0.68807311613409894
0.62093249120768235 -0.40406663081798566 0.73297821262966067
0.10439823659074676 -0.13282769219195334 0.80361111573128952
0.24240175041738254 0.0059171567115914314 0.74785327072626373
-0.43987154236083725 -0.087173489068712584 0.80288219665759186
-0.48205764382048599 -0.52841236633547339 -0.43623419061812285
-0.61745219159454834 -0.66202987293444338 -0.31695443940089518
-0.23813541067751487 0.4758929647386152 0.76040157274257325
0.12522417289535781 -0.18303525851501323 0.80635692804240833
-0.19845986401368521 -0.39906427950897605 0.64609684811588863
-0.37768055152957913 0.8666293542708452 -0.34838283154467575
0.46527938543843561 0.83222618135852944 -0.33521088153424117
-0.62131200613074711 -0.85591564039125601 -0.46856584238453536
0.3748571179159228 0.31278348025026226 -0.18220380302172501
0.71997305456926952 -0.51354077060437131 0.6860138463776444
0.14246632594368691 1.12920943451594 -0.31240527546695773
0.12625839548802276 0.73103469229283746 -0.46986846987675079
0.19463957281190147 0.026576546361449793 0.75270360802170089
-0.17286960000005713 0.61156334074126661 0.73971169705108508
0.21160746719848866 1.2475292952020016 -0.40612498910410366
0.51198201676215049 -0.63546920006092389 0.44025859154234581
0.21495570849027246 0.25834566022850058 0.68324108353709434
-0.51681304687259377 0.10515055080218882 0.81105746224125852
-0.52751754390298089 -0.32998306811572409 -0.55255996945858499
0.40827993349970626 0.67740177527232337 -0.1962873458736567
-0.28392600247306987 -0.17435778425029635 0.79751584178496415
0.26973552703793402 0.77006728588787787 -0.25609070681271717
0.17032370711804745 -0.052953685978836873 0.80833059133351881
0.031957925281304256 0.42821907594661113 0.79345062391488241
0.64283231886840042 -0.46823759831912781 0.71009427624605692
-0.41193576724910841 0.022913430271207069 0.77471930548822598
-0.030199084936263887 0.94503034649891404 -0.28977015934244932
0.36856456865839959 -0.36685863727256418 0.3201952017927745
0.23266988692716239 0.92671391560221572 -0.30508556750756455
-0.407334023522127 0.35568629586667555 0.69571621016378771
0.057473469023715751 0.37009639103662906 0.77609744395400426
0.14069536473848032 0.46991212750610423 0.67990838676422527
-0.66218903332444157 -0.97273024414036069 -0.39620042670090783
-0.44705978768228505 0.24389332111440432 0.59357500054379386
-0.74585757284291176 -0.25079187105919765 0.6250219578682632
0.30684481118248286 0.42015513553928585 0.56369581065505159
0.30217783573512946 0.25287294115293335 0.51425555720555849
-0.70963910601596325 -0.48598663084234062 0.44588020859305288
0.1626205198536077 -0.086552015701592211 0.80788256242175649
0.21002595379724198 0.98561432698093121 -0.30313584489233136
0.28698667829446478 0.10148395065923044 0.51495398310503759
0.11037481743302457 0.82529932914503235 0.26058823526514274
-0.21832947338561937 0.43783730964188639 0.76814800329069755
0.41291113504862054 0.69427999815187214 -0.21751363569832449
0.14584769517096419 -0.083146799533241555 0.76111242808632795
0.91363956821694359 -0.24465494156552747 0.44352958560907396
-0.9181449282772185 -0.81174663014246029 -0.42501107174363995
-0.53509371119756821 -0.25818880749765949 0.70073239262838172
0.21443157107635358 1.0894204130664029 -0.4459901931553496
-0.21907893209002083 -0.5845682955467959 -0.24141603573627179
-0.95816976613367189 -0.67447480839274121 -0.39949110312709024
0.0068440317694182795 0.63236445467767055 0.68026243368006689
-0.064357585134780848 0.8777761861424338 0.21665490024749445
-0.63012700840689106 -0.60572352891956882 -0.22204989707544343
0.51848956102111288 -0.14063334894594703 0.72676041387859769
-0.22059942453598325 -0.31243390632440526 -0.58669001495351125
-0.30614725150695676 -0.22767734129628181 0.79663222211907225
0.40880955591272539 0.79720208348945398 -0.3129022679214799
-0.28011501278196071 0.56775082476232797 0.7785495880794393
-0.64017140789525584 -0.75922322328545278 -0.35796217416409348
0.25661790680464236 -0.11338364967554782 0.79306131508040423
-0.37111989008599977 0.63204495020642426 0.64779019906612234
0.50474551336434459 0.88219677493359816 -0.35515532202063582
-0.72024598499008974 -0.40625336795362088 0.39801181890270954
-0.12012465164709596 0.45399672874949815 0.8047429290854069
0.67216523093483005 -0.67969942773653269 0.49371217099028897
-0.47771028356580558 0.15995714927879501 0.68879147570502397
0.57159252143415173 -0.37933152409909354 0.73611649931810419
0.6471366172023636 -0.26065504883822044 0.73122340009511433
-0.26389569164732762 -0.272433768402915 0.72884296210543198
-0.75492377402513355 -0.43372741734478115 0.56809135286449219
0.12420070768829561 0.49032811639201945 0.69475621845637292
-0.001664475639852725 0.52542001955852058 0.76578511563938889
0.13177887785987608 0.40701206962204939 0.71665534030891109
-0.23415059108720016 0.31735100533027882 0.70134795207892608
-0.16149530266486245 0.72208549696925939 0.41761279970573284
0.12213564830044632 0.60476631169102113 0.56737129677282283
-0.46249480553295363 0.48444681014677471 0.70166857919603842
-0.34763611178728837 -0.63300864988265104 0.0099935128379939897
0.13657468925381977 -0.11030899408025174 0.80856262805306756
-0.96335379955432465 -0.79429668386454821 -0.40221432895921083
0.65861582746273584 -0.46593746745439724 0.65886938352957003
0.51253513435314346 0.67740988048587347 -0.27738876624733422
0.28421099159699992 1.2428790923133497 -0.41048402269794693
0.42617110068056618 -0.23507633392715288 0.25341274303220729
0.37339391777953246 1.0458127258524241 -0.40991649389943774
-0.60525044358622004 0.35823575005602937 0.44129465319684869
0.55229954853069074 -0.27310991310793753 0.73732061008093908
-0.47013246358303462 -0.58387627021647681 0.48337608045623881
0.36087082744226251 -0.21878918135933034 0.74304789902894086
-0.32443795116451213 0.76522484594200346 -0.50872739944480116
-0.27808273815675477 -0.29437607423765844 0.72180152484557425
-0.64254183093494888 -0.93322850157743353 -0.43643567909933267
0.93173792056969518 -0.18392399097081125 0.5019867463134311
0.32364489757373605 1.2725937752983061 -0.43483474928245514
0.5330612722446233 1.0578005504087766 -0.51138043618469453
0.66490586457416967 -0.67177002644356065 0.4671096253777165
-0.18311612221335594 0.34024457017434528 0.76323836020420543
-0.65413919008355847 -0.60597591419500407 -0.22398405886861639
-0.9491014232593038 -0.7196825566452798 -0.36161671186157918
0.41078835344295683 1.2484226418017403 -0.5369098075611376
0.49997191529544338 -0.39448018933808449 0.35038092784989772
-0.6562758660691248 0.087964992810437792 0.80895675046090076
-0.19197537637480799 0.52010466283528967 0.7540089699405641
-0.091013289340942549 0.27118892734229672 0.74871211103930335
0.41596547516977012 0.94165918377257007 -0.39101373294128194
0.25893664117511861 0.82521309584506319 -0.28419988649367767
-0.57339327746909774 -0.63669072968280016 -0.28411105002660264
0.29220639159951389 -0.04623812827183027 0.75070722190325156
-0.49538564531826168 -0.65661992287718629 -0.31569446055845418
0.6259387736426838 -0.4238982111684777 0.70808043248982955
-0.47396268151218379 -0.10921618464032523 0.79074642759321989
-0.40880179769597547 -0.36660075108556711 0.67213731753711414
-0.67823910285421007 -0.95965092815853392 -0.45085487432374549
-0.37084713986812901 0.27607259765878567 0.77053457385672885
0.59939948539521026 -0.44311319218446332 0.73036185649611696
0.75420742032020627 -0.59408048962155391 0.56673706012379199
0.32321713887962744 0.52681789446800131 -0.34916343104657344
-0.31096382098752429 0.21429140866986618 0.80451817353240074
-0.5861299889948075 0.092420878967541142 0.80970438764660457
-0.30177758182140479 -0.25863116333029801 0.76500458734600585
0.84024694817005141 -0.16966499640090582 0.42011972135527031
-0.57751487156332004 -0.32291889850341171 0.682435417525042
0.25434616250386277 1.0776918496981533 -0.40269777539386453
0.62268397054323188 -0.68560159589320868 0.59932497892912551
0.27110404243614994 0.80449579635431423 -0.29401350213480626
0.17841279526698983 -0.20228967115556262 0.78644495328395791
0.67234493072926682 -0.53620455317870164 0.69416219485833963
0.040110538194507939 0.31985586284045375 0.76522768095200178
0.12126140074068203 -0.19006633602427758 0.80016014452291273
0.89036097443387874 -0.15835233977264096 0.46990454023324801
0.044550573338387522 -0.29462920365295986 0.57940103144171928
0.74754825786251189 -0.39457506320909097 0.39236419404849698
-0.3936529939072777 0.47125996985123209 0.81849256215314625
0.14245148056733647 0.80818152813666178 0.56690849844842717
0.34011951518294126 0.90266152757114693 -0.34476694973684729
-0.29567139308592161 -0.057981418173252308 0.75672825447845327
0.37276597720401483 0.51998404450602465 -0.27504862503123206
-0.36921343469753509 -0.53625400130884238 0.55829613767169661
-0.36729822591417616 -0.76627573177509323 -0.18551453601995149
-0.38785868162237946 0.20745932237639764 0.6363593174386537
0.48144529550749482 0.81077530648025586 -0.28612281867864553
-0.24456350088393997 0.71299074910702043 0.65781275597495892
0.10320370139931967 -0.18689974887882421 0.77281594169513568
-0.34572180215612391 0.12638568998107758 0.80099598920904924
-0.3739170179075586 -0.24137908976179823 0.79502062529052608
-0.19103306856018776 -0.18880121908959602 0.74202252760838405
0.050329781113877203 -0.34910734366661966 -0.41471675391195362
-0.097184447066785751 0.97406883714661952 -0.11472895301163888
-0.75728812635999887 -0.65187029716484357 -0.27904890408031235
0.77898850633176053 -0.26925592985636282 0.69999315084062275
0.8708432782593114 -0.37954752776613532 0.62402977116244784
-0.65489352409333534 -0.55087814287081827 -0.3779033619251706
-0.74972607662223112 -0.84122748737464548 -0.49548537730404973
-0.59839964754455366 0.72007611422506557 -0.28674891174810568
0.15528990611603 0.83171946978552924 0.49091449445137414
-0.38020969537774718 0.39613795094347104 0.64191235329712271
0.51114750528408948 0.9209984749928033 -0.384921956921076
-0.46726424463323468 -0.58108656443547346 0.39659252646161036
-0.090326964281542743 0.49725378903371542 0.79278504103724856
-0.78715210627654741 -1.0260393521504838 -0.42654918936444375
-0.43272320138400033 -0.43083503957361557 0.64948701431935518
-0.33682739976938336 0.31519990125227704 0.81448386187766886
-0.20870796264446767 -0.14027559044914373 0.73142092524527413
0.20550478427123053 0.76724901773016718 0.25143657671893038
0.78804477315282284 -0.30961165385725931 0.70259578451186755
0.17424052928645395 1.1483135959328115 -0.3243258791062793
-0.10691340433289298 0.68182029110908537 0.72139709783194306
0.85368439256222217 -0.41137618121396091 0.627038754221239
0.73387370109423955 -0.31800279098800388 0.66517790441551483
0.097842468099642588 0.83879787644213355 0.2126717131211926
0.11454065330861596 -0.40289566178976788 -0.14989953338784545
-0.27361136816940501 -0.71087941424644896 -0.19346038658820675
-0.28504239773980444 0.33440539631368438 0.79232783178942157
-0.21756128839490607 0.4888901009797344 0.75811956869953434
-0.23703025648290854 0.96321679995139675 -0.11851367623274101
-0.59445977430475594 -0.40965808297525452 0.65006805685123936
-0.67180079512573698 -0.29049142490694635 0.71286424951880178
0.057898439566994142 0.49805227438861444 0.74403024391726547
-0.81744293443030713 -0.75084081020997218 -0.41068190706630503
-0.44144038015857845 -0.26967303440370927 0.76732999800903912
-0.23279553183776613 0.36335101995735819 0.71841516520855464
-0.7165935961412444 -1.0015549837047599 -0.40557793942496545
-0.046868051048704729 0.46515871600669811 0.80154168982914697
0.82017506180112321 -0.11514353878327466 0.47175056428876516
-0.47573708760845435 -0.38575010270142673 0.67323467354935218
0.64865105249620214 -0.028174379673760797 0.59759520020412182
-0.72085298815313337 -0.34559362893050416 0.45711900590480781
0.21012881496545077 -0.082981864220124102 0.81274480167742524
0.05542509904473647 0.39551635176857758 0.78908509067774091
-0.060289098875632163 -0.46588004835713548 -0.21360824410082557
-0.34847066813050276 -0.63500731492772644 -0.080472585603530433
-0.39286568214282269 -0.017510101262369737 0.76740382040502197
-0.72896243072449707 -0.34697218308530786 0.66958529055307991
0.84979248286775544 -0.41467789428921975 0.46489748944543763
0.36073785430237848 0.42647008241887718 -0.23916747140800609
-0.69430737309998136 -0.71055241013422421 -0.34997683800001766
-0.26535974482782798 0.44444726924236377 0.66879519960893674
-0.61336745991512842 -0.241746676567554 0.70704708492066715
0.54562136200737044 0.0098844053077229432 0.59969790346867313
0.18031632781117679 0.70407591685232873 0.59176125738876095
0.30064860618753109 1.119535533992841 -0.43633733823310905
0.44461557941932028 0.042479210702792258 0.4923580906212095
0.61159382048363042 -0.45303826304686012 0.72695954428265352
0.52235730771459288 -0.22938981038380035 0.73793513826272061
-0.72735271618245179 -0.53787136651093892 -0.15137515628411791
-0.62020798052435211 -0.6477832159589223 -0.29532911514191795
-0.090023818739371819 -0.43622711399767411 0.3787287156143222
-0.89955000085438286 -0.14324303738828892 0.14454522598857267
-0.54700347320197196 -0.051203288259174862 0.75540120441586112
0.08443815193704296 0.56075545644623581 0.67212331828727656
0.65863773801876135 -0.61258630634896249 0.42638389016876843
-0.10176616738818467 0.86765210804741866 0.22145682650732113
-0.91711755488245927 -0.73470961452208705 -0.36813478884204898
0.29575127918432287 0.67152154686489851 -0.37515875104067931
0.29182702910629033 0.13201331573996278 0.49073937451133887
-0.50638371149673489 -0.32385975473779283 0.671477575840143
-0.42287763308774373 -0.40442428956410126 0.66829077743869192
0.39980895303208897 0.71930783337274207 -0.27070917587697352
0.46775246435841211 -0.0092256409397641903 0.37850898705472957
0.2738303260187287 1.1287972005478393 -0.43334169380567999
0.085435493780092742 -0.17456829709107957 0.75308827808612477
0.29698822863631591 -0.16099119777901727 0.74557554376736235
0.7745219552368674 -0.36961949477709144 0.69762795759395146
-0.11376176637888946 -0.060630071771695881 0.74794617766097105
-0.34892390847625698 0.4786921405449478 0.5351670031956175
-0.88430830330199939 -0.90575678669096416 -0.45321958335244261
-0.28724070981164118 -0.45835706544379384 0.62312028098227046
-0.66083591490972893 -0.85608742844669639 -0.40229025655289519
0.015709541690863915 0.67336515402718256 0.6709643538933534
0.19722840115378304 -0.36792171701464049 0.63310162425248606
-0.27332382060014027 -0.17533785464578244 0.78207776228585146
0.68094340801031805 -0.65327557088536015 0.60029974931858021
-0.76168509793589934 -0.41933021255788638 -0.36739370892222212
-0.33452832783274644 0.24510944954759406 0.80089884612777951
-0.43030530559818203 -0.78681958482802017 -0.24796848081916778
0.26308364274527207 -0.30075756379526286 0.72381728023686165
-0.83196530098051369 -0.7772302127253452 -0.42492219236441287
0.21145479363826425 0.19757302027052059 -0.57869474039478774
0.71641752405621517 -0.50715855015911337 0.41280143986980633
0.071472969110779161 0.60767387633309511 0.61908905200643716
0.62185394427649143 -0.44925153882482149 0.7061793142861994
-0.19984699933807804 0.32821250403213487 0.77456348739661962
-0.46103261026438247 -0.26159495909949015 0.76203602567898088
0.061135717908925358 0.39346664962628264 0.78413746594887357
-0.37278199394379286 -0.36775598554621602 0.67589775536973917
-0.73510951937433688 -0.46200372513271937 0.49459573227807851
0.16353285582149901 0.79674554266892095 0.27672031510511275
-0.08623814493191162 -0.34390882140839096 -0.52015344708928524
-0.22089661934509763 0.5255658950432931 0.67452736912492384
0.41771017947145239 -0.2296574691387594 0.22539804666028118
-0.79292039326578845 -0.48759983370756643 -0.0040555430556707961
-0.33928916701647793 0.024664370676710234 0.7721676655075882
0.48410917050441071 -0.54767581696664536 0.39411569498194154
0.0067932255653566642 0.9371502776426146 -0.2012080184938867
0.28770354332672099 0.46237806464438957 -0.39491743652618183
0.33584000174835715 1.126775204455253 -0.44502419624461353
0.72493357606639464 -0.31681130109034594 0.66718859354233828
0.68335230811593917 -0.61179522021921873 0.64286413046075097
0.39117883114003504 0.53545747984990477 -0.095008651943778943
0.1983948107529443 -0.19950889239035696 0.7762702815518594
0.34934431610609096 0.21897252689236435 0.30330986954043482
-0.32886821831266388 0.83871273784882572 -0.42399812606170073
0.028848199809679897 0.40700567109271901 0.79836314827724308
-0.70082764356233973 0.63282588114031668 -0.10045979786293913
0.083854451453381884 0.58998861155285187 0.67296783158867157
-0.54217799148133494 -0.29926134461407283 0.67968632380499372
-0.76000043315640475 0.33687569168607645 0.31371882723482969
0.031671115321557863 0.65865504465052993 0.6724990233807695
0.30336219910397233 0.10109050085906102 0.49086245061483424
0.22113743834159294 0.010067238667955003 0.75458684516887686
0.38990996919288001 1.170477371634338 -0.47914338984703164
-0.82204980331836097 -0.68494333350620629 -0.32757763098547343
0.46731603506920294 -0.16005824440657257 0.27659502217026599
0.83572790242365969 -0.1963465534127824 0.65449510556682
0.60128866348252785 -0.22565365610157517 0.35568672688762248
-0.54162328310157903 -0.40022056739574285 0.65596236261947638
-0.9257798312511234 -0.77060592570821296 -0.50074068605841404
0.56350317582626275 -0.48410249627732949 0.71994229943227239
-0.55044601185892361 -0.37755645436249985 0.66503122842617302
-0.57185873562670864 -0.54405593082070869 -0.40940393355415239
0.68709426492383585 -0.47050942227795822 0.67552636987354475
-0.63005569993160648 -0.35261828642912896 0.67439869797710372
-0.8778525031315958 -0.9130317272207682 -0.47313651480614993
0.62695541163543211 -0.40514956519930134 0.73019897722804927
-0.3562324127851042 -0.63269043686145565 -0.1370403694313751
-0.12365599939094629 0.7528468980987304 0.39262704204463006
-0.48978882192146145 0.41743249002744243 0.48778529196198406
0.28729566140457763 1.152872876794004 -0.4424217754672668
0.46507997022544956 0.031168120006308975 0.59869855297875318
-0.33216945453536084 -0.084407996093561088 0.78772139595278645
0.11165715565929091 0.4961792936165077 0.6965594878019381
-0.10466342697530173 0.44602198372996149 0.80796832696224641
0.3016096225545013 1.0183242177238032 -0.37822741449704012
-0.17892254995242141 0.51278257121929371 0.75715409944869094
-0.31127112817377167 -0.63796910746086333 -0.13378946923131707
0.55438939993899083 -0.47316978070352089 0.3714063614470291
-0.13559870275539865 -0.30217378747624046 0.69845175523943936
0.70145883310043544 -0.34890667500390204 0.66985589370484178
0.041921670192181182 -0.32997042638826279 0.47212868808689734
-0.36951479996909598 -0.40169440818764279 0.6261131970360907
-0.57276688223977246 -0.92883868469675068 -0.36136017538753151
0.34770058373651125 -0.002552445171797757 -0.35037412569753101
-0.80868267010363581 -0.78039029363478285 -0.41032486724154182
0.74991654784662032 -0.38431943458611695 0.65247444372561247
-0.1646044824200974 0.38921320127459325 0.7762572467892781
-0.011315793588096312 0.40105924155903505 -0.67930330029729902
0.13853856434651135 0.37442551130774859 0.71715864540774987
