# XYZ point cloud file
-0.58103110881742737 -0.31422908966087082 0.68372572876933546
0.25579476318741712 1.0749578943518818 -0.39880647373426115
0.61447557590397395 -0.68270321025952452 0.60750157896822898
0.27098472471922008 0.80508872627710293 -0.29184790320960019
0.17900087562856015 -0.195500008264891 0.7868162966334431
0.67013267969468515 -0.53179422398779685 0.69862710800860484
0.046046600291028028 0.31865612249853914 0.76295306147520847
0.12223218396851721 -0.18324045088865404 0.80076757120619391
0.88846150863346196 -0.16184873823667711 0.46362183598286677
0.040333035319267907 -0.29064290983528895 0.58217934669804805
0.73851348490970281 -0.40020651312747724 0.39165438692853272
-0.38372889667558852 0.46901438589736344 0.81941330816295377
0.14884322911067116 0.79928831970095526 0.56429785790827225
0.34022819800956583 0.90259003139016869 -0.34317420285218247
-0.29305355374003739 -0.053755975185499238 0.75835802094141869
0.37030227250316017 0.5200772456595919 -0.27524523369250886
-0.37689560980160763 -0.52861263385424406 0.5634159084854069
-0.37418440846871803 -0.77161799658968544 -0.18321507610360754
-0.38341237501910186 0.20938072142905106 0.63723840633076279
0.4805874028148196 0.81148045988530004 -0.28771650756029743
-0.23595896805419514 0.70717940083672914 0.6608690583862753
0.10363851982786443 -0.18062717852960652 0.77366122590712649
-0.33997578929701078 0.12859929695634431 0.80180048141145477
-0.3736257571497319 -0.23393275364725152 0.79784382176088187
-0.19068193911853015 -0.18317138790517529 0.74450884124215122
0.048113859959112659 -0.36245087311644708 -0.41470463509791955
-0.094436186626850827 0.97293517803489138 -0.10718042817450524
-0.75753080188981414 -0.64492183524340951 -0.28329939056976272
0.7819003197328307 -0.26704640371505928 0.69712967007592397
0.87116888836679252 -0.38085325751932064 0.62324565010621669
-0.65100119018412883 -0.54710432903595785 -0.38129099125382027
-0.74696203286649165 -0.83855750144467733 -0.49568995015257045
-0.59274854790266929 0.73617419562821929 -0.28929032483342354
0.1607938693123927 0.82324428620924284 0.48889931913204876
-0.37387249050598825 0.39620362933771247 0.64336907504830876
0.51085857102666665 0.92135753553439148 -0.38627062705050363
-0.47625080115944485 -0.57495633373846555 0.4000054969982294
-0.081885521253937554 0.49295252339476647 0.79185418521011997
-0.79103318348882112 -1.0230448731871833 -0.42445385194722007
-0.43774105977885469 -0.42253657910804776 0.65337913868277298
-0.32871572828809192 0.31474171257965367 0.81510387621856495
-0.20776688576708224 -0.13540965763319068 0.73356014848377527
0.20790263750235027 0.7630508719385638 0.25053738723225294
0.79074605691120681 -0.30743743781080735 0.70066145288276616
0.17644178952699363 1.1432615483285518 -0.31904659480123243
-0.098214936959685417 0.67469913614627597 0.72196564713133071
0.85343983605637419 -0.4124123528443473 0.62720227960700115
0.73419460817232363 -0.31594671088592463 0.6637902284846362
0.10057704071294182 0.83406947644510865 0.21462476247232942
0.10676234220778014 -0.41380029098971693 -0.14943792080948981
-0.28027573053051924 -0.71826061531244667 -0.19127000566846775
-0.27727587134743104 0.33344518002432189 0.79298807858099707
-0.20922817374993485 0.48541282017942322 0.75895569640462668
-0.23349172698326726 0.96476537644130644 -0.11039637389474066
-0.60012681308688087 -0.40010264384148231 0.6518623889935462
-0.67559642187736202 -0.28063049318138766 0.71253492128283114
0.064942322660254348 0.49386464101885963 0.74121761213323012
-0.81586729621101384 -0.74338763645414918 -0.41392116904946974
-0.44223277505362546 -0.26188059910871431 0.76999860943710985
-0.22619640052372247 0.36202830930803831 0.71935618028194526
-0.72066329692217579 -1.0008483542639763 -0.40328710021131897
-0.038707229940598609 0.46134547429668515 0.79986481900698436
0.81814842951672517 -0.11747412363468612 0.46546579354541961
-0.47984654989551601 -0.37738455854142128 0.67636159746422209
0.64954485920911864 -0.026990956320893211 0.59148952351702277
-0.72674812898856445 -0.33547237747317915 0.45373197456274639
0.21284290994530508 -0.077475810795403 0.8110951795619421
0.062458491304671071 0.39302986292727571 0.78603841093050164
-0.0652754271277729 -0.47572415797892731 -0.21280080242946653
-0.35454559408309549 -0.63836127028600975 -0.078953676470238321
-0.38949841402025953 -0.013313325368688567 0.76858816457395207
-0.73507938635544434 -0.33582449625759336 0.66835101751599169
0.84352746848436766 -0.42023169634466218 0.46431160654746151
0.35780313410437614 0.42565347839187062 -0.2397396641497096
-0.69359019292570068 -0.70727143255974922 -0.35210371295580245
-0.2586523629313362 0.44259517431547035 0.67038516224169697
-0.6154996943294293 -0.23329080267153213 0.70717221676259712
0.54614734223403971 0.011365566213727085 0.59429599968283497
0.18631907653976043 0.69713145187337222 0.58788780615573444
0.30224596786053226 1.1160087077055367 -0.43310874050198933
0.44284539794612598 0.042828861415771691 0.48843337396574427
0.61063602300795239 -0.44717093119795592 0.72949855983104683
0.52338104785577144 -0.22411593489358772 0.73606457832168104
-0.7286657754971948 -0.53015075734347239 -0.15665965536042137
-0.61998954447772192 -0.64606034891655328 -0.29728306395834636
-0.097533367997527876 -0.43472360751040684 0.38256303929493995
-0.90222507561876242 -0.12503598554306128 0.13084705725893286
-0.54482615603028606 -0.045354011006443429 0.75541152516219867
0.090671778556639993 0.55586170265582702 0.66956802528246229
0.64652987982663745 -0.6166039054081871 0.43114337605479136
-0.098025080374437579 0.86378831303953607 0.22704166967325179
-0.917338090211544 -0.7222549180465303 -0.37387534147033818
0.29475339922583643 0.67278325993207133 -0.37314008982799862
0.2910268950312016 0.13223422435932264 0.48806742105099943
-0.50945580790839529 -0.31601936722699353 0.67359315588825908
-0.42717471498935211 -0.3962459711536237 0.67205830505163178
0.39851868501482102 0.72014391248571297 -0.27094493179117762
0.46345575679199413 -0.010369743582187674 0.37518508757545987
0.27554140671199434 1.1250328453165768 -0.42955118178382889
0.085649136595950637 -0.16882520692343128 0.75401260881456622
0.29748676201281654 -0.15553426128713799 0.74453587627722229
0.77609644875826334 -0.36731200616546378 0.69729410507870426
-0.11175011118337963 -0.056664016500561409 0.74917709282546241
-0.34331553212164323 0.47864628944168919 0.53744212436590999
-0.8846790941270406 -0.89763536141625444 -0.45443299470044352
-0.29282041265275183 -0.45089223861833894 0.62805713653223449
-0.6616011545550684 -0.85621832408788456 -0.40173535534349014
0.022958373472938831 0.66642579107458744 0.6698544384924503
0.19237968255226079 -0.36234594745409154 0.63607271307455804
-0.27206512424477225 -0.16928878806903302 0.78449692842082186
0.67397878733756045 -0.65173197717189613 0.60751444116630182
-0.75661060243575307 -0.4091039366608521 -0.37445713344744291
-0.32741992887864413 0.24565743466930279 0.80156724886493791
-0.43555722053556423 -0.79171947547380084 -0.24613886168145882
0.26115356625513897 -0.29400496705645729 0.7252342163110761
-0.83048080434796034 -0.76958138214794936 -0.4278689635238706
0.21163629276999885 0.19237306296447976 -0.57700355760468014
0.70598181441432573 -0.51238064149766327 0.414764729925583
0.077241086683031313 0.60236074106175153 0.61737247350565383
0.62036750061384538 -0.44413268926259164 0.70856240588326003
-0.19278526188087142 0.32704250471794172 0.77489598160117978
-0.46183119323989885 -0.25387172337797104 0.76446401889228
0.068045141507738549 0.39103140160703376 0.78106006395769612
-0.37616655024430301 -0.36022774497599297 0.67961607803401947
-0.74380210539854374 -0.45094546015137782 0.49278566830880521
0.16640275118926695 0.79176678863543515 0.27659145312510702
-0.083748555648952561 -0.35537678817725737 -0.51963374481261937
-0.21363625513052753 0.52222651365997574 0.67617995242869711
0.40863467410175858 -0.23444602228181921 0.22448150942507183
-0.79682100521216981 -0.47652305144231732 -0.01121033999014287
-0.33528555041717567 0.028087770226057351 0.77334652899794065
0.4718085852298799 -0.54979784295452916 0.39794717123477241
0.0087491390900282795 0.93648269487412694 -0.19503433704392492
0.28603434783416404 0.46207815484469261 -0.39357782501134508
0.33743820207134689 1.1231225732850816 -0.44250484038520099
0.72520422939239282 -0.31458965897102598 0.66583191817696985
0.67849854288719769 -0.60896258080120802 0.6491767098931831
0.38906802794913276 0.53544110176567195 -0.096731763849870589
0.19883051335486357 -0.19294750411106865 0.77648849507642481
0.34705511816752121 0.21807425554757209 0.30031132752406364
-0.32413872979616443 0.84679903652516941 -0.41920892903259244
0.036217391646722774 0.40427000171095173 0.79561371804165404
-0.69604820727155925 0.65113395236954874 -0.10663706582925769
0.090333531921341859 0.58454997052565272 0.67039128518477753
-0.54495569008430778 -0.29125899791912158 0.68118294296224491
-0.75750266398062394 0.35070444166720982 0.30585269327437814
0.038787469091897009 0.651955980997041 0.67102186642559403
0.3022044398035959 0.1014217328507403 0.48825453585656575
0.22365463939497943 0.013541617516753313 0.75217528857780991
0.39179125674193216 1.1659192941567453 -0.47765942802276129
-0.82182481822752251 -0.6759545776927729 -0.33243730553181905
0.45955564556354744 -0.16367805617428566 0.27469544389220601
0.83884805688506603 -0.19575953684917113 0.64951543695074321
0.59354970097880155 -0.22914933895241685 0.35333878740584979
-0.54657796970033701 -0.39130935692223856 0.65840863447673925
-0.92242629686952071 -0.75882113283587072 -0.50484994242750147
0.56127254155178363 -0.4775585912439313 0.72341592139652988
-0.5549447675240522 -0.36871752625234411 0.66716625525189599
-0.567433041706078 -0.5434709060433135 -0.41147645593160576
0.68521634895655836 -0.46716149072424429 0.67813908208187712
-0.63479058191794024 -0.34299416391431325 0.67515475751665832
-0.87762952001415684 -0.90545499334681034 -0.473962207685652
0.6269049595379208 -0.39971616069385796 0.73149408131475369
-0.36119934997834591 -0.63671920221613076 -0.13589306725905104
-0.11896997617622773 0.74864352593183714 0.39661248397450066
-0.48476090145410211 0.42078865669847376 0.48840556862572981
0.28915173776375624 1.1485185789370016 -0.43883871140830877
0.46534605489019398 0.032702264093520839 0.59406515660019821
-0.32944750233468056 -0.079470698860561129 0.78943745007007848
0.11774840270785703 0.49229475991200733 0.69329777122866076
-0.096313442170298913 0.44260023910692858 0.80704890538653373
0.30258561956457797 1.0166214173620221 -0.37554826164148025
-0.17058875928275441 0.50872430688464387 0.75771265789627051
-0.3169296217835722 -0.64300317502922644 -0.13224778869128428
0.54295515748490786 -0.47689616895981413 0.37334598261142204
-0.13774327976605605 -0.29571745680195516 0.70193753785923363
0.70108011611836574 -0.34625083525369682 0.66939607944766166
0.035954162775269083 -0.32778597122140329 0.47510068434788977
-0.37397571453445977 -0.39453909598912684 0.62996891505740749
-0.57715046254282498 -0.93210237354245973 -0.35899162727987743
0.34248063537052076 -0.012255950810311944 -0.35179699426603506
-0.80761224234736062 -0.77371985252085906 -0.41292054806119438
0.74921844061882226 -0.38277624717025649 0.6525710728968761
-0.15709113867767854 0.38699836838847546 0.77630695504415925
-0.0067670076696551007 0.40247949673818639 -0.67534300470613218
0.14393341021573747 0.37252665456381884 0.71359132672931835
0.12323421189301698 -0.25165020513147596 0.70298387486271707
-0.33806962979078037 -0.80858974545338114 -0.2583743396183138
0.10873035667131603 -0.15158452410173862 0.80603462599111353
-0.52412926548525363 -0.1049802483005875 0.74998527809088955
-0.59432919489157143 -0.34806343258545747 0.66779418690868653
0.3850385084762955 0.72009426670504872 -0.2568560460045326
-0.027060410350895125 -0.35482627510202303 0.51912049915410563
-0.76340966728388793 -0.50633452459086314 -0.088050637969587342
-0.72624451465533468 -0.55204611443090723 -0.21601007876824951
-0.40816985343301582 -0.019363173799028299 0.76389000912422134
-0.071958762865623527 0.26048906167490049 0.75402015876428408
0.29946056260754617 0.83476054471787187 -0.31389558843685705
0.053832100959105844 0.86139547113530401 0.60604734580861574
-0.4483066076657849 -0.43939306334365913 0.64300449623679512
-0.60730653041549942 -0.98712116276285777 -0.37043291348419771
-0.61037574169374764 -0.045966333472210241 0.76277914587698348
0.0038278262796502815 0.51454830770381754 0.76962985413275931
0.42599744800086725 -0.60248656941929202 0.52542046905881179
0.25858639047712018 0.00036713434894330987 0.76127651335701074
-0.55656534411349412 -0.2507052133828731 0.70471520743760863
-0.057701217450297548 0.53588327950294978 0.75155590471902656
-0.41791497476121364 -0.7729127387770004 -0.36604080016158491
0.0085844684763927148 0.526951203973411 0.75111380648807113
-0.24870513968713226 -0.27411203800144879 0.73572386214976149
0.12039610053774297 0.4066813450016733 0.70625592974264961
-0.56584678682396117 -0.22636484254634759 0.72345684379699549
-0.51296806416142005 -0.60791330926927889 -0.13273361136259965
0.17355497635881534 0.27699485079583486 0.70310572393434256
0.029828599211132456 0.62374444056309652 0.67563499908299463
-0.78758966616438997 -0.59484527611502047 -0.24075385029205876
0.10153551260754057 0.5337843179985029 0.67413413432765523
0.403493731680868 0.59956177526662113 -0.29453961361075187
-0.13818627034492437 0.75395609757414928 0.59933553114787941
0.31000673195859108 -0.50815191618981004 0.53091301374611177
-0.9043361895920583 -0.11409227954305201 -0.3340680729254899
-0.91020779856108902 -0.99487004420190539 -0.5220512672202986
0.2874106536731027 1.1767743469613037 -0.41836744860697905
0.25593920963494909 -0.018169181093416142 0.8006184239976406
-0.37332836258204338 -0.41018213843661666 0.60343886268923441
0.18647765836348995 -0.1203788457329269 0.81237779580965963
-0.66611443902474932 -1.0054049954951609 -0.39141053872591414
0.83504530374882435 -0.37060948119044923 0.43468935752810722
-0.44801223389653799 -0.35002070581144151 0.67636898007247837
0.48976909875316466 -0.18105600433932878 0.7352700504648233
-0.44914768518808756 -0.35683599701322111 0.67872512730205514
-0.39710297171129127 -0.062453367313041852 0.78818218094837889
-0.45194580504410098 -0.37139665593078375 0.68066981549108263
0.29711851719578775 0.20718255675464547 0.47178023878906217
-0.23330743939297349 0.68309566940604238 0.6047179255399584
0.12166452159418029 0.85113232886386125 0.53883707473335107
0.18988200399266475 0.7783044832153525 0.41319716248649385
-0.36532587458189525 0.2511689954391465 0.68880835049658629
-0.20461027349602645 -0.48479773263254078 0.53874513519770062
-0.17395533259357521 -0.33753636515277119 0.68291248728004206
-0.52247564516764555 -0.36232239446876324 0.67639959962111007
0.10246442402537781 0.5977995590952494 0.66845269723479461
-0.89576742142035926 -0.87424176140766718 -0.46396422950720861
0.033275983454618796 0.33877417936167209 0.78890920068533177
0.46107952769578375 -0.52485960355871164 0.6863213223048561
0.30927197471709533 0.74908779149049387 -0.28262851762576346
-0.4800147054103725 0.0079919489228066354 0.69154492128593859
0.27332786832283418 1.153480578435564 -0.41436565232294242
0.50935502650297337 1.0407414351728672 -0.42004403424976289
0.11521686027276701 -0.28561200846873813 0.64176990807982293
-0.25659188412228673 0.4387123258696235 0.77004400988693789
-0.61501268535275599 -0.074569964617037243 0.75622355608133418
-0.58869777244987276 -0.15871672691565664 0.73130757396009471
-0.5741525813195878 -0.6406911878800946 -0.29792542280307899
0.5695376905641254 0.83774900084208204 -0.39149900823120376
-0.23305600491747214 -0.1978783448803082 -0.65007444153044247
-0.65312279448849964 -0.54589590563333656 0.46531671625490745
-0.84312001878799947 -0.65403066355185868 -0.30491064641272914
-0.86063001045885201 -0.77267814018889824 -0.4457057348576825
-0.37099771144047011 0.2086372291463805 0.741370966319856
0.024451964915122915 0.30510252371551161 0.76729417715728232
-0.15268770324325232 -0.30580511792061105 -0.5899510232396743
0.36251518367665625 0.74960288140930587 -0.35057230225294589
0.88446447647303117 -0.24995201918209631 0.6358792145697052
-0.23381972048782984 0.70054819131174106 0.7152930565069795
-0.21033654619371944 -0.35583880640585852 -0.55452230449266082
0.76636770244794405 -0.31811867309821729 0.71003259517402029
-0.39741156500712904 0.5790322197573512 0.64644557979017847
-0.18423827457141684 0.4703802231031986 0.73956309900172457
-0.2656436019681685 0.013000771946302336 0.76602219621676326
0.26752582638809841 0.060640150731159359 0.65280215988116197
-0.59519950973650992 -0.19500464994252997 0.72030256829921058
0.69887067047682905 -0.31622114056373274 0.69319390583078899
0.27685983877403331 -0.035978380592673886 0.7827116971842436
-0.60004563772758601 0.24261179948769895 -0.63708827629205445
-0.35532056546601609 -0.079162217869050089 0.80914943959653129
-0.6692405370782879 -0.57242367950262518 -0.16693004004824985
-0.63202598495058737 -0.61276590106309581 -0.38925935059660333
-0.37615139147685994 -0.7468316680543009 -0.18685324664539138
0.36693663986616087 1.0941560420821288 -0.43043258009583596
0.28018600405151517 0.75674903779709402 -0.26837183367758044
-0.16955656685370712 -0.16964524631853362 0.68965084138422839
-0.29088815865106099 0.49264118484453601 0.78166183039469672
-0.69559499422236826 -0.48921659456998823 0.29761545493872532
-0.068781391511489431 0.58351121363238256 0.71681760310304199
0.56954922763317128 -0.13820381503732992 0.36261631942440786
-0.65683315317589575 -0.31934108641279346 0.69249190032680374
0.4272238154070358 -0.545817856180979 0.41632061800121889
0.12315546111629061 1.0542275344810896 -0.26215332282857062
0.30018621853215777 0.76187915262902539 -0.29714891879536154
-0.25927197737980734 -0.67754813470483488 -0.18863579147185661
0.49364396109989173 1.0028011314099503 -0.45447493076525802
0.17543472292119588 0.46427168907742988 0.67414100512833386
0.16987242122261392 0.9402095859684434 -0.22189596685339197
-0.60832504581047786 0.18154440677820816 0.72113714928511286
-0.49745227026910754 -0.64855154619405064 -0.31403942662428008
-0.71219578722155319 -0.22955701754592495 0.71886532115608759
-0.04228826063576463 0.24454532336420076 0.76192070714701998
0.24037550706711031 0.010339170704099843 0.77926476480483231
0.29075491643332185 0.81259271997174265 -0.36272610124145643
-0.7597676472763446 0.56272159227310214 -0.11368543379488472
0.14364169562311702 -0.31348254185222846 0.63427727586492111
0.17930772383924776 1.0085863895836429 -0.26480852725600457
0.58833573394053218 -0.7022613839003089 0.58096689074657348
0.0037876791239774832 -0.29781651359113592 0.61521327798218195
-0.37236481261420806 -0.6344300007157071 -0.14684037574256337
0.87303693437685581 -0.23122196017579988 0.63974234004621877
-0.30583869999702529 -0.013797304768431218 0.77261000967814653
-0.335295782351821 -0.63758715037974234 -0.054631032681694336
-0.47500660371781933 -0.57746808076971412 0.43357127840123155
0.75012462030242588 -0.32777348964124897 0.6699481246987844
0.3960306020392288 0.87539395948881848 -0.34549097764986314
-0.22650076490233317 0.52869708852086195 0.65416971006261093
-0.34449367776567286 -0.23104786547283229 0.80002606340167404
0.11625296934862206 0.35340345716192534 0.72739429044033699
-0.4094149007599448 0.15399463211093067 0.80278314820671781
-0.85571034905094123 -0.59511979930479397 -0.28642983647304376
-0.14519683234063052 -0.4113056781798432 -0.45282920451896658
-0.38880584823290576 -0.2399412928688136 0.79394501225064928
-0.42881380819443038 -0.097178419455212772 0.81194228661806278
-0.36381188559418476 0.29282252652821406 0.63797417012869673
-0.79587824388823591 -0.95944460916273178 -0.45017231133163094
-0.33196154897399666 0.19022982338354755 0.7975985654356208
-0.53046360693138439 -0.34285944306302873 0.62418331606417965
0.49299982822868671 -0.65832580990256861 0.51859124710379589
-0.60636741209730971 -0.78844001632963256 -0.36019893605924835
0.27991325809135148 -0.15518594693174137 -0.38041563332228279
0.13118732938390565 0.92709268633921749 -0.32649966033866917
0.14654007063958474 0.8226495559716307 0.17053864713569666
0.16664157680758152 0.96317473027839995 -0.22836212095610264
0.29229868712966578 -0.059211326392997421 0.75633915457798651
0.28552874455930422 0.089719383175553169 0.54981202264324125
-0.6278839299513379 -0.18814545660768323 0.72667082585159193
0.84116551967541398 -0.2450024249166578 0.40751616514260292
0.39897137833819585 0.53303918808594641 -0.12948401400450038
0.18807755348114341 0.47925106094394643 0.60349478142767765
0.7100992202661871 -0.17791321379788094 0.38429928091305854
0.034224329907868167 0.82619231219654399 0.33564513317280742
-0.54320202825514485 -0.60293472476959886 -0.19449168401285277
-0.5406046438922445 -0.14174008977933994 0.74839756669361535
-0.69244548097879743 0.13290878721375776 0.78609441215702347
0.81149954868143936 -0.47796266873269477 0.63281042165665013
-0.3346927137728386 -0.085825362212784029 0.80418703072898268
-0.49168899360316942 -0.030575681764877682 0.76729664956897281
-0.8187604914296891 -0.93980342816330809 -0.47310177615461058
-0.31672195592685526 -0.23658979321774076 0.79503011444993632
0.43305643515195058 0.79151639802666951 -0.30195159810290662
-0.68171527620186367 -0.94912208570050205 -0.44755654721923221
-0.05746089261893772 0.23287742539496037 0.76294301603230608
-0.078098634815496837 0.37326814893040616 0.81342755888922014
0.14686788333892054 0.25766478725159736 0.6218266063455502
-0.8762869200943797 -0.87641449079954703 -0.47572856180249445
0.26690984067866808 1.0993176997937 -0.41676902714403141
0.55330257379718262 -0.061933340112510393 0.3878667957606261
0.67333164381959421 -0.49168364677415788 0.71284593142449282
-0.17296745880393516 0.38107802014067538 0.76501729991598566
-0.58203020912625192 -0.59854732379870779 -0.19794272713330585
0.37462323405429743 0.58182233771860714 -0.070725942831401767
0.40080533654134953 -0.22952219843594523 0.18248862240847785
-0.39108294780933761 0.18861507927226873 0.65981694557185122
-0.67027401777347251 0.073382737974695633 0.6228501921922458
-0.049819024611039708 0.35706796919999917 0.81283978312657368
0.40237331958487843 -0.28143039356862332 0.27021289796698511
0.13410755671707619 -0.069562829952275251 0.75056578751374659
0.71962534055074201 -0.4919167182192945 0.69755328003346406
0.69528848153656142 -0.63156306026234965 0.60969519348194368
-0.52685343900825643 -0.77516441199805131 -0.4125027845538547
0.55371846493324739 -0.18086791693432325 0.72800754195464634
-0.61829673798446194 -0.75434721453485787 -0.35266151852022531
0.43813746572298129 0.73983259441797289 -0.24489317257162213
-0.11648845796383256 0.22295170630916505 0.76303604485714871
0.21073642005933024 0.83347986318031042 -0.20700972707082599
0.061273181424340351 -0.14713222214609001 0.75982591009991651
-0.26429744049089621 0.95579149269483832 -0.23545987335388929
0.37111066737762854 0.92333890860967838 -0.36133518135077836
0.39775263654066606 -0.43337324138115463 0.70917449290082857
0.38086577069991634 0.55209358309704282 -0.053813176125515838
-0.51040765862423498 -0.071531039412660036 0.73736457343374795
0.38258234779250344 0.83731542643445245 -0.32727005382666263
0.018515051744383726 -0.080920285243523793 0.75568455380249944
-0.10689776697329023 0.099501231263340983 0.74878402764718288
0.67399996458209444 -0.43774293111469298 0.65620648154262895
-0.21174637152249787 0.41845511506281774 0.77066769613757913
-0.10131852958920362 -0.33213417388132793 0.65965950640187287
0.19800531733680415 -0.20029617394688382 -0.45994108120680366
-0.085785793342523675 0.2655376549719799 0.75492277291082388
-0.18663550765717929 0.73219632361786324 0.64521395655810565
0.46254170311574683 1.1050164981737391 -0.46027959021540354
0.37952655528495782 -0.21561696632739125 0.033191471540803263
-0.48610400961829825 -0.091825476409408413 0.76564035240054551
0.13568454395215568 -0.11722534337152979 0.81091498386930994
-0.79483310381828076 -0.86950081347806218 -0.43172351609355175
-0.36576215166605408 -0.72011292760940604 -0.18677658550418741
0.46314429179787808 0.65763535326751432 -0.29416013258595441
-0.30374584856008369 -0.53450358648659879 0.42892949269607428
-0.15681025523667813 -0.45741480064825302 0.46378362354654001
-0.0079423197875883034 0.22643071242953283 0.75602060321099174
-0.18845654240596588 -0.5325276755564361 0.19267993097452774
-0.69223847145795858 -0.54864011670075852 0.077507889106730232
-0.54977727565086099 -0.22073112127790218 0.71402819559952846
-0.51350210049803025 -0.073084344155205372 0.75629523321639169
-0.044391020926283886 -0.31143658871930135 0.64326392020326395
-0.21549003811696821 0.96815852430453386 -0.23584905288664615
-0.49643278990057738 -0.40851778896961788 0.65745494234198887
-0.72961824748187354 -0.060543068157720814 0.74401554184888852
0.16441829632398353 -0.0024895117546206436 0.78850859711625176
-0.41488506392623137 -0.72645289512935518 -0.28319502934757423
-0.78316835462991818 -1.0100566726132589 -0.41690154427935866
0.69029344199081777 -0.33290339243757927 0.69360821956735563
-0.059286483322168237 0.46289434220700265 0.80142289604023986
-0.26018803245283095 -0.35341755525255802 0.68907497514395288
-0.22048852706079103 0.48906645057758702 0.75794390366886333
-0.76508526303112845 -0.54608403105832704 -0.28651604317167312
0.44488520505179707 0.01600924936056547 0.4113312177932329
-0.45689997552319994 -0.61060038105759218 0.15852449445554484
-0.20156372058180949 -0.15060823597569684 0.75547783459147766
0.31614925304803521 -0.091835132645321949 0.74160797610534601
0.4460011189532338 0.77140897531556263 -0.27908555477741714
-0.9529362940180377 -0.74535338692019115 -0.39028671359876554
-0.15521278731262811 0.31041160759756892 0.76194037816411964
-0.43705426024888183 -0.7491715635097238 -0.30835915915844225
0.76859625967630407 -0.40802347071846867 0.69258936434431817
-0.95552016176107202 -0.65942774359043366 -0.37982714946595664
-0.32373000980332378 0.42324087625584905 0.80408388969582134
0.15018145023333673 0.84691253569037617 -0.36668863292023701
-0.52552938340501498 -0.6705254079918832 -0.32417178569079041
-0.66918409194335737 -0.1773975808197199 0.74302309242890985
-0.12848225973671035 0.63103022217089233 0.72768076237236556
-0.85987988011232375 -0.1994509320540172 -0.38343534641003529
0.89374069862228467 -0.35521534034912428 0.47824129210800237
-0.2427743578006627 -0.02900211268752706 0.76250399297229876
-0.15139743937043093 0.5530659016785674 -0.67247566169901063
0.28665565687638761 -0.24857731897115887 0.7381340598347208
0.0079214831743321668 -0.32587622122300264 0.49977648282192177
-0.28209773467402499 0.95082319138774896 -0.10615051022488942
-0.39394430014295878 -0.75505424834825086 -0.20370954825641974
0.1253598652369341 -0.375643661042802 0.31049226540111263
-0.14601152036907195 0.21454369790248151 0.76447832472927502
0.12360384079190112 -0.33602156763169422 0.50516323836471955
0.42593323706313768 0.73539475271353982 -0.27274691546480767
-0.40505734466633214 -0.27952817212843506 0.76608635103776379
0.23764236980772324 -0.0678549853504542 0.80647268340407052
-0.1878795856571962 0.30401645189993864 0.77454182720289211
-0.11425282975616113 0.2794492216059794 0.7575795728779795
0.44271340838609774 0.90985105879875006 -0.38603502166336767
0.088209821640738539 0.67880325213073789 0.64609260742977881
0.052482049730215863 0.27743514328767471 0.75123638764232936
-0.070106683024306449 0.83711177822316252 0.27476583093305962
0.50740675179540773 0.87750182977282032 -0.34232400456390621
-0.92326669397923666 -0.15600635118271466 0.047960779753267957
-0.25965269960062187 0.71372366230967899 0.37080710766987579
-0.52851892220104091 -0.3181765100117393 0.67384367917633625
0.39941365624541447 1.1775045732724876 -0.43399399387206827
0.57800491989145186 -0.37666990044656057 0.34903938598768036
0.12571983285994648 0.40628125544549931 0.7096644261373477
-0.12945957975028222 0.45661832744084929 0.79632362528362677
0.34491172641823908 -0.31646795784775783 0.73373404372938822
0.54744541048699702 -0.69942922208866953 0.51478863481362325
-0.38841106174253781 -0.85375749952607838 -0.32715694825584052
0.31398649479141127 0.30730935231893497 0.52294829176046065
-0.3315696074612049 0.51201466784021932 0.61137108757766612
-0.026661416268183302 0.52695950156764115 -0.6445617132507202
-0.52080565127220879 -0.87750510559128903 -0.34040770853196989
-0.24349179931150289 -0.21055097501915476 0.7466508353900565
-0.64054105798792804 -0.58244261580493983 -0.10120577047991475
-0.7260570001956772 0.089616894380089462 0.65464250059794793
-0.72497948625149888 0.0506953251984541 0.63583785563901429
0.054242852687028886 0.844475383048227 0.62576397682587626
-0.29275508709793385 -0.12966194386190555 0.80356234324969833
-0.039036216259042078 0.15798662490545734 0.74784349086289126
-0.55059725347420496 -0.089116067191670645 0.75293053720617564
0.46456368253529945 0.78667116735623743 -0.27293907125022443
0.2703867106374922 0.050793201547288724 -0.49832348681200145
0.090371344182720748 -0.14885444404731629 0.79360694075708693
0.13648282021596359 1.0882032386017562 -0.35860064177726159
0.24716648425254206 -0.050912498961200647 0.80487648768712816
-0.84162247249570399 -0.75110982612852473 -0.4296929889130503
0.019118747907363343 0.37585509458614652 0.80359876275209885
-0.25006093099264959 -0.31020675922969065 0.71617696897650873
0.13502413406948932 -0.28320082964642346 0.66921611356097088
0.04224597076903791 0.35928338394464721 0.79501367744085272
0.03093758669544755 0.67960423848552054 -0.55174193041053243
0.17480137482539604 0.91805378465487442 -0.21751734660902855
-0.333830214896917 -0.49276971418039572 0.59837213139131151
0.25450256837951812 0.00069389726229474036 0.78852151875353016
0.50699424952098582 0.96658363164976624 -0.43878545491493171
-0.24700761593369336 0.34751089285469927 0.77823295688171257
0.29291361648911973 0.1979066313169815 0.53951802782517788
0.0041119240103171251 0.83035106705545481 0.47810466545983843
0.82420276929212122 -0.14139068743192418 0.43418465856112931
0.060836737779226269 -0.35727732427924774 0.41152033039504943
-0.37332925222139224 0.64743657474345895 0.69935186996388765
-0.29161971730301062 -0.72167038538867256 -0.17148710826701929
0.15645760672502007 -0.067048285611295277 0.79101139073684124
-0.94688930615540912 -0.78644432352251115 -0.41121778401065967
-0.54636394545436673 -0.35957403024885659 0.67338108886108472
-0.94649623554163043 -0.8218934204785755 -0.42134365859257628
0.76438083074181407 -0.36771579915065189 0.67074786239523121
0.17659190954196191 -0.027997414605366089 0.80513083170709976
0.042068991450435078 0.66394894820685568 0.66533510421780306
-0.79139421547473532 -0.82639244386642874 -0.41340635490567479
-0.53573628309083077 -0.41379416954272497 0.64960538367149212
-0.71916263079259934 0.57186093616427591 -0.31754582520397179
0.62741912741226713 -0.59083219275314125 0.67661721670963004
0.019258461082877432 0.041851100817671849 0.74640547772359156
-0.34759362252175308 -0.63921969323131345 -0.12139568748899521
0.43720008940085009 -0.13259767592609961 0.1866215281627035
0.42163449988438728 -0.023080483162668308 -0.045591436547383069
-0.45575624620205701 0.036302871690237382 0.77576429914312328
-0.44967968804396818 -0.73993772199440966 -0.31678219132663088
0.17652256380139875 -0.011160445206738423 0.80060579859963354
0.55805914538397161 0.89564481457600875 -0.34605452941453763
-0.50175839798417599 -0.16009000582964461 0.77205491286112249
0.69625245845783468 -0.60834181740147919 0.45879595959296182
-0.89593237030959472 -0.17900127900910467 -0.33073909728205564
0.42433094700905372 0.70494046315486525 -0.21188855135569895
0.084211421947280485 -0.13469465016897786 0.76784882111446962
-0.40394887987002903 0.13728131270044486 0.80954253106792962
-0.71903676448823006 -0.95698004114950352 -0.4573733534354929
-0.051285190339097397 -0.15822170205005293 0.75880589955574962
0.49841504005979331 1.0389420988672011 -0.46913535842367793
0.50163784778931841 -0.43560433242917806 0.7273573967758864
-0.022888357104406509 0.2535161486629951 0.74725646881635654
-0.93442391047986106 -0.16720709722305938 -0.21030102701952558
-0.53086301918336076 -0.1223721982702779 0.74791628940753796
-0.87264996096579139 -0.29327847957790465 -0.30854375078420659
0.59639696947534659 -0.43011973265104597 0.36270789449505614
0.058862622601161263 0.37211386298019988 0.7858435326954627
-0.39996364196072776 0.041760394803878054 0.67795692356913406
-0.36147545698681682 0.60793912731144628 0.63604318183389452
-0.26252043384840462 -0.50226317571701529 0.55836607109476333
-0.51749046695505641 0.0088840520757798025 0.76753893038138798
-0.74157545121807189 -1.0484547997320908 -0.44622842406859675
-0.46599773700947011 0.85437215954574297 -0.26336092939004629
0.11372334655702687 0.40202220223187446 0.72717428413295337
-0.011367543214984011 0.24786103720450914 0.76181481548864127
0.47623270496381664 -0.35237507524118516 0.33520408332266882
-0.44643834342035049 -0.13907160090901272 0.80738958840816721
-0.47880025728162323 -0.63930693606868505 -0.2868752288585199
-0.44529003510808352 0.15056519295502468 0.80530232258394818
0.55834289654944058 -0.66317912316831151 0.43090807042615609
0.053581192675320466 0.58962816079735703 -0.58248870515215856
0.27414221690548146 0.64207567491867756 0.3605685627821984
-0.18949514505449372 0.35176406761897727 0.76887234072070143
-0.22846501433916799 -0.15446051690347673 0.76122553480563937
0.1380401465640233 -0.096470590953799729 0.80318106768660869
-0.9781675412530717 -0.83823446867410745 -0.52712172839168403
-0.84427962757591146 -0.69321517815003553 -0.35298517291784748
0.10117035842343824 -0.25151173342662858 0.6853550542033382
-0.1914269661883381 0.76022765903482625 -0.54581468692050095
0.73425633802137469 -0.51568807701652553 0.67694165739920464
0.76487322409897018 -0.40750201184400847 0.68688298149022842
-0.6975544807269749 0.044866490850837604 0.61982928441970486
-0.5468401285192499 -0.33333395346838568 0.68085342817783001
0.87266714671794787 -0.42925207279149813 0.54555720760518156
0.680113718712402 -0.28143882142269572 0.3684850024213624
-0.75755808334888997 -0.96850628223798685 -0.46716726040350309
-0.61641861850301538 -0.38447819582907172 0.658169181353081
-0.58971491791639608 -0.1059516866682938 -0.61153157439929018
0.87328115689698294 -0.14227144384205559 0.56979546588658536
0.20261171122772836 -0.14925514814823693 0.80358035993636179
0.073510928141846676 0.41122592326615148 0.77632071261221114
-0.2870534218932157 0.62900520489544043 0.6053688315336494
0.94545968024921123 -0.24447272377786256 0.55869681243984104
0.3952150955515279 0.78954922466956656 -0.31384488187445214
0.64595542325304223 -0.4515988534945734 0.6622596749159122
0.28551835979236628 0.15358372175346791 0.52545361611022301
0.37081879908270921 -0.27215062149668023 0.17934573157813105
-0.28917350419118293 -0.14860690194188209 0.8074169330457579
-0.71214309232480133 0.31065811009602573 0.3707501946666909
-0.46999583992185023 0.17314903494593725 0.7183238746342191
-0.2406001254817447 -0.63997925589143545 -0.18731102867465665
-0.39260578719260764 -0.38895151855992438 0.67824028518055712
-0.27142609778269744 -0.12306974135858706 0.77830016775698851
0.77506014521153688 -0.48800167689949081 0.66218198914181414
0.77339116453600454 -0.42271227465546701 0.41442844166999038
-0.43505324883633634 -0.35458025643538926 -0.5545700815080572
0.1838917662186752 0.76655769901975646 0.54669867809958106
-0.88793110637213246 -0.34713649894680487 -0.13661820764687604
0.15919124478273261 0.86645196387563539 -0.35494352210303504
0.19707005440255543 1.1765337492094927 -0.34476125110029798
0.71127764238093505 -0.31068794942493838 0.67944266149640953
-0.20646615890278852 0.52722770607284808 0.75179549684697733
0.70628255791238104 -0.30131689132500306 0.70411265918126276
0.95058936938307426 -0.23381226694836243 0.50171208882761675
0.36555366612526541 -0.55351794121068387 0.56981297813932485
0.33994287907561116 0.74830447910233167 -0.266817155212415
-0.067608510751441031 0.18387191666693425 0.67510851866010313
-0.43536079312253761 0.54358134114596413 -0.65181659343542009
0.056729037586194409 0.83103651572688619 0.41324062125540095
0.2852237990105877 -0.14871265803446754 0.74974237847909109
-0.28637634064376627 -0.38731622351960482 0.61704128212223353
0.019981100781613748 -0.21960068589211446 0.71373216490029989
-0.70051179924329077 -0.11483429685385005 0.56834929921903665
-0.34318810408454681 0.2209252128541026 0.78532682103965712
0.48414018830090555 -0.07258354002607792 0.32732539281206741
-0.17688551735291824 -0.27159440910991783 0.71599346002728836
0.13344719749320433 0.88368858735979749 -0.12828180780281428
-0.74562180266291023 -0.55742906942209447 -0.2292726824523541
0.24948751489192134 -0.10235521423774241 0.79699558872657406
-0.19110127551936884 -0.03928269786116001 0.65803390696275699
0.14139348636643234 -0.012289588064183121 0.74666674595184901
-0.064734559612464437 0.32458880788359235 0.805021826223971
-0.43850888804877286 -0.2552575741108174 0.77609501255769331
0.2661294801836469 -0.040495277357392112 0.79459625645844056
0.19112611747767971 -0.23419320274371458 0.734518175908903
-0.66364566109504963 0.030536924931517162 -0.58905263803036334
0.66109135819826648 -0.61913364031182283 0.65036720588847885
0.26191284854438734 0.74833253218027407 -0.1988651568380817
0.68134140804947307 -0.40702022690245876 0.66103650692289051
-0.41123593794618429 -0.7404673929784753 -0.26836993524736741
-0.63694965337172604 -0.94991558193440329 -0.42844726765746799
-0.43483672834245013 0.17538441357537105 0.71681322759506472
-0.49178568090316688 -0.22356563569822363 0.76103139476189341
-0.68680146189233682 0.15386013623431749 0.68961375415803872
0.31786022196777708 0.92112813496518342 -0.34394462017627703
-0.46842240869939999 -0.03993955307407937 0.76188841723163492
-0.017795110157077687 0.49672399417815427 0.7837497207101265
0.53730570563324775 1.139573128934479 -0.51175248745636637
-0.34479036934317264 0.57925232354795586 0.80326183469150436
0.65749804254037514 -0.45818228931736016 0.65780816789909125
0.090871886988413308 -0.11618488717253594 0.75901213097007059
-0.028336076731754645 0.2502487031159033 0.75868603244961008
-0.53270715624157106 -0.10021259152398931 0.75525329502199412
-0.73495902541601055 -0.33990141347930791 0.49264903503526725
0.043387937719074898 0.50328550559217344 0.75686004946684804
-0.76989590780117112 -0.55373303269714813 -0.25798666421877314
-0.38001903816535787 -0.32184121229328255 0.72170356781875356
-0.14870382748808808 0.51729062132723591 0.75223300855011388
-0.54018736876474449 -0.35522575967953873 0.59801966293008491
-0.63041914316144698 -0.94874468360711761 -0.40667852987014541
-0.40666402024355719 0.35113816819888255 0.72559608526754005
0.42276943441869719 0.026032374435750683 0.41062297248811674
0.74841873738638753 -0.44028828405671838 0.69360659101303668
-0.28952578127051609 -0.12913628643718411 0.796894375706799
0.084063520633254285 0.337873483944092 0.72690864665254296
-0.73472572058143726 -0.53126478549495937 -0.0050133882396536933
0.11543780978951546 0.61530232796246231 0.6572511712731739
-0.68666517199493526 0.16918443997822763 0.74463075426364256
0.43500039602946927 0.75065414527561547 -0.27178344389803044
-0.79613733014053523 -0.72983318251403118 -0.3987959469064144
-0.19751930318996003 -0.21976496985289717 0.73616455592243213
0.90988700020436397 -0.35609571799509787 0.55644821225527608
0.7804584196160036 -0.34964884316665312 0.70283695785788325
0.11204263308376738 0.96163707538197318 -0.23632386896213831
0.021398399203214069 0.87879338802847951 0.17365320720553612
0.54643837594272426 -0.23703259128234944 0.33763510471314362
-0.52693735766646554 -0.65640531161431193 -0.32096313457871872
-0.0055739418075830827 0.58078562718779381 0.69424892855843012
0.16963315051746264 -0.1157771168150985 0.81435767707981555
-0.38447540191706864 -0.28036604844380175 0.76849155305048455
-0.10635417848812878 0.52333439295391937 0.7498087813108576
-0.7506858410794166 -0.12712574349741779 0.65233530656086813
-0.88161473480975872 -0.36477980449405079 -0.019846635318483408
-0.14836679205475889 0.41401640325887268 0.78356117356994304
0.29364210084730047 0.76252693816119521 -0.29456869711647116
0.14756453669768632 0.86950731743627063 -0.10315243737023749
0.28987061651296386 1.0543931913497548 -0.39114358960131668
0.37437086766565741 0.41361857658512369 0.053808532889437544
0.28389972929677754 0.13138147626711039 0.50567856969886549
-0.59233487397714057 -0.67128364741026136 -0.32480046956814235
0.29061408276830392 0.73815032644302736 -0.25517366723335044
0.38026201315028985 0.76629169115338858 -0.30456798540444652
0.32850828419177347 0.72333202591741319 -0.24054707562286737
0.76891332261185852 -0.39560284260605005 0.68739668369130413
-0.57792431870286975 -0.098773064988586512 0.7448672018827871
0.0075941866715218964 0.24879153890582995 0.76095008302064215
0.47745531214021497 1.0934619337062426 -0.52350980996085639
0.060596837018888294 0.65725103982311506 0.66199759196594243
-0.39050155888166316 -0.10553615495541457 0.81718338906110688
0.66451595144456732 -0.58984187709795322 0.66937308895374059
-0.17536833666384766 0.16969430283203835 0.76846689075319219
-0.70996039753269002 -0.42752042094941256 0.64005581168376224
-0.75242593280468029 -0.023430266004701661 0.65052764218743775
0.36995210679742385 0.35949673567455331 -0.17496125411940611
-0.73191277156426438 -0.28649399322295377 0.68463223506159565
-0.24583408861556322 0.54824085796484745 0.76676995912349
-0.30292817018957408 -0.18425933569841391 0.80998860313992438
-0.16466009289154826 0.56225876653028717 0.74106416566066358
-0.41847743231167556 -0.072808483808129765 0.80135602786125304
-0.25855186425994603 -0.081261605388986524 0.756663085456033
-0.16513541413351618 0.12847728002968495 0.76292228478871138
0.25486726661975823 0.82277682538441921 -0.26952002144812681
0.73933552070448272 -0.56826414342334797 0.63247481555438156
0.7314193601592045 -0.46258099314354073 0.69930527030100009
0.50420006867976497 -0.15952014844020823 0.73055224190806456
0.5408353064251763 1.0005209713739083 -0.39826812097853903
-0.4850587788864118 -0.73691371620876411 -0.32455401234549441
-0.11825581386791129 0.61690109587803477 0.72080880461496122
-0.44778555012102572 -0.7744281936278441 -0.29576739611085046
-0.37846962220899272 0.1611934243935611 0.80015609197121051
0.31522865858931581 0.41664814248714865 0.45066172926176051
-0.044742596740423579 0.62091534752600186 0.70669545105238285
0.47046053227594342 0.67418831980792771 -0.16321322501536173
0.2471386584093942 1.0748746649534437 -0.39157579925807084
-0.84469295756409579 -0.8341579098679337 -0.44727375049614793
-0.50855754898826078 0.036822557594030858 0.77638879312257814
0.22990373368383388 -0.40195384372142406 0.4120982906116879
0.46661897821383747 -0.60727119645923988 0.44568026826262042
0.62572835736352772 -0.28857059642459326 0.35447639980221268
0.06807984828895286 0.47184403354447912 0.75978258403808852
-0.16434287253185076 0.26546781257322749 0.77114080359156389
-0.11718095925821714 -0.33134311503241493 -0.560245363352184
-0.51665944480721393 0.16416081093094048 0.69059433285550043
0.48143111855807064 1.1486915210917004 -0.43772790290213592
0.20439499427887498 -0.39931543638521827 0.45254675210469131
-0.22358507458445587 0.20001144499910772 0.78255586894141516
-0.26413642136723681 -0.047083711119439542 0.73807872105575356
-0.43917319133990418 -0.70813936313407888 -0.27309361058807369
0.14661972936866974 0.046099737688577114 -0.6275014806711674
0.66927596566538483 -0.67720882096811508 0.55767637810424731
-0.42532500305938115 -0.039764100231687749 0.76461414738615829
0.40287869608458493 -0.13957229648444969 0.73768595875348453
0.22659839650753355 -0.087014576071697824 0.80736785393764166
0.24394795269222413 -0.1483620948017812 0.78631136392386836
-0.76848366405693724 -0.90476595428414952 -0.44185473051850366
0.58344208305295098 -0.22383909742636465 0.731028874965574
0.25732700858678115 0.026740740261014473 0.72460348381012452
-0.27473119768171017 0.39240539653485484 0.78138893771555473
-0.52034473531897518 -0.60989583598954378 -0.09959676570339937
0.72399796684246098 -0.42874473805440161 0.6535416699100729
0.39343775364353561 -0.064216831049643375 -0.16074474176782516
0.47243114770050454 0.82625311075245023 -0.3272381424230808
-0.53633555659644472 -0.57390921621560675 0.40250740361047477
-0.63994253919539545 -0.65412209009332334 -0.30988918952087019
-0.5434097106672624 -0.90452929049322028 -0.34350068034102321
-0.099053807588827425 -0.50769342061173361 0.043888592593120279
-0.34439969238080437 0.10024557346472474 0.79404123036321295
-0.87981605810278296 -0.70530107687740484 -0.36130211590615957
-0.28491923642225814 0.68618072659014562 0.67501732652316448
-0.11213258322036523 0.17370302544196292 0.75592986647095017
-0.63870422065039989 -0.058222874394477486 0.76762694994899405
0.091557558710455567 -0.16811428211465973 0.75302246876215762
-0.1851488343374541 0.37292270111505132 0.75967688150313606
0.26774449986827875 0.0050889884793026141 0.73607824782621378
0.081719720280766239 -0.29252886702947567 0.55019512576770424
-0.25490440628467681 -0.094203373824774062 0.75121547353414186
0.30201120105087753 -0.084443012217368718 0.74791260931545267
-0.37874764584848464 0.25952615948729774 0.62291264457266848
-0.24356652210167695 0.44176314216807278 0.69129952274061424
-0.91591820212384434 -0.89133101550082072 -0.42860244568165839
-0.43193826614482589 -0.73528144403747031 -0.30830962371942405
-0.64895447403612039 -0.54091931587403064 0.4351442466621549
-0.3159584482627622 -0.57492866660638953 0.24291393863217792
-0.0045418084884474297 0.21276802657107385 0.75203670533922917
-0.5391363135955487 0.07909786188830159 0.59253182749262479
-0.47942063954980441 0.13184291293158612 0.81361941020197293
-0.014831346844616178 0.8295121585143812 -0.46776762073171341
0.60637176495319167 -0.10897845472268752 0.69495680114657077
-0.80456135681130547 -1.0452378212330076 -0.45314464391591258
-0.37090665158639169 -0.015564128997283433 0.76836709675194115
-0.22037023876500683 -0.11164941376859883 0.76712776685493722
0.27782128715798393 -0.093892829380156861 0.77924375572624527
0.43331546745497462 0.038851380476052633 0.59344728578656714
0.65945701474783647 -0.36242153042940117 0.7296600202085024
0.11358656728713967 0.97878987712806031 -0.302861916922609
-0.82536254054305758 -0.94782012809618399 -0.47564590879358448
-0.27661626844143328 -0.00073441196975032597 0.70129594490124703
-0.62905052863080613 -0.79419204580288671 -0.36796483762097765
-0.086345650417129605 0.63673301893190537 0.61435167103363142
-0.068191021677055375 0.41280222037943481 0.8116629147620138
-0.71929137485924954 -0.37089689238020895 0.66992995588707416
-0.61980386735092097 -0.58747339647541919 0.080809817879501367
0.63973587458835368 -0.21890757099184643 0.72391704444008553
0.37528879034167062 0.48249365238577901 0.038730135507304198
-0.6542448394104845 0.40817246688182296 0.37811127977914794
-0.11414098579401966 0.014480419054328841 0.74371385458449879
0.29356080204168933 -0.31583388591590644 0.72557694192346389
0.30379039992178392 -0.18252901122696485 0.74247086999870859
0.46081314030751841 1.1123458779898465 -0.44190136114444556
0.3335063540235268 0.68894150316709446 -0.20309893980610383
0.35006056859792878 1.2589693770864581 -0.52265533924471796
0.7799254758143519 -0.52077901771907964 0.46904795902429441
0.62205891502270205 -0.41730439334981728 0.72031957251705236
0.28204207497762823 -0.12058843009052822 0.76447606005556423
0.36868959935667434 0.63975528554541361 -0.33184690573894926
-0.039238667337023969 -0.47952370769717412 -0.040969940563627461
0.63741067111395822 -0.063416730165934965 0.65193607453832669
0.73296674770552528 -0.53407382911450352 0.4397529309750432
0.13850063136947099 0.60274981233966329 0.65092305902623337
-1.0067576902613098 -0.74381053257202367 -0.47884664030963364
-0.0069115663360292956 -0.3414489730454644 0.48336202254736094
