# XYZ point cloud file
-0.84580372010821436 -0.9445561722675484 -0.49295922941295539
0.76567530855179544 -0.07675008103660752 0.28797223562529861
-0.34333963303386256 -0.34997962054961335 0.69798458541308106
-0.73790358499329356 -0.039745247132326113 0.52044597968200945
0.83862590313828944 -0.26731788952382607 0.32442505514624026
-0.042832141044564398 0.87526100553080433 -0.30394533695336196
0.219545197978954 -0.15290068503560275 0.75267356752065584
0.17833733660389528 0.27742108809431731 0.68371962008686826
0.80172530663307673 -0.34877166195225695 0.67508869340053801
0.21782641792102692 -0.14445229450365416 0.76082274641726955
-0.31304022976784235 -0.28403607242083762 0.74623462761716364
-0.28359642766914306 -0.060174079017754491 0.75398372827699256
0.28416800345842935 -0.23425607621039535 0.73364259165451573
0.28506435472365577 0.67020672571350992 -0.19511832268484777
0.32514506782695551 -0.16412125409770195 0.74262462333736112
0.70045473009725279 -0.57271284183179794 0.56360066280615662
0.39631832164105696 0.66921824932481355 -0.34616527786665824
-0.16374975508999301 -0.1831335341737525 0.75086709065211699
-0.95324139528254448 -0.64350522946382094 -0.49058149322749267
0.38228230886451375 0.65112671540972045 -0.3099610620081944
0.86063733994443159 -0.1077219077880151 0.2692270260465785
0.50682124747196811 -0.045997661816941697 0.29636876399522621
0.99059541072983992 -0.21337128113600873 0.41513937463382694
-0.55597018959460176 -0.39628246072338996 0.64759318038835356
0.13021206022629761 0.066510897794847909 0.7482057026497605
-0.78847969284957586 -0.31039161114117247 0.27351113415342593
-0.10072940549933644 0.22322348859008051 0.7547547284704923
-0.56836398268375454 -0.61233491605801238 -0.098725786050211178
0.72573539568198864 -0.29350378704654301 0.68422649316517659
-0.92659098161522724 -0.70420024763489575 -0.48216352471723173
-0.79030289693153233 -0.659513114594798 -0.3920525019754712
0.015069466391731137 0.30700017259586071 0.79300473661387771
0.24728306625929908 0.74014746384631225 0.035602811874417439
-0.65026230081377501 -0.6764481570337757 -0.3361586413753172
-0.76736917851400455 -0.27751986361854875 0.65750087701756188
-0.87629204305494179 -0.89013404631639825 -0.52381493535702772
-0.76698044510071384 -0.32335602234375904 0.64365472859086759
-0.17437378212408311 0.46502191554913708 0.77939389828926187
-0.55347806721667758 -0.69012276900684477 -0.29686024896764357
0.11518203653896485 0.45211830391223817 0.6918629103944296
0.50913906594125835 1.1588903322237201 -0.48148046551877444
0.28347590205859829 0.052517993393280477 0.74962501024369232
-0.45715712252403751 -0.31500804428158752 0.75801286470575258
-0.26708249967313974 0.31721615166676831 0.78230258133332675
-0.91608279258828995 -0.98675046749072159 -0.56479317769197745
-0.85964573780507014 -0.18443773165221267 0.60904130335868334
-0.38508060664643934 0.47305657934062584 0.62546080171666796
-0.08535273101837032 0.22729454734265714 0.74762359680699375
-0.26174376042740116 -0.32503123422021285 0.71393159939335626
-0.76773520017999886 -0.53621172453398613 -0.39857794971498317
0.35954267449295241 0.091600381070762946 0.55194835014440391
-0.49214555382195385 0.058717700948738946 0.77856249721745818
-0.62779132365106627 -0.001970303365423226 0.53811782136990816
0.26923884963721728 -0.2732938427065229 -0.17506398381998611
0.76495498081689639 -0.44902318145966075 0.44178384849412083
-0.70074750618317072 0.53731008734178853 -0.37416274465840721
-0.54217023120483299 -0.42232930333894353 0.64903929070046817
-0.70199594913181806 -0.30409587581694558 0.50915862998149441
0.73632514668677407 -0.29187759029046551 0.63508073757764572
0.67170772635030962 -0.2045632679746841 0.70154503137707114
0.32545711424725421 0.46379003379568229 0.51189091873025094
0.28648280480517152 -0.10928552214605324 0.74842892393055371
0.87021134206960749 -0.20282764698793965 0.60264313589845953
0.29285399292651959 0.25812436200724809 -0.40882665715518551
0.18755029685867103 0.33768392377790507 0.6065001112225793
0.2954139800171221 -0.39994341449132847 0.50676912262850105
-0.70931500904901124 -0.97463581281584577 -0.39052637240235205
-0.12679192300328329 0.44140770836167087 0.80133500673523328
0.16359995233459695 1.0068624930356465 -0.2422352487369166
0.84812816993287909 -0.23258831856792389 0.58290925951957295
-0.10219180931208091 0.44897223197728697 0.80233836380342638
-0.097752776892852902 0.55688671767385944 0.74108125262355351
0.64124187367131769 -0.25028775104279211 0.71966555067083804
-0.23963445947648576 0.91016037100399128 0.053691324004517177
-0.77661516593279922 -0.051072576629518598 0.73041662331996637
0.034661730226774948 -0.26838687223442581 -0.57406701325087917
0.63801175575922309 -0.11955242630872186 0.68354118850689827
-0.27528769218438359 0.35777228415644952 0.78504020443622402
-0.9569559029064526 -0.6386373042887199 -0.53898787302687723
0.29194738808035092 0.15398927307673654 0.45079990845344942
-0.53270277031610491 0.57817340691725871 0.35260250472235066
-0.16508430012818298 0.86162867739599436 0.21635366017692165
0.76427514911987815 -0.33118624155121884 0.69544732285546584
0.037540329789828311 0.62494418594173939 0.69181113572279473
-0.18823872786539603 0.32135495425334082 0.81641232646450568
0.55127053101393775 -0.172377347953381 0.29850712155613973
0.082104527534753488 0.82194679969304874 0.18917375849508233
-0.75939435382091935 -1.0176605499033544 -0.46622944417097018
-0.46993105835896998 -0.17310003823017878 0.79304688638005472
-0.2982538176095475 0.1860906735690977 0.78415223943339929
0.64086391908182061 -0.42867427037220512 0.71406546817197725
0.071768607714161145 0.25983587761322852 0.7086757558290887
-0.51328336475846503 -0.70443802774266306 -0.23629565688296544
-0.77629154660449617 0.10580761761637929 -0.57790527147388304
-0.010716695906853984 0.44831453727169895 0.79079387815352131
-0.5366174831110142 -0.86356042523779675 -0.21541056280800044
-0.70783013083604374 0.055074767668921498 -0.6322739801837528
-0.4195504978849362 0.50067027919748031 0.65141611861146409
0.052584394296214851 0.2946239045382219 0.73030916252316969
0.33602846732020458 -0.27621273080524827 0.18876885844212166
-0.90839413043370953 -0.13896561760667675 0.056552265045836797
0.11652236377125445 0.40452616831324589 0.69710329025172657
0.010922820614019634 0.66778248146967722 0.71178672801713672
0.80412987641283329 -0.14975349889988779 0.61672078228410188
-0.89909250867635948 -0.38296181198690427 -0.11342274964331432
-0.37042054970753535 0.22900608515584742 0.80592626173008675
-0.57454443576649838 -0.75324782084816921 -0.29861077392031637
-0.77855032124255785 -0.84325102143560282 -0.426642392423973
-0.20874779549643591 0.24076713956257217 0.7755619910594701
-0.53391002919207675 0.26555604056505439 0.74597182706757059
-0.28840884150956014 0.32705399802013091 0.78617687174229889
0.24455072876310974 -0.045803115863715452 0.80320799594956005
0.8285586934492799 -0.27167518242220684 0.60247657437553737
0.097035416372613176 -0.081804760501913557 0.78155171025447712
-0.78309267343861988 -0.53809453854202083 -0.37084581029897362
-0.32421380173783482 0.40838006064470889 0.78810703770288271
-0.93921847990830831 -0.80909173586160599 -0.52070830550255709
0.0075711517541263013 0.88739928329314188 -0.24886299431415093
-0.30191131061731313 -0.051609662903352962 0.75469514722421549
0.56576387115943272 0.76483163995052927 -0.39201651787153935
0.011835666248232721 0.24455441129397593 0.75507193598305544
-0.7582664635859766 -0.52343246400134202 0.084526281229344108
0.1968264623081033 1.1499433641128651 -0.23763490478069108
0.31469617192066851 0.67096187942923047 -0.31815091495749637
-0.052187744919521058 -0.33728969859351338 0.5038113476515359
0.2984775916878411 0.034208089776563533 0.77228656555264663
-0.81004819565223074 -0.54162352176926276 0.50194902110574335
-0.64676033980226599 -0.36777049531822509 0.63431947465782457
-0.59808329960851758 -0.57194273623916425 0.52909241551227237
-0.85057514969869907 -0.1765898198127076 0.51935673326285869
-0.40127504145629905 -0.20628356812904663 0.80510271390579569
-0.65408981330078009 -0.41871814592031931 0.61239406697370213
-0.589526553058905 -0.66865021751624143 -0.31355634676144223
0.19559036041149208 0.017542299708955891 -0.57337574449952067
-0.82070489314441009 -1.043094093577396 -0.42091435396260141
-0.47422946445390007 -0.86415663641158513 -0.13476953797896091
-0.32312686662823953 0.087555174829737167 0.7840431429397613
-0.91756563564481686 -0.82206321939052085 -0.52908735453593836
0.70386602388546327 -0.29188244719903211 0.7139145066968311
-0.45920811586627203 0.81964280285956026 -0.20985320383984588
-0.97690864461074323 0.044190719604295436 -0.18917475407606221
0.17036602391901345 0.10822884426783898 0.74087731322128347
-0.26941021288422567 -0.045525214556359682 0.75102030518728591
-0.53418602170538609 -0.27086545507113946 0.75460757154574232
0.42211468611184444 0.79841719307239856 -0.37405770982278369
0.33207014149930936 0.088236458591619119 0.59742910797757909
0.60325712741054749 -0.33701089576607063 0.73123313639537024
0.20434791407782082 0.22154034417108232 -0.57846383868558648
-0.52352513467330253 -0.68687107281493942 -0.25064933847414694
-0.47594664197593828 0.091818962205247115 0.74301890896699663
0.79003493381733836 -0.47889835949775833 0.63263343892780799
0.31567609139782754 1.2429070520197449 -0.26155585120701919
0.27674576392007744 0.69548302757774971 -0.059895790137213072
-0.12037907667092866 0.50796479841578879 0.75726658361508681
0.71066886427117837 -0.19016631601117812 0.68807659409261557
-0.24751203241872666 0.32630941198980046 -0.74876737427126894
-0.63793162469796172 -0.61549547269089133 -0.26017573189500959
0.75828642014164238 -0.18145732898211786 0.6708188342601149
0.69591085968540622 -0.33558922020713106 0.71612604807091729
0.11095853328990991 -0.071823577227409285 0.79647206954260652
0.53316693629631418 0.73144716344626959 -0.34866375268907984
-0.63072909870027016 -0.24163545789092888 0.69075803661205903
-0.46584741731572776 -0.77778101937612643 -0.14623445501675236
0.61585732329070231 -0.0671862415229416 0.6695756022460474
-0.57977323692300975 -0.14270110225359847 0.71015077465950205
-0.71299093641932554 0.60500879401263297 -0.14560922250534528
-0.59841171970217955 -0.59729656621061245 0.47486455110797576
-0.31784831556875265 -0.21237877136259653 0.78859431720877982
0.76428143539739435 -0.31526315573795599 0.69557894380308449
0.48515152392088645 0.68858275482963649 -0.31186678784822136
-0.16269915986810168 0.29308697569058734 0.81397505830884742
0.045461873818065476 0.35884035391282826 0.79232004724197636
0.14855359119758377 0.83453073913759634 -0.021285826688261095
-0.74764395297344366 -0.78848102432956657 -0.40341660679049879
-0.24761576382925293 0.25542617642253707 0.78085429611415635
0.039995353142254358 0.76922595689523654 0.47467533290170311
0.84929063220054646 -0.21039736461465591 0.57717682474105758
-0.0063996164935083769 0.37011777923204026 0.81132411679213212
0.70809567183530298 -0.40098231944355356 0.38813629639911723
-0.30049572317222079 0.28166935978914498 0.70114059662219985
-0.85353332183654762 -0.01138663853383988 -0.53157001427544492
-0.02676943452100173 0.5923842649216382 0.6078060404470238
-0.46103935444044702 -0.13591532224626518 0.78439352696437492
0.38150553496438627 1.0293826286226924 -0.35814534694484884
-0.4795885393629758 0.23030849286681809 0.79247846557793622
-0.79600291364659315 -0.80777536582117204 -0.4351738565324717
-0.50002134853496849 -0.51710761523618431 -0.46271234499089581
-0.28446746514845611 0.28642462925559081 0.72304798025545347
0.32785380328623526 -0.25438944109595985 0.032997580437820577
-0.36474223474903694 0.26247348786875413 0.79884201419839895
-0.15342346535035878 0.43363846855418625 0.78989625418873066
0.77128869272166201 -0.16519091529827379 0.65875119361389955
-0.5845702981416252 -0.070133334046801221 0.72458707160294189
0.8178287727371939 -0.3408444190751001 0.66517461236188813
-0.26997332659062234 0.37171568307880043 0.78412723262775474
-0.90696362044711298 -0.17190436657965485 -0.43859814592942908
-0.53069265942512289 -0.67742576457270753 -0.27024295436821649
-0.19947429795011401 -0.53526873523148188 -0.21420364711405004
0.25697818365679176 0.36672623570807755 0.61320028458861631
-0.66444270213736611 -0.88154194737557101 -0.36658156296075262
0.035579317592283485 0.38871840872877805 0.7940749374868904
-0.33070253827878082 0.48766330254895951 0.81799475584235393
0.40048512603842912 0.49477403347645543 -0.37330192286357095
-0.17022468175478744 0.45991996570540483 0.76929043403238584
0.31441511107245163 1.0562290465247328 -0.33948331706843832
0.30870201318915019 0.89168097595772666 -0.31344115104263953
0.85514086311121795 -0.41970694649524598 0.57881705731218236
0.15606896005201593 -0.068437277388093534 0.81466235024854927
0.27981907163427022 0.8199626013165876 -0.28124358730495286
0.20336148988117114 -0.082074876580190706 0.81557455907701937
-0.5124486945284612 -0.6668546593721757 -0.23424606232050307
-0.26177564324175751 0.33252334039461806 0.78086172358187322
-0.69701247221320051 -0.56150176245244932 -0.42554642063273901
0.97815507331912832 -0.063006425818767794 0.41253778383101397
-0.043794330667953046 0.53973419569692804 0.7121125280482371
0.072747599694608742 0.3979782810193192 0.75537000525512776
0.26812158385104923 0.95350249088748484 -0.28429973672097431
0.088655500625720515 0.16565017059056908 0.7403694759224797
-0.2734032376579007 -0.17232293301754648 0.7499682660139867
-0.36362231649026661 -0.37456873043327887 0.70063186465127181
-0.1144960863932425 -0.30561275646894936 0.68746016187524051
0.28384512446960636 0.050955673488714631 0.73962155882257485
0.71038772707688869 -0.2722260425632908 0.69637529201987114
-0.062534700047352954 -0.39091013616540621 0.39181663919096993
-0.78529982536911147 -0.48417144158125824 -0.27876104273343366
0.40534623253528529 0.73286009755885073 -0.36056013393137376
0.38073809858326502 0.080009046777918313 0.19234117999771008
0.32570279588287493 0.77959478989754605 -0.32413069500188224
0.27335776630885916 -0.39294140495662599 0.5468298414983831
-0.41090352878328013 0.074020464510571968 0.78971361440208876
0.27850513545830435 0.70812337356812582 -0.23379318401069005
0.36549914987473281 -0.17591850652192481 0.74179908145395768
0.037378440570794383 0.37459273076702909 0.79566727298873552
-0.92697847631811259 -0.81549124338178147 -0.52360584006824973
0.1744147639394602 -0.1553598182362233 0.75888578777404525
-0.89644034681031426 -0.8654993178899133 -0.53955673676997118
-0.32379887675831448 -0.65448348633542297 -0.20577006063937844
-0.95238471497321842 0.079565480718792547 -0.33037876632794916
-0.13313864821604526 0.077938327229013851 0.74469919641548554
0.31232035746552389 0.66005645125065371 -0.29911005888945058
0.42882372541921449 1.136299731489353 -0.40686625860968045
0.29374563335500226 0.11324842942900466 0.48760722751847096
0.41664906125780082 0.62297915966427353 -0.33180169878944088
-0.42304320305208698 0.3714548099301066 0.81851314972284739
-0.45894641551423543 -0.63886300570191124 -0.045342896354585195
-0.66261369685887506 -0.32974259998523892 0.64431184316399359
0.22524350274014576 -0.12205327758892576 0.79005646507342664
-0.51002516043089063 -0.14653159951699446 0.76018681768654095
-0.59432015292125029 -0.15251423135041839 0.70670224351481381
0.40263928417173644 -0.190593051953722 0.20510599689650755
-0.25267532169435225 0.27320858833451517 0.7804681617785546
-0.51233884660106066 -0.14141149235711364 0.75075903162218005
0.20035024355524861 0.82632842539560514 -0.31880290404308226
0.12689679369813961 0.63368236412265022 0.65189845284340886
0.74093007428288382 -0.26501667288879588 0.63450477530852334
0.31799627437111072 0.019582341886931864 0.73505916223653478
0.30303948412421328 -0.066916043477111511 0.76399988792976048
-0.32657468638940362 0.40188113927814662 0.65404904904632444
0.30051878492278472 1.1322405462753078 -0.29077800848559765
0.22878356120275872 0.7053461615654707 0.31933540177519565
-0.086893444634742106 0.33128250458957131 0.82778555479885418
-0.13361524465525232 0.31379133929225278 0.82811889566123298
0.41968602047104475 0.87551950103935328 -0.38564691241065763
-0.78452007535459156 -0.87192247874302287 -0.43739730757237688
-0.55763024396314143 -0.77774882766423403 -0.28346790997747795
0.38773345241384355 0.47695267650059636 -0.12666910349156038
-0.54705978984110215 -0.80286215655258997 -0.26515125340791146
-0.045513268729331882 -0.32352678608995167 0.53645348299493301
0.53854256463318706 0.70559709741853327 -0.472997718282894
-0.47593359991046225 -0.7571381465986512 -0.23173732227305335
-0.25114752521760003 0.40005295147848358 0.78373111239836124
-0.61103408764687828 -0.19869653234966611 0.6954418511358722
0.27261579114318463 0.064079121279799728 0.71159142912191298
0.79656987820040714 -0.17603714592447622 0.58921354021144023
0.0077340072629402609 0.19344161959801448 0.67954721290246634
0.10586617679702519 -0.12006766540965555 0.79089426996076651
0.79120141914612874 -0.15915101898977885 0.61209455860015394
1.0116314674092466 -0.16020376256262886 0.37245650660264312
-0.50561773630793883 -0.39560730551193118 0.66245220008810801
0.16331525876323422 -0.18976209552565937 0.73290449626146237
0.071273620283731257 0.56969559452940199 0.6897570349315123
0.56555187743065138 1.0123520200743983 -0.43490872222924754
-0.7022680982012961 -0.72176079578751673 -0.37069721777211256
-0.28556602214336496 -0.2484261471996787 0.7434498588642916
-0.12911569236365034 0.89376042935007882 0.16625354590937436
0.059922103612182809 0.24062309642462604 0.72977910040357308
0.30781168100364414 0.034631609100850932 0.74622877248641373
-0.86754485791552904 -0.094666840946864755 0.54353880520966069
-0.59964535720148004 -0.92344571416116727 -0.37931253515719571
-0.33493484881632191 -0.3623734496910303 0.67732187366932517
0.0089836553351306525 0.54682196141642025 0.67189782563137801
-0.18780475881446312 0.90590871060768885 0.11425119528589567
-0.81031453771187945 -0.37712752453813392 0.60737540265040701
0.80775337277235415 -0.28068071610501005 0.60454621919432061
0.68182272204275485 -0.13047129448747116 0.67563925201500652
-0.38408856777158551 0.37153167729354269 0.80334738645716453
0.40379724170902059 0.60363712586147533 -0.29479948963488689
-0.52751210272547044 -0.773492758425256 -0.26656104457842433
0.087947571457057699 0.79358527384654187 -0.36813634704744413
0.26597242477598082 -0.3381506321598246 0.30175141673815281
0.37247013020067343 0.5250165995038647 0.023977353834494841
-0.12988687911242591 0.1892997572681388 0.71418236594490692
-0.77673664469162496 -0.64590128544359438 -0.3608577387247715
0.97806070218347585 -0.23300586339952922 0.45982355888549953
-0.36812167807638829 -0.36740281328997476 0.70702128357234395
0.88261863476861291 -0.2231019271168011 0.6109049591467085
0.34541772509140345 -0.29533857307422862 0.72537608884921745
-0.88744823621088709 -0.86303319304533233 -0.5342935783582502
0.46578301335487821 -0.36708828468087656 0.38575677541089542
-0.51820618843443866 0.28356563340915136 0.68767917481093555
-0.82283594601312882 -0.68741784453461963 -0.44666244525690618
0.15497612276719414 -0.15230272411873436 0.76111030385942313
0.76980789597321475 -0.028576426662109463 0.57996348554848709
0.76982176006869896 -0.30480988528976904 0.65259011847612836
0.065370146264178128 0.52966598143685339 0.68847300817277446
0.19808782505356193 1.0316028245887057 -0.29414925138536741
-0.5965651975710029 -0.60232790655752244 -0.17607446821597658
0.87841969770602535 -0.37736396990699905 0.57985841873213673
0.18630201239174904 1.0374491608377554 -0.17001062377558612
-0.083730152405019853 0.64945009290079214 0.76174693920805192
-0.47877017185848558 -0.04574978863441867 0.74629827083445555
0.50935612045811984 0.6113280607677678 -0.28104874792809476
-0.44566963973334406 -0.43319339938591234 0.65810596182602188
0.40975968341269464 0.024442243255368049 0.68026473477923544
-0.26070850736976076 -0.086543625966564106 -0.7394983008677336
-0.43388381210622456 -0.078448299185496423 0.73891330031927072
0.17132596220953572 0.90372479086508617 -0.27281985254694269
0.37787998239436926 0.90021013736098532 -0.35652749462980743
0.38372512094272465 0.47499151620265223 -0.051763242823239755
0.41604198692717104 0.086375146507729719 0.46903205451508179
-0.12315280797234796 -0.50156827214611754 -0.2375318981462736
-0.55433856358531031 -0.28109578855348916 0.73847051881141013
0.73137345181554292 -0.27652920482471266 0.31879324099084627
0.75802573618136393 -0.30208142277080752 0.67170340934264217
0.28808097766322871 -0.37302960048476147 0.42978230411746804
-0.45030390389740543 0.50778559243411037 0.78835747530164912
-0.51667406132228966 -0.86106813278245864 -0.17808868425672902
-0.37793945622466424 -0.085941030033144045 0.73646666229428637
0.38098791803734067 1.1631304626023864 -0.34041408439234327
0.98474531238122831 -0.22313165653463307 0.39192779622866253
0.0059893336003504771 0.77966019840638401 0.57269024707653149
0.18836889586291133 0.0077489740990632355 0.79664260879444337
0.85029234955366051 -0.074585644152579594 0.28594515275872173
0.40005140882468726 -0.29575189153527254 0.31845182161904961
-0.3058531478011009 0.63584161027177188 0.41311311841760029
0.36007694761906023 0.78236940330209837 -0.34167965838290792
0.27518995002784541 0.84137072408146196 -0.27689285986183543
-0.52771585440148616 -0.58224154560854247 -0.4057132470959669
-0.286161461306078 0.31146282456566909 0.78581395496923867
-0.025419760724366226 -0.31179431253524464 0.51583415041036362
0.19883318576663161 -0.1128496112396923 0.81332737356530305
-0.38894153305530915 -0.012570262783555615 0.7574229356805201
-0.64088845234297787 -0.26905507775133181 0.68032608281352802
-0.74400927862508504 -0.68785177250560192 -0.3913599692729246
0.20833275892140668 -0.33859025423864947 0.61115886928403906
-0.82157541688164981 -0.31302675825853027 0.44722579111128002
0.32389512553505201 0.57565852122328776 0.20376427989827794
-0.43945422115402 0.2174966715547354 0.59761614472561186
0.13303255740448033 0.35886921146649109 0.71049546443810663
0.42127808854953835 -0.46498660754661353 0.51587802191966936
0.18856308330596278 0.38638835133894955 0.66399668766244369
0.096022846529942585 -0.31550242206687457 0.46192387267313489
-0.6056589579292716 -0.92082485030324857 -0.31334792895695129
0.86126025517441851 -0.30268649501936762 0.63316052730650685
0.1223224610929612 0.61937789486439865 -0.49910794050753993
0.30661644460078014 -0.069477981291584667 0.75568106207968466
0.13667141223025842 -0.31517068826487415 0.49261972794167158
-0.48698020411067477 0.25256475810351758 0.68196216735780568
-0.9744723257880098 -0.71863267762170691 -0.51632850630250404
0.19553245574483252 0.78309755364309397 0.077566803822963215
0.3305652703700398 0.73317303925699906 -0.33076933741246928
-0.24216099330863416 0.20553162326749636 0.77374188254621201
0.50829833954777703 -0.44225620500900575 0.69437798826943942
0.44190563156242246 0.79737071352507549 -0.46414837977583701
0.47203676691818591 1.0870831244061328 -0.43753642147220589
0.11257699604611378 0.36171662782162428 0.71071068201995635
0.62524857096537212 -0.54778308472274595 0.63203517924299579
-0.47103271601511304 0.75398378336631655 -0.33096989854324543
-0.26331528118881392 -0.22027725374030854 0.7566073337458421
-0.92728580497930491 -0.87763435599738948 -0.50102121997723537
-0.238089236055263 -0.47001261879745093 0.49454423878519876
0.51530047156826608 0.76023852280691917 -0.37327190105602576
0.090281666064980309 0.77096183940240748 0.48050566116443377
-0.11077219070559655 0.34807005542267794 0.82988663405857122
0.39732001369419628 -0.36923405106236479 0.39581488765884115
-0.01872730040920954 0.57491697607318382 0.71792499916992236
-0.9651420861226927 -0.069919935264222896 -0.083842734819227938
-0.18115920589700424 0.53720390768666093 0.66136154565480876
-0.29997279658421172 -0.52139348966959898 0.374119372723417
-0.64152518054730345 -0.15801862095406782 0.62919634955839487
0.43765911059639034 0.6190689689252572 -0.28135115128223404
-0.52072896173988403 0.017600614166554999 0.78024172948976078
-0.33550484004301367 0.88240781738488872 -0.1958137887132099
-0.46341674274642947 -0.57433023335765943 0.48915143286386364
-0.57658223783174412 -0.43079368509564459 0.63467756556375721
-0.5457719435409174 -0.63792958156195823 -0.2708428247299422
0.38476907136830785 0.85449827817667545 -0.35851427413132886
-0.67543469283190372 -0.64702599949134043 -0.32287190314521164
0.22878648997973183 0.63802182194131896 0.57124596114656589
-0.081292108882834668 0.54248920111302501 0.69056800702453014
0.74052864014159425 -0.22635658813548609 0.68107542796377263
-0.058745490965932373 -0.13939244754448116 0.76947840505901277
-0.61660958968855706 -0.9078772594155059 -0.33391618515100607
-0.093543024829770019 0.071135126332243198 0.74027416992068784
0.31716203031177626 0.73060468558220171 -0.32346543862056804
0.25177237000967462 -0.36979043851823518 0.46144125624965288
-0.56798172436030248 0.3539033941716887 0.81081541239557364
0.81687315126777915 -0.39387667076842353 0.40963917509561082
0.22638808697026297 -0.012485574803349407 0.80597556580058127
-0.62666137845193204 -0.16530846843837338 0.65419711631404931
0.71381054904100338 -0.13904587910915789 0.67026603996589185
0.69365078420839155 -0.40757730513365231 0.70929004859595024
-0.50635051019715749 0.34859377439164896 0.83440115585910146
-0.082919497222283339 0.20736139050747171 0.76436049008825258
-0.12777573314330806 0.18048615698925946 0.75965294709764453
0.81131288338703433 -0.21042681643347161 0.58004023273367888
0.1064943649719315 -0.14539906551642362 0.76125009584184677
-0.55562573217655586 0.077410566192702313 0.70915815647225
-0.47206690931992801 -0.73050073359118994 -0.20915616076519142
0.1857639261844648 -0.3712357472079828 -0.13703652455355425
-0.46891047257446955 -0.86764874507098222 -0.26113596431852298
0.5505312842521265 0.70886334769709314 -0.35678406633615256
0.27690942949787162 1.258514456856453 -0.25604915544657042
-0.0088104255364384529 0.22651887809564258 0.75901969500636091
-0.72104805834080932 -0.72401709938848069 -0.38305263317085947
-0.34932382021253394 -0.26693552335372167 0.78368630001669581
-0.48344439243971821 -0.78800869038574317 -0.18271593682720619
-0.88892790667081134 0.25200179728327227 -0.356468123237481
0.059833066414039779 -0.24239746838654153 0.60665046495869446
-0.38190097619038332 -0.30375990963060678 0.75651042823440073
-0.29391760058351662 0.87668101064264303 0.11285601608883028
-0.23275592152846658 0.3966337605164178 0.77659876890235202
-0.24182689874964736 -0.47569161873886945 0.44999373282843752
-0.70845222543720732 0.43169774256043048 -0.49006043803932064
0.33879892542227741 0.093007332787470434 0.55913623105885568
0.23717175849514227 -0.20274438883587437 -0.3823665849096714
-0.8322853822294024 -0.73077970512622525 -0.4786003387820425
-0.79390402641643576 -0.28977056691673059 -0.52873400564884643
-0.17674152183339903 0.32498363323786184 0.82593002001502414
0.52465347262110051 0.060476704017929012 0.59165730466496402
-0.60015644481598562 -0.39272921378214226 0.63932520337712695
-0.5938724289135362 -0.55203529494496939 0.55491419934880315
0.15969661951881603 0.050150504378388555 -0.6180980796021156
-0.7119247853198708 0.043533960812081662 0.59504129477947021
-0.11077645330008355 -0.11038693705129489 0.76210068719566781
-0.089997676303863863 0.16136814866634408 0.66747580790504435
-0.88447392421838722 -0.7808019834273342 -0.53353325387278161
0.34673570229998002 0.57365593327359832 -0.17740174461549671
0.34489758446375895 -0.33613776971722603 0.35136444598644251
-0.5959701437577789 -0.019516918621297997 0.75844549350083701
-0.27978391762346977 -0.31140597558697336 0.72791868671196269
-0.35373829174606713 0.66594374501904408 0.37259369242785934
-0.56750951278744866 -0.76703946970666326 -0.29221988295310392
0.32577029701892107 0.41332873322270064 0.51554527250651028
0.57153230461929816 0.022508645921118488 0.3595989519015268
0.26380275088487021 0.63940455197201906 -0.40936228445970496
-0.40168716472687582 -0.63277720566278739 -0.32056475221011382
-0.83514325782110965 -0.38739119258054105 -0.38614273366666507
-0.47271178432198496 -0.29760228157763469 0.76613673632785606
0.31098734037273984 0.009562034789440059 0.76128714678266518
-0.075634272957904009 0.27290549125599101 0.80632041222123396
-0.61742737507459877 -0.8047670208967852 -0.31959036670332669
0.31638912039766864 0.28629790728371463 0.39493376956993081
-0.095395433075315381 -0.2547300181638768 -0.64578136013316156
-0.16838655994629498 0.41279084926338683 0.80197432257478518
-0.19575139653271217 0.2264475806125037 0.77582658718488473
-0.55009659242857378 -0.7584059908835532 -0.28467793399843788
0.57428618770776851 0.75794129875342042 -0.40642058937056974
-0.2516545948836888 -0.44573064672073565 0.62829315708073841
0.1461993593907136 -0.030363813323385558 0.74750357742994678
0.32015434464268339 -0.35026715488540028 0.37314306707761291
0.42204784470866608 0.8238378234096313 -0.37932505914565567
0.30427514753305757 0.66909956684501581 -0.28062400092731143
0.15850804639944943 0.48453227393348541 0.61990657882250944
-0.41737591629250875 -0.040856202294046268 0.69388537464362876
-0.28906359429842376 -0.58260544122071123 -0.25368074191589995
0.31705959602468486 0.3441647041308426 -0.37962126624907
-0.56952818423068829 -0.67947193544898443 -0.30627198302231445
0.0044517023534485674 0.66148145117999224 -0.5201287441094965
-0.78294982301025384 -0.97181716813075103 -0.43214834987637213
-0.68397855410176922 -0.76236391181317664 -0.44973405088803875
0.18527968104397746 -0.11411806155207528 0.81782959194125049
0.11015123870194689 0.54748429783481833 0.60290391099447127
0.57109771899288053 1.1056569132683014 -0.47662722811730346
0.10493067515307845 0.8136124540485824 -0.32553646994747293
0.32440918767056209 0.62118453125039563 -0.24318375750377516
-0.81691667346378438 -0.86251378994250383 -0.46056660141984596
0.17360402039064277 0.34035721302896654 0.63391846727356571
0.18502645929424144 0.86154788550881967 -0.1519418529787811
-0.8882833633603453 -0.70287712950927583 -0.57756095578695366
-0.83665888274725175 -0.27096722533050294 0.49214436145774743
0.28560759264655378 -0.38510604321003256 0.46551456634329919
-0.79033248410408563 -0.32706332652319564 0.63821075685152695
-0.63486892816150231 -0.26692430963786623 0.67970777934523008
-0.68085630335620695 -0.62498686485805366 -0.28840564815572378
-0.23379711931047092 -0.46870923094100969 0.52911781497678545
0.43542394598634088 1.1560887834530873 -0.35202189267559758
0.57850203096766162 -0.078500817080655289 0.30197805136216066
0.49995518558571161 -0.075028451059092754 0.28318705857074339
-0.62149596774224691 -0.1598475158984709 0.70191054127604735
0.44508489914830168 1.1285131945607476 -0.39229461912861358
0.17918371256558696 1.0929494747347244 -0.18422208446460903
0.34201255977614703 0.66411002499675686 -0.31120248858030725
0.061313018296607527 0.39609883297377751 0.77384107869101004
0.46919512881306891 1.2101197893750517 -0.44892411437297658
0.41316271788461056 0.65015058928999747 -0.3534247381929409
-0.79097975716518376 -0.36540219619860442 0.30492631620638155
-0.31269731170652088 0.57604109755341382 0.65290443405195331
0.35303851628070548 0.11766247813974619 0.33385777068480216
-0.027532661814374637 0.28393396690742195 0.80112485220785046
0.35931134710849377 0.57814701080318831 -0.062225150089358805
-0.30542276474279706 -0.47874820256408857 0.61770095287043969
-0.25262173382098313 0.46839848937568529 0.77956283672632454
-0.33618859978313292 -0.16314395912291713 0.79717444244627123
0.24812349399951639 0.72780940658864357 -0.11563121964746707
0.3578985714373939 0.8057355908625442 -0.34072971738329549
-0.36933967035105469 -0.14273107897208592 0.79838782627819305
-0.25389113295914556 -0.12942173103140747 0.76500286531842077
-0.13063252602924019 0.93448181747418479 0.00055344697877252795
0.4282076766957158 -0.065149030143059714 0.19993952552152433
0.086911178279639192 0.048891180648573063 0.74573504460158402
-0.39184071610259752 0.48167533413066965 -0.66572714014924572
-0.66035567407295581 -0.30133589596178101 0.65730750180998732
-0.56281781308704359 -0.72994285497402844 -0.29598404186611932
-0.25427138617413864 -0.09868704361580162 0.75721395726102014
0.21668865015855893 0.68635788329596992 0.55538140814776227
-0.083271808589670093 0.21280968751511276 0.76290646180721111
-0.24752011252071726 0.3098713226235234 0.772209859147722
0.53282928321522938 -0.42967210732820915 0.41764114023068777
-0.69283665997040833 -0.78056655373960426 -0.3689738604214155
-0.43425283390718533 0.15646151699430988 0.754274955844356
-0.57623619566964879 0.61539374671986991 0.29554958176944873
-0.43637549212468368 -0.13233059894836047 0.78857937612988727
0.15772990614558008 -0.13790241442028331 0.80622008713561111
-0.3340277029975649 -0.70322753099418089 -0.078292331375756766
0.15614841971106341 -0.14139100991689843 0.79793404738726403
-0.1262053464986298 0.53010182181025878 0.69923569889077908
-0.086360523297418126 0.13849219219663172 0.74562202756854357
0.89734606958110785 -0.33539229212785931 0.57747364936333934
-0.27449284496762172 -0.15390593139502601 0.75006974395658421
0.76310208881487462 -0.30116853893809581 0.68918496061143741
-0.19423064001451829 -0.085289394545915803 0.64900568959087246
-0.1705364043762273 0.23165153689612378 0.76790524839491725
-0.92656815369858903 -0.31571286901530299 -0.1827935658330683
0.27483927903606997 0.044152503645686722 0.7845516819861319
0.99848448144800883 -0.080393151981790881 0.33731386308856443
-0.85321921117679067 -0.22723604491231136 0.53482868764359615
-0.33635644428490163 0.57825940452780633 0.747832332602404
0.41357800262104949 0.95009848737538116 -0.38269825144836067
0.22167078984608163 0.98668097307941149 -0.20392460388322059
-0.8603201275734631 -0.64060653394441702 -0.3993416382026494
0.089794965568915489 0.60033616151522184 -0.52694805948131185
-0.79322878214530479 -0.90196003128660573 -0.45124617379863136
0.29749633421632471 -0.022413997901299776 0.77785388308975889
0.068424533292685219 -0.11002039455313878 0.76866748072623658
-0.66351509063291769 -0.7173980101250268 -0.34737532096809887
0.33129596179221515 0.001575962883030857 0.72480222220337276
-0.28469073633284492 0.27584397374383612 0.78362401204493937
0.21246651493703705 0.043785761561629416 0.78719800625995096
0.69466702543721348 -0.37052381120038191 0.71406820358711087
-0.34933955406401374 -0.12233202349951446 0.76785411512959856
0.027287105361093987 0.25180830783872832 0.73579718744500167
0.97192459699284439 -0.1361731952707711 0.27917256447027805
0.37702987857738257 0.73798160589249007 -0.35023141378743633
0.19877811027104364 -0.26899988394962171 -0.37420318727225788
0.80244445100217576 0.018299158448479728 0.44800196281054583
0.057421153036692527 0.39498309478971705 0.78012313928137333
0.57870205024618504 0.065455621005972048 0.54618035758272687
-0.40804779504619626 0.32687437069701319 0.59240971958277744
0.036589243618512561 0.71562872682491507 0.69900434637786113
0.72275321888815414 -0.29740623634704383 0.6487072873333859
0.15253135568853671 -0.15909222185524746 0.75499259460651857
0.30613683289986965 1.0301926525701595 -0.33036085349806715
-0.7018162438576373 -0.99569393035668219 -0.33474959772299895
0.34005853671032416 1.0969148796274295 -0.35747743337472876
-0.08985678501523825 -0.33906557171377205 0.62705833610699224
-0.67639241878941403 -0.13767302448573165 0.69179756976824414
-0.65685403652876806 -0.58275248047767503 0.38217698052313198
-0.85185916107104587 -0.39091717780617524 -0.3360047161146158
0.29900653039861413 0.63093810044067333 0.21383963305862957
-0.59675115302802095 -0.79647378317782247 -0.30480795535014871
0.9950555650235825 -0.1501082222440504 0.45613434409031361
-0.47951604653319641 -0.019011775374995748 0.75306835510374492
0.1376612400875829 -0.1370680915307631 0.79707678849632668
0.50499272230624781 1.0538963388836742 -0.50378592229512298
0.20707247358537278 0.80208232481669017 -0.14660139718950099
-0.021159985658737203 -0.21383518121760564 0.72070296737302308
-0.63342797207264889 -0.19667157321079665 0.6984111208941941
-0.22109842143080494 0.22698163433025537 0.77674337090988066
-0.237853249532816 0.59900865288203875 0.56707071894038363
0.34269806066909453 0.98427580659455494 -0.33606777532418042
0.28603450850344314 0.021041513054674832 0.78559001234504144
-0.26551414606788104 0.42127576257268579 0.78082581058848977
-0.6462047638981171 -0.2172051647235741 0.68869026516578979
-0.50272677617396944 -0.061761905769786435 0.74203224097337983
0.37579834647751825 0.71747333469989893 -0.34986897717556975
-0.37432697142313065 -0.31230501814825579 0.74550701888097359
-0.066926793500431986 0.93116193367945621 -0.067280874388680648
-0.58940534482975615 -0.14699347308196753 0.68701805088448109
-0.85254812585816009 -0.67013161080661987 -0.54688943587876115
0.69096531323879473 -0.55532180801349651 0.51410052299806197
-0.5473948620889092 -0.94877150401604449 -0.211441909687721
-0.26213697321635887 0.57652848659564648 0.80054028418037049
0.21744381165791743 0.75090138973983478 0.15185726223349838
-0.083783394691428759 0.18109379970408424 0.75415861148382746
0.26954662380327238 -0.10057199109301862 0.77292304628933239
-0.65166546166634154 -0.9614174144598816 -0.41074522564873467
-0.4837849456687392 0.29349322968159314 0.82787777121789063
0.17170172420055663 -0.023915608139015453 0.77895630419954665
-0.16863344337913744 0.92207643835502384 -0.1977991381879097
-0.52550837760831137 -0.66240789129787037 -0.26106147684427627
0.33402482957966118 0.6543485774684944 -0.29761086916666923
-0.60611025920289452 0.067605247873441965 0.63960401828855262
-0.94328478623062428 -0.052012419617601537 -0.37561275588322279
-0.12429428285639522 0.27340524512844028 0.80297217090692252
-0.50827446316645686 -0.191554905289752 0.78135335215278878
-0.87686952054033995 0.33221338637531572 -0.24910877066492981
-0.61856477159038925 -0.58716252710268957 0.2255602764748188
-0.56229239630761862 -0.6335950490703478 -0.26275095317987451
0.8123623336861675 -0.12658925601568111 0.62848386311994198
0.46311380094377602 0.99832612103244056 -0.42653974013463147
-0.021431119782498915 -0.33299006023586253 0.48409055398947237
0.2510600801722091 0.057656332872803473 -0.50582536325597116
0.23487851897873296 0.36448555944409999 0.63384168448713774
-0.85049887253750101 -0.23005878749601505 0.59664639171843803
0.17592997422708523 0.71708779216088725 0.58133398535806702
-0.20382357147429381 0.35609428261165244 0.79971895358111411
0.098957447332376686 -0.082560822251855709 0.79018194516121321
-0.56840550311918714 -0.6958952128118755 -0.30380110625978407
-0.48328505387612725 -0.77488377823794419 -0.21618320844860778
0.67489407655965539 -0.32589311668128912 0.72126313601011183
0.11961762930248891 -0.092286105518815886 0.81122398832452358
-0.079518666864132392 0.39610761469107358 0.82194472832346321
-0.29607697907319241 -0.34211310394722688 0.71246644716946661
-0.22973042941758115 -0.40469786029814969 -0.54646214133645621
0.16056932863920625 0.69887261130963318 0.60694405929718986
-0.0068370876816291858 0.87123582756506746 0.16733917198672368
0.40630935918252187 1.2623410634469574 -0.31938927946078816
-0.32568830209622512 -0.19579251407565873 0.80244676003184523
0.68108168535479741 -0.28932879930924127 0.71912553535518386
-0.19033466183643555 0.33885619328040995 0.82195661590642932
0.33593068133387916 0.17162793581499297 0.32978702709790247
0.7511454149626543 -0.30670362702785653 0.65071004248441833
0.3136249658332706 0.2567573252660858 0.46110705099793708
-0.58917550684820685 -0.20738089187158593 0.70864817149690273
-0.46086346230195424 -0.60994942525569074 -0.36841811292162047
-0.13177785678970391 -0.51781402673738297 -0.14109592025100351
-0.26221884622793473 0.50749369946636458 0.79778535591187782
-0.25284096014602797 -0.31685346012162269 0.67406939978374636
0.37124191704091641 0.63964294444331549 -0.29450850369396259
0.44145961095114078 0.68268687015778817 -0.35464754954464406
-0.22487092818659349 0.50897192632456401 0.66773697680572719
-0.31993226835331229 -0.092666952393614138 0.7526004697515899
-0.31400253629417452 0.26125071028533625 0.7838012800219416
0.011912496377607752 0.77708410978960163 0.35469867435516073
-0.47741762397097642 -0.15830344432454718 0.78914109505080599
-0.42670982671413116 -0.16289523834178804 0.80060520190954332
0.74125502005183685 -0.41602328954225049 0.69271218934202139
-0.4061188359848214 -0.062324544296103034 0.75397794225914327
0.28292696733975498 0.88672927438136151 -0.37147501209381584
0.9158158405705622 -0.15317455078616077 0.56755327994607507
0.18523167302029625 0.98609252027781347 -0.28320030341857927
0.32453236276147451 1.053894820684127 -0.34230150808211252
-0.31417916936990897 -0.29649233881276083 0.73054114977502549
0.16534521222448317 -0.2353788875018209 0.69064360669559288
0.26951681501330077 -0.1325940421498851 -0.38229406122811943
0.42393619548841921 0.66027856307397326 -0.36034353724041812
0.93176964909483395 -0.030836924773022155 0.39736908279261884
-0.61037834069297048 -0.0048450310728405041 0.76763704681721379
-0.33278512599407389 -0.19761138509217496 0.80601169408891904
0.13705592161172891 -0.05403586771414641 0.79653524117984098
-0.91717417461558959 -0.62571406595964907 -0.44112162778289937
0.29981863038992773 0.69362225525898114 -0.38146951074302354
-0.64087097491979661 -0.59631620574389288 -0.084404845182576196
0.27792169523781124 0.66040255755124577 0.47876857231562903
0.17178302596354489 -0.012011457806779067 0.78449174669439881
-0.047921439931034468 0.48328132076771657 0.75833131694986411
-0.66149945113422637 -0.35469263703305176 0.63390709746475316
0.76031837114206613 -0.44826457547037002 0.67538200144695637
-0.65579838434496551 -0.10216497824513922 0.70581464750554979
-0.50143468348683295 -0.91011591825773397 -0.16946962723956746
0.22134779429553325 -0.35953988904978146 0.57956613019339231
-0.42616600747112371 -0.47568249927446665 0.63745472058626018
0.26210743329803698 1.0348190541739237 -0.26847458110376021
-0.55959331351443842 0.32287138055093373 0.80679334437925909
-0.53520397318480861 -0.75012950197158645 -0.27761568737410397
-0.29348490863087529 -0.10584838957498054 0.7544409439164006
-0.052012986201358698 0.27937329029251662 0.80984507546743267
-0.44081124565106267 -0.17953835644187932 0.79955151431886329
-0.56564487340321834 -0.63719706888509509 -0.27710932973982139
0.02824129225271977 0.27376172360785878 0.73770621285829274
-0.39216942257381876 -0.28988205329741568 0.78215581131042933
0.33190935175745107 0.71124451601113015 -0.33320729303823349
0.27374561104842848 0.60800922828251336 0.5352049332539407
-0.89241395103481636 -0.68915901723429385 -0.4587048383305547
-0.31792401239667695 -0.19395714394748959 0.79041932515284141
-0.11896198648767184 -0.083236117289469752 0.75662209469629871
0.059149574077641667 0.55295596361569554 0.69497040261395171
0.76967629625203993 -0.20959109252811542 0.62055437418874848
0.49789000126683847 0.90282351454024035 -0.45525999128462363
0.52931055300677798 0.98784410286035973 -0.44486574498667164
-0.84819476889474343 -0.062223309881000041 0.20854738088408803
-0.77362359231946509 -0.51662813498326321 0.55040627861306091
-0.31685092624261285 -0.1054433305147237 0.73984133573630539
-0.38750120187150477 -0.070518954157861413 0.7532479635815218
-0.19157114279765647 0.32025092817807305 0.80931895908296758
0.26638618867826103 0.67925227129005017 0.23244135413517331
-0.48783584171940197 -0.21241981463091641 0.7865250504702378
-0.084561016268474648 0.22264410896107795 0.75375848149902958
0.28178082078067651 0.97913422134629102 -0.30480948165206506
0.22990044404913584 -0.32570494840368491 -0.15784904198671876
0.11445821875750793 0.4262443549631349 0.69298598161566938
-0.62798387013514889 -0.17715108655107537 0.70010378349282121
0.82181614601742448 -0.16015916844033329 0.27760767252973062
-0.49239748279176926 -0.75773255036264997 -0.25152455879044011
-0.28085188571702091 0.44663975362020014 0.78376066536550315
0.044040193129713148 0.56864864704648044 0.69965086910575813
-0.72129450593153854 0.053853930869708605 0.68405612886481215
-0.20927516696878912 0.2111206560651544 0.71859526951602049
-0.41311641781035063 -0.35600140820537224 0.69023288102618352
0.38084171652372267 -0.23187528597423757 0.21808466846684688
-0.58240768360477868 -0.37310782124790165 0.63440585169698338
-0.57356730970223346 -0.31926103138691542 0.67897349607789315
-0.4623273241471279 -0.062451655810359816 0.70608816752693482
-0.43214432193673274 0.85965408754957728 -0.11960659894579771
0.81947086060190266 -0.19309497384136876 0.57105664362769293
0.066369355819033374 0.35660784215513713 0.76145935868646175
0.46056030088914485 0.73221238579330616 -0.37434708150760948
0.71314494671297057 -0.28191854578031544 0.70488891105257445
0.14990296844806605 0.97760264413230691 -0.17360956861918866
0.24734207134461672 0.79101427089069953 -0.21175731537291573
-0.25728606875552179 -0.25139625541777899 0.74746436031926888
0.25965479578715162 0.048585574703846057 0.78519678179216179
0.44378845227488417 0.843332415230171 -0.40106560355629578
0.43227459256597039 0.52297264070739191 -0.37241434836264337
0.41150550942931885 0.43661354600691304 -0.25140326200495033
-0.64288115430140358 -0.94005722074707188 -0.3543188723925324
-0.016592955321514419 0.58453941889588168 0.71538448969627466
-0.16621463424951827 0.19766515509880517 0.76860666842098935
0.40652102971299331 -0.14630822094953527 0.15421971010602942
0.30975068088059288 0.98216278548672387 -0.32225272766966823
-0.47553391906780856 -0.084361336852272886 0.73386838376335028
0.49155328137844811 0.53974912790727791 -0.28370995961788908
-0.20313658819667735 0.61418053826919183 0.7887330708710395
0.24406177914494803 0.056077866332837581 0.77749352178060349
-0.66618560263780791 -0.38095638335611809 0.62095392868141275
-0.97477407084761469 -0.042290857930933061 -0.15343135776567632
0.38219308984988243 0.082843861450307921 0.14676561452185691
-0.2331404956907917 0.52017071180133523 0.64419157662238979
-0.33421038726110169 0.31786126716917884 0.78560107070487961
0.33189427925658221 0.60168761278207838 -0.22347148786268292
0.79038446294194964 -0.30020352758690305 0.65445809008428135
0.01109835508277901 0.18102477144795598 0.65610215021644724
-0.57994380169011539 -0.1267154546644581 0.71689230417651795
-0.78675084174797261 -0.57923452991118574 -0.30901015652911401
-0.91002891685572307 -0.79705871267435457 -0.53449497937616774
-0.47660261860668091 -0.073385715280438968 0.74301221965936382
-0.78667524494420349 -0.51571650715605366 -0.13699854205083262
1.0085876881588687 -0.1209000110260345 0.31540794425643781
0.81235511794292481 -0.43807704529436392 0.63572620718833395
0.55753096913886768 0.76938776311049883 -0.50219601488519738
-0.8278448207874356 0.42584438073469971 -0.2195458437643672
-0.04245293256511784 -0.4797936253190116 0.025996577138366291
0.8321669355397876 -0.18094348242010899 0.57619705203346117
0.71665284488299852 -0.26327538555600255 0.68072444844439595
0.80213646387170034 -0.32751099957526153 0.67694399069445843
-0.89703637015080162 -0.59772954478091367 -0.4250107121499192
0.91359763970996444 -0.21676427064249504 0.58336144985593286
-0.938783628183397 -0.7747392870444475 -0.51799274281785468
-0.39129157668548092 0.21822613697322413 0.81299643559245527
-0.49033152257052026 -0.77563321135635843 -0.22886713163355119
-0.77575509625652317 -0.48807966805840608 0.28177818270913541
-0.29842424227251896 0.26918567421296957 0.78303617043878893
-0.38020479808651608 0.32491525756699335 -0.74212687059054472
0.44771352550947863 -0.051831780679510081 0.70694916196177249
0.62711288004715415 -0.27625683332921452 0.72624929914489889
-0.11736198113682281 0.49921198838869452 0.73899617067830392
-0.33462936983645486 0.22037564775082563 0.79282322035087782
0.59319736659107158 -0.19090863588126511 0.30343403432603328
-0.77232035158481349 -0.65309219845862854 -0.37274626154505164
-0.19674428399838412 0.44603807389694794 0.78375791258916516
0.51000651726406498 0.69987826361693739 -0.31878439345862758
