# XYZ point cloud file
0.43148885393508274 -0.20294430478206149 0.66999760375007233
-0.17585534629067454 0.0039246743433997977 0.55578042396693328
-0.14264581760434172 0.21947683013638486 0.61171589774968449
-0.61959415493131531 -0.16315456108965848 -0.026687818143457165
0.13303471914490908 0.066094536435568438 0.67002855716293497
0.62665206065982715 -0.10463896604722102 0.44063791891547904
-0.61161475559126655 -0.050976556071918769 0.44223223943774054
-0.22209943314944569 0.45655436232475799 0.56020134830058599
0.37363803013766833 0.55201913495234589 -0.15192733813115528
0.2390610053942748 0.60461634776723594 -0.051949549022758418
-0.58807912056447365 -0.39849318882220169 -0.13924784528424766
0.14280098348843323 0.33449768868967961 -0.24449985959246961
-0.56172916827662445 -0.57864908825527239 -0.14865797319058272
0.14296641843105382 0.020349306443626869 0.67232123501738528
-0.013594048542475702 -0.021241142034146766 0.65569372390203196
-0.46870673427628085 -0.45860132183276375 -0.08471396259633851
0.17053629663515757 0.029209397470117242 0.6383098016164952
-0.21493129781416237 0.25791979061739351 0.61014956815809751
0.091957037892227284 0.070566111403689444 0.66711508882198167
0.37942421588737302 -0.24133281760116665 0.68635815543045653
-0.28830018736529661 0.00072135399175051601 0.62477478414389775
-0.0092740736140743685 0.21575460010874414 0.60400154597548061
0.60858300822398659 -0.14405169473661297 0.40473933114505745
0.33048283405625367 0.41854806198856398 -0.11752563528943
0.13421756109710092 -0.22951988700137022 -0.071223335299416629
0.4988434651983254 -0.016754144057848142 0.49106146328229561
0.019078538512498605 0.31094968309059356 0.62457829061092585
0.34955687479845987 0.038365028511298763 0.53507200249081188
-0.2790846296122021 0.28432354194445447 0.47184003191790835
0.036565094015472754 0.51553022591866127 0.54588703713360109
0.4080129347369334 -0.20093647775285889 0.64017925484273308
0.038473623798729817 -0.060543336838947276 0.65671218699079814
0.30623190024383218 0.6165103316405306 -0.13169213396967178
-0.5170308523717817 -0.6368971037444493 -0.058486803723886455
0.33561429916810448 0.65547608850470063 -0.15190493122475329
-0.12643437015135153 -0.1714714213278109 0.56821924070071395
-0.49885555767715573 0.0079233286634972505 0.55159601792394664
-0.50149887018579964 -0.31042005848301979 0.38356741547587836
-0.5666088218248625 -0.23046179212684575 -0.11581457558590913
0.23363281042129361 0.4009438606409233 0.25410662905362474
-0.43411833863920951 -0.51161917167251081 -0.045910852443217104
0.61097881112910224 -0.14014724792971917 0.52342619473342633
-0.36432069922012644 0.076476277442187351 0.59760207360627382
0.027732781630278369 -0.041567838416299921 0.68151480646534268
0.44986182494693661 0.60330472881537633 -0.23215764846390685
0.21086917717099032 0.48963417948554655 -0.0016813676462780758
-0.077499115578383376 -0.086701702727449675 0.62533275165200597
-0.47588270459620186 -0.033227408974341288 0.56356314044656042
-0.17673726909760418 0.22079601783745145 0.61406523090285092
-0.14398770527972402 0.44803365901388459 0.44763097056752071
0.32687174001946129 0.58335805347753433 -0.12925385308176135
0.13844315880495228 0.050251868734962901 0.67327726662736342
-0.19047774504032988 0.35146934506006838 0.59886977153074517
-0.48526842864827563 -0.046550232022292741 0.55777517485652184
-0.38224519743659924 0.049258376412174482 0.59183336154587018
0.32800167401328822 0.40524731098435746 -0.11584569679560186
-0.31849172702805639 -0.12364229860045883 0.62248231605582671
0.036481043903657466 0.60041357646773519 0.020079810291511832
-0.44228682639488437 -0.004836742200092739 0.55568184032964196
-0.57565571095265267 -0.43061967099996967 -0.23310002310341593
0.3752824156973617 -0.3785864520125955 0.56893152454005724
-0.42017125631857333 -0.6070794237155781 0.030340918516885126
-0.17706852839786827 0.45445167636374711 0.60041682977908462
0.19391381780793313 0.48017056598723851 0.19841758680154278
-0.088958896236293744 0.17900580871725957 0.61299687637186606
0.11868553201522433 -0.029189571966582107 0.67284627028628408
-0.47640868159394095 -0.62438804691111693 -0.10707108103457266
-0.34689253752178373 0.2874799400497573 0.62289477009098182
0.060337407028031885 0.028517579597460332 0.66372855362088168
-0.022314546357567622 0.59095951642875499 -0.072352082044941007
-0.37952123660954012 -0.42539309015563298 -0.021951235815363762
0.29210943234354297 0.37128786939504038 -0.080022775312786038
-0.43284640563334492 0.13285275192342205 0.50731311193616169
-0.59664511118003194 -0.0054039256803207619 -0.17397301526399861
-0.11128939386769637 0.24637873870167137 0.63502542735273981
-0.3989116124810641 -0.032007931463402958 0.62688673612312074
-0.53052558288823781 0.25173045051289106 -0.11489065125743775
-0.46645935526412535 -0.32906311459790832 0.28418246238324013
-0.40119685440289538 -0.4040306548481043 -0.027970817689323357
0.481811282473878 -0.097294903834071106 0.62086433317291445
0.41286462732179008 0.57637028922663669 -0.18054073940605986
-0.071699991445585587 -0.18429069384851693 0.47924808408487773
0.20342298263495071 -0.030463777468371811 -0.17796507858738203
0.14253851719406341 0.26607176885281142 0.54434470954680281
-0.6141257477465133 -0.047888376492242229 0.48313814566460345
0.13573588292639988 0.49668290840483964 0.47914569651207978
-0.15653861290388166 0.30594348711616215 0.62074614513067417
0.0072091155094905664 -0.0036861437837952572 0.67001885968109831
-0.40751570302355344 -0.4477636782500638 -0.050654389707168568
-0.36385445991535831 -0.49830704995910152 0.019026084600579626
0.36958468209733603 -0.21010765762206618 0.68624890866083676
0.018581351444578564 -0.0097911539369518012 0.68607759187588302
-0.073321445628208123 0.32501887170730404 0.64162502094109763
-0.26743809522387224 -0.15152496843342839 0.60893558604720432
-0.14618017876164763 -0.30175183952790657 -0.20601066658424133
0.12251930119902876 0.4879958352854159 0.49613245447456994
0.055602870317545343 0.57634813467155233 0.18274469579647873
0.38983581497241165 0.76211252251822947 -0.13437263151192097
-0.28098792149084467 -0.046179246444919483 0.65470328135431499
0.37672243785077569 -0.18680494865114655 0.68257601452350958
-0.1505490472594927 0.29553818944686544 0.63761284694595932
0.21324255699941194 0.10736060934425458 0.36719430606300996
0.42573899953159994 -0.20889867879996465 0.64431461422321989
0.19683682858849344 0.17557130375090008 0.44516666164043034
-0.44841838717388838 -0.042572225767763289 0.57438623879277484
-0.32587468813864862 -0.40463365405609114 -0.091351601069710769
-0.11775836519485658 -0.34917611719811509 0.0753116984270044
-0.18249608416042656 0.40905619457175918 0.60377275214360715
-0.23454621772917647 -0.14129724620885611 0.58513511823324249
0.31511109150135641 0.35924253207147433 -0.07410107180822087
0.36854591107175971 0.37735952651166299 -0.11145155832269754
-0.14934736987272068 0.39653919416444133 0.52127891248726921
-0.26563848733727763 0.016748662154036351 0.61476727913996576
-0.23532585140123369 0.2504963920983943 0.6091611848652303
0.04798855444175832 0.52894162026784486 0.31391715084779098
-0.37652712700553753 -0.011825734933441443 0.63181163843022181
-0.34442095554850483 -0.017530609831353256 0.64346439642351561
0.40769781724752374 -0.27623303342693867 0.6792664104960322
-0.31976722839475669 0.042924354513743393 0.6069398186698638
0.2821823363132514 0.52089434457469086 -0.14962464208855125
0.55147528447128569 -0.12719882415876343 0.59069713801505241
0.22034936697938595 0.60027529459336459 -0.10656211643614405
0.3209796181619522 0.62970385778408389 -0.13990858763637476
-0.27681878045002695 -0.11886921250050043 0.61600373400282793
0.044965171735217975 -0.11672535423572415 0.62123295371134779
0.19208263385202393 -0.14602909443312612 -0.081430242531971397
0.35563400937329881 0.36348590805646624 -0.11481863547522997
0.58296964944125429 -0.062422550241902325 0.47126583623363771
-0.44989570175281818 0.096379810739945712 0.59627744960842799
-0.28601948168353725 -0.046562422486218134 0.65664260628946747
0.03405321230562966 0.012762691618045108 0.6749006193103968
-0.62138990553852236 -0.3881218171597472 -0.171989105400978
0.27837019516805267 0.39248926997206124 -0.1404531183039972
-0.46142325768644976 -0.35917485037681818 0.080167756805544804
0.20475870472865154 0.44373258041181773 0.4238506820596078
0.060984458596796597 0.036760635953240597 0.66646947514736832
-0.041415757296863184 0.37450499583840058 0.59580190418746071
-0.50275096394740326 -0.13996051804598794 0.53103535799869628
0.41873602098705204 -0.30014138892903774 0.67175663560332177
-0.48342468695984908 0.030838273087859636 0.55966316874679867
-0.38970315055348054 -0.58161128222102676 0.058384213973689397
0.078980684571308052 -0.21122279122116266 0.56196591553212638
-0.35850162565794325 -0.23578339653946973 0.56004999073388306
0.27367980510901446 0.62784530052514742 -0.09480227073636982
-0.39282022805313538 0.31041283037832851 0.60120461115786483
-0.39184479848712145 -0.48346928988832411 -0.026955829729372244
-0.24948878001142699 0.0063715379797525257 0.61894127732338222
-0.063893930853231265 0.24564891573915693 0.64449737373132643
-0.3549318232754286 -0.02749290430643252 0.64296302233304714
-0.40273911322093098 -0.40733799949134553 -0.037357262211808545
-0.0070077977009283844 0.23020949210801656 0.60368048347586001
-0.33079074907784223 -0.10464292790996378 0.6434721327397519
0.29764308461825301 0.40571524626135347 -0.10775515583607553
0.19409347856117598 0.41443437851636739 0.46442481737664298
-0.60911269963398718 -0.4328794711550642 -0.17690240886540493
-0.27496094338106908 -0.046535768140268191 0.64726977768845062
-0.13344441437580895 0.0087802511054185933 0.63175653183834024
0.038524639763221152 0.40712622821544103 0.55710986609279156
0.44768087649436861 -0.14919097304509299 0.61868340149802836
0.42985849028644008 0.50899006070329567 -0.18959904750399703
0.45660671144493475 0.56322298559026396 -0.1867990196098977
-0.57358010946084392 0.029554396012742019 0.21654399597727433
-0.58376589695186343 -0.24477862894721225 0.4800585955035182
-0.26380798909027486 0.0071075038644286409 0.60759710558993563
-0.30817810235058074 0.036160990596536283 0.60847016845373836
-0.15202513581929247 0.28240395587116796 0.63063489245637039
0.21492016345021375 0.43645133610646536 0.26023039988288432
-0.38753696353892197 -0.046703475464729152 0.63336742569694926
-0.086098671741267258 0.20621691884850496 0.60956690061234298
0.28448149222957431 0.58697532186363433 -0.1129599662976189
0.13581727878053454 -0.25090765931174064 0.077065427766243241
0.064703712680868136 0.32006499104650027 0.56943800127016031
-0.47085564122478607 -0.020705805836674092 0.56361891727742519
0.50838684223178754 -0.14906638795645233 0.39426017588351531
-0.36612102493995802 -0.48936143465960347 -0.0060890959190605942
-0.19868092383566913 0.36941437970368368 0.59774445366274953
0.029578041503993971 0.4188713194132957 0.55786884073421805
-0.51235961899902083 0.13583955645594481 0.52882652603341052
-0.16644042579080948 0.20473940968028703 0.57805111914729879
-0.34379130535742247 -0.15402940235150997 0.58664089685227983
0.21755240441009352 -0.16917666405224258 0.32759265391589787
-0.45243524056058437 -0.1576649862350768 0.53866743253880656
-0.44524078186586136 -0.11936784483161081 0.56449200411593581
-0.35346165122247331 0.042914078793965679 0.57136907019535854
-0.20516511859502595 0.57558120885242237 -0.036211774175472139
0.48489574227151305 -0.14609136948528559 0.58875931423029249
0.023082224507321975 0.28364535261034868 0.6158960352693994
0.38634410221902976 0.40675567834032911 -0.12662986781099195
0.39926693494038962 -0.18544687186375208 0.67509924693145984
0.18930542623941604 0.60636075060374695 -0.036792026044865811
0.24065413687034445 0.47408350894393492 -0.040512530167934657
-0.23702006251452376 -0.092053289975866093 0.62797712642796866
0.12339831781233188 0.070142389235555311 0.66898139214922248
0.38605247033691653 0.47845683912609416 -0.15370367153188219
0.35084356572239611 0.27203775128628732 -0.11182423037214934
0.32232354237752675 0.22706911721925599 -0.027654953240166674
-0.47264521283785893 -0.60636004958532619 -0.071051931942957336
-0.0099123359140690474 0.43494197184537109 0.56244125252953947
-0.14259465388540973 0.196984923062335 0.61504273854711355
0.24546723194979927 -0.1203365302354777 0.28128152039322346
0.30420185603125005 0.58549488367040137 -0.12251591948830637
-0.36570669069395539 0.031834523815366528 0.5902151998149221
0.38520480289257453 0.28610918354904213 -0.050535734083235334
-0.13459790898532276 0.47386010640076026 0.5942867360820121
0.11428954605102498 0.075528504365171528 0.66220645841824188
-0.50708320048952182 -0.15788381014821207 0.52416537970685284
-0.63111408507053124 0.02166715070945778 -0.031530899776909871
0.24845454743778669 0.030741751103391272 0.25742622975609991
-0.15231654635136252 0.40250826236753739 0.50439875991343863
-0.24413147529884122 0.28914403889493168 0.60458894192635659
0.28159859406359228 0.34313665708317714 -0.027679782825317439
0.45172960871229961 -0.20716012932544181 0.64922373768520791
-0.020336164143393259 0.16398842752817272 0.55588527092006701
-0.43641996171066993 0.010230422631139824 0.57444102361929206
-0.54087147462196472 -0.35613492229364951 -0.079160165339253435
-0.62435297569100179 -0.50850565622449306 -0.2197900833358441
-0.3661253449364415 0.039852332343691926 0.59530293905068932
-0.54702613488204999 -0.30029981230348851 0.028759971283669014
0.63145439283905613 -0.13369039848284228 0.43007813871678674
0.45626515956837577 -0.30051434221773371 0.64891921126327912
0.46129257876451879 0.41348571809664553 -0.20588645107842912
-0.49280912292208068 0.31192085757728077 -0.098860209126826554
-0.06715436598169594 -0.31686107055790952 0.18860645050032712
0.49385539008612617 -0.13862773302905851 0.59216833765808907
0.40465552290675127 -0.17550616110855893 0.65813908446406444
0.45575434575041712 -0.22400860575662324 0.66687646083681473
-0.60700115691315804 -0.36992321479111367 -0.1620216159299539
0.54386477576332137 -0.16733667131693297 0.60564434195687711
-0.64248604942458554 -0.49046042200294782 -0.21280634828143635
-0.29135752938930626 0.23033283757589085 0.62571194614294745
-0.36769807007563443 -0.49934279604081017 0.010246094696000269
-0.56519435348286462 -0.24824184206811578 0.3018100606146602
-0.22442824570030956 0.25450320366933749 0.60923363524719287
-0.17320667807963433 0.17026398809171572 -0.40005239131970377
0.24370377426746628 -0.01560371850825407 0.63933743976780721
0.34193888949146078 -0.17377337519090719 0.68221933329546913
-0.084367659092020569 0.388325172378576 0.57674114556333578
-0.25272566294500387 0.22598425920706089 0.61658387061339759
0.35439520676660136 -0.1505790853458947 0.39634492702476887
-0.53316537443156942 -0.4107930856874133 -0.11429859205004128
-0.1436118090685693 0.36296327270225709 0.60409077245662879
0.41249022234879201 0.38664892657003613 -0.08411071755374247
-0.55275827924290355 -0.42728916777739412 -0.14877048315695268
-0.31678118558077373 0.1044159311375699 0.61436691584731373
-0.12012261299247859 0.25948122322156386 0.64525089396884394
0.033816306314433567 0.2511008040206138 0.59910193787166677
0.27284196552582435 0.25322784998362208 -0.15453761870774885
0.21812642901225998 0.061159670025600021 0.45628090243545039
-0.16622654062560874 0.29127353595499933 0.61480662979831346
-0.30374894804116431 -0.4420815256023326 -0.035073774762969773
-0.55999696254727482 -0.62522616732441905 -0.14468281438147773
0.16529500736061081 0.27744703979516994 -0.24636805770871684
0.34951452008188982 -0.38042556508410391 0.62159353726612854
0.22212689637885907 -0.25787310746330816 0.65916939852431411
0.15175492792401035 0.0012179487014435317 0.66360783942101675
-0.25942670255748657 0.30188885855532455 0.60503916185380957
0.052571577471409316 -0.052293685864970046 0.67200151494949356
0.038440544993782189 -0.13103273862423875 0.60304128230799825
-0.60202756135277713 -0.40994076963904152 -0.15752672724486633
0.47542183136637245 -0.24414238725922166 0.65366627663829191
-0.09127003422241145 0.41236830145345971 0.58257497531606894
-0.24243587822644472 -0.42932147885223593 0.068199482883445003
0.24254584928054176 -0.28569101422065474 0.48719517537896473
-0.51073533979762475 -0.31801304377895179 0.20249308986798931
-0.60004768610469805 -0.60096327169789276 -0.16713488122508829
-0.23006402099483694 0.015831524858496766 0.62140936554958226
-0.51067595301740731 0.0031028881360933916 0.39662273365752632
-0.021991642062865947 -0.1345233766719568 0.5253575431475368
0.370157367884897 0.36956367543378554 -0.10529744549862879
0.089627227073639487 0.34146587929800803 0.56306086369882524
-0.4440933876640053 -0.34420340431011398 -0.15558372736350357
-0.59615673548517145 -0.23161398740305145 0.48231472136965509
-0.19344713269381891 0.352143805860479 0.54335652528023581
0.25323012700543024 -0.0047227124569720717 0.63260218597870432
-0.29755296391564456 0.051525196091770309 0.6089711168240437
-0.13956794904123634 0.44339169110408894 0.42283782028893963
-0.34357785678474917 -0.15714402461899574 0.58986547481053608
0.11122723945761676 0.37208953355506225 0.53962631752933488
0.42245331086105181 -0.27826211313891563 0.67493685186614294
0.39243864952211033 -0.14588943517972336 0.39791973155106303
-0.5344279316094328 0.12383365372152101 -0.23237495003495562
0.46249488353241996 -0.0028067880936617252 0.52077612673621321
0.18073266270678962 -0.23578752865796465 0.44478790759365933
-0.55772400776467057 -0.61770576832220558 -0.145139044965645
0.38033029727740791 0.36580061643012807 -0.065509789051689499
0.057589260653914988 0.20376217886349285 0.5940668822260553
0.5380347467432306 -0.15755150918744903 0.61023334748222458
-0.26335484731529413 0.16458949612300766 -0.38371181176982788
-0.62187877871191699 -0.60287760854905503 -0.15662478181265699
0.047540172476784291 0.017795287127289471 0.65202872035031589
0.028875585653716798 -0.12294848104667291 0.60141084642685649
-0.42538194326600121 -0.18043071031184515 0.5579737363020304
-0.49403754789021243 -0.62045186688817 -0.084179791277586374
-0.23807884808960636 -0.0061375841241315364 0.62415577335148309
-0.51018283152849986 -0.24219816608131134 0.50885867786849981
-0.35114227405796394 0.26569352157366621 0.61654441728401232
-0.043797042836272254 0.28281487527131621 0.64815293948895514
-0.10124045845433685 0.013773904865086686 0.63637073740605765
-0.39737939736487693 0.0041594659434689707 0.5937834264944879
-0.19833706500517539 0.018255874801978988 0.61886089254346144
-0.56214384814028506 -0.21479214424054582 0.50322586015488913
0.084275586437774552 0.07051309645588294 0.63137799225501245
-0.0029016782767697057 -0.18515988961962787 -0.29176421743268777
0.24575645357052403 0.11704493601322756 0.21898297963036381
0.24073344731224136 -0.12467379829078189 0.24168800318694023
-0.22305187257416231 0.41905395763915843 -0.25238101658057077
0.21097345050032371 -0.17446282661831514 0.30035336225205789
0.45154152541532583 0.50444744869740266 -0.19992842953861018
-0.3977704220457669 -0.46552704136095902 -0.037347299096501335
-0.52516230628005323 0.074517520303397311 0.57310844368666236
0.16811960522108302 0.0039061730077855905 0.64578604886146151
-0.21907035223634611 0.16809460570188528 0.61780883283165933
-0.43188581994353004 -0.16547185220604049 0.54725529166602904
-0.15829244294535313 0.33681009607036005 0.59845795943530944
-0.187879459551058 0.037047924829572351 0.61527507358510103
0.42089668856500823 0.43003267338178119 -0.15563993532230685
-0.46110639792205088 -0.31756502101612755 0.39301098114720301
-0.44105351889024336 -0.081357308525595584 0.59577422700478277
-0.54737563056655314 -0.29473856782041202 -0.0035127959138704923
0.091474552568645534 -0.12645138626390684 0.64579847536038359
-0.4711135855149709 0.02308652273114932 0.56006691927322461
-0.45683099285507278 -0.44400524532317176 -0.078623307488501659
-0.460996941633732 -0.011872100546387827 0.5659427742244596
-0.56835145945369014 -0.52212803747260372 -0.15659859304531876
0.10455194820715505 -0.004113934760304274 0.68725998463288152
0.45427477583495907 -0.0010102048703234633 0.47379553379134381
-0.029131058491634255 0.54987838568769143 0.26856102010852706
0.011065808660355315 -0.088899809842722846 0.62363626417475904
0.6015172715571121 -0.12699992967443868 0.53628901141934648
-0.044205048519504173 0.44179530278248746 0.56667418968764172
0.30800382045838326 -0.12303106617743688 0.37808433262556729
0.15553823507675088 -0.048534233280214556 0.65596790277717987
-0.61920311968644481 -0.57256158567815518 -0.20573023868652557
0.03108810629020807 0.53208283380142962 0.40669504514945404
-0.046104792927745379 0.43314585661862226 0.494338318614714
-0.23011182682586384 0.0059346934221395434 0.62507312231542622
0.28600745307747694 0.36573922991695684 -0.068953864711338519
0.12921763481628987 0.20370243031765844 0.56307219437397615
0.017087380374410641 -0.035770830984195881 0.67795762921804381
-0.11388152492077794 0.26523298663914097 0.64742299317632135
0.57205313195753416 -0.22183759366259165 0.47363819093278914
0.45430411146457883 0.503471692637109 -0.19692707455268821
-0.56719525497967682 0.18606030499077369 0.16355200365231992
-0.47732530890312075 -0.13992649672373453 0.53442456211667566
0.57624501944860451 -0.10498868196116151 0.5541904952988248
-0.21953822076792084 0.43411071594993311 0.35301007228402548
-0.41976401891361526 -0.3176281208046679 0.40696209774880748
-0.0035528364996501374 -0.17502736734284235 0.48170118206890788
0.29640558267597494 0.4973626341329197 -0.10794002928181259
-0.27917394799068151 0.31658766970535279 0.60952845959406754
0.27716064348017466 0.46894086515022515 -0.094662992976535604
-0.59247548756614266 -0.16858337817062002 0.14830549042598182
-0.38419915520692677 -0.22985634788349651 0.55578738258116389
-0.37926849171212768 -0.43395481222233628 -0.012985645236448295
0.37531890440732507 0.62070850610737871 -0.15679240766754893
-0.32643991220380669 -0.23833238108856192 0.56445510864486026
0.5512431531566413 -0.20412053679075359 0.59288086624623526
0.41183350894240683 -0.14625732603270583 0.6637240819852761
0.0051865601836339932 0.37315725056428395 0.58168336963138234
0.30943952296093719 0.4968779755611693 -0.11451534120692419
-0.58405341108875208 -0.35435374902934985 -0.17280549471295525
-0.0035572333932163639 -0.035351477398192076 0.6572690038526412
0.51131045476369719 -0.15602236524559099 0.60878971822730388
0.35938094533261838 0.25966200531185069 -0.0866794919089936
0.3830961761072611 0.6956691043628328 -0.14277047048997282
-0.21048487996778026 -0.092024249720482398 0.60383633232096057
-0.54707626368375151 0.039136765068291668 0.41743596422337037
0.50838751635275214 -0.12394493478976228 0.61613785400627319
-0.035021116735754268 0.31084557878570696 0.64139133150490357
-0.2237250665790832 -0.0071659725512646898 0.60782034918189631
0.52078267029611802 -0.035093467056989194 0.53123440143769252
-0.58024283760249995 -0.38071936390780919 -0.12171956468566092
-0.23401838709491374 -0.11841567747050698 0.61921519353149268
0.25927910115325215 0.48720499529477546 -0.068385488593006472
-0.67193126399497638 -0.60051902695604309 -0.25261912557902183
-0.22784306394827869 0.50604231136958955 0.27156984133791595
0.49604200357198031 -0.13655647033410467 0.59551261339082417
0.075081230065484506 0.068690686626364406 0.64277416818146604
-0.59322562068437734 0.10498745811462247 0.47650890067980778
-0.1508749428342207 -0.27551852518350084 -0.23951639891370857
0.33784542348539753 -0.38248061019971324 0.59987727350874442
-0.37921233162165002 -0.59279419246700094 0.048055827085136352
-0.075322281547071226 0.2055886496792963 0.61039366983515198
0.1561955238582852 0.12786225100757487 0.52363828297858306
-0.33912876729389291 -0.29822960422212824 0.48599564857979438
0.40739549690951443 0.4908831416481918 -0.17145028357857595
0.41294852216717909 0.66280985612271548 -0.1775011487475221
-0.41824290791425361 -0.42079237981854489 -0.060088352973662468
0.20390337268112607 0.30865237497310688 -0.20773446989677685
0.12155630189731012 0.38095495482561909 0.53201054625580246
0.27931960666691341 -0.030817978050373694 0.35949965372316622
-0.56683080674955222 -0.1133322210376661 0.35105938025221395
-0.10121915310215038 0.1882823928229489 0.61540156379337396
-0.36314583982595833 -0.0084417312355700991 0.63537838329632368
-0.13205180520569346 0.31556414598569321 0.64044862619750842
0.25504872156419012 0.54696707128766864 -0.069653246508738248
-0.61776482186377157 -0.51579674324873714 -0.22458774956460525
-0.61904597132725214 -0.64296993845414052 -0.14150028764310729
0.25694933249484814 0.011774073842289033 0.037516404616639187
0.15915507500649542 0.14472285341399532 -0.27409980755106284
0.063573588429582023 0.058437073628263642 0.63904287931504999
-0.48581847191320937 0.0015301210649932284 0.55306563252548702
0.41246102722501726 -0.25009480083286667 0.44094621258197092
-0.54919084617465419 -0.64625630653066479 -0.081565799351576096
-0.3103352742188078 0.032800400754517969 0.60549712272522549
0.17547036320774576 0.078983822102619686 0.45888906100966392
0.3228390117513798 0.37318295002112462 -0.092513701670968063
0.40951201434991574 0.406466940963227 -0.12029157146140762
-0.38325361385676049 -0.32762800720564472 0.35215959619555764
0.54639011495993739 -0.18033788956397562 0.60251463787879422
0.58721849440412188 -0.17266433586244889 0.41342910553580947
0.29200957533694477 0.32850190655527672 -0.025763451872800464
0.47328079746597168 -0.052212555098557781 0.59208986867611002
-0.40374446809090569 -0.57341203263764218 0.047078306183356719
0.3842007134767077 -0.31988432280402063 0.67525145992869517
-0.019956898648271607 0.21056266300279608 0.61627161879433956
0.50939387531098057 -0.18067189575666048 0.62798228731440076
-0.03054432186993173 0.41216859668204575 0.56455389267798917
-0.26205061161793952 0.019489573344466833 0.61817353947392295
-0.11858721889915744 0.051282647510879853 0.61766496986781094
0.079444177694311863 -0.05108312888215339 0.66974567323740453
-0.11511733514280151 0.3500770481486713 0.61852296860366529
0.23216820601160279 -0.25917294330926266 0.465254437497434
0.078375304399570772 -0.18433022927328474 0.60250133424522923
0.18652714290150427 0.073156637967117646 0.48386696338317065
0.23686884498719132 0.49056214601860715 -0.038378849692658451
-0.46930605112888102 0.02103805780260825 0.46618384330577267
0.47313408175811755 0.40249370479035596 -0.17187071776786894
-0.24397143385676257 0.11135316099319904 0.61746934188914926
-0.13978502975045964 0.17500316011465011 0.61198373973792297
0.058102357800388228 0.053845072504417127 0.64608640467447587
-0.4090595420597119 -0.1854364279701603 0.56527409080643642
0.30145728690081708 -0.25347537641429568 0.68519478025901548
-0.61337556685054584 -0.081616508309452232 0.47832976075245753
-0.57902176376260905 -0.22809320442945957 -0.081181669625551151
0.030299087609987015 0.20581794883589982 0.57593117390714099
-0.40846299750458798 -0.37469905384917318 0.18034400399147965
0.096790307284045168 -0.21245134123312548 -0.18182544943927686
0.34289645901355142 -0.052013135170208405 0.63737593233888656
0.44368415206996092 0.61712771113319842 -0.19918546298466527
0.39530522794481188 0.38911153585661823 -0.10064458881933402
-0.27536292914702504 0.021363653210242049 0.61271660656031934
-0.3635382975733647 0.087409777148861126 0.60306159905668233
-0.3770299213122158 -0.59844981515426665 0.031306736712678057
-0.65470046782465707 -0.43197732253821763 -0.27143633341618345
0.17262835527323431 0.35382378916943996 0.50765277181573842
0.41793289524127919 -0.17694149132525472 0.6372696465063844
-0.19941934686208035 0.30491783463334104 0.5788118499755277
0.063637621960806107 -0.19809492789983546 0.55573827881488813
-0.47745345799002198 -0.51129340675348112 -0.083468955789027438
-0.46126588496352927 0.032214074651404398 0.56452935385561864
0.038866901447932124 0.43089952902429107 0.55135879443507285
0.43381691317374149 -0.17453489925044458 0.6239067808778036
0.14429306047696791 -0.029304951209032173 0.65602358244393555
0.43359946953603568 0.6928384187358263 -0.15145700455533828
-0.042925195179656844 -0.1441886155168727 0.51529716848099838
0.47440197431704367 -0.20307778942087185 0.64524247004985003
-0.46875927224189701 0.12179127446191208 0.47891393922804282
-0.24331668930328018 0.57521150659295106 0.058207412722175875
-0.074925711539644696 0.19272839725340096 0.61721739605012615
0.40927305808112602 -0.0096585333285740954 0.43105079952628528
-0.50395593310018161 -0.0057633713548341271 0.54848039072030252
-0.39941889767980315 -0.055601953405417043 0.62760278100740508
0.20498414570063631 0.10678765931193378 -0.21623683241012293
-0.086365258113005661 0.20347929951391053 0.61348523666539667
-0.24327999032460926 -0.13360035669973674 0.5977513898516531
-0.57282633079626066 -0.23084634786496167 0.19806159231387771
0.34282801661076506 0.38645730679130202 -0.11713149426226777
-0.51969258202929813 -0.6533639961632125 -0.053696575430614013
-0.20727964416151964 0.23296008968323506 0.61129656274861865
-0.59536153370668587 -0.23717373803127501 0.030178075602422236
0.021451712028618189 -0.03046240804253186 0.68811002320961157
0.18260579652371292 0.026574322697556399 0.63166445905876234
-0.31379452777073241 -0.084535159388253234 0.65239065894911463
0.43427666877177523 -0.29914510852759901 0.49192468549215423
0.10279381127552326 0.26688208032444466 0.56624720129097428
0.15997959397204234 0.045261316783964001 0.64866996066108218
-0.15205897477231994 0.1218673720310673 0.611729815510619
-0.25045094930234907 0.32606141042287651 0.60239264610186405
0.32650634445444904 0.37515550849323676 -0.099906884108281996
-0.17012848407612519 0.44492803998554187 0.60584018936711037
0.13251065400612425 0.069025181450111828 0.6290336405132374
0.49656882736879221 -0.11850682523416783 0.61469659754113892
-0.35623533934490176 0.37972835987317499 0.51259102468732509
-0.45994811876616376 -0.20326923358804511 0.53807546594950162
0.20515580596950536 0.065251536508245736 -0.21308847455809193
0.32207659712197884 0.55532518680008225 -0.12550002332950883
-0.23582207133466729 -0.10750086414948161 0.61266116266070059
-0.3503639482008532 -0.16926595990945387 0.57860692326620866
0.0056409030411056112 -0.11804765027878181 0.58078505442857375
0.097124431671972211 0.30454717760130218 0.56738463326620137
0.24296699964018301 0.40487717945059498 0.20835517066027825
0.3045431173237701 0.29895585002622616 0.00026402487607801728
-0.321967304845032 -0.069273057664909682 -0.35635564871620096
0.44511547494901582 -0.29258197084068449 0.66109626006256894
-0.051182562782284037 0.20276037485906534 0.61822690416596826
-0.57883255174720005 -0.63991718824443455 -0.10827520654641834
-0.28309770059261802 -0.035180857824492116 0.65344863216510563
0.47008707089692786 -0.14665897086634566 0.59760986634397195
-0.099002153379675828 0.35488447647846383 0.62505745991714212
-0.37440060515562312 -0.13588002054129431 0.60280512615952642
0.1926595695984426 0.097878987986669483 0.42343371666548457
-0.34281390334659795 -0.29543843025676725 0.50266711511594342
-0.13040887878037968 0.21397924056870582 0.60407965787287587
-0.39660767676786751 0.41366679789044725 0.23698604532151007
-0.39860669372146362 -0.39990655682281379 -0.017364155574523421
-0.11316585225741344 0.24241164380059582 0.62926955684975217
-0.18711533942889993 0.26854423732223465 0.59629171027296768
0.017963335207150009 0.0060360595439011497 0.65031425772338225
0.23443210396973055 0.58798020058290146 -0.044848688368335415
-0.58790254287714283 -0.17369146760646303 0.35976274928607066
-0.14501323303655447 0.38915314184919236 0.5918756827547893
0.43759908603445941 0.56188750640948226 -0.22931626796467147
-0.59862177150936546 -0.40427381127924017 -0.23886774236329844
-0.32367027107899998 -0.14931081375310715 0.59846672674283552
0.47894580416894195 0.62441186854719166 -0.18022809565650549
-0.49267533134689928 -0.12995061218114762 0.48796850731715502
0.63563952275991109 -0.12846199973192091 0.44883673667315904
0.28777238912186792 0.3259238051282462 0.019038926072967519
0.23859511012454723 0.051135003916815719 0.30050634806450305
0.40571023793818062 0.63937093617254548 -0.18039252409620821
-0.29239485166564361 -0.026336227781282546 0.6533255238479998
-0.31162816577200586 -0.10434632212370501 0.63803176719546806
-0.5113307939008227 -0.37929042068100838 -0.17213875131091516
-0.0052040496042344998 0.45002639871833366 0.5571340804122441
-0.45918990453962727 -0.22454947350109261 0.53283383725549593
-0.086711400679470002 0.18043450743562256 0.58421836454318088
-0.37992241146078032 -0.21379014262614715 0.50622338771850295
0.030972708922009207 0.25267002013015605 0.59673102533475042
-0.58969459778528355 -0.051177349601861627 0.16898328363248594
0.093214621115443375 0.56842581521976521 0.12981264363774514
0.10827269090865282 -0.22360572828412389 0.40013531982857975
0.15637962345760578 0.50480815570843784 0.44243377504105924
0.044460567089380808 0.49144837015484633 -0.1872274138283006
0.29618730618416911 0.54178941912666534 -0.1119682054585997
0.30852647826391827 -0.28233621539904369 0.47348911147303735
-0.27922059166310254 -0.058076668505249632 0.65168267645277012
-0.48871118163741778 -0.62341845062628432 -0.039894021059250773
0.074252482070196607 -0.03400424890769161 0.6911346512171388
-0.013729365644994539 0.35822221904853396 0.60949944346931417
0.28452267067658366 0.38565971511023828 -0.099462890368490764
0.076949603389785709 0.072078238263389716 0.65399222846897387
-0.094267795217846645 0.41814217534436865 0.58009980354631097
-0.35780667535140459 0.18570629906223646 0.45188356681349506
-0.67218206600046915 -0.45779173410348123 -0.28431844560587166
0.44672831929206802 0.4740076427953186 -0.17092612475032143
-0.060584651096261294 -0.14733971531162091 0.53802048169364713
-0.074836028909558594 0.12822339108304015 0.61232649828865282
-0.67120833843629879 -0.60258793951052947 -0.20221011153705837
-0.37395067382509301 -0.12081913817543785 0.62110660848376043
0.13506571713201571 0.54541994798419724 0.015064294056312127
-0.084729543348081665 0.41377025635036224 0.53167491892894048
0.39884730388905321 0.67476353114099952 -0.17648586596643734
0.21418611496368437 0.59773617209381225 -0.025968251650747176
0.12443968380728157 0.51299870142937265 0.38210166840561288
-0.55926296125055575 -0.17327019168926705 -0.20081550679080667
-0.62842225591336609 -0.50299488628925371 -0.21577973799124217
0.44245051159422766 -0.18071805185767159 0.6180301278760203
-0.55222087131097797 0.050320357113668945 0.56037231634124152
-0.0022188462221363822 0.22351861435404091 0.61199300338065254
-0.12802575808649636 0.58553513766033105 0.16363777382795003
0.20821148808555962 0.066970006613656263 0.56580498229877962
-0.18864564727552416 0.26650543039036206 0.605370218873995
0.18786801342318751 0.46880596480031689 0.39380427172515781
-0.41085766878718094 -0.43153153816637874 -0.10274495708035189
0.0081453444994261659 -0.10377527700219588 0.60312978743920487
0.15457939646274438 0.067846193966982007 0.61615578463168763
0.29093837911698306 0.053757627593910784 0.53927502529414251
0.49779391595520223 -0.18829527966425241 0.62345906733166045
-0.46768447656419837 -0.36138892912132131 -0.0072593660016656014
-0.064565995264969672 0.2493627853621383 0.6472011336683845
-0.15228865828877156 0.17394601661086784 0.55294228274785406
0.44382193569247602 -0.13159185195858258 0.6441371065636865
0.0083295524684302465 -0.017759354258796684 0.68036162088668628
-0.3392376627963698 0.41253032548407403 0.56565094350094158
-0.48969325446148426 -0.39128014354438101 -0.061434524234298266
0.26068360742461705 0.51568124315300534 -0.075928417937112719
-0.16442460380338661 0.21383974093423169 0.61499099298410675
-0.32769231817789629 -0.11041465013504292 0.63757321725215932
-0.5202697502826451 -0.086373794586436251 0.44136659081326474
-0.35982235973421089 -0.26487111359679111 0.54183038947157769
0.27961202926378137 0.57198344657635813 -0.10628056855091395
-0.16133134507817995 0.58866856763109099 -0.035744341616116698
-0.36367242186665061 0.364040462112379 0.61384500770835304
-0.37187594420775971 -0.10732832475883008 0.63158102595906707
0.06854018917448651 0.54979756944833535 0.2370740626513724
-0.27109649156209176 -0.034323172382955902 0.64098014631942801
-0.35138598916541269 0.50787948009014339 0.097556203629010213
0.16876969231625527 -0.1483040288844337 0.66812505317442961
0.151753552024296 -0.23693318391529472 0.14798748253460847
-0.4441355299259635 0.0032422388895332124 0.57119633235004175
0.22436550850194831 0.4486252258261002 0.17962539433196778
-0.084009188753152053 0.2658477365646344 0.64995612478804454
0.18991408352280786 0.46711453061697417 0.27349698622766438
0.10961160935506831 -0.095582655411640627 0.65814328185313475
-0.41894345426218393 -0.4508537470607652 -0.0560324550645179
0.57641228740660544 -0.22600841070140659 0.52002845482125593
-0.33670553788530272 0.27220935398389723 0.41143956483287863
0.23093385483223786 0.065529170749392351 0.54154640597466974
-0.14716990863269816 -0.35923127598132876 0.080336890298322111
0.52963878289209165 -0.032969828886858212 0.50784250311277412
-0.24357262637674729 0.27625254239139163 0.60624396851732532
-0.15190382722796869 0.35648080618646333 0.58442502686990139
0.37228364805942898 0.42782500239115295 -0.12969326193752284
0.44267488470422101 0.43716289815108222 -0.13192549350305882
-0.35974914968477595 -0.49058815333261269 0.004892247821627338
-0.19224871580870398 -0.34744812805444891 0.23006152208066832
0.10374621159256078 -0.036343580551869828 0.675499817389694
-0.39906253221511517 0.12615975247866451 0.4933275068836811
0.019513228215870641 0.42986748720655371 0.55741573424319024
-0.62444433303894098 -0.10109979623318553 -0.0033226866226314655
-0.025636097413630071 0.49621235626383531 0.57487541854943758
-0.24698698010716885 -0.070711855650320787 0.62534729846190351
-0.061944221585278063 0.52219760875245103 -0.16888216909492598
-0.45819428272097718 -0.42183209256262494 -0.078237861487906846
-0.042195513307158442 0.1706552811067516 0.61278513514802102
0.062891905398789888 0.37004108209649522 0.55972808590335288
0.45823207514657932 -0.28490220498538793 0.6545636828181467
-0.58324836657912105 -0.56505536942668533 -0.17041859897292738
0.26561118764486297 0.4185905798389159 -0.068480783809971718
0.60238324096927875 -0.096385764145376238 0.42131586835356272
-0.50461028388483642 -0.44783628638485101 -0.11255523745203266
0.055783938384452843 0.57147587519703935 -0.085589132376601318
0.19598267011556697 0.63020821659284354 -0.043505806055497642
0.19499977656812398 0.444977378396121 0.44321162359345423
-0.57250569619031655 0.06088108451139887 0.55617714959561848
0.39953973865156689 -0.32193260685778063 0.67131561893422909
-0.62287393507426625 0.032276006098212642 0.088379447107997458
-0.61683640427627262 -0.14884679361034367 0.46748241591325906
-0.34219165445461452 -0.32185058140295814 0.36905165877778967
0.12492983990791548 -0.034667771925610158 0.66294590186896696
0.0339093855261004 0.39575543035145028 0.53677703906974494
0.099218299213170685 0.32605850071297093 0.54096765108927702
-0.46663315293528218 -0.60634848363793969 -0.035705743755265251
0.21607086040925202 0.23341470933589709 0.40668154992848354
0.0096777836652812838 -0.031497826004655262 0.66221958967711281
0.029678819326704915 0.32252001655637491 0.60662417886207831
-0.18927614475280968 0.28502975854725693 0.6036188846280115
-0.33490919227384641 0.044708523913433565 0.60359025644660758
0.10417945455812166 0.095120588576514079 0.61832923466615752
-0.3515069705910589 0.14906030038979257 -0.35194620715032948
-0.25322545018246961 -0.015958136880671103 0.62569847469816087
-0.47420986192591824 -0.057621744829572122 0.54175148496212011
-0.31626842489310214 0.17636389513900075 0.53006522527137356
-0.00044715908429560081 0.42215599360676992 0.56242871780013015
0.22714257977380906 -0.036449285846157357 0.64903473108279841
-0.084116104945186121 0.36548863238688789 -0.30823101758227334
0.49886129463127055 -0.13346783613417768 0.60109554388295094
0.5829599904946865 -0.12098562726661739 0.3941820825824367
-0.4998973303055303 -0.13524203175269947 0.46789350989524908
-0.062110701891059508 0.52854652432971516 0.53868784552742899
0.2459786125831904 -0.057498552521117421 0.6547104479247472
0.16869233019321372 0.073182397333422203 0.59254624256643718
0.027170739207783352 0.39502387848886905 0.55327540932457153
0.017714062907220399 -0.014465543775561036 0.68683803034750524
-0.27495059056413429 0.47712108277906273 0.28254705000349534
-0.0469781723783258 0.40377651212634813 0.5665448882700912
-0.31700511535195802 -0.18579928882209884 0.56166765137229602
0.46631598474228309 -0.11348440329942004 0.61808171573605875
-0.58781513580069755 0.094941290790201874 0.53655203287693987
-0.63464147384270508 -0.49680615408938067 -0.21332757316304002
0.18967426745290225 0.5444904426141528 -0.071606336213800803
-0.61504569352404737 -0.20395677418678215 0.398382554082861
0.34902432310045417 0.34395152491913222 -0.10243488007121648
-0.12298810980401717 0.25648717591925735 0.64244456756667145
-0.37845793634415464 -0.19291536126880976 0.53860940009152525
0.61726508348347642 -0.10887634552503193 0.42110673473106203
-0.30971455912775003 0.21310931938987349 -0.35432324277430677
0.10035339059466794 -0.26031358557086187 0.23603364650117112
-0.47649813386470696 -0.048107271771170843 0.56488904797557105
0.083879111841867804 0.32324636883073965 0.57189273917367944
0.1993702293257846 -0.22859501535249066 0.43235138229655634
0.16696405410413517 0.040586069642117542 0.63633311514739055
0.28852270750212583 0.43674197041661317 -0.10300675364475068
-0.39162103135392151 -0.24427381686330596 0.54764800360674215
0.22498148718535652 0.12793082843054937 -0.1744229462145957
0.14992374113559573 -0.015841299469228215 0.65706528970776756
-0.37696383091461388 -0.077026115223468625 0.63616643770067727
-0.26647067416573172 0.17966488438379252 0.62392227416591184
-0.49110049128128597 -0.0029567176721083908 0.45655845038749937
0.38140221260994389 0.37117029563813858 -0.076512293981916224
0.27323945116933951 -0.026808775781708538 0.63987340233456558
-0.19051653471791766 -0.1929148807519997 -0.31057282277824882
-0.47847580955910923 0.016400263912898824 -0.30093718553419885
0.19173947996106594 0.079951149477732963 0.43661950737408556
-0.49642769379877316 -0.40977074048103479 -0.089687970818480761
-0.16647388960310977 0.36771674236672625 0.55643132932046413
-0.18366504249599652 0.26795501097228835 0.60236572737266125
-0.089899592320728083 -0.15917131397426121 0.55312351628863021
-0.59640933861307199 -0.51559843402322836 -0.24583012430665546
0.45660829658879271 -0.10293193848056205 0.63390935556771155
-0.46330675089687129 -0.18471600002686911 0.54208897797217226
-0.56732506106340885 -0.16951602308098207 0.23448191978189076
-0.25338342389389362 -0.1088863438893139 0.62609860857767752
-0.20074000933425198 0.23906612199508404 0.5725148626112726
0.44403950710575207 -0.2111070651836105 0.63591570734757685
0.013764657931455065 -0.044415401535465297 0.657081513898508
-0.47921943245941839 0.012929628820434545 0.55621375648047378
-0.21701075133223913 0.11059182674674344 -0.4007728045997408
0.32686298856835799 0.26412021869773972 -0.0095256739719657701
0.072346906822400192 0.064318409014802097 0.63382783709302359
0.46459824539130051 -0.33056133696079304 0.59632131074196038
0.28431833927980071 0.37302387530482184 -0.084828223255583507
0.3907085784173055 -0.11992083210778844 0.65683680557273139
0.089237265043978525 0.30558739462207551 0.57305780505048354
0.30770308962484477 0.74441118377378845 -0.14913235847525397
-0.66952480638390377 -0.61733668589550872 -0.23013121237633344
-0.063535394419733632 0.20060351399980408 0.61767645132943128
-0.5513010642118864 0.0058322029254479144 0.26316070572062905
-0.36592402493559639 0.051088893060195581 0.59594539362177423
-0.00044525736184851741 0.39695037503104885 0.55459989040357305
0.22874773939848125 0.30462541359127182 0.42899256902174382
0.38042990938993282 -0.15091655015528238 0.67125016771792345
0.25655978655538692 -0.17361390531874571 0.38385508791471024
-0.31377365761379128 0.12077841909342656 0.61913570257748041
-0.60846883088028691 -0.59865928828823112 -0.15903509392235504
-0.33676543768478917 0.15585882549323987 0.54704731873090873
-0.32554462244061005 -0.22553717811596374 -0.28271287960156072
0.44215835693076028 -0.12867292404800132 0.64699489877994121
0.10457990900884806 0.02799901496951536 0.68491446519179733
0.41510031915408124 -0.05902242956574752 0.39555891656421927
-0.57556097508368997 0.20676402441480546 0.10879023474776538
-0.62458905432649248 0.040297040773755427 0.47411623533515407
0.299334915717755 0.60121586715180597 -0.12472285555838208
0.2703151621484301 -0.12653319645107913 0.35648887070899365
0.29907399029068454 -0.2556321434315123 0.452012064018321
-0.33015989842134147 0.057483655949471191 0.6026983996076728
-0.53652139480739924 -0.31103447204268442 0.095811395369807206
0.1056461241630032 -0.222767843442013 0.43128248047570295
0.54694407406020773 -0.24427323966853842 0.57702459113563598
0.22516798334025365 0.27263026181506328 0.43525223173524402
0.23648206338469199 0.69838678410597244 -0.055913042578802002
-0.5092126147118281 -0.083387169609217146 0.53668759387191622
0.0034969757896555625 -0.12967103134761362 0.55902151624262786
-0.50106980169230098 -0.083355901023070805 0.54277126874963155
0.16960862675809946 0.099144543060294674 0.46982209743491304
0.032008628921510858 -0.075542194039697599 0.646519818183795
-0.23576924767945048 -0.40872234301461424 0.011376078868572365
-0.2073900985174828 0.0040733154101873711 0.62304877218045129
-0.46457968995067028 -0.50890385022163709 -0.072923859939431956
0.48509787242845986 0.61371290220120733 -0.23618181425361406
0.065132285526396161 0.061808998101690021 0.64404449448152934
0.38031335739658051 0.70600337778221511 -0.13500191154249508
-0.38410008024359998 -0.52018991384641089 0.018888401514921202
0.3636188864175342 0.43699168027311408 -0.12905107836386892
-0.095219264769590251 0.2465841124002271 0.64398316102215114
-0.063408080902172953 0.36846343848406865 0.60644831238129071
0.45152231209458155 0.37094088811344311 -0.12736939980443535
0.34778397582752058 0.32266689550423616 -0.03367780023445241
0.25256611943160406 -0.31587368879826927 0.63266498962364071
0.57436355948973694 -0.15821092619137156 0.57292455526423147
0.27386160249922858 0.40270938526924843 -0.087714990384355013
0.27036965266200985 -0.24036046115264603 0.44244754663716257
-0.21252097290727898 0.33208186405217566 0.59938675845240041
0.2986881510167787 0.43608348453950452 -0.10760383998308062
0.29367936686817103 0.58621759880910695 -0.11831920436345383
-0.013583510504216943 0.4247503305808763 0.50790939962482928
-0.36127908345546889 -0.05559611519033715 0.64485525624084117
-0.45911301007677341 3.4578461960158013e-05 0.56577674108177323
-0.46736528486523948 -0.31926477002853404 0.43338519539263037
0.034924656380353573 -0.030613688258221868 0.69459992356114886
0.48138692300531499 0.57012906125660789 -0.23893743029376902
0.062698623742311027 -0.0068466755172402922 0.6951488752888586
-0.23458810967941818 -0.014024451357948074 0.62690697774808135
-0.62074240531378444 -0.53747691866111458 -0.25881039331482664
0.58379033853293683 -0.20467383518581755 0.45677126027106468
0.33450327722087669 0.36972710140101522 -0.10151734651685115
0.42455565745158974 -0.13507171490147329 0.65659055697064184
-0.42410906567676648 -0.07498204494890684 0.61254303343686223
0.032084541929951284 0.46861106325968904 0.54787605444528187
-0.45904969495938003 -0.41506290338221702 -0.074370307599317759
0.019098948506356801 0.33350995569123443 0.61133499348638498
0.46773667336474056 -0.17158445871885342 0.60397072926534223
-0.13942869660264204 0.3592197799699296 0.59881599017897424
-0.21777617228742926 0.22838257396550454 0.54219588351986303
0.4052678627931921 -0.074702846366940148 0.63364828022585418
-0.52794376358567585 -0.34543589298833965 -0.071188457286463336
0.50310066946649512 -0.11293263154100522 0.61744262820222851
0.35230482855033596 0.59317405122819356 -0.13938381620621854
