# XYZ point cloud file
0.17677597623401814 -0.16684379226003471 0.41489820552233064
-0.27108933623833881 0.15701378473373845 0.53318268274454539
-0.53438548311109435 -0.46248661661317042 -0.078425448640057044
-0.27971510993979071 0.18202140904116376 0.4695001231726279
-0.2490854754976411 -0.20076389326607591 -0.18068308545879178
0.31186407284916529 -0.12858405037261733 0.64414090750018305
0.052894711225952143 0.040138505921445494 0.63250018779479644
0.31867505319160688 -0.090257531406769037 0.43078664611594475
-0.43231535248162006 0.21287215558295197 0.085029706278772668
-0.52198140431834761 0.1139135075086584 0.39161151582180015
0.34631027414411708 0.41624065891290801 -0.053886968609974356
0.19587028326119521 -0.13236294766312495 0.39034004558582813
0.19595501111109709 -0.23261666581273993 0.48059509169972525
-0.29071778136820869 0.1058805740381291 0.52283296429018589
-0.46188269064596171 -0.21447391750890921 0.11580418331402743
0.044163107435859099 -0.185926480921835 0.44333196226465499
0.38891054377862971 -0.2404827937967085 0.60501173430579658
0.20082202389566844 0.2046258588769847 0.42149313633073088
0.30126787173557418 0.50832480072521391 -0.010482108423672087
-0.44806424118763172 0.0055498833052825686 0.46252056616667792
-0.038145639094034088 -0.087728578881899874 0.53162343324605899
-0.44192734724765487 0.0051815983326773882 0.46825055502338064
0.13188375847526912 0.072460853480750584 0.45730146281893924
-0.015529537864110179 -0.039359391708927279 0.60191836593578119
-0.22199793087262337 -0.33498125447950289 0.081665722135486105
-0.19888198924709943 0.050339573429402651 0.55474600227745929
-0.41345370890305821 -0.39814394515178542 -0.0011877944143606489
0.50807637351871482 0.3960882820416321 -0.12882239808943288
0.028183895249789037 0.068619373654141225 0.59293568240069305
0.42568463233459408 0.49165863952241112 -0.062451198990546214
-0.35677275749966914 -0.40852739320028719 0.082220119217630311
0.37919496524837715 0.27486783406001292 -0.039496736580694775
-0.080060089993635619 0.23713030496257131 0.56456311868780107
-0.036429136088290695 0.32965962825203926 0.5278962408351372
0.44264628651507454 0.21134411963816396 -0.025165928173379731
0.34477590150366033 0.19163719570922727 0.045430691521094191
0.13615455150919398 -0.2610698835830404 0.62852792083512898
0.42193259492068114 -0.17378943054853263 0.59791403220413131
0.29864669458849313 0.26052598590536402 -0.01147343998829492
0.17520948166938077 -0.21777272569937162 0.46899700122924726
-0.16160733199457566 0.31613199772927469 0.51097249553026158
0.32449257903722317 0.28323661769206865 -0.027887615836282242
0.33937903986293555 0.40520158158105174 -0.048075388622481896
0.018918679373057426 0.36152508109234871 0.44775863814251271
-0.33310084684074598 0.020837227037174194 0.56270430688345419
-0.39959846873979182 0.070381153316141892 0.48487551229812242
-0.43402985980921205 -0.20012994530278266 0.39906529600475793
-0.011650691327929615 0.0010202095154285343 0.63825720986890211
0.50002778998295261 0.36076041905290596 -0.12824068184374124
0.013774940085331627 0.017317075950471571 0.63954251897403436
-0.22351393931821772 0.0389730261253141 0.55670700602209122
-0.52889101093369273 -0.41977690441443422 -0.16567889727293908
0.43344924786012878 -0.22261081341538291 0.50712028495764838
0.34515253304868204 0.22567892358383124 -0.014750192252370564
0.29598543740549205 -0.1310053005541153 0.65083160386708105
-0.38394954178054019 0.0093295081287093073 0.53186095708543668
0.058125784370155906 0.39554993864587634 0.48149202448092021
-0.39752661307037934 -0.32243290292129428 -0.0087072136235886166
0.026116746547863029 0.29235000103523345 0.54208139481951279
0.3310097673130532 -0.17008326161152215 0.61442949708994421
-0.098798338679031567 0.32999943476668048 0.51528942209380546
-0.17373169474528466 0.22735538056298493 0.47124961688665468
0.28942643828243075 -0.08161664914714864 0.62586630306557578
-0.44547000551941068 -0.25771157979995152 -0.017559603033937915
0.36576642932947862 -0.12511319979953267 0.62444748034670128
0.38964709720054541 0.40249992746264124 -0.060396227422080395
-0.23629151370423707 0.0070448200360921504 0.55508707125428303
0.013540041156136298 0.25762448605511451 0.56083429788493255
0.014783035836212818 0.047272609775208224 0.59617343273522627
0.060856514455129393 0.006206572679595769 0.63371244103730051
0.41316452968174194 0.4386975888458759 -0.079846488220374073
0.47926183309808223 -0.18234773526113585 0.49375868908191511
-0.030291378642929478 -0.085431343008491145 0.54987257645818677
-0.25942868477625847 0.3447626700425882 0.4149895092600836
0.4120966008620725 0.24793509637687688 -0.038589114914168582
0.15377342198347621 0.40221972958902369 0.32772598599056357
-0.22370594864865617 0.39356533647938446 0.4968431716473356
0.32750561636728159 -0.2142503874890116 0.66123220088504797
0.33671733433303636 -0.16450573560653758 0.61063189445815691
-0.44892384540020425 0.077198757340535787 0.46562162983905053
0.34913319594359293 0.37859568521266118 -0.046065736243437211
-0.17692521520308552 -0.31107753599787363 0.10190267663470322
-0.34921904967180573 -0.20266820036708483 -0.15393305775270702
-0.3708191470316306 0.078629883903136022 0.49669581277233277
0.18224158481563812 0.010479581695161055 0.40242916914365773
-0.12865669737036295 0.38084958647199041 0.40714380986749876
-0.13147832793346986 -0.30037956150030143 0.091189388448228909
-0.40860367536911574 -0.081899496406751288 0.48736152965733759
-0.17857311631591882 -0.30168508649772885 -0.0031969510757151876
0.27230465103934287 -0.17991072491181126 0.6462459266023397
-0.18300769434982811 -0.054184474965391527 0.56594499362175321
0.13851732408120027 0.42715865917050327 0.4287768962758689
-0.51141050078299666 -0.45830117674542298 -0.085433946795682475
0.45678435988449206 0.37993019778995113 -0.097166388169925705
-0.16008619844285787 0.20003479914069933 0.53428859876552848
0.34298932500285001 0.39202198771410962 -0.046213864552316825
-0.37690208300729494 -0.4567730702319705 0.017313839599743724
-0.45206510720593912 0.13774417244424508 0.16051314193115779
-0.36742065372515981 -0.29064116686570962 0.060901148405860486
0.03221269654569766 0.47906676241377072 0.15337352348079661
-0.24699673923769683 -0.099189198093695502 0.50526398208183543
-0.40930188660971201 -0.016816608998800095 0.48830410608225183
-0.40825294530050937 0.041649227943140632 0.48636009489943266
0.35110556337134291 -0.12616912746641001 0.61790744513513129
-0.29384520886114068 0.010630729723127626 0.57676476933734577
0.11093649152111695 -0.21019550443065227 0.27091037245019278
0.041861861734320334 0.47552229035219401 0.01999403858433213
-0.53106577289999335 -0.071842799491912995 0.35019367405109536
0.34866965918315923 -0.1866825431799029 0.62930385743102291
0.32411298033323371 0.47195490565703696 -0.02512340273630051
0.29083191018449484 0.18316756909113424 0.13572774160847972
-0.34926079149335709 -0.03539638884368275 0.54342175991588049
0.27471862496976363 0.35593735564539813 -0.047053681891744803
0.15402068190280477 0.0037128477563569198 0.60205522305304349
-0.3653268830034137 -0.31789703607251774 0.019742807816166635
-0.033071554988158974 0.0090209452460921491 0.60957297772167773
0.16123390857873532 0.11685647411427715 0.41770945446084817
-0.37238563064643532 0.012218991008564724 0.5399555518607394
-0.2992250785407336 -0.30195019522994232 -0.057013101573541863
-0.18410121570221349 0.27497193714682039 0.5189148099020725
-0.44496447037645048 -0.23405649243485716 0.059156147243984714
0.18422351947290799 0.050080691920296433 0.35806235237522316
-0.40962344516969973 -0.41967128355128458 0.010718252893353264
0.14533778654048718 -0.0038341426187534847 0.60729182145313887
-0.25251753237804814 0.24260117667089331 0.5312298075801557
-0.37720349777730444 -0.32051752520250454 0.0076080581489319232
0.46333781287460551 0.46588406187947812 -0.069049666924443004
-0.14950854694919763 0.33293456364299767 0.50894393601303811
-0.29910781589544622 0.31691965491977137 0.50976366249435623
-0.4557098003390968 -0.27338919860339855 -0.022640764319106471
-0.27718434045933182 0.05315742967133355 0.55820547966216971
-0.4601252010858915 -0.34376687721261012 -0.070976880889653343
0.12591508845363819 -0.26784860720849502 0.55905364180950923
0.31947404791190653 0.41206640461884597 -0.03332602226101633
-0.25595715305677996 -0.023667604418906432 0.56152121839437752
0.048795304803773219 0.076621167326910961 0.61074712084213367
-0.15007921077527558 0.34103054234359576 0.39439049655025193
-0.04239501552548814 -0.10986105595535681 0.49181825131860535
-0.17679825239920066 0.24527777925034039 0.5260045993310124
0.36144857888371718 0.395322991237188 -0.092960073924212877
0.43300203786998764 -0.2117643029842014 0.48135336788192828
-0.22007859481125569 0.09192047898148907 0.53985926775348014
-0.21829932289433096 0.047645697489047859 0.55738454390657877
0.029001601303720953 0.40383724477098365 0.48733908428056572
0.43026672446838848 0.52262052127720482 -0.056877939984300963
-0.35322573081205733 0.08739476422482291 -0.21193963500111487
0.13589257400802335 0.074535484458296608 0.44343405173466033
0.31094284353054596 0.33812294264206533 -0.02282013390986562
-0.27965927821899095 0.020959657984572083 0.57817639336893889
0.31808015622291608 -0.18865696933465925 0.62534227678388865
0.17084626471974945 -0.17588652307596198 0.078482442923831081
-0.51720301363160703 0.016664070016764829 0.4368675228807215
0.0079832328622376839 0.055588380911708007 0.58359337651247711
0.093482168444290442 -0.22524188540722795 0.61037388357623812
0.2710551044922585 0.25115963667983127 0.19108298999498829
-0.10983920357349518 0.23623324430360376 0.5425255216766236
0.3742937818968663 0.26291952895941545 -0.035093374068853156
0.27542441683152796 -0.14707601832682859 0.6610676372865697
-0.55998947361835294 -0.47248276019445573 -0.082802546973725549
0.24535704931983787 -0.29594604068623859 0.66904701506892872
-0.42318634976951058 0.089502278023334228 0.47181535638281513
-0.34517205488718777 -0.32414624698275374 0.025592370857570851
-0.49790862512651873 -0.17859897021461868 0.37593441746024792
0.02060173715976275 -0.12526203998894736 0.59414732133108505
0.44084786788308805 -0.17017645750944393 0.57930479404715829
0.37111549641544106 0.16602976472983072 0.047127071055614395
0.094074149702146462 0.042754393582681446 0.61922820222612607
-0.021345591431406751 0.30235955237713036 0.5548259398724511
-0.40558069952700837 -0.16302711557423483 -0.15087487354149995
-0.11659377121205977 0.22918966181544664 0.53535157648030218
-0.50930171392920676 0.084238229695387981 0.36123023509515201
-0.061249116312173904 -0.10196986687395096 0.48555540749700654
-0.13330621729743211 -0.057595581499861229 0.56518076679334717
-0.014276484685866809 -0.013993489453949223 -0.27407057476424657
0.10509202001638816 -0.17593586767316077 0.64356294873306663
0.031245932369472831 0.01114448320281778 0.63970635163527967
-0.37238276605568404 -0.0015859620880884773 0.54054926215418531
-0.4162835865910775 -0.33596624885587845 -0.025825616994903516
-0.092035126967221936 -0.28062618616695034 0.18842892788631516
0.0067712941666807046 0.29148313142770133 0.55464628096786806
-0.42483107138632514 0.020573970028273526 0.48459608967354573
0.072359938825761069 0.07032122445421489 0.58834569772645207
0.077329153381531929 0.26051240741137588 0.52170020337440415
-0.32376788085282593 -0.32895816689680685 0.081546473759756086
0.31702972932652418 -0.16848158796037477 0.6199050276047916
-0.46232486258288386 -0.0003725399370986815 0.29819596465783654
0.085938047453329988 0.31699660200353075 0.49843860589719913
0.39452856738895409 0.54192492795910374 -0.087515837543468117
-0.35470762650926674 -0.29238790360320177 0.087847495732965714
-0.28829239338361573 -0.32623382234882264 0.15079326653005298
0.1602592311154889 -0.17195952596591413 0.25531960592599079
-0.39598576223118798 -0.08509511417009287 0.49445874933901546
-0.36547015959299167 -0.32145144681124149 0.013879743228722347
0.14337855907097002 0.26009193789132523 0.48593261935091314
0.49162606007141479 0.30258782040881754 -0.070997995915382611
0.36699072800754307 -0.1719701759801871 0.63019183436689452
0.17451221192665861 0.02605029759996591 0.43306697978155051
-0.50161272627158981 -0.31728818989358298 -0.09027917219981077
-0.097198392468171455 0.45799080997060171 0.18662587973172351
-0.04700246783556486 -0.17125964808481448 -0.20539767084993607
-0.46642429320784373 -0.25714920190564788 -0.048990501570915918
-0.48417028964762659 0.079284642734289951 0.45940498049063361
-0.10044376764813767 0.33197348116901393 0.51737667365135365
-0.09466234307861518 0.35044736992673003 0.51021270196040924
-0.419356544491787 -0.43866917672327782 0.0046228282556382838
-0.27925002030456814 0.13151759949430436 0.52641084594246301
0.22653378230378252 -0.26957435836168847 0.67654324738621674
0.47334824403065517 0.38601095386233891 -0.09390435996476218
0.36328113410689389 -0.16980144004538039 0.61817140425176142
0.28762869396030621 0.2760252342298064 0.01044779398286988
0.073471811190439273 0.42565825972373117 0.29379990517953236
-0.43079106030851372 -0.033106196173831613 0.44390673622555277
-0.53297524645936423 -0.30402043480050089 -0.12374199227558277
0.36158155196061659 0.5456444217945583 -0.037275065556955977
0.42618529439683794 0.47019571382031716 -0.088433068124647324
0.19542234525795749 -0.32634352389229276 0.59575679891235056
0.17739622099851937 -0.13891597270402459 0.66109098135016797
-0.28653605848617536 0.17131526193554991 0.41057667152884364
0.10169251187771056 0.42464562131609684 -0.066292042318421313
-0.41174678385804864 -0.28762869315967488 -0.083621671169532535
0.070579508961736037 -0.20342697094229889 0.36128165494800302
0.36485554501627721 -0.2736462326594537 0.58276284351598773
-0.08522050938254902 -0.2437044370581678 0.28127912817602641
0.44825886927713382 0.25946759959955801 -0.1016249164567268
0.35834304633093572 -0.15203229159239795 0.60399174887535623
-0.11493843822730934 -0.29426079933465987 -0.045220591754714407
-0.43616846351165062 -0.25685707166606664 -0.0066166799808898002
-0.45473270035408059 -0.044339308560511201 0.45789592962815484
0.01100239022540813 0.39376615032640272 0.48849218074729883
-0.30074547717892364 0.2129715093251478 0.36068120402490556
-0.39173454084609116 0.0071307297223306282 0.52541105095952589
-0.41400112238053632 0.043722114064206175 0.48612923536864561
0.26612190782878942 -0.042017444613915059 0.60611919890985866
-0.49869461750442873 0.085865131900049504 0.45294087935967497
0.34146170507395507 0.52828844957848131 -0.028387602382033583
0.2800247049440594 0.2419912868738619 0.059927187561688258
0.33227296533091027 0.23512236068216508 -0.014324060212113743
0.075305870648395945 0.44429955312672625 0.38133971281849721
-0.37427325843048848 0.051637920123239006 0.52243733382760915
-0.36621932102706095 -0.41877013247666955 0.09048874454374288
0.12401123718181266 0.42452846076604506 -0.054524510647773194
-0.36274706200698398 -0.081305542037091436 0.51178841735993386
-0.29113284404795509 0.047801053588632292 0.56745885512776384
0.15823813447403812 0.40749162383623766 0.22660195823444912
-0.021980694714127721 0.2018169365711977 0.54894664633612678
0.36091544479960774 -0.20174036362691578 0.46167306455693846
0.13759653710906095 -0.19700782112280441 0.44532784567929973
-0.033021781637764688 0.0075939309596997698 0.60009591782308302
-0.26973343907840319 0.045830232963705156 0.5628370605187385
0.43640973240480591 0.40923245427004262 -0.086102837323187048
-0.067316909012825166 0.23703873898302541 0.56848488928361895
-0.51865780074952084 -0.38499427870213404 -0.13601366519681643
-0.34152149207843646 -0.32964066527295194 0.02518670792377925
-0.278452221487834 -0.32577869077930305 0.16283638657299368
-0.25362878097140207 -0.034408938683212709 0.56009361936738711
-0.30732630752474094 0.045136553366632123 0.56436836397668666
0.018701674838986018 0.060399259133181907 0.60130883546245983
-0.27200690884313394 0.00089596624396893337 0.57583572269784034
-0.11379997029658016 0.25023795123480375 0.54583700710614058
-0.36031510393318417 -0.39020910121660518 0.042986486381750982
0.47197051881509444 0.33654600035786164 -0.088223915962509364
-0.025814321346500455 0.41763106546243789 0.27175679104068673
0.47522031450974928 0.3824192905020149 -0.10589308942977629
-0.19576526576289921 -0.18140275908324011 0.41598630752317178
-0.32308072298400786 0.069482865449959116 0.53211021587463103
0.29576046280569979 0.26071532428208866 -0.005017958654314536
0.35513339380719355 0.44486940504641376 -0.062353740478496511
-0.23098811370017552 0.042942331941686798 0.54630599901348487
-0.43930247107129478 -0.25006786363953326 -0.035002219910579252
0.19251648438857377 0.034552404366975598 0.54575003781219944
0.31332587192295952 -0.22917938562902723 0.66605316825729333
-0.057310494444758428 0.47439962726753931 0.011782812600445863
0.33143110836239048 0.34555159414050829 -0.034653701448721486
0.2744336964971209 0.35400084719463609 0.019075894381247155
-0.09198354540274957 0.24006483071971629 0.55943807840608151
0.19117776041815182 0.18026756357090179 0.42863623451807542
-0.42454058201212336 -0.24652874958682541 -0.042115272188616965
-0.34999537395464858 -0.35630339466662103 0.031293231826474727
-0.13159579770704183 0.32502779875810067 0.51669575035490867
0.20802002345929699 -0.14122028880778309 0.66344826127608436
0.31968984637491743 0.2383984122199293 -0.018185385192359127
-0.33711032747517117 -0.033350449932405248 0.55292085219538045
-0.42677839054601285 0.14135503928634768 0.37068513894344246
0.15998105361771309 0.048633535856548338 0.52341647986788498
-0.030477153794312026 0.36901997881737381 0.50092758680152993
-0.3867576222604649 -0.19028107668539768 -0.14435474639335047
-0.4938400274062168 -0.15729494463591362 0.11808697633508905
-0.20106288415708595 0.32221791768505109 0.40984236135894203
0.20016831237837346 0.018155092256417621 0.45044889118163933
0.33317289358989038 -0.18907095384361433 0.62365647742581576
0.30198096181381495 -0.1897975948397157 0.6610448730442009
-0.37740664443443578 -0.31668419236241274 0.013145288769229907
0.051337656959269819 -0.27065881647835893 0.11141732813934138
-0.52610957803047309 -0.37136214898758513 -0.12946865558528522
-0.34195836759287812 -0.43707161800897648 0.13969218257571428
0.16141041147911783 -0.29453031014587444 0.5570386000993226
0.38120782712286994 0.31846442849003787 -0.05054467232007373
0.22254823687816694 0.0062044059737173946 0.20975875624701598
-0.21418554705345372 0.39992380623381563 0.45177949994970645
0.010049510631856363 -0.016955886144335363 0.6325027659042205
0.48062497644947805 0.49658888740357948 -0.11369380095444157
-0.25835212912724259 0.19509430987193144 0.41551532690426418
0.28036683262766943 -0.22869447125931686 0.67614678926938387
0.46579020178657465 0.40256066536353713 -0.10313591376407341
0.15436163876031672 -0.16089192973892519 0.3804885632262458
-0.44029348044686933 0.0010133368930517056 0.41881163275349709
0.23789298081829707 0.14884874792467362 0.25888514015188002
0.37279325416664039 -0.16524867357693152 0.63039487289427565
-0.050973942075226493 0.44864622589062109 0.21134245244028999
0.028302083827480014 -0.2781761622766703 0.0096900360644105454
0.42638657011807579 0.23293116986954893 -0.084158520139690468
-0.28043512419818295 0.013503446629232516 0.57920045080129423
-0.057901009156771453 0.18321985196419144 0.5485156299240459
0.20300537041907751 -0.20528499436827757 0.67653787978761526
0.15047005353043325 0.104728040011956 0.43523070390069529
0.13100462976809896 -0.25364126769573009 0.51872918016958269
0.041287736725794978 0.11109387265258737 -0.26092974341360442
-0.45403015242419148 0.15951650340608681 0.37653080743411516
0.22498287047230409 0.1653305567812885 0.29869894061190849
0.47194379793848312 0.27568226861919909 -0.050819635653891942
-0.34583290831391172 -0.35825727156986681 0.045940040037511592
0.21869826494720113 -0.027597183492276134 0.21571673050711004
-0.19887233610006172 0.13221671732007279 0.53997001314650916
-0.45889900169417358 -0.030940295844488673 0.45539193200973138
-0.51430306214810384 -0.050198064960574641 0.33689302072380622
0.22886312019507193 0.37173410408467755 0.069915159431267901
0.14372058229769802 0.043760764036127373 0.57064338341121645
-0.36071054626768378 0.079214709482910178 0.49890964144899697
-0.4160052466904996 -0.32058504467679816 -0.021947118730676035
-0.41785345913853933 -0.25789411778233562 0.07576808004913417
-0.43868714941196019 -0.024984725868244309 -0.15812864758751641
0.17591770359018383 -0.25702284130488412 0.6642220138595375
-0.39821721365022306 0.003445790924865369 0.51254797108947991
-0.251456805008131 0.096782716690673495 0.49086623368286175
-0.41202521723037122 0.22697266433732238 -0.0070506365300058715
0.05497150300671963 -0.11080663445112027 0.62446019666559494
0.35629690030811156 -0.1359140845702905 0.61191877882794654
-0.48593837074696911 -0.10129150349789272 0.21942242363650238
-0.40503377913640581 -0.055495988166279188 0.47531938691266684
-0.44854319505575868 -0.053191803403471745 0.46243632415476477
0.28324485803287808 -0.19154967364072439 0.6421703686688035
-0.17284272979853477 0.19295347685806441 0.53553481264109204
0.19463682639415253 -0.13858935805733619 0.13069497239872951
0.051029195943485664 0.45250565233032419 0.4048081524133833
0.035891906327829369 0.46050328337770347 0.47768090850375255
0.30314026546121542 0.22568863221461521 0.015160682916212309
0.48359611505008254 -0.1522168115515169 0.51100299885345823
0.3288806092240571 0.38288596882029746 -0.038289106129671763
0.3681539875011175 -0.15478256313521493 0.61954139997457336
0.46363943335094299 -0.19055269436906908 0.47042708501020092
0.30763694297349631 0.14811672309752627 0.073864668887104704
0.23577263195648884 -0.019735149832578805 0.066478504319611442
-0.42445863585483051 -0.027699374687196646 0.45966109760051843
0.46562852033498142 0.33744465877953578 -0.099648083280575311
-0.44976717817336548 -0.48561180896326667 0.0010582804154400105
0.34158691337902697 0.21532404602768496 -0.04887413094696838
0.078784814416510737 0.076744364860440034 0.57734390225698506
0.33949958927232282 0.48510358385599012 -0.034057462477902645
-0.26030678830551818 0.10403968082524605 0.53068127412378252
0.41956257956268012 -0.21076752536683657 0.58931479677124943
0.070442650860553555 0.075608954966239234 0.60189335183655779
0.078890830397712844 0.45454952812875338 0.46283659409749422
0.1219984906039233 0.27421600093770276 0.49339183612641457
0.32776017440258526 0.19495005407914284 0.026415015231545463
0.34935189353531598 -0.18348837081866215 0.62143147326555803
-0.45398091506440402 -0.2095141903059391 0.0068767383730055642
-0.06812528823239343 0.33121971013937779 0.52074630711181902
0.26856883339407939 0.40596633804694254 -0.038932751630460644
0.034386406966476754 -0.18262505419277408 0.43514606831239377
0.31207144631262862 0.35013467215751443 -0.024182403696853094
-0.27421102252575885 0.31773527191371276 0.42120004099834907
-0.53207701184033063 -0.016903495400835539 0.38585223625349341
0.32666665546496032 0.53462452377592062 -0.045511866600537576
0.32990370827837268 -0.20476472506005372 0.66060095862876456
0.33606839374490843 0.16869506382823529 0.061256634630862145
0.34229368993194492 -0.10641662002753334 0.43273981990289334
0.25424884611198534 -0.10508736202293077 0.64398796564528593
0.24446527121402778 -0.21208488923384183 0.4573147760672055
-0.098150964399937007 0.19565480706402755 0.54470268697473723
-0.13779750790420281 0.44802166365683871 0.19417140985104955
0.25327260491355563 0.10496849620000472 -0.079185293361214187
0.41842124786475482 0.47844500187385469 -0.07628031616604633
-0.47100341727996931 -0.17973399803071921 0.41249196187729137
-0.39605237220753098 -0.20420420390245492 0.40074068504413962
0.29899871328996552 0.24843941975933354 -0.011396923925646479
-0.48702483848648725 -0.13920545924095051 0.22342366152301205
-0.091261895680466026 -0.10642161860201521 0.48515255193969642
0.22997406647782437 0.26457593428569709 0.30582723002990736
-0.49540165173013423 -0.055015293098114842 0.44785254030698651
-0.32851664716685874 -0.1957967119123058 0.43623035610542149
-0.054454957833698768 0.31773943809745314 0.54829060010222741
-0.095847793851994822 0.46814116863538374 0.010328870119976769
-0.47624401761062901 0.10938234864049994 0.46425759072195261
-0.17889349821989331 0.24783385445085271 0.46555479535152577
-0.44870737331663813 -0.19883825343968675 0.30508057231906405
0.25676433323957065 0.37489746692176412 0.031119626840369286
-0.54375964749684069 -0.084311286021528181 0.41146882947103086
-0.29898731388154676 0.089213637921429459 0.52115721779990531
0.080869243913698707 0.058826728549925267 0.62445535527974116
-0.04100999804019026 0.39515923374791406 0.33402464180169189
-0.26975062879022493 0.09328140307441414 0.53226602315202765
0.34241438155930459 0.3719477091306902 -0.081679789661888963
0.033312876825025019 -0.18077367014453177 0.46175155674355295
-0.19254055195390429 -0.041090662094416745 0.52722328482610326
-0.43630366851413621 0.038507424356665723 0.4679414376549329
-0.29945783218389199 0.052016532333759927 0.56348290088534014
0.22030025168227396 0.26917009565987021 0.33838141531725296
0.14653073744002831 0.067725907851481484 0.42929802822684471
0.36979681412590287 0.21486678807357995 0.014428920390523903
0.26792482999128214 -0.14275163529586593 0.42906729112879033
-0.17898741168289078 0.23217255563636569 0.52769212263565435
-0.30028441782581106 -0.34297601041590753 0.0029603274741844265
-0.45975830193057554 0.16768208484751146 0.066975166944006945
-0.38317470231532846 -0.37500714198908053 0.014869843604069566
-0.43159422999783403 -0.47781568678605557 0.012757625543292184
0.22328313606435918 -0.19699097473996741 0.44661357981422889
0.017507951032727398 0.045786658258282764 0.60345755921391175
-0.50882405619125315 -0.057457299620563188 0.445525945132904
-0.53549115034823369 -0.45222970417484237 -0.099900563768018119
-0.42581546121072927 0.063433273663847337 0.47041493058886963
-0.25750328714951759 0.054615760046524908 -0.25892384387080858
0.34772108771693599 -0.2795964802336971 0.55342997595803556
0.11802224452687017 0.44938838985053736 0.42800257190824842
0.10293647943157608 0.036351870627330862 0.60859602720699812
-0.043671620856715034 -0.038794296917797948 0.58334153258366317
0.32826675587451082 -0.11734312876280947 0.63249649810021014
0.31256853213827901 0.22544604140785285 0.0098006331088102139
0.027148970829784014 0.19613090961130442 0.53949333725255644
-0.34110106876550311 -0.0029291940559514826 0.55931971124911817
0.19246122310638203 -0.14332918103533909 0.075612633791252326
-0.49732745584828725 -0.020884544451680573 0.047320321111566505
-0.19775457983527023 0.092077770851631754 0.54209291346422239
0.18351614012894996 0.3761052177323117 0.41228215707003435
0.050621423653057905 0.22765190826359427 0.53611554405613149
0.060557098221473066 0.2205234671045973 0.53129275460728398
0.33801697165122346 -0.21082402886931023 0.65614826164619122
-0.1355252128747062 0.30455760480442268 0.5063736520143659
-0.065392926488993183 0.42704396147961743 0.4341590972120799
-0.14357099518772837 0.24509471171570396 0.5257348063036541
-0.45634967569337259 -0.25921462292087616 -0.028880926469762147
-0.15633421549581927 -0.29677531112699651 -0.011843901679625457
-0.35945747959632207 -0.399590727123525 0.056384432373886892
-0.46878588629501 -0.34829374131180674 -0.081647525531510196
-0.11629884882336036 -0.11377332359511269 0.49580935624872469
0.33352601001704824 0.15448038448085499 0.063973624433265069
-0.29245309715727796 0.17257068381867358 0.52224429595361399
0.406769397405287 -0.24515641629894003 0.53458941147220018
-0.11899940157567442 0.33976634154681284 0.46366351878647405
-0.24070180210364744 -0.04244901083504389 0.55953638487245594
0.4054860177100611 0.55615187393163612 -0.076664422722702436
0.060416653339908824 0.2515675603869858 0.52427684123879925
-0.18433952457430713 0.023195217500113163 0.52938063522892775
-0.30245096822073819 0.17109480049014342 0.39535752455017725
-0.089728576442486385 -0.15286074774845987 0.43411841398415085
-0.4346630413025469 -0.099804894188911072 -0.15530199574562467
0.023536663704367744 -0.040270935634738166 0.61433510237844635
0.38878305640338739 -0.13399780183100812 0.61592744768793717
0.13109564353353437 -0.20822004050766652 0.20840712535558981
-0.29403645497548431 0.27901441381136871 0.50515119470902614
0.18579239848586865 0.41160668852781401 0.098606480102780156
-0.4347905706238509 -0.12370833608419493 0.46759344347815623
-0.52169272092426144 -0.47531919546653822 -0.059218567584099546
-0.1263323751753454 0.2563000632735189 0.53653108082795065
0.49768755507334578 0.29960258475686558 -0.079966819099612757
0.10938125148837585 0.070794895814488126 0.5305745929863015
-0.3876396696872651 -0.32362346316767254 -0.0026243280060424534
0.40946498358196554 0.39970374319293622 -0.069145881222866357
0.44284703778590617 0.46515081087361948 -0.072677925932353532
0.02178742830821391 0.37911143112681212 0.48930276144750795
-0.57064349846205586 -0.42743758727255421 -0.12032011876087342
-0.18434698961428203 0.2019740705288332 0.53412278083578324
-0.02648429307965685 0.02634658903727409 0.59173051262254861
0.15914870071580822 0.42583399990874293 0.0086008824731231559
-0.077884816552575217 0.19023060955090981 0.5472441002195213
-0.044792863002672434 0.44326201403803644 0.47833696305770246
0.29310849820118318 0.23293401270666186 -0.058149070844433826
-0.43795578907849964 -0.080621851220689392 0.46870116139086604
0.07111296372122225 0.073903313761493894 0.59695934354004632
0.18827870989269396 0.37898354766835346 0.25555505352810637
-0.0076948009089814213 0.26738317874848988 0.56579696260982515
-0.28358112046286443 -0.043243698636181813 0.55431472664395132
-0.23750349758496336 -0.0059051590751519611 0.56159884600707843
0.26307935568170993 0.15391313475078061 -0.084276502289098915
0.0082529300060490904 -0.09168829153341794 0.59418207111463295
-0.2932480960030413 -0.25839601815491514 0.30154742038902943
0.37831879474192387 0.37080591564192505 -0.054666425567762078
-0.34431876548676887 -0.075187445351016916 0.51992330444267498
-0.33422332226377799 -0.3651764731795723 0.073778595219330403
-0.54829012655340126 -0.32279588905150958 -0.17665882150763365
-0.16041944175277734 0.35202138181182885 0.51060173361340833
0.18603678590696782 0.24918853736561647 0.45421695670010986
0.30563207554867905 0.35252270931661928 -0.01800622315289796
-0.1894551732699773 -0.039228776614442233 -0.26919357350203765
0.058681207056048484 0.074862892332633296 0.58410955719760982
0.36269375326728631 0.38727360263810412 -0.051181093933793526
0.040338172990594681 0.29146979901770392 0.5301359858983371
-0.50612474334924795 -0.38623514317714708 -0.11792393676996346
-0.55182387256237653 -0.10518745953076841 0.39344312138035187
0.249097406608635 -0.12829829501397877 0.4200234355424281
0.48320708003529333 0.36793198374154268 -0.077031765693215987
0.075669503337317062 0.36110175329834221 0.48430551914079645
-0.11584258087341802 0.18883211360871088 0.54053266430397917
0.01065194975106136 0.068502977995327854 0.5805738118613788
-0.42308708910969989 -0.38918928127564045 -0.014522190597817924
-0.37237679685583919 0.046037645882256784 -0.20990231328697331
-0.09406335888120447 0.31530284413422921 0.5395651399351824
0.34324236175412193 0.43245844712994558 -0.054617798031952353
0.31454924620184693 -0.28337954872350257 0.6405528257944334
0.32776979371312082 0.42333234749362614 -0.040944743810612361
-0.24406092460822137 0.064992756317872533 0.53614534103740441
-0.49013180566007664 -0.33856381588555273 -0.099229446633300161
-0.1206845334366568 -0.26726794028076262 0.2327617594213893
0.46373320246845706 0.42810289173492588 -0.099755712929210344
-0.19661591772342241 0.11102380181358106 0.54041480439504019
0.20812791824866822 -0.031818482290387855 0.39621381821837875
0.24806185252746138 -0.33211390789598855 0.62029350512079584
-0.067104569752172355 0.19460750769775736 0.54762287759382033
0.34853957815537701 0.43003485119962653 -0.058443523205474662
0.33261560131957629 0.49519542287706969 -0.026957267951730229
0.32163046634698939 -0.13084255372271122 0.6292456824535958
0.47273676669721532 0.38838574777093654 -0.088442161493361898
0.36955322828835074 -0.17600361845670048 0.63660824050968523
-0.48401189678201872 -0.53370431845473532 -0.010882055121167605
-0.4116245920622606 -0.25124492836549089 -0.061065679217932073
0.32350534670615655 -0.14115668723071434 0.61836079875760896
0.36426775759224977 0.28517615449618661 -0.038063205841219777
-0.29004514381823782 0.081871615178690516 0.5189956570238955
-0.40864842174980032 0.030696747178017791 -0.18681686567368769
-0.13379611846486861 0.31530524972510154 0.51684278052906751
0.26775344739238294 0.27683135154098065 0.07660044138835144
-0.36656461405583091 -0.42755434481770627 0.11794350488574974
-0.48227034573164695 -0.052472265178262541 0.44869297563241706
0.20095348329260848 0.15214493676153262 0.34976854425060477
0.10877738761448076 -0.082603629867778805 -0.19183728816389808
-0.3485370119879827 -0.027237247009611606 0.5520695849829671
-0.19829436509333775 0.059329342293618817 0.5166626295271215
0.11031909562787698 0.061884252461948716 0.57052226843216547
-0.26635347012023641 -0.17500573490541055 0.48022361512785661
-0.44840520020939967 -0.46642484115741195 -0.017923116034324282
-0.030013747965192902 0.0055955324787963015 0.62323905391839485
-0.37290335226059124 0.081223079075397164 0.49646295474166846
-0.32638225858693815 -0.077437648929473177 0.53156305560940798
0.45306220161988475 0.44646534961599088 -0.096091959334731886
-0.26277771452069149 -0.085941816487102335 0.54425768764400673
0.30258088792032872 -0.18971654270787236 0.66516143597890931
0.38968297669483809 -0.096877457592619759 0.45583766635818579
-0.23999684116240283 0.31761407560527583 0.51717267735528494
-0.0051370600051366131 -0.11622373525390915 0.56398321782600902
-0.34212062683534017 -0.39073938157577959 0.059691851830449547
-0.17195701677971797 0.40167052333118175 0.43791978548001775
-0.21337362451027658 -0.0072050807312773746 0.55268275499679198
-0.41426522949366867 0.1541873765119996 0.38317707302257809
0.0796607635675394 -0.19572490442704532 0.3817251156958984
-0.52239343098875457 -0.47146403670177434 -0.092759720449966748
0.30610485311302094 -0.12258023481458903 0.64498618475627711
-0.32050958341339997 0.11240516250310799 0.43338291956884323
-0.26551315438175954 0.37083724198123025 0.50680299954790242
-0.11265860070777557 0.34300976303343111 0.51157272368502693
-0.5523859929884799 -0.12563548260074997 0.37736766768461016
0.38470331248359613 0.46067602114395617 -0.078237215459745518
-0.35745217720931677 -0.33704743594183928 0.012938551685541477
-0.38305165396732505 0.079495030385204779 0.4922690730615753
-0.34349203908092663 -0.34853643700027193 0.046495794025191661
0.24773337505502602 -0.172512720140923 0.43641159980536093
0.090968523432066989 0.062939696785940344 0.6172586127217724
-0.24442829047850267 0.087358713903015403 0.53894137269532283
-0.38085172630955133 -0.020463377991779511 0.52900108425436865
-0.26780411685412209 0.068905943392661026 0.53666379135077424
-0.14087841332409617 -0.28010726136703767 -0.086052739935930905
0.2580569436918933 -0.29619808299435946 0.66664327441169902
0.12084653456648102 0.44111290534252118 0.20121111970816849
-0.27121736320224815 0.23749977034990077 0.4675782853059689
-0.24923729123629385 -0.06008696404655952 0.55417922569386868
-0.36839831802370576 -0.26642183977146588 0.23165375198941829
-0.28039000735857988 -0.052616270754347202 0.55020730422842867
0.36746791106193621 -0.071905229405605647 0.58267764558817159
0.17334153758982279 0.13736431904157737 -0.17588778880890607
0.26783378066304481 0.33067372886960633 0.02738025316036502
-0.27550501911379038 -0.3162965073381645 0.18590719614662882
0.15804627935837973 0.3986107928881632 0.27544427406708372
-0.43828096063507965 0.1564502588908761 0.48271432453860152
-0.0085209757915703146 -0.01500400137825466 0.62614650687519846
-0.011248843211016539 0.40723638582446248 0.35026219144868775
-0.34936408404300145 -0.03952322112095679 0.53891275773714042
0.38111106856229648 -0.21683237343390904 0.62533065125114173
0.42817228695846016 0.25892010096842905 -0.050433575759859073
-0.11938138084275196 -0.30101169505399372 0.03902544081988657
0.030341879981592178 0.46516992821164022 -0.018347083961887889
0.011992646204680563 -0.0061534407959082035 0.64073777007346744
0.10339360395474469 0.44159186330159583 0.45239178320670648
-0.26555065029751473 -0.017443483208287758 0.56492113449824632
0.032280217224091183 -0.015599830374310376 0.63056714188406315
-0.062881725546853215 -0.2797403325259103 0.18893327483333436
0.37575259634438579 0.39498434714685854 -0.055285350761767521
-0.45020901788496054 -0.39029504100241286 -0.040319683930581662
0.18526435368767469 0.039698225793281333 0.52541751342804854
-0.36823598947619585 -0.020506229621322623 0.54128908252713814
-0.23110878645754385 -0.10238517214235292 0.5436569893683838
0.086689375188000919 0.061726380171699541 0.62105111903771226
-0.10667378136312446 0.25742518061970154 0.56012653075588914
-0.45746794097130855 0.15078422951746251 0.47459879128267168
0.37179789230616944 -0.1244428503306126 0.62157486665363726
0.46867980457735281 0.51534777026604373 -0.079500104040523517
0.075343305239483849 0.42439849462485096 -0.076047416744340318
-0.20915187867250562 0.10053781417124817 0.53985633436073921
-0.25394863924598543 0.2189173882767424 0.40329323793890126
0.23274911031574608 -0.29301591028733676 0.67048788631148815
0.21312204499729698 0.25593252394792643 0.40663115138222317
-0.24539761549773176 0.33613920841213096 0.27409702091598503
-0.21243294418282127 -0.012872535209552362 0.56225020715920893
0.29951831266320045 -0.1430675541939169 0.43246035038591679
0.41281262967085003 0.52092254939216809 -0.10186861863024846
0.36075643947869335 -0.1749946429235601 0.62074600340421315
0.29334608171985249 0.096013786587573605 0.030836047983488185
-0.49889617849592821 -0.27736789017978586 -0.12336305515207815
-0.31800940507616371 0.31982624849559643 0.48229870320017909
0.35035510510267848 0.15225558838191544 0.056269883672386722
0.30922505559927183 0.20381719573197227 0.03383932029380729
0.25538618892954656 0.4399433789545551 0.021188351910040065
-0.34945223960628735 0.10166516880612424 0.43677034613171706
0.032607711398587688 0.41980938310763616 0.29361175452528204
0.34876954423623341 -0.13219722291970282 0.43226800150247535
-0.040325952314605298 0.32596342118607763 0.54029329291582018
-0.4670731723073564 0.022823229721450941 -0.10061646421686851
0.3397052251158601 0.53818390054710064 -0.02892795635123882
-0.39749412900602837 -0.083993643019820444 0.45844833551452546
-0.084272748290272481 0.088133689532718953 0.55712261366087867
-0.14505088541296096 0.31091371985070987 0.51664080872690199
-0.27382006320354152 -0.11024470163528065 0.49661567654000138
-0.1151955255502795 0.37004795109752575 0.39034783905448561
-0.33260723741664439 -0.32787283932465638 0.057963066487719747
0.42094790660327541 0.45036346657068027 -0.086911756152207725
-0.30799984800461205 -0.071588696144398334 0.54036416164534218
-0.58464734709447119 -0.45545624850975325 -0.16270458553143943
0.022323666317938036 0.057804143531420313 0.61334907139574424
0.27953980257765276 -0.17342985114424475 0.44140614755043162
0.32269535589291626 -0.10226205261213381 0.63016147955091595
-0.030393207059817601 -0.0014312682747335617 0.60398653686285231
0.25003567511188396 0.39209209446777654 0.032816541979882513
0.17807497984492271 0.042054257122813452 0.50467740607410139
0.19378859969606682 -0.31777786809042718 0.62939737750398905
-0.41475659320909958 0.17496155445942474 0.4085068737067486
-0.057940488245479677 0.40965616474174366 0.28101741948855818
0.11128188835713765 0.22063512788428341 0.50948556564389025
0.065727926854062327 0.28483434660541712 0.50803433415863641
0.28764628641972978 0.22506182275125458 0.11643198521006065
-0.35873708923384567 -0.024692706518947269 0.54665818061160221
0.33896256244125988 0.45636670302816429 -0.042204375135456301
0.25372012452856424 0.33317833724204721 0.051473818065698757
-0.1631006046702691 0.2081940848169066 0.47746716356969865
-0.15675159611700956 0.40879076474864123 0.49735620778393408
-0.51187888968750661 -0.38775693897985697 -0.12761911675043472
-0.43267669600856373 0.041639802844210289 0.38694200737483808
0.15193344723901153 0.084020829674448697 0.42176834192224266
-0.27822983833347092 0.383501149492532 0.4642693707932789
0.030262417411699008 0.072929130611869619 0.60182076104458493
-0.066126613056837119 0.30026179902948952 0.55754922451268596
0.12054363280279 0.21951381846076384 0.46596694996107435
0.095983891958517656 0.45608648968193682 0.41034309816233394
0.22794956215490947 -0.045494022708818596 0.021198830866384827
-0.37373724716704343 0.087630059913681793 0.44195162928169607
0.1269519549808566 -0.23719113356623311 0.63876236952811272
0.03662534140886322 0.42174785261753289 0.34376117001323508
-0.12285652469571287 0.34585219984145121 0.4347510185831549
-0.39164706290275142 -0.22037449461986997 0.32517932837244945
-0.50000474654439786 -0.16773222415287126 0.40324728281035449
-0.052221966858808012 0.19587733595198742 0.54092397193971564
0.36109929030932164 0.42486190348883729 -0.060601593129044423
0.074964733033776002 -0.036269864392170052 0.62029159717075555
-0.093128094174399892 -0.24374271016349247 -0.13998215079930484
0.33045354417884859 0.12901304108156697 0.051183598661577762
0.34632388639869721 0.36709177403847304 -0.043491576469252696
-0.2616247260939471 -0.33242036736464786 0.1645091772442499
0.011633879056311566 0.038595254646213759 0.61736525528341646
0.40582123563432332 0.51553545172202375 -0.052708264521645787
-0.11025395594253801 0.32395172921850895 0.51585904242612568
0.36428866094751428 0.24021288186801681 -0.029707961576297015
0.30536236882519241 -0.30580212420504765 0.60612799087878888
-0.00045781856466280482 0.23953039811695792 0.55956984785453412
0.077811150986496755 0.13936915700837066 -0.23928759939677105
-0.30205792031091216 0.11534501678497243 0.51783876495673564
0.22584469418507847 0.023415442398501476 0.48858859991285897
-0.50366886503773112 0.14706634374270094 0.43522936795771927
0.21803450775205169 -0.038784646670669748 0.40060608261114333
-0.17720635858665229 0.36049450177849435 0.51400007054714547
0.088116405504405929 0.036258038313127253 0.623769485129816
-0.47948620008315179 -0.51559974705949796 0.018264175479807632
-0.40245202093661975 -0.012128947188666896 0.50005124407384249
-0.18061360707026519 -0.12371143836665571 0.52427051305127226
0.2522057213935518 -0.15091399650666926 0.66608297458868726
0.076928177064536862 0.24613084842347566 0.52435973636308486
0.16050530667961033 0.083814147500923031 0.41055172734384759
-0.238109055565913 -0.15989944477811163 0.50124194802590216
-0.091992300341562708 0.20346333758989904 0.53492732979512669
0.3008467512080048 -0.18681663605286986 0.62926235509916606
0.44265820230172104 0.27370186257287993 -0.06127248798506707
0.42165906280014015 0.1812098011778574 -0.034229898652131219
-0.17771541625072063 0.34508692203614977 0.51108899789031559
0.096198863503856244 0.093424553735338797 0.52902193810269393
0.081260679535553021 0.22788535941466881 0.52200417855870707
-0.16440567310846232 -0.26795304272647924 -0.10470554885255953
-0.34680287575865826 -0.35350301804763151 0.036341346082785414
-0.020032195261218296 0.21905473691774674 0.55374513398011616
0.075338783394564887 0.21182518419821766 0.52469074383207148
-0.17135633143463863 0.28983510262736484 0.45673602628081811
-0.058766492891688761 -0.028594944458232241 0.5844004271814236
-0.055823822046045093 -0.26272677022486934 0.23755940980503448
0.47301606637155108 -0.13675190005076143 0.52626890482005118
0.20775183599370112 0.088217634169912726 0.29777659620983676
-0.1555905599741732 0.14787567020902265 0.54094033977696487
0.31700919185928306 -0.26286736758163282 0.65362211105567447
0.24959959462343695 0.33121090076934334 0.072538480509976869
-0.2956965113641179 -0.056373990077590946 0.53865531157574298
0.23099161268581458 -0.17751503769962246 0.67450295642701696
0.29441910005033084 -0.15174614346765219 0.64420783476490162
-0.29148007053601011 0.15518367251713644 0.52933113319351577
0.29976819739533755 0.29002206923292917 -0.011240579616305396
-0.29032727844094514 -0.2833146634801923 0.25986999223397633
-0.46150546365039502 -0.35344010733083564 -0.069138995513356616
-0.096428731077796329 0.19914189422780704 0.54487219191212199
-0.39408649109185534 -0.0047699924380667502 0.51989677203011364
-0.33289930442328919 0.1334782245881091 0.51241364013097845
-0.089557767968688098 0.3764873273478016 0.50541907951137066
-0.38898206150171916 -0.31047748945139381 0.012708833852474843
0.20703023398892767 -0.049280574340368116 0.37945283795199108
-0.15941453254795657 0.30968323506390855 0.45353213421465688
0.098228408869851125 0.049279397311172798 0.61475638313552372
-0.04739890862182989 0.26318325937094789 0.56985981569372168
0.028627942745780434 0.28297239404579522 0.54490214281888893
-0.43947587180352088 -0.037494683329258614 0.46834127717651752
0.31621379330835081 -0.19599169959715701 0.64366052645068594
0.14170791175643477 0.048299945185248452 0.45932048901385103
0.17766626410438757 0.10046491457577932 0.37990687933505252
0.27203370559782791 0.4123259757868723 0.018906912471684745
0.2090542484241395 -0.077399060836512268 0.63635814949424196
-0.0739097068351489 0.35858730376176218 0.50694324859722528
-0.46635422364888041 -0.48382282137615279 -0.029864992406310437
0.26612411406422698 -0.32555206535836645 0.61702140908781899
-0.066445117389668504 0.31683294780838805 0.54837705322164398
-0.26113404549047547 0.26026537388158355 0.52823530465810964
0.01189052115933464 0.40374467799864244 0.49073500242766188
0.053758011247630064 0.4432423298217113 0.38540225262075356
0.21925124261146695 -0.076003294973528257 0.022872578416741313
-0.44462091658743091 -0.30685918960232766 -0.11210092165290456
-0.20837210166151904 0.021083850090771634 0.56223586041176843
-0.38091787108096004 -0.1115442042012952 0.44444390947043055
0.46057900532679813 -0.20213961225245081 0.51813117685401744
0.31387178379397473 0.36197692019020333 -0.026281990343516831
-0.03414526096165145 0.31219579991174046 0.55101508975955815
0.31385877156814102 0.41536626043637415 -0.025959008438557141
-0.062599942382289192 0.058308016359840911 0.57463166470932847
-0.51699505868597184 0.11322512268769357 0.4270612015193761
-0.51054625034176304 -0.53053148597337074 -0.021779828658662792
0.063438249630895768 0.20548360220856837 0.51538360985384579
0.12948512643291771 0.4527442018433232 0.096580787424873388
0.18210868479770048 0.033133670153486075 0.56212429706860256
-0.17440137638382536 -0.30571572512725453 0.14598634655249593
-0.1599107552305431 0.2914383381974589 0.52001642821560912
-0.014553074795212846 0.027708145242166735 0.62562356513160222
-0.38343484745834239 0.04373257675737692 0.51449300427372446
0.26379027658303761 0.057571691139582451 0.024041290958208034
-0.26151542923865734 0.18382037073072099 0.42595116655057297
0.26160969057295896 0.45463840290634033 -0.01313747595571324
0.01676556710886935 -0.27345593613525571 -0.035161002538598857
-0.53090082459254262 -0.11151680263831697 0.33179606848705423
-0.26538708858483889 -0.3432897232312373 0.16382626413895318
0.25090353674781496 -0.23659346103963624 0.6793970046800144
0.23626086368189031 0.39149079874160581 0.019679477929967548
0.24386391321619388 0.42273633262853227 0.012690523497193296
0.12404183420995453 0.45524838801812306 0.12456284496769528
-0.49694732642601341 -0.36388915525014504 -0.11830377939034017
-0.42935482276164322 0.041297379166581535 0.40429427473982793
-0.47876224242202098 -0.36220954191157051 -0.088828379833963828
-0.57800431827489629 -0.42968655998643901 -0.12662786818389613
-0.24962865917781457 0.23993749999231984 0.43691855020817139
0.24441762548692703 0.23972456279358267 -0.09537132112239341
0.19108549142327336 0.38755066666110494 0.2044450001185123
0.022552107020116091 0.066255948637896328 0.59882773512610032
