# XYZ point cloud file
-0.47526834921300126 -0.754864462767047 -0.15295963319979808
-0.84840518100028639 0.24218280339277987 -0.32970757532918332
0.045013919532933433 -0.23436473413211589 0.60066346008364835
-0.3787037944744554 -0.2863334600663433 0.74119552178023129
-0.27552296451157282 0.83508643731940702 0.1179681353232645
-0.22765497166198939 0.38094716588512223 0.75607095868996865
-0.24494688201495826 -0.45466194208190797 0.45070299437976025
-0.67286485703134336 0.41054511972994556 -0.45742880432425664
0.31597597433824565 0.082165278134421205 0.55466108524159718
0.22169693499318441 -0.20634061783948551 -0.34311000981183654
-0.80571452691764944 -0.69816178527038419 -0.43846032009024261
-0.76321200143093249 -0.27779901039252086 -0.48945118700384149
-0.17538545192843977 0.31219741840997817 0.80413077452966431
0.49286549258069184 0.049038860429559891 0.58727102299380429
-0.58747322942237123 -0.36950958195749717 0.62841708781397376
-0.58287631037972509 -0.52240054473901332 0.54904939367174976
0.15247097077831334 0.034348479882451419 -0.57075439137746609
-0.68848543733969192 0.048228788556321678 0.58200221185575918
-0.117367312230976 -0.10495613258284181 0.74694948326173904
-0.093481760983564505 0.15361913976148783 0.65463159381442126
-0.85580804383226472 -0.74571740794989827 -0.49091406011077643
0.33461558237617844 0.53545835868415548 -0.15249798559304137
0.31788061810044782 -0.32941239077756479 0.35952068172853802
-0.5796416086731202 -0.012169052744241328 0.73937701264241495
-0.28106541636070242 -0.29512500516889889 0.71465589308571831
-0.33707457037075544 0.6365534845857006 0.36726268277690804
-0.55454833508234658 -0.73463950990375348 -0.2583047168555378
0.30782477499945143 0.38794261229522481 0.51048354050015377
0.53876485879518499 0.010397323425841654 0.3662265402573554
0.25781764245953032 0.59749287467956769 -0.37514788134451521
-0.39429455123244783 -0.60867698846051055 -0.28524866448803693
-0.80479951182597587 -0.36942603452763451 -0.35278975390653633
-0.46543110404874333 -0.27925058711370421 0.74970967732319649
0.28698084603905555 0.0043717325517017014 0.74819919093246079
-0.079327284829316835 0.26104888349957972 0.78650346658650161
-0.60250935806189809 -0.77026691112383971 -0.28450898409847736
0.29811048965475306 0.26579356346688204 0.39618111523263499
-0.094790207505925345 -0.25390436501854025 -0.59664731038459318
-0.16614579278787694 0.3957769085612412 0.78063542201977332
-0.19442640735947547 0.21792978714180011 0.75689256641857905
-0.53786065922377546 -0.72655107204061919 -0.2510451164147659
0.55583304471508665 0.70688194699455853 -0.37107706337561042
-0.25518688450303151 -0.42454392994535634 0.62071680822826791
0.12918087454365001 -0.031824680484932359 0.73418819785742995
0.29392117463044692 -0.34243245797503336 0.38025890967429482
0.4110578309521738 0.77192147430538893 -0.34676170890198965
0.29595935571015441 0.62634928972777992 -0.25212171652791665
0.14823410944106546 0.45883515315950274 0.60845765992910572
-0.40887940497319591 -0.035266889212802251 0.67911887140228022
-0.28655693229950779 -0.56163617752208084 -0.22095858626636541
0.30480073279981368 0.31506564288133476 -0.34411073868779923
-0.5552881595674829 -0.65108361081261157 -0.2724107337869926
0.011135978353038294 0.62094143271155311 -0.48293079332247713
-0.76191611002459325 -0.92864006733802873 -0.39190257252205873
-0.66465173254318421 -0.72994651745343275 -0.40961072912585589
0.16498050344463364 -0.11176305580338854 0.80227652432572982
0.10294789753609117 0.51943197293816346 0.59139800988649571
0.55760526582399217 1.0384967013287767 -0.44081860401458173
0.10766619204157253 0.76650637094873331 -0.29751806028503586
0.31433547735472506 0.5806232749098994 -0.215852040156263
-0.79280141008133609 -0.82403794714429257 -0.42012025663307434
0.16075929959609869 0.32104835664232501 0.62304925395231481
0.18357294832337742 0.8126401848354502 -0.13150805074030503
-0.85817231264035454 -0.67158126623450687 -0.53359153084861144
-0.81083786047200812 -0.25141269710326231 0.48524866285378465
0.25985411192415853 -0.37456540961146556 0.46851726605399591
-0.76829340242118283 -0.30443770788819025 0.62552327736602609
-0.61933831499164771 -0.24860475951364239 0.66578654154546968
-0.6610667822830818 -0.59752275194501048 -0.25653833385920677
-0.23773452698427475 -0.4474804426861772 0.52628490807699213
0.42778809088734493 1.089313870288678 -0.3231281553524355
0.54455917369278517 -0.086613330183494985 0.31200788636692772
0.46970779366543414 -0.082467257373350034 0.29348398745666254
-0.60538304217108485 -0.14632533457647737 0.68626942755891562
0.43694902776169797 1.0625438556388651 -0.36131840379305968
0.18109903009009928 1.0334846716880401 -0.16415173375926057
0.33215236598896114 0.62087872002317279 -0.2810287281179501
0.053236973249582389 0.37676537490486423 0.75549336118972199
0.46138479157036594 1.1397526245250826 -0.41586637296924334
0.40022780677742426 0.60633589341041949 -0.32075607810452433
-0.76709679604441128 -0.34362651964324015 0.30745886271478107
-0.3009234326174452 0.55234226905426131 0.63598889345990572
0.33143403760657925 0.10379537060891592 0.33938624454524219
-0.033209855108039352 0.27094550925847283 0.78179209556834683
0.34589083982020591 0.54048272637487083 -0.04242797648087749
-0.3068822329823781 -0.45549505835166104 0.61047625981118514
-0.24575553638476519 0.44976222373528407 0.75821500236553652
-0.33356845692789777 -0.15227790064918437 0.77928191371358635
0.24192300512557216 0.68439856915116071 -0.095361472566651492
0.34929454052786651 0.7557258822925631 -0.31020483206776983
-0.36498654303272859 -0.13235987343563199 0.78005352032218622
-0.25432040722407145 -0.12133852070436772 0.7488682749340686
-0.118068264683757 0.88739945301982681 0.011394647718727662
0.40187408567388194 -0.072784441830963081 0.21338974573164207
0.073552007997177524 0.044597298778370376 0.73147926101908867
-0.36862219254073841 0.45299291407233716 -0.62339770371581804
-0.64395683688213379 -0.28132969963742893 0.64447497986130142
-0.54957871268567027 -0.69929427200630445 -0.2621510624571044
-0.25424687690774511 -0.092038017623295276 0.74119072451306189
0.20676515184676156 0.65038639314541558 0.54568657678007071
-0.087072776614726538 0.20340779534341558 0.74544057727600888
-0.2428083815678399 0.29822590295739654 0.75243885117271647
0.49576142102386006 -0.42057078376224399 0.42485477090726059
-0.67389504159627089 -0.74659808601459443 -0.33239135843473572
-0.42295500847423934 0.15387630204277564 0.73517682823817554
-0.54969336471989505 0.5904364150703536 0.29250370939881992
-0.42881860762290053 -0.12166984300749142 0.77013711915956329
0.13844972936544042 -0.13422840405875253 0.79117666328286007
-0.3322146210486695 -0.67493300072829177 -0.052819531438151934
0.13695268738879321 -0.13760497224197255 0.78327747562975125
-0.12368724615226684 0.50650757619045617 0.68189725803991585
-0.090830512663324925 0.13232859763374033 0.72947703629115168
0.84400501685752283 -0.3338076845950449 0.57935008589239378
-0.27420060630194787 -0.144584258118022 0.73464754245702302
0.71544015513115122 -0.29858905867919594 0.68485805142093237
-0.19598759662830847 -0.080823397807914657 0.63814693751188079
-0.17022296615647034 0.22252611441808723 0.74946232017313463
-0.89262926309749091 -0.29825557819296816 -0.15973685032850413
0.25272523027936772 0.03803913163796499 0.76990474267582332
0.94543829603798679 -0.093359655402607919 0.3487063541802462
-0.8264039193230347 -0.20910750339432524 0.52557081960977936
-0.32414681957694014 0.55548889528676015 0.72648184088475642
0.40456507103807315 0.89259750736276033 -0.35100804430757071
0.22049129046848778 0.93130337057955859 -0.18186269375074054
-0.83191301523988259 -0.6110725608722174 -0.36363745097273747
0.09193616844026764 0.56142703659002691 -0.48838154136972112
-0.77073181029490601 -0.86193664438032291 -0.4107505323642795
0.27358233583597613 -0.025874393573331191 0.76417398851309271
0.05375571781341322 -0.1067792081821356 0.75447001060159991
-0.64524968556253637 -0.68645992804107669 -0.31203867227587068
0.30653004203877132 -0.0037903354648867529 0.71355161813679668
-0.27881457958537514 0.26627449924343244 0.76334231466058577
0.19312717251178738 0.038483382482472739 0.77199998120773827
0.64903869487761612 -0.36379150578246539 0.70867901632102814
-0.34541910029043771 -0.11336022415557638 0.75087140842910061
0.019200116201198322 0.23907530130204413 0.72001936269155398
0.91977425874929086 -0.1467576459186227 0.29341085781841542
0.36678851713130028 0.69070021026512352 -0.31862939705129445
0.18414316591713206 -0.26908447872273061 -0.33507384515997513
0.75865972112133984 0.0041946744323523716 0.4523128384653135
0.049462536456828909 0.37579657265765781 0.76147534468618727
0.54486485685369279 0.052771937071159625 0.54417066182170803
-0.39468735331603844 0.31506783366087371 0.57944356086415694
0.034120251517194694 0.6816901835534499 0.68139430868710893
0.67722633697729684 -0.29480784146053796 0.64588344380908025
0.13357259546251399 -0.15479939801072867 0.74236990765062427
0.30258117356043152 0.9708370896340055 -0.30237754918829068
-0.68538915256650557 -0.9516993825388631 -0.29811859316095807
0.33599977409621679 1.0339356547973588 -0.32855255422714136
-0.09930766755241284 -0.32468104971823297 0.61985121813257693
-0.65747132688245025 -0.12454244826214068 0.67605687291172678
-0.64222773035512559 -0.55229423235687103 0.38384620036280581
-0.82115456364730854 -0.37219861855563496 -0.30498768558163386
0.2870497087797636 0.59378936377642721 0.2204443888091773
-0.58275879440069966 -0.76248795106438083 -0.27030792415720256
0.94047667427927495 -0.1589859742426574 0.46271253586532418
-0.46836731012958427 -0.013173405732762933 0.73504970631690447
0.11935446492342135 -0.13325316237392321 0.78229654653162539
0.49400672225853809 0.98966828195241519 -0.46682627834941032
0.20385212510972719 0.75560976590014794 -0.12579842122437274
-0.032775056119890497 -0.20519637942670568 0.70882267118287345
-0.61721486732844855 -0.18137656465038535 0.68312499228317769
-0.21863624110993615 0.2187615437508143 0.75758728519775032
-0.22855940273434741 0.57268685580028689 0.55434742308134111
0.33696944201627199 0.92648204808112522 -0.30722262249097282
0.2631230918930858 0.015833920261034799 0.77115135489396247
-0.25866584214595634 0.40492304316730016 0.75969162226514553
-0.62960770994751791 -0.20090570247508471 0.67390742592000163
-0.49099402610847886 -0.053803201144514597 0.72467280832621139
0.3653540661979478 0.67112996266988967 -0.31813502600709825
-0.37150032042378472 -0.29467436289749077 0.7308032587577884
-0.056794528911460015 0.88291321767575015 -0.052930615833285219
-0.57446902440284764 -0.13456132656665365 0.67216985472221391
-0.82384262526622332 -0.64051087501326287 -0.50429502171921381
0.64457492601052591 -0.54180072459212347 0.5190568681099903
-0.53815706446811851 -0.90784448446266341 -0.17961610811429257
-0.2536403449413861 0.55332218475698602 0.77735967005525874
0.21106705388684613 0.70890431504628049 0.15975261038509703
-0.087896615573908002 0.17305327260505629 0.73732350847825068
0.24594578393596825 -0.10021773325288266 0.75986643108694807
-0.63653758313337117 -0.92017057360391508 -0.37062152637727935
-0.46906362527934342 0.28594518879078462 0.80408896868781188
0.1534034414139534 -0.025738951306655294 0.7643605140947648
-0.15315490716014732 0.87448802201734621 -0.17824194234424556
-0.51334098280136431 -0.63498163831784016 -0.22904890645254744
0.32430770336190978 0.61175939393316969 -0.26802715974650609
-0.58742328817106659 0.070251770264003977 0.62512301042167306
-0.90398230840841642 -0.047667769845471039 -0.34604997592136477
-0.12577557883937834 0.26210421645911708 0.7829617867626415
-0.49818142882714345 -0.17740112284344337 0.76318572589792466
-0.83662625495648824 0.31947705695124423 -0.2276870138842407
-0.6046333297409977 -0.55819297267589996 0.23454703280473338
-0.54810438973612352 -0.60701781006651379 -0.23113967537250318
0.76508495957717515 -0.13292167824860324 0.62588573329635566
0.45278195670636545 0.93770795417774555 -0.39290831210592908
-0.032891696164487151 -0.32083302211077119 0.48371967160737622
0.2390578881247111 0.041252113973334059 -0.46293130871917493
0.2195868911664596 0.34333334301861951 0.62321913724586753
-0.82426604710604634 -0.21135926796167506 0.58465959252213329
0.16803909362884867 0.68044441488209972 0.56995707427159481
-0.20068469487321644 0.34204591716590532 0.77866715761888039
0.083113510330081783 -0.080763913037895069 0.77502380621643674
-0.55443756645277675 -0.66676501400837451 -0.26991717771123253
-0.47472230481974576 -0.74258911769160618 -0.18502675363364876
0.63065946349789503 -0.32086176439391645 0.71507244125343494
0.10258106777754329 -0.090146606608581314 0.79534168375712422
-0.081609078236497073 0.3788935982676172 0.80045891614254383
-0.29690421762587776 -0.32437201696740842 0.70001694043692564
-0.22565292902329959 -0.39470979419298835 -0.50156891390171809
0.15296413277112203 0.66343501943445704 0.59445182028666976
-0.0017610022115628447 0.82674409930406179 0.17205569536897466
0.40107939764863365 1.1914137244585854 -0.29297292533559566
-0.32398238343268893 -0.18355147973331049 0.78464088217675576
0.63704007645512972 -0.28603093122761236 0.71279429211620648
-0.18816865228667864 0.32558566445996101 0.80013446613713324
0.31579425726390581 0.15552093917287063 0.3349659522940806
0.70421543235304418 -0.30402505056073503 0.64806570732736291
0.294646819275448 0.23812419026122594 0.45959628625810156
-0.57515110062855035 -0.19207551339593407 0.6932941363573657
-0.45020295240315927 -0.58650889989735211 -0.33154566608762848
-0.13629243207071806 -0.50083232016853252 -0.11281517310927258
-0.25456019775227784 0.4873637894717413 0.77525530328364012
-0.25502833850316403 -0.30107899592146503 0.66344879795012579
0.35965089950157281 0.59727552305781317 -0.26469161496626531
0.42766957198423267 0.63705206410624537 -0.32197531875384194
-0.21797429261141335 0.48730636429088492 0.65128259232913288
-0.31685601446029377 -0.085508769544689611 0.73627962702046823
-0.30699485744356381 0.25270098752310943 0.76341861141044587
0.013685008736835303 0.73803214303797071 0.35187187291772781
-0.46834760514981466 -0.14596393216344056 0.7705857578809957
-0.42005021363538625 -0.15089039231271309 0.78192527687876112
0.69311687830985158 -0.40799337369467314 0.6889527371247316
-0.39880824543560689 -0.055447157934608152 0.73676190693052246
0.27890668586552986 0.8337790811865734 -0.34071509609655332
0.86398621513279994 -0.16006960357369796 0.56861017675226233
0.18622453770749692 0.93058039455070818 -0.25783659133903669
0.320529265948167 0.99315540303732019 -0.31383604067028925
-0.31375012929207896 -0.2804332034206517 0.71680680380218686
0.14530341057449733 -0.22832080681515318 0.68157639686328486
0.25346529410854118 -0.13973785094952629 -0.34335121953730596
0.41069193748740035 0.61582234202523123 -0.32736713377536275
0.88192033034605855 -0.044733915457182125 0.40522658997884481
-0.59328391194010766 0.0020946030159122997 0.74794405953787191
-0.33080810641508218 -0.1851731146758156 0.78801047492396881
0.11981512058162548 -0.053942179078175355 0.78114032895189123
-0.8857440257435476 -0.59646567824040275 -0.40405630800672876
0.29270217816267236 0.64904730117954912 -0.3486678047494392
-0.62392082100057167 -0.56905659242138074 -0.061617055159521886
0.26545531469500411 0.62424286169101328 0.47313185464117768
0.15359141627150369 -0.014326979682667332 0.7695575340479921
-0.049904670827141194 0.46127282227053656 0.73924961723658478
-0.64555349193100475 -0.33245981715144113 0.62252281879798377
0.71104251168186139 -0.43915903948363461 0.6727784677068559
-0.63745473332429803 -0.090774349722592768 0.68931828038121512
-0.49406510115731239 -0.87116862540958895 -0.139498934078161
0.19801054212249036 -0.34846646538650039 0.57681527327280957
-0.42230769165781407 -0.45091561173605649 0.62847887598384422
0.26015847297997508 0.97628103999309523 -0.2436065121000795
-0.54096062625267261 0.31478327049666704 0.78319547047833926
-0.52358139662292547 -0.71877604274029228 -0.24425858874997264
-0.2917718305605147 -0.098412917871675457 0.73832299597511442
-0.056709055706293213 0.26696066743328606 0.78998564577786157
-0.43371939763190315 -0.16662009704455186 0.78094759638436895
-0.55125263166923366 -0.61052770144194846 -0.24485064667333234
0.020372050414789063 0.2600468790818129 0.72168170732141435
-0.38851511002031325 -0.27275233441391422 0.7655142134421119
0.32324126652573371 0.66585409880744928 -0.30247851183349483
0.26042513738419709 0.57468805757681407 0.5274111632782581
-0.86276428221217794 -0.65750796888573348 -0.42019397885065435
-0.31646070874969084 -0.18198782121409504 0.77319244959261413
-0.12480955785227256 -0.078964000272633006 0.74145166240657223
0.053668561358312411 0.52600322473139183 0.67894203784544382
0.72333326459987157 -0.2117318897423828 0.61864804091901704
0.48500542757981907 0.84583557332447423 -0.41936911419490058
0.51600511584444708 0.92673285486657708 -0.40987114715205269
-0.81730312764672064 -0.054082647489589707 0.21268093553808931
-0.75409304151380896 -0.48638571043170642 0.543218201545973
-0.31398437219496528 -0.097848963922594456 0.72421128527148204
-0.3811227632248349 -0.063510691591991783 0.7362572129026661
-0.18949467422091656 0.3077325743294469 0.78819657964395784
0.25636675094666345 0.64048501835603577 0.23761574145755388
-0.47895518579275304 -0.1975437509342032 0.76842787208080798
-0.088118631325882019 0.21274632162928031 0.73661826224352733
0.27850526976800283 0.92256887125889708 -0.27775060122332229
0.21167434964955731 -0.32195881766614998 -0.12776190434308002
0.10493059035859011 0.40427374642376551 0.67840114524417749
-0.61178323645656574 -0.16278617775371843 0.68463060233863082
0.77611007844271473 -0.16781687286939964 0.29105174291583313
-0.48296909398999682 -0.72636749264616274 -0.21897948214577465
-0.27301966466173211 0.42936233290616993 0.76219405764411918
0.039400281871468379 0.54121569840457362 0.68318740213674467
-0.69791863183754121 0.058890590971538495 0.66688480910281911
-0.20714097579002483 0.20301556973577517 0.7022480405871675
-0.40871449767095913 -0.33635678479647058 0.67806874640981563
0.35442926154187648 -0.23130370852941515 0.23166585053647734
-0.57024207156339679 -0.3510266615251999 0.62369201758782022
-0.56143352844617034 -0.29936028085683908 0.66591307757538953
-0.4521678571697495 -0.055241390579410778 0.69062630622012056
-0.40616313695511858 0.81874079954768031 -0.1049145202341971
0.77144064918559507 -0.19697654070185855 0.57158930174677669
0.057659403236338308 0.33888730974874764 0.74400351881009064
0.44666649354116472 0.68396660974343837 -0.34103755691917986
0.66785558433891756 -0.27946110898516541 0.69936262385399073
0.1516206092167445 0.92375740517546978 -0.15333731078919874
0.24262584483012548 0.74403448776714032 -0.18766962156945671
-0.25896298604382473 -0.23793516784507981 0.73302420402691393
0.23827261271796144 0.042466784864305523 0.7703810742736833
0.43221593534358249 0.79010364040127734 -0.36752553515518083
0.41702770017258695 0.48447868818031792 -0.33778938122466945
0.39528107782583327 0.40318708573656548 -0.22168453260123552
-0.62826915810488626 -0.89944112747460969 -0.31682509982596219
-0.01842354625424239 0.55726783447556916 0.6976714804511025
-0.16652353956938068 0.19001604464903479 0.75042227528486338
0.38046288150669166 -0.15038755825798369 0.17018725141505534
0.3053784060782212 0.92497955277665178 -0.29424030714916566
-0.4652463645217228 -0.075789510691539608 0.71723724535323197
0.47324658674055414 0.50045302952964255 -0.25277354328055612
-0.19673558277481318 0.58846174114499561 0.76620540901838574
0.22352535341491656 0.049756932662742073 0.762856824571017
-0.65026776502159023 -0.35758748142634772 0.61031802085455633
-0.93546654466622348 -0.036273063360117541 -0.13411661962150848
0.36013401897280256 0.068729751088699942 0.16114564644141299
-0.22557137695791393 0.49792332840020326 0.62864872745007816
-0.32560302606101255 0.30703688180526356 0.76456399159693789
0.32110619340107338 0.56206049490235066 -0.19682162115642357
0.74174981579534427 -0.29827451092676888 0.65187002040360564
0.0034032961679379033 0.17105141266668894 0.64432283055770601
-0.56538456701912509 -0.11507928060014537 0.70061674105263982
-0.76149973485070821 -0.5526678855812569 -0.27730856712030716
-0.88041291267173361 -0.76093520067631415 -0.49188679241369815
-0.46619321097938166 -0.065222236357549715 0.72588007039613212
-0.76181903097371184 -0.49066962286984733 -0.11348825648062474
0.95473409440493329 -0.13234431749896092 0.3281619966999359
0.7611451637279999 -0.43038100112277605 0.63518460908309404
0.54063088492945288 0.71728213891864012 -0.46276609496519772
-0.78883651226465712 0.40852829045001005 -0.19982209294461611
-0.051649344808061506 -0.46433360673472956 0.047124224748873414
0.78368341253281892 -0.18548793335016336 0.57649513973660116
0.67160479620323055 -0.26188465311687448 0.6761627264720188
0.75247961678870923 -0.32432898967936524 0.67363929456553884
-0.86627139413499088 -0.56986176662032062 -0.38874054230020216
0.86096602791052579 -0.22065709400371944 0.58418072954508771
-0.90771323118281777 -0.73913246121138698 -0.47649517843067818
-0.38155460316224543 0.21279135877198968 0.79109523978648333
-0.48137481716436248 -0.74331558551677135 -0.19718587647337454
-0.75392505877163674 -0.46116904672344333 0.28639180931379449
-0.29201108347164317 0.26008076258295443 0.76273585260168197
-0.35893678324595429 0.30252929252411692 -0.69509514565526409
0.41718318136066934 -0.056385252463049679 0.69771918472999517
0.5856057793216074 -0.27282045738613925 0.71912230493895946
-0.11589912229411778 0.47720113441413892 0.72017426838120324
-0.32726817966945942 0.21398521886592636 0.7722048480248509
0.55718408936197694 -0.19415000268835683 0.31436046356669878
-0.74819872960779521 -0.62388457736758607 -0.33752393699099931
-0.19269185803816588 0.42774380764811104 0.76278305713940875
0.49310967406122003 0.65289898531546531 -0.28737185724823311
-0.77900577821337702 -0.64512340531281209 -0.38674391306832745
-0.40198532864305875 0.031390339565129655 0.7572415215561662
-0.13864877794514358 0.27781787865562341 0.80089638076565828
0.074957361740976655 0.29680429976446321 0.71320501347585841
0.3020674251613974 0.45215712878665992 -0.39131871175891619
0.34256072356185374 0.076899397774207928 0.45339746747092718
-0.21334369772320369 0.32057598696224099 0.76904848789337077
-0.40501139820293641 -0.64498302379506145 -0.26066106272284367
-0.76119118226722571 -0.92856191740842497 -0.41312887327618453
0.13164202352192503 0.48400742482358128 -0.50361062253525446
0.61602114093725402 -0.55646681744247206 0.59716666760846282
0.4230929932045423 -0.40754507312689781 0.68823631348637948
0.28745708901232386 -0.050406207740429518 0.74738763969275634
-0.34910393469529311 0.32273560022103909 0.76938638769317225
0.15481340239573632 -0.14321337919627797 0.76363360931484114
0.13526123345646654 -0.24691031806758396 0.65415274387444111
-0.85294533365133296 -0.6267291786200373 -0.38971314947417457
0.78132149004556306 -0.34791376605686736 0.64882821113094324
-0.1282014158906998 0.50945583762770486 0.73343206586969356
-0.30389424658413605 -0.63312132266061838 -0.11969812709189964
0.4302219553820481 -0.41766203658128959 0.43601361367961283
-0.6815386603879573 -0.53683145653073994 0.12602372358325004
-0.82501242617209558 -0.89680384989798378 -0.43567012443919989
-0.2650343929819402 -0.082317691438353713 0.74082428126837785
-0.69692866060659775 -0.10952715500864428 0.45620318163429091
0.037955278531360701 -0.24935843965387428 0.55105581114123581
0.43197432166244848 0.62526577095397551 -0.31473608178147194
0.13651533325143075 0.43956766269471248 0.66957578690661135
-0.63672399360799148 -0.50900076002440331 -0.39705158857965139
-0.77324203120744273 -0.46991574311314255 0.55029349884776779
-0.2713312661682547 0.41391492023311161 0.68117072080861873
0.42823444498861268 -0.038393624787833487 0.68868012297292858
-0.36804174372074389 -0.040075553577738815 0.73812431568165282
-0.22534043564547299 0.57055828480798709 0.51768179213942467
-0.40749289307660802 -0.3412495257421797 0.6821088667360572
0.15951910986874446 0.49008121410486805 0.63845689038194364
0.71377616689335333 -0.40793231306756217 0.68047558857786838
0.61098347319457891 -0.18182195309662852 0.31230057070759215
-0.84205818900157814 0.15482982910714851 -0.41585516419728596
0.70938561555027924 0.013865760786072587 0.50181449246793175
0.32882519117005193 -0.34973339385100843 0.392270839279733
-0.75906604113678444 -0.91743736368894502 -0.41282201010065911
0.45297214259974256 0.61540022631327729 -0.26008380443960799
0.11465989906601555 0.23388885625989303 0.69492406351432812
0.85198695620402398 -0.20833684665084529 0.59313342596178997
-0.48416082322228315 0.27798529646374298 -0.66072688955371439
-0.8542782370797366 -0.9045187866910539 -0.41810870648631626
0.13489925885465398 -0.041191431737063848 0.74761862631197451
0.12026167857943844 -0.23663801022295963 0.65446561577720164
-0.52562385667668632 -0.38218681284059297 0.64374396651727939
-0.65876812222067982 -0.92080228743436077 -0.33501521023609959
-0.27298947870603496 -0.11524480397457926 0.74212423999330457
-0.64526365011819864 -0.47571714755973432 0.57481096474342941
-0.47304523235015211 0.25525305877697047 0.79196547433851605
-0.032686919126118132 0.32240779352519988 0.79873085287475087
-0.078917509694442028 -0.067573109299151807 0.74455069226597836
-0.50599900302341339 -0.12062854549704818 0.72191483700139469
-0.22054102361930178 -0.073561474176185443 0.73335941379560321
-0.72396803359542228 -0.44390443861896545 0.5783339208132986
0.17681892061253068 0.042684556508795921 0.72214151528077575
-0.050561685835992048 -0.19346386808146465 -0.6232731853121436
0.33851608326868721 0.19701382191725694 0.12124063060058868
0.36837147522116187 -0.15123677960836951 0.11372640702301634
-0.44236982472532632 0.62627791252820608 -0.43650278580464486
0.34169630739904494 -0.23567913961510312 0.19288075453733686
0.51498500627188426 0.84431079755301408 -0.43773557955560455
-0.53608125301457366 -0.6925703144150186 -0.2552529051118812
-0.70098602648694974 -0.037136933101400829 0.72136163336878378
0.30772679531043867 -0.041318452927993354 0.72027773839296438
-0.27107532782636007 0.13662788480867516 0.75974604302269044
-0.53858215493516459 -0.36026644188954676 0.63186149883565013
-0.21082342260991577 0.38911111812043297 0.75234424600713823
-0.20878924962779813 -0.044648828683921463 0.73000529887464405
0.48831229823190786 0.72688480924585874 -0.38305746948732072
-0.58225345288301944 -0.55764819806202837 0.3906910921509405
-0.55605068591642426 -0.24940263657573344 0.71625802449520759
-0.7679387017660978 -0.47787243500512289 -0.15845440530491486
0.21662539844332576 -0.23871343877810247 0.70869893995280564
-0.61877223786622793 -0.09996027937929855 0.68694751220850669
-0.62943990999767363 -0.66477924432202584 -0.30250980457908361
-0.59861274806606435 -0.14904246019872786 0.68810092548019086
-0.7892192832897702 -0.7813108492707197 -0.41169709206294181
0.22448395318363115 -0.068926633588785105 0.78647903707057343
0.69036344376368697 0.022335675266068292 0.43633131403782383
-0.10594077200545707 0.7628164915410014 0.30112344168024047
0.093487213340012532 -0.19434168255016751 0.6941947382546152
0.92709806339607626 -0.14370931626942635 0.48449331816934238
-0.067609975745934497 0.56105977961253517 0.70943241268985491
0.48449995982351485 -0.15934044731700717 0.29918490735016218
0.29861707316810243 -0.11945544468710105 0.7276671232386891
-0.86205698478057524 -0.85344841011818118 -0.48329449853698936
0.003102488655473027 0.72569104621828573 0.48674112657540825
-0.07998227676959295 0.55952164212117061 0.6052564462320682
-0.26317628854138503 -0.096970113395741506 0.74438793894139788
0.31804621798206029 0.60122413150924792 -0.25238282536528622
0.21208743449978973 0.24964425863128131 0.64120935277893287
0.10284369642526579 -0.12610859991446915 0.77962759878069809
-0.1302280181271987 0.28663822550502277 0.80411795647381867
0.88888092293539089 -0.273657881708254 0.38334742008806089
0.51950845070348506 0.84289110068890716 -0.43399570737765786
-0.83792213573710339 0.17774256841529967 0.16261431174434146
-0.60881560159828751 -0.32899008677477692 0.62395320092324724
0.8907127879902117 -0.11903877371567871 0.51704734560358712
-0.34850441621232003 0.5556404659136448 0.42741153379112451
-0.52123277592791517 -0.55346605215532174 0.40501294553671568
0.063303848981924357 -0.29746570446824872 0.47965069786983794
0.30870963082493297 0.79611745044635307 -0.28721694872984987
-0.37861411888134761 0.33990738607937709 0.78088185709886859
0.28722989376144159 0.75065625514389855 -0.27050466449855926
-0.82693824160096152 -0.32854902703971439 0.084854592900247924
-0.46039291571801422 -0.44581043919479924 0.6268404581614524
-0.51044364680053245 -0.64849849331615572 -0.21775377218817835
0.39668070590755178 0.9913566107166063 -0.34664725541660502
-0.37560122475920454 -0.45024898709012423 0.63003518595818742
0.87467672929346363 -0.26990979481562971 0.55885870049434516
0.67860700674794394 -0.22000165817540737 0.68805564664772312
0.014573330969674409 0.46873573977962024 0.71269156512238507
0.32636348918013086 0.79845321923132484 -0.29840218330096058
-0.83735366406506317 -0.54249879522941136 -0.40455258780018155
0.070257128837836871 -0.12554589981189918 0.75300559690715263
0.81347340388004818 -0.21008082995571525 0.59490849525097711
0.43469214339579459 0.46434267469072144 -0.30520806746972562
0.39944986712292618 1.0970959450611601 -0.31516242027252667
-0.22477923074795197 -0.2300891989084852 0.69511247498479434
-0.75068414601568378 -0.06707023309607843 0.49674078755986806
0.80595271932768375 -0.16600723807349854 0.61113640325526764
-0.025093087481297169 0.36469354781865315 0.79262876282155315
-0.25484547898428295 -0.11198527068785306 0.71677645394886214
0.79850955318433869 -0.024650617460146979 0.50349719207678079
-0.82058318184263179 -0.58724510139551234 -0.33675270246888039
-0.25233697278776934 -0.27364699215474475 0.71573081204264355
0.26315620774915782 0.76985802373680234 -0.22764256283413831
-0.94035638080663575 -0.89423323529333687 -0.54768127424804924
-0.38257420129828662 0.66918047398145053 0.32463544342240486
0.78701399209873624 -0.18271301076735899 0.58131088946086329
0.16568173534765926 0.036922994855091165 0.73928980394943522
-0.81672974773195595 0.010456692178147264 0.59804738635611776
-0.24102388470287281 -0.35297810933226748 -0.54424479586136842
0.59641493951997882 -0.55787754190592476 0.56746663528139207
-0.47911201084995858 -0.88387787566626896 -0.1574800283533421
-0.072549928755195517 0.21339556530069476 0.73624879835494172
0.25515144114791843 0.1519259679283691 0.56875149460841723
-0.39714459675541947 -0.52545479933198114 0.50999565627604271
0.45823771687814735 0.81380992733803792 -0.39356218360957007
0.44134180199817252 1.0602713526306649 -0.37410576463168899
-0.5748913503501305 -0.6286002002318487 -0.27739301514539033
0.18812794446320991 0.5284894044494346 -0.44854380035527253
0.1718622049612869 0.50546346704314349 0.62771914100336923
0.42801178117480143 -0.029710260801730122 0.29201714599925294
-0.76761253714112965 -0.27696161003440756 0.37933372651135189
-0.10629670055649844 0.18398750776707559 0.74394123828278624
-0.44921285430309849 -0.13962018469874438 0.77444109173632458
-0.16416657929231132 0.35651774852860152 0.8050540142046595
0.2486293373971443 0.854446095086285 -0.21886606842735512
-0.8707315182329266 -0.76955664301450544 -0.50081995210691788
-0.84239561804231078 -0.96345039948437394 -0.4036747793334754
0.34183821293447308 0.076693147892296906 -0.15624232989699843
0.13717647469642588 0.29841353766840067 -0.56451295503273835
0.1501473240411198 0.021118347284938027 0.73379836025190193
-0.63778297662068251 -0.13184554220534311 0.67533410346984779
0.66046702568660121 -0.3335999601215564 0.35341334301560584
-0.73338574534588663 -0.9664715853351008 -0.32824239918867537
-0.38417637897910173 -0.068172730722050462 0.73174994544628291
0.27968669220881409 0.095256954149413181 0.46580238851375966
0.36595960282367723 0.62112878922824544 -0.28960184743841383
0.48067485997001708 0.68617602897141627 -0.3351608688583857
-0.47604590299981842 -0.55365645864453117 0.32043508167250911
0.86590198994304668 -0.2382895388205965 0.57720853365096558
0.89461133483483657 -0.19211717595279323 0.30384399421186548
0.33826495824753111 0.54255329424414911 -0.19793842673921633
0.7423383307094642 -0.06568334937166842 0.59361738832160171
-0.51691338391344377 -0.8599461866728435 -0.15234255722448603
0.66509674601144853 -0.47314191134325756 0.67906374554524396
0.0065414569903793802 0.22815411252715107 0.73804612941948422
0.8170521895402868 -0.24839346228181497 0.61835714619227489
-0.044342427059935852 0.52133802691178022 0.69962176654155506
-0.31161231113480231 -0.081573197703268485 0.74110844778932494
-0.11166246461308255 -0.014019428681102439 0.72652636897892764
0.19260165408117755 -0.136981517507408 0.75703112811071704
-0.14812551947348271 0.41161247281880214 0.77735899163405986
0.40845036491956599 -0.3781748377928727 0.41060988692725703
0.19949923425627236 -0.31648936788558402 0.63911114958803728
0.30000605632058741 0.084856353825867897 0.4989067302489042
0.23526130657738084 0.76657291089873214 -0.181364122865354
-0.6300161828933466 -0.088233675532241151 0.55270648145700674
0.56414432885516996 0.69827030949409552 -0.4177656314242672
-0.29872432422435841 0.052070453617447526 0.75308356776649332
-0.15992340075627179 0.15963628543332639 0.74200766265477991
0.14404695917772503 0.01265803247341795 0.74378795238864326
-0.50057058531776732 -0.38789820679265696 0.65111525386630298
0.53944326256276398 -0.39297526372181518 0.71541482386795197
-0.81923067014658246 -0.25850722811262528 0.57206131784249015
-0.83397009714239101 -0.37604918378053226 -0.25362577169087858
0.072758970785151977 0.23536012093151476 0.67309950614174408
-0.53124039766931652 -0.5982677916316379 0.071313738178054753
0.11181740375429096 -0.23367368751648493 -0.4846658635340797
0.56330685395732605 -0.092530606672213911 0.67555913884258723
0.48823508076241268 1.0033391154193259 -0.41674286940759292
0.4657934697531424 0.65627002308504812 -0.30819921844842346
-0.33166369932295009 -0.080134131155943811 0.73543414335862589
-0.46795203128200802 0.001672530741594784 0.74454984027833981
-0.47773201015953914 -0.88902624022329868 -0.18256445340167418
-0.94205800107414039 -0.64882670890818062 -0.54852861098715111
0.24475588583081812 0.47849198121953207 0.58166523537063208
0.68759023367051009 -0.25867745555958449 0.64443587840178629
-0.26795035912964754 0.34035668291015742 0.72453051432194782
0.17338496396987194 -0.3312084899739029 0.57220137672504245
-0.65020239840893213 -0.76299378914117677 -0.31792717917256957
-0.60533698237361899 -0.086127231051314312 0.69351312361332873
0.049987456775999972 0.56076870306157689 0.67469297765741076
0.70788400514129912 -0.25074708590256017 0.62369097753686553
0.27992708013402762 -0.09384052340336807 0.73247293134144997
0.47050927880428062 1.1022219413808199 -0.33475747212505302
0.007955598850984489 -0.26481812933604321 0.53791320202735138
0.77289398190117797 -0.28834259865934225 0.64385415726803064
-0.64133064149211083 0.05328933284071169 0.58764178128064815
-0.44629543050647491 0.79785918890728136 0.034545000660340663
-0.06917185696329059 0.19411124891253889 0.74375505344623494
0.62101312737586145 0.0095936502999726808 0.38004705725303534
-0.66330516583619381 -0.14433420724346691 0.67000967296401348
-0.49551685771706783 -0.21116680009549882 0.76031882008490592
0.21645292046738654 0.24267629659096945 -0.49462333529608948
-0.087529293816021758 0.20820959720633558 0.74177342688013603
-0.26664917799448057 -0.29340856213554978 0.68386781746413217
-0.78280613517382447 -0.42172453757965389 0.14262701589551571
0.38890161516401295 0.64688328358747615 -0.32509739656904868
-0.686173512226388 -0.97627926089829165 -0.29370274688416703
-0.26426832325351202 0.2317635992020301 0.75976890476768544
-0.83926295155022801 -0.40853918693002428 -0.09442582942283563
0.1098504947583424 -0.11943078218343856 0.79438695707067875
0.32309791968770396 -0.0046536342175272777 0.70203527582209491
-0.36574963051978526 -0.2428669165817364 0.77930787437630067
0.70603342342487796 -0.40782332659023429 0.41485056853959629
0.16612563228349872 0.33497743839129701 0.65985158481818107
0.290810972271204 0.015833114466129408 0.73240275673719946
-0.17006617666802146 0.082153719920295076 0.73438257038818466
-0.34007076154870003 0.3589321319594504 0.7684694054778114
0.36980088955307377 0.62563524697503448 -0.30028697402894949
-0.24161156130603062 0.54001448242180194 0.78255638799831062
0.24541209943213879 0.048399836249780587 0.71210384799528958
0.78813770769062719 -0.15987892393952979 0.61157653488178587
-0.51177324237466548 0.4326533924345114 0.66376526047626161
-0.57469775529247868 -0.41700135697338614 0.61621116234803175
0.22294467398428572 0.18310966593539246 -0.49712522606893883
0.3345969464096577 0.88527016393421953 -0.3059352734785824
-0.2574093241482831 -0.25739059589272245 0.70847065164776979
-0.41716988459728477 -0.35782995170732451 0.66495673051198001
0.083370519995827827 -0.23010850276587078 0.62903050706685115
0.15298122926643157 0.38752756180399162 0.6685414079270714
0.29293133183451575 0.60783220752485467 0.15472150731762171
0.36414377206866388 0.49846574939142752 -0.16751242709200645
-0.53106772372996913 -0.068100225846416534 -0.65313606452253659
0.74598274841981471 -0.42268260654005391 0.65534089212584112
-0.036579040100901877 0.21191276978947787 0.74369817552634332
-0.78052130466054126 -0.95795734207424577 -0.36124050853950562
-0.32870640493822945 -0.16803424778348622 0.78498009245608524
0.75174576931198023 -0.20143287455414052 0.58607466346837078
-0.12484678211366239 0.41995158262935844 0.7853122687766162
-0.45242960270987054 -0.31774344203306865 0.70821608797001923
0.29622922338981467 0.13023467051606716 0.41619446446654779
-0.40027955440992335 -0.5246039159596565 0.53469048666331043
-0.15316741221797867 0.21776659151426009 0.73603316993047629
-0.61543043627929905 0.51685733089516783 0.28248915438233846
-0.54339303061330035 -0.60236985390498443 -0.21569481203465568
-0.12876292342040763 0.25704823740586419 0.77435358372504715
-0.2427336773115458 0.28782461447546032 0.74167422295736107
0.094127207781450201 -0.062247172704548201 0.74716260615863594
0.21727423358988152 0.90582433151099395 -0.17392261463608388
-0.78794294563068745 -0.36745763441918633 0.38442662320657939
-0.20016490789617314 0.46666703922840203 0.74996973113929455
0.48271588863367859 0.92839107751639571 -0.46808233641492403
-0.86109993891489789 -0.60569343555923116 -0.50501947292712757
-0.37891982638987509 -0.32833283076187364 0.69300438405139764
0.54032101254324005 1.0162693605548907 -0.39324935431220032
-0.63905666807416306 -0.31006494437399601 0.56154108256685065
0.96278959991033808 -0.12712468749170272 0.3551840724013775
0.33931596103468736 0.53137409167002225 -0.13402123017462944
0.34972079831168801 0.089634220872951031 0.22721264712173783
0.43385067675799494 1.0262352648143944 -0.38118217586598274
-0.34320356183092354 -0.15686891131116787 0.78753047654600594
-0.36206557949387047 -0.26852868704536981 0.7552560472643286
-0.73015181994003509 -0.56682052547240447 -0.41750820354014978
-0.014608172280250409 0.58027647365565438 0.69201430297389255
-0.57144645818523054 -0.44636673636257274 0.60508118079016027
-0.089215935595131676 0.17983715727803287 0.69629204325418848
-0.46397795454545315 -0.41470127350070785 0.55839961015354578
0.070330685420352715 0.29895957691623348 0.71047295894797347
-0.83618988434118102 -0.164196396877274 0.13359665296046586
0.044987565812365349 0.82939488057582111 0.090341574906275771
0.21716250957062383 -0.33679416348882335 0.34043358684896774
0.19081298547347508 0.7008225721207193 0.51629329663879908
-0.06142028699652341 0.76079004041608489 -0.36739083351605256
0.30161742130637137 0.85992525750498994 -0.28547692261048219
0.52172373086240165 -0.40056712634812358 0.40823928921987412
-0.32026369411855871 -0.19974721606191179 0.77811036411886314
-0.64411195735742355 -0.93097342616431145 -0.27317758022277899
0.18604227535656517 -0.11675237260652149 0.79103798093346567
-0.0061281104416685862 0.44029489647393744 0.75231850173797865
0.30857751160332769 0.63401076748965834 -0.2922797300610474
0.16955873857338005 0.040317372651234584 0.75557817096327518
-0.13364795922424053 0.51758698148640958 0.73127686259959457
-0.49616102673075391 0.16557658533228112 0.54503334184421259
-0.96531734336705521 -0.68630234461655448 -0.56885647199013667
0.51671458929442915 0.79580832247780098 -0.40090437829630932
-0.013358533069640091 -0.27551505984692398 0.57209670766840981
-0.060811698980712384 0.10307384423754912 0.72596972202901533
-0.93146531983151415 -0.90477688426039327 -0.47636024119823989
-0.45113256598636464 -0.29903968916626744 0.73673475997971571
0.090587339003152093 0.82069295067789239 -0.082471709675016047
-0.12672262592825606 0.52025091832088755 0.66032880435268271
0.41973731780993251 1.0749427380633916 -0.36877119176435746
0.18990249166002288 0.91368301048642753 -0.14270097365782855
0.13509356989834692 0.71675896730591093 0.43604610291475837
-0.83140680612051931 -0.2766658295437221 -0.41739629908303993
-0.88637551924798741 -0.75433664713725979 -0.4847097265991207
0.72016418818676409 -0.25730977986695758 0.61313385488574035
-0.73809614458915795 -0.073817312257953585 0.70279342806868694
0.029375627357377507 0.24999529412583932 0.73175398217166809
-0.26759305934248201 0.81428757477718949 0.17095175388028977
0.34407789473365574 0.066877505266832532 0.61162041628225328
-0.24326713989893436 0.28329720124716434 0.75446175178968988
0.2333852205144398 0.66190482353704438 0.4368174589089503
-0.56928247887500794 -0.63621373824719829 -0.34090825501075267
0.088312440319425756 -0.21282707100730408 0.66289841530415516
0.2750908750001641 0.052111579682934075 0.69062139477033391
0.45982080817190174 0.06495166143365988 0.56057335300286726
0.80090160202023464 -0.26034809165851469 0.61219142362705148
-0.64567039987231134 -0.55980355565227835 -0.1856157817223992
-0.057776878471683613 0.27172826808960443 0.79454712480024436
-0.18646516839025226 0.1652262223314592 0.6594487228219752
0.71921150580893201 -0.19117765797031541 0.65835056415845183
0.088220449445636256 -0.10220059471638673 0.78723982322214536
-0.48413875896263875 0.47385209057892164 0.74252774644876907
-0.68101825939396399 -0.59746573542222214 -0.26480798866468097
0.26006590096744775 0.81175514920868497 -0.23379647907651085
-0.19998367478323092 0.21062806969286524 0.75609278005329594
-0.38418348991007051 -0.27958379064503036 0.75573460250022628
-0.69143984142618009 -0.24519604817105281 0.50619003799901174
-0.42288344983548848 -0.48972893671997103 0.59784246318637058
0.27465349826770585 0.89945705463798975 -0.27010279820629723
-0.34544587435594176 0.8440865706989904 -0.10791791519328531
-0.50497883320671144 0.39368562829404902 0.80628025698410233
-0.44847771277188803 -0.28112124741073774 0.75363006126279475
0.028528758332036341 0.78265263343429281 0.24322150275940665
-0.31359623517665963 -0.16304665507566943 0.76576815976286206
-0.58503045503062512 0.67927143753952035 0.093732211718390121
0.33316877911319731 -0.26125106096719775 0.72648454006726038
0.2430970807193831 -0.31045115353896602 -0.026583477285904128
-0.5758958311897685 -0.12572361848707858 0.69585815612399993
0.25602497503224975 0.67160427380581023 0.12364002607714938
-0.087362620383880082 0.29175439600431707 0.8038322383363431
0.21846171657856925 0.67821873777319241 0.26498571862608267
0.24003547091419145 -0.19386105274641993 0.72902126804805201
-0.57110137007792949 -0.6721106589887319 -0.27656318365759724
0.90264231677831075 -0.2860146169547213 0.4481086309267151
-0.48419166505414551 0.29813892185401969 0.49913064130707391
0.37301474448906491 0.072058849696031713 0.57380458211795915
-0.17605328155931715 -0.52046832334402837 -0.10341285019090918
0.80732065610653458 -0.016677732071841117 0.46936699455062847
-0.32276587420188702 0.28852392846652258 0.76468492428762946
-0.20656193540120679 0.42024186393353902 0.73480859738172855
0.42324012996264804 0.71224106853729063 -0.33998731716324448
0.52191938805203797 0.73677897379614998 -0.35101414638309825
-0.47206837923251488 -0.72880581342413309 -0.20440370651983783
-0.21943797634878798 -0.53358850650398382 0.11774501559833817
0.2260493156889424 -0.11311968679171862 0.76444312073566278
-0.54044947870541737 0.068101067669949555 0.59957268021161658
0.023460476754737652 0.55537449877035139 0.6857312289177433
-0.90465737217867603 -0.21426895263062579 -0.11542478956513802
-0.04748049659652185 0.64012545146225808 0.72774448696347105
-0.27652844721643149 -0.20870547850027246 0.7341898354223233
-0.21457347302329927 0.785256344631176 -0.32189026558085881
-0.63440718425621145 -0.63349401065042166 -0.29806272939609396
-0.020126298582807657 0.16844783381319778 0.72936862467240537
0.093942447078895569 0.47660122070702227 0.67319552824847695
0.76262584896325147 -0.40872146897962663 0.64557372415592795
-0.80655720796268604 -0.84259654244133064 -0.4365738141849333
0.28170399173303656 0.67320603558588976 -0.24012420376614957
0.90680325527628403 -0.082418945588239131 0.32582743630178485
-0.70209415032145006 -0.67244413944992332 -0.34506897754610999
-0.041138949957197884 0.86088664270414905 -0.21079666988885509
0.15681238008495424 0.95975732448282169 -0.15979171265376596
0.25428377751304948 0.62154046576427147 0.5022086665331752
-0.76910188092157816 -0.061289381195179654 0.70130370874812176
0.68664943036400339 -0.47307799024558034 0.67106585249025941
-0.90718370211389221 -0.038241661442888902 0.037268856912381451
-0.81644628287105225 -0.3530620547471946 0.54581423386034222
-0.41579492850635175 -0.54165578552094062 0.33996011311982754
0.25411854699123587 -0.10553188198233611 0.74401865251127863
0.045617475027132148 0.51221628563255195 0.64870693558637516
0.14900598488225011 0.42250672007085049 0.63425812658576264
-0.61439287909070928 -0.90390016682840735 -0.26730683590392534
0.30823382330995358 0.32931093339190504 0.41192895323654372
0.089326048227548083 -0.11876813725745825 0.75892929667197506
0.06026292842419996 0.39665182151172546 0.73643653476450366
-0.24700391119557313 0.30983007848634342 0.75515730407925274
-0.42113791410519258 -0.054741930340458926 0.73431736847551421
0.19980221611651053 0.082784693714571811 0.70502685800208464
-0.60285301360445476 0.23736635189768257 -0.60631740451756511
-0.29297753858060471 -0.13180380343844766 0.74470031461893116
-0.61471666025391691 -0.21249720547976667 0.64776099341075088
-0.42392154410703242 0.14675768692086752 0.64921524218543603
-0.0031594135097190307 0.54054020405843961 0.69424498426322345
0.39793697096985992 -0.09010100638501016 0.7102459768192142
-0.24532036554293091 0.58011924117566493 -0.54357108461009362
0.79144108018340076 -0.17873465189881887 0.58939957463954029
0.87846696570868099 -0.11628682599738016 0.28567349527958519
-0.65162894603864696 -0.31564345682389483 0.53304050219093224
-0.10939109343318865 0.68602536813052029 0.68652319060734335
0.428558563294478 -0.11800655158317452 0.71227944482358274
0.29091404572708612 0.065504240081688953 0.6560167180143005
0.038594744462085315 0.50760717551493073 0.67297332784890285
0.10210917100518806 -0.097049622518396633 0.79575688015628099
-0.44403627184078093 0.61904290869784773 0.34171613233308373
-0.066296139456734168 0.5065438933538553 0.70324760230865768
-0.36987758544674515 -0.3735988190681388 0.63360912773036426
0.74483554253972228 -0.15793692946647508 0.6212833541891003
-0.79860222476247622 -0.012187115543454547 0.68112015338169773
-0.89573028710770042 -0.74686803631914489 -0.47934980848605063
0.15551676484571253 0.84109032996259547 -0.21331868446524202
-0.81661455347107015 -0.42064309848668824 0.43796528380924493
0.40584869177476007 0.5851036356875654 -0.31212691250834151
-0.14273771677927971 0.27354221907424497 0.79678262013772083
-0.45992733685798004 -0.38972091883467536 0.6078083006702325
0.929715936953461 -0.09785678332197098 0.32144615365880103
-0.55255660067549117 0.33535638538439871 -0.60455659778282778
