# XYZ point cloud file
0.68685983126779426 -0.24007593347461312 0.63377632205115597
-0.26869111479449259 -0.22697669473259596 0.67245346569075903
0.41793616462841532 1.0271705056829437 -0.2756900455731871
0.18553792241466657 -0.29888583057799517 0.44051095881673508
-0.30749158657375342 -0.24292174202774505 0.68427614257203517
-0.72639795173669519 -0.58488751395662053 -0.32526407687115905
-0.65442448676543408 -0.81965197291672887 -0.243856116127873
-0.14733438356188833 0.22295666687112764 0.6926193368018827
-0.74522910870057257 -0.48837796978843229 -0.25453042883974253
-0.319064537667473 -0.26611608394071046 0.67423098763282674
0.77888721810055472 -0.082995158992370074 0.49874337505766153
-0.31946245785939459 -0.051500922908602156 0.68424980698662019
-0.39211785976301777 -0.53067458042362725 0.094252015220011559
0.36971235401067071 -0.26410685315213411 0.37616470429567106
-0.65371082584845663 -0.81579210384909673 -0.26228494041030148
-0.75901868079256163 -0.62190081441138845 -0.36225689567528124
0.65261581300053584 -0.078386499344949123 0.60102582254401338
-0.73810343038469783 0.036394001632289896 0.59123620621046524
0.32721881888319476 -0.16461185012464549 0.27905246364400826
0.31500585296920935 0.84902481894500959 -0.24070160079144581
-0.2398186042829426 0.31797198104642832 0.71124356196517935
-0.51589945794311309 0.59160521418060696 0.17353432741625086
0.27631118936167204 0.52684909785235168 0.0084804835089196326
-0.10291076054798365 0.62698941297089905 0.61544901344463454
-0.51790944316338416 0.0062384714544082634 0.68495386852387119
-0.50828180399844947 -0.14494870273005181 0.69216458759413391
-0.15458344377261904 0.5071940561731445 0.70281280703201654
0.092105774099055349 0.40846371337454057 0.62527430010720364
-0.71343200896432979 -0.11403866957215408 -0.39587602095656177
-0.60942785350254824 -0.27539084625889687 0.58480816989721796
-0.46942257835080298 -0.3271180389058177 0.55435073764194742
0.58991336574423536 -0.12204264092727186 0.65006102960037715
-0.31484346138445135 -0.23770701434507943 0.67861931948718002
-0.55120966507519997 -0.56194692696357462 -0.20215025259008867
0.13170124868504632 -0.10530690915746427 0.72831332607411359
-0.45297456743737669 0.099978501740498993 0.678300650824195
0.099831389808095389 -0.0019640275210760852 0.70337293881355312
0.21951417437331999 0.98957045442082281 -0.19657855935447927
0.24489204610891568 0.51931586363936599 0.29503328453812516
0.53165752132444288 -0.12495050106685718 0.66505707758353994
0.29450828053624611 0.71592244217147427 -0.22202087481902333
-0.38928659447616226 -0.42180774417861477 0.56631334089372531
0.22723493423812641 0.10531722308146652 0.46860582136994439
0.077752951238430013 -0.018609801803178352 0.70448498193165554
0.0069232159872385582 -0.20862672613301181 0.5304007764078903
0.26100398210474257 0.59276866133474337 -0.19162300980532371
-0.29945304724511285 -0.0086515847341718348 0.69811899666151267
-0.63463389210000376 -0.45190101487870149 0.3896638044510623
-0.36217562120443147 -0.040207608458894033 0.68124370979093574
-0.65022139943817447 -0.337721369378299 -0.33156151255586652
0.11215661540040875 -0.015439766441509285 0.744949422175888
-0.55006846517805374 -0.14927734132020182 0.64239285961618176
-0.137022830907996 0.41893197044110692 0.69299448005375741
0.27481233968910179 -0.21060290905619319 0.18258425093419331
-0.49596211366731668 -0.11086757706923729 0.68087757948707406
0.42087169032002081 0.64319563212653419 -0.29126117911854976
-0.60786672204175796 -0.63483440634311283 -0.23662793595532372
-0.49227605385539103 -0.62213422950570796 -0.1674137939407617
-0.68201502201692876 0.38702880636042536 0.10576835806598045
-0.73404338418053017 -0.47296874877035799 -0.32656784163373442
0.65003330154182648 -0.0037811032991658701 0.52176396472870024
-0.39784365214216544 0.13504826265829889 0.66179845629100709
-0.54287926043412305 -0.11218096979709029 0.62972465231048447
0.65059327388272448 -0.32976185137650454 0.64883368114850393
0.088400224048441056 0.24115705680390687 0.61309903245620767
0.22781181520723787 0.10075458404197946 0.50190725386553348
-0.6973917903224105 -0.25792639790261346 0.36481106788387901
-0.84027833868550583 -0.55866326366134955 -0.3728668633443879
-0.2901544372873997 0.19899929051551163 0.71970534702528033
-0.39896579583251895 -0.08338802456119751 0.72990649688585785
0.22995973587445701 0.86037096117841028 -0.16223369212484262
0.76546958916629271 -0.26526530588315167 0.50609037864418394
-0.085658366701253819 -0.4170994437967846 -0.12730479716782608
-0.56258626313936289 -0.47767668445109501 0.20525510403783725
0.13491731078561847 0.01563316752272715 0.74686683609731108
-0.018095652585563997 0.1926739573558145 0.65373362716190031
0.73974566882250636 -0.2898524038524164 0.44941307495721738
-0.38505234720687065 0.36304984916727978 0.46892669634820461
-0.14529010193114422 0.32020224655582358 0.75431139876695219
-0.17667340139745477 0.34131848989510599 0.74395478256331493
0.39174312433555969 0.45219270353209606 -0.13269361298132226
-0.82234979791216312 -0.065630785946211301 -0.10237861716622945
-0.16527550561815005 0.51859358132538236 0.71187172202654914
-0.19870827721829865 0.20184051941588924 0.70853568148329982
0.63184591433874859 -0.19351557224888524 0.59630971200672567
-0.0082153536017523475 0.67727005903914739 -0.27297543421314147
-0.4720749198986266 -0.56788319143309884 -0.15959505968336679
-0.013453323851235134 0.2838583411274691 0.7371911649360483
0.38062897298521836 -0.41297361921710879 0.50246098068447798
-0.30973377994207785 -0.52865006157858097 0.075996770181264883
0.26818081429789314 -0.061484299250595731 0.6930085671329308
-0.5685665274635836 -0.015156368036503852 0.67066575499982617
-0.3319724942481298 0.016134972820446451 0.69802406688130947
0.15962021730137629 0.71642573698293277 -0.1848496057652374
0.56138083940661898 -0.4281641624037808 0.49411338294638391
0.31984043636550191 0.79053277161567692 -0.23758656388608779
-0.59280210460135285 -0.47339809154657847 0.44155395788849483
0.024338794731329189 0.64035089236855769 0.63179088143481832
-0.16965992002687397 0.76524876332753533 -0.13176569786733164
0.45490345845176272 0.039573758169318657 0.414799160618044
-0.18033908952419764 0.12549210731894564 0.69915329818652705
-0.52082177071655522 -0.69771591388130028 -0.1731399073018263
0.096296134826828889 -0.050375402067696001 0.76225903029747943
0.3445490167702509 0.34433128123618006 -0.18055281813398266
0.4482320997770709 0.83473965115940185 -0.3378443141429201
-0.70835910395587509 -0.57831717044546394 -0.31238399016374424
-0.068139199973859019 -0.14010847673654292 0.70385930068343527
-0.7228026010065125 0.28289878612346592 0.14446630793895882
0.21761745102009361 0.63229957514112511 -0.11315486100943498
-0.69895533780834118 -0.80681171407875296 -0.35353788508979933
0.24421461946573098 0.44031141586965283 0.51431601263883087
-0.33653508760283468 0.36802066875076572 0.55977619462334804
0.17621143253242927 0.021137887253194654 0.74835667121559712
-0.035480906471061488 0.41807348586515874 0.6997202221678398
-0.016715943055132434 0.48359414826368258 0.64673957775361934
0.43299253325469345 0.50801378620847215 -0.1697848319768209
-0.37940604156237367 0.020374050454398322 0.69670696431950674
0.44160323738236845 0.88983307074583173 -0.28531417612769416
-0.47185176248799915 -0.53739866035774564 -0.15892806690659031
-0.24121472435989497 -0.18656146737751703 0.69471345308613253
0.19369670697541008 -0.20502290176374333 0.68844980963983571
0.14693768166531262 0.059507691763912809 0.72546092014921948
-0.67145572308609414 -0.8779909112770643 -0.24242319634065201
-0.077602341960656074 0.55388631040318592 0.68190728096626385
-0.16854895719915949 0.62894864004895745 -0.32677156681700237
0.27877280384288911 0.16565755114785713 0.27108622083522105
-0.52532953641628521 -0.096441558814859024 0.65353110320686536
-0.21664446195295942 0.26668027330743316 0.70087223942770038
-0.14129698536114282 0.38320658964859611 0.73591511135228216
-0.86066795558956222 -0.66139222447963153 -0.39062701021879948
0.099531645613239017 -0.10481797213715872 0.73126617837927421
-0.50945951769225595 -0.65708726321896926 -0.16787673103417428
-0.1065886040751086 0.21456553370515791 0.68977457337531289
0.2382007882597959 0.020162141095525075 0.70916682391392694
-0.090765972330809741 -0.30462899143915051 0.44915722861561702
0.56091358987425455 0.032652217263222011 0.51825916322187116
0.22120255377566433 0.18377757072473033 0.54128349950345966
-0.34746760607657667 -0.020242544002176406 0.66616099848321786
-0.69914126196337667 -0.77598379868665113 -0.31394044819454014
0.077890227234113429 0.67554628221610913 0.53616073210210147
-0.52219684235311492 -0.16028975786851543 0.66671957803973181
0.084193983661164679 0.26462824349217307 0.65687444238894033
-0.047603052976371518 0.74136493539348547 0.21213544321119229
-0.54511900241075817 -0.2274596676681977 0.61315739456857232
-0.41224522734932995 0.39006361392985617 0.7506329238768884
-0.1803910124808121 0.42357539378500658 0.66769308998099508
0.26420091529817802 0.71237110527837544 -0.20154189497004621
-0.80707565410210513 -0.064405725045375034 0.03945469675990225
0.66488606600212719 -0.24143495860002501 0.62501934428701245
0.40682337117294259 -0.22534707945411206 0.35343399290097233
-0.21393337386346903 0.41639325746407868 0.70391127363509154
-0.17148195380086659 0.38021822022656576 0.71144439698046991
0.02677394164531785 0.65449849182740971 0.41417107922925983
0.11041881533467798 -0.0097017142703443686 0.71011731371695441
-0.36279239577959821 -0.19156632236227425 0.73536261272242609
0.67781752565437292 -0.065670701469959084 0.57633642093165605
0.08274658288034932 -0.10510730050985892 0.71740892179364979
0.72198425604748673 -0.11178509053772435 0.57568663849512858
-0.8153576319385899 -0.69948202363592493 -0.3614512347054637
0.47830411406626483 -0.3456906492338287 0.6982176606214302
-0.60430583414681671 -0.53791048138778996 -0.20706306530169788
0.2079677092472787 -0.24206453638435457 0.67652731145257983
-0.22999289204644507 0.53380400203559186 0.42623800583103194
-0.49925746205573412 -0.29655028453449872 0.61029462205030005
-0.87766590741452377 -0.66517245451820606 -0.41990689953659899
-0.60204522871091282 0.041645527442463387 0.40118802277196264
0.22685614263487192 0.11552524846613219 0.45848106273834061
0.22720219866245567 0.091790632335447819 0.55876937710278596
0.24587890662436257 -0.24509046046865951 0.19334149521360017
0.2783400416780244 0.21460293022184404 -0.20576513287231069
0.27834370123483893 0.51847734550336089 -0.15917765703831868
0.32203769527586179 -0.078009669186327832 0.69084350017725704
-0.023506104484015078 0.14978425697924955 0.69126210018831924
-0.55498681749889112 -0.13537192704201223 0.62278393517134767
-0.57445684670213903 -0.85956853845280956 -0.17752238969829565
0.34900267309620192 0.050183831789072764 0.40442896480564344
-0.51515144748135533 -0.67489154008380003 -0.16842714841965653
-0.24680579039614775 0.19042481485854654 -0.59029821320126108
0.06797057579888148 -0.096612427082855779 0.71731349812562772
-0.44151513567181067 -0.62682291590148442 -0.13209862074833034
-0.37665460220297192 -0.53807230703515097 0.00796032106438746
0.10527424903894297 0.14223113969721385 -0.48122807667065215
-0.40530487289644146 -0.57905362897686463 -0.067461304554525731
0.28585706140419553 0.37974553511077491 0.23957626149664121
-0.13608710920681535 0.16146017269299964 0.69706686234293946
0.4266554883155757 -0.081717351101556951 0.32951226710423193
-0.40319631797030625 0.20238281272632655 0.71542753251424196
0.62263050070853565 -0.18500309429981135 0.60416875435973927
-0.15130882415036867 0.29268247862084801 0.75311776341620906
0.099355613144965771 0.44490252179720602 0.58237374737931169
-0.39694539556245151 0.28148629915128109 0.58320984303051204
-0.31711346318840383 0.27583905880861254 0.71783892504291114
0.61725735808133875 -0.017946405607682854 0.37529718660308248
-0.36837395660004479 0.32316728980009618 -0.53590023188084401
-0.16035240873119613 0.46351175439558928 0.62636369141808546
0.36047715152370874 0.37602065582876715 -0.21729400650972008
-0.71187224167315322 -0.21146722291047518 -0.36825574992052396
-0.34141459490178538 -0.24349426960122661 0.68546366611315412
-0.73297925725822732 0.029910020875541315 0.61661288191643171
0.085948904523326819 -0.27897036718230961 0.40310261460780367
-0.53411200382457324 -0.29202936709477118 0.55557547304572874
0.44750531835260726 -0.18246209998200452 0.69873029726714309
0.456653364353997 0.60090961216245931 -0.23653534336141924
-0.47452507831230306 -0.016831452352579681 0.67852166832820493
0.78812874770259678 -0.052183934868501924 0.41505965480009988
0.51155351769898139 0.045433537994358106 0.52970167277659908
0.036656073815123147 -0.19026312903778214 0.5858984326964447
-0.22252115144303986 -0.22858816008804864 0.67685057159093531
-0.703005704625004 -0.54812651277705005 -0.26864019974136477
-0.31886303455763493 -0.44339746853150031 -0.27163684206218536
0.005174944786247769 -0.26462412457906315 0.4571357763085378
-0.33981579729536143 -0.57324780028244615 0.008602394727721889
-0.46713341616184434 -0.55365225105357108 -0.15356359563453525
-0.62546168627434495 -0.88254348283005069 -0.22606067142730957
-0.62276350822559623 -0.28191280818534392 0.58110129609702277
0.17137804775856641 0.67538411970352441 -0.04923724501265081
-0.50668034138406637 -0.26074727085216309 0.62176471722746107
-0.29372939161700573 0.17005249177806483 0.72269923699859107
0.59523410085069095 -0.25937919069200688 0.62924800072484988
0.34912913851358585 0.77457978739933453 -0.25558393481503261
0.71145467962718478 -0.15817569373213061 0.60348428570051782
-0.27515850371020012 0.34157974497064808 0.70969553972204102
0.6381512039235695 -0.25290331670592103 0.65909585019388606
0.069427055476692562 -0.093344119611258575 0.72787579121553347
0.6017014783987662 -0.24852399713088147 0.61952976797069714
-0.084114408151447384 0.26771420374173882 0.74942963275735253
-0.51736800446956166 -0.46389740134775065 -0.29027638258630889
-0.66246437190234453 -0.45857599259841908 -0.29712928177588099
-0.39962079823518354 0.096593292730688729 -0.56714763104727783
-0.218642548232787 0.36133650442397686 0.70840622360934158
0.0072215108806246223 0.50034800641097976 0.57676038544446551
-0.27978666019043685 0.26917445647912441 0.71361729821779651
-0.22685090222572318 0.67412843512881038 -0.26195725762984839
0.25549418768376253 0.85159697903784948 -0.2072750486673694
-0.55666816518103623 -0.2064537043026026 0.61209654380537926
-0.61798959251385233 -0.44408869095808157 -0.27963603884139504
0.69170198455444054 -0.29242041982420702 0.41227119999885264
-0.6129063321404552 -0.47441068180509743 -0.13982700197249368
0.35703959891581999 0.94813855101577138 -0.26657861685197981
-0.38026065925832825 -0.57780066021631393 -0.032332651320302719
-0.40626316597513495 -0.30062285670188005 0.64700403714799104
0.50604914869472728 0.035940885831811653 0.55903636590525885
0.70378664374922195 -0.2027971244983604 0.61159196432705987
-0.75524299727670918 -0.76854763814245963 -0.35462331826909027
-0.63911135800629248 -0.48349631652093011 -0.16828212395912742
0.33667936145474547 -0.11731962047266886 0.69907809811626631
0.34937656833237868 0.47500205505747645 -0.16509876419449304
0.05685979243447449 0.7329762086491991 -0.10478482861411431
0.21746795372964189 -0.19406602839558804 -0.16272818149326412
0.26665032577281228 0.69380191035370053 -0.20261256546292133
0.31293437746207342 -0.15000982045949227 0.70625070918430966
-0.14362869731400368 0.43010867338584341 0.67901185903083716
-0.41151367037588038 -0.036878223102125886 0.68047726710780398
-0.7260006048039086 -0.46295232064216568 -0.25998292540351081
0.10275017104759099 -0.22429117237039109 0.61176259692490198
0.26939161440605391 0.13286543568792325 -0.21949182410615325
0.1242130335919599 0.037152650716626476 0.73464676383577732
0.3148557443345617 0.67849172786118794 -0.2314560407664833
-0.48364711381365089 -0.46650552864900091 0.37421369235318019
-0.10667712178483549 -0.18098540870987809 0.68697789125054409
0.26875514250502036 0.075338943669350414 0.59990766553425412
-0.47719122372529027 -0.55963748101885802 -0.16968984716723809
-0.67540659220431565 -0.33088619637328026 0.57262395719435388
0.092921232422213756 -0.17416382029753369 0.66042789799432511
-0.63834458719147846 -0.22944774590536851 0.59897754899790878
-0.44633246683624683 -0.61852812658283018 -0.12790775227244641
0.26259192180794483 0.24118080315447821 0.34786239045142991
0.27642092415494479 0.56071564739538271 -0.21368634272144366
0.27080748699970669 0.38560848931000669 0.42404628240271441
0.73119562462154009 -0.15195161410234717 0.5881311343298018
-0.38174460570314933 -0.018751194096474022 0.66065993770243869
0.054757721128978268 -0.04703396532846553 0.71532715376671185
-0.48330297410415762 0.003613098990113757 0.68308806533887967
0.36182087999147006 0.53309196219827526 -0.24197837209928924
-0.24806544141358886 -0.25667898374156339 0.66776218196858306
-0.027185579315481909 -0.23006759388080017 0.51643282311329786
-0.11659859939736796 0.051778860299732915 0.68737707590929487
-0.24946649875316085 0.47732178191837099 0.50628531252383013
-0.01522584011705469 0.37259102781207482 0.72917821886670608
-0.23955358888091036 0.54526279986126602 0.64172255767948794
-0.49766740696374206 -0.78366877756500641 -0.097370975022297801
-0.36512866941644145 0.36223838417344456 0.73724533232690337
-0.18613481643446586 0.56820758244371672 0.40613505526526805
0.039872460355181494 0.25829834142808394 -0.50020257643202393
-0.20937230128118536 -0.12030357672828995 0.66874094095920811
0.21425316752542822 -0.0017033940958936372 0.73522943973924804
-0.76526131715010137 -0.85997795489477147 -0.31805458450413265
-0.75161376083661136 -0.041132554079426585 -0.36047087814175283
0.33779573133671947 -0.16699079176366538 0.29603243776975474
-0.33417931473610529 -0.027491113662327697 0.69999856563483076
0.28832529273709301 0.26155782831184882 0.20426855845831626
0.18578983168168897 0.049140024898085999 0.73933955743823998
-0.23092908381065569 -0.24784614679308345 -0.47334651600297706
0.13020560133340398 0.33625433056620818 0.63107678445113558
-0.32586504112944059 -0.19616948342222523 0.7219936884721273
0.60921320780173771 -0.44744207367139516 0.58300773436919517
0.45785406369662374 0.92131855536513152 -0.28114831345002611
-0.033865007288731305 -0.20196854483268337 0.61542067934158284
-0.73677713278619439 -0.78620834053663913 -0.33226686445564863
0.01386712018289004 0.23727608118535148 0.69116723585373974
-0.00033526161544032707 0.29520762618335084 0.73384430379999854
-0.23378287390096975 0.31832671749729913 0.70912082229355633
-0.54177712146663459 -0.8012106565331969 -0.13775190234971774
-0.13151661803878278 -0.34812287911975626 0.38571578971096671
-0.47851515923790683 -0.0071050128880609555 0.67932834837106704
0.19668699009716978 0.062317969356361094 0.704344607681894
0.57409183282217247 -0.14540396386561644 0.33544943896956703
-0.69093272503020375 -0.70507649112007376 -0.29381498021660413
-0.74077222337733251 -0.32040255769727338 0.51725444712958213
0.60475345740849595 0.0098656509199017903 0.53463964868059333
-0.0017545018486651992 0.5322768008035017 0.6424994621591763
-0.72315793099921888 -0.42759302235514679 0.4653413811959648
-0.8120166149821596 -0.60931333002490207 -0.35554749571080146
0.40922535757611711 -0.087724723721058745 0.68008685567046312
-0.097706670747423827 -0.28099465890222108 0.5078800481607415
0.26663772927038848 -0.0077829190013017739 0.68267349099741592
-0.40044423645349331 -0.2308077381500189 0.71069325377596493
-0.53239573938944362 0.087077231276601302 0.6682821473970908
-0.58228617790477089 -0.26095025539894573 0.60237684475914255
0.81426768542463779 -0.12373632501524859 0.34094823398104618
-0.17538346430609203 0.53052552730903013 0.71582845640435511
-0.84896141568288208 -0.59157641696832797 -0.37843578247281623
-0.041057711554536011 -0.076341697313085266 -0.53956271239150766
0.63756347252286383 -0.12592571545402292 0.62311049908854765
-0.37418713398673775 -0.16410010303480932 0.74051119249881847
-0.79340507780189562 -0.55420137326357333 -0.41969761534561745
-0.69990678583657484 -0.52212386760532481 -0.23290844329650384
0.30676490969899117 0.069885930458644635 0.59195230539585664
0.31911757898724402 0.34127614495695618 0.03635375318836679
0.12884038125727793 -0.31685065603371693 0.25015202635644518
-0.65097129884714056 -0.54344151860554502 -0.23856482962036124
0.66920183941168343 -0.24016158665635895 0.63205742152288791
-0.36850239602940377 0.0295487669745646 0.58941154752469038
0.32778389701699651 0.56914050117921344 -0.23439502727116795
-0.71231895969064329 0.21871396056350595 -0.32228394989790587
-0.34205200970076777 -0.32720957781507937 0.57198476498974082
-0.54907046711435359 -0.57659375955771153 -0.20189981661786077
-0.69033587058031132 -0.44695654059845902 0.46141826239297051
0.71413376871217282 -0.18146500931925511 0.60564798456139191
-0.42132247114093002 -0.62894516398529965 -0.10814017007243171
-0.42013618111431594 -0.12892462689805617 0.73335993684001077
0.3116722970137803 -0.23275453960561435 0.70485597446740511
-0.79948940597205675 -0.13757691145667444 -0.22026396546171179
-0.6235379271129452 -0.63629818311801589 -0.24729698505726333
0.19956563784779641 0.75327071099356169 -0.1098715483992298
-0.1264422506169155 0.1947537689564961 0.6777745278708005
-0.28470781611495083 -0.20340837819989627 0.68979168397546009
-0.48850914523498662 0.28129405650164668 0.70337971967703738
-0.4621910455575452 -0.67551371611813993 -0.11583569618454639
0.50241391309687833 -0.44444034856089432 0.6522856365170755
0.37493808015135266 0.48913102044288176 -0.15898081716482149
-0.53481101990508895 -0.092949358938879956 0.65471153377616709
0.45678903342314148 -0.24038581896450181 0.70626179753007534
-0.43210095682360145 -0.56749945636492027 -0.20122205446258318
-0.26828310740573269 -0.10853219632358103 0.70772694222997146
-0.71490865030181139 -0.63492665177840046 -0.32216942031470863
-0.12503314939570942 -0.096684260959215354 0.7119148707716989
0.12977383826963879 0.00078539893500122887 0.74779794824910972
0.51281141549663545 0.73754463478173315 -0.38721398102978749
-0.4278205990271623 -0.62975127611363013 -0.12195631276808416
0.047242029407726496 0.46732467333882249 0.63634891772310265
0.30827700492397048 0.4571150381090433 -0.10974891113395613
-0.086377162591216722 0.79006318420747523 -0.010477539798716975
-0.41456522126590911 -0.57422200971562321 -0.07505186151049234
0.22888886486842352 0.40028399657148589 0.54184865300622687
-0.28973573753660553 0.0064754921355935566 0.62090448484511873
-0.011536826159697831 0.17869827628034676 0.68838802025222756
-0.33125395540009939 -0.4122119463421946 0.56555382917749286
-0.42680065507413883 0.42528507424369694 0.60773889187902375
0.44533406600084174 0.89899984290123069 -0.28057960046375541
-0.62035347250826423 -0.38443806207646969 0.55582891083565389
-0.52661902653762205 -0.83635214575194694 -0.14417151606151171
-0.68408360196008622 -0.81311746846618793 -0.2929751745852614
-0.46207665840986856 0.035609056336499828 0.70592486813819266
0.12280108822200494 -0.00024059172388572053 0.74228563672552395
-0.014371841115202302 0.3638446181044766 0.73150007872725964
-0.6902697738401028 -0.26671388744491942 0.27717110847797177
-0.46538166435859263 -0.56336056261845635 -0.14260778698720655
-0.50802601940137937 -0.0051618543773960766 0.67695915645065496
-0.069345202759046945 -0.23145384808086814 0.61011724746497165
0.19299749196066632 0.59081896888055163 0.3668887575544203
-0.46424725047359761 -0.62033910550874261 -0.14913405124455847
0.19317246147877043 -0.031421446697165491 -0.36121275873819714
-0.41010129835338521 0.12296650455588251 0.65997900954785738
-0.11645277869790492 -0.43075861083982653 0.033840904861858784
0.16078470142604437 -0.017611601464464888 0.7546495653317834
0.45096611280670312 -0.45256056147311441 0.51641094009416078
0.53855560795362545 -0.44823392434840953 0.50570726746087979
0.20862643154855359 0.96958683732023898 -0.13173867261963002
0.39159508547627053 0.53277204336729711 -0.21330541571370742
-0.46150687622201325 -0.60120997757529415 -0.13837482644233318
0.50423990124428364 -0.029332585083322892 0.35328214600935215
0.51550413291270691 -0.48292616672786104 0.55262891986072149
-0.34118282165835168 -0.14366962236040343 0.74579979373522376
0.39246416103140525 -0.18924246216044632 0.33661971029032428
-0.51218502056819626 -0.034002853877460999 0.66741608904141247
0.63274074402446945 -0.41251749071695354 0.52170776909493821
0.11841915097713279 0.03761453350236639 0.72939236735441382
-0.61042678545036 0.010794481705124412 0.68510118374434947
0.32439227694998973 0.71818945082230634 -0.23907706609474899
-0.095626546194507667 0.16756117970743628 0.64242645550963362
0.087545750579474266 -0.019530034360239049 0.71262227624608454
-0.58361571624617525 -0.56433837461090031 -0.21721185537776694
-0.34594661638743907 -0.5957532674040642 0.013269142148815014
0.46772060899938139 0.51026483482138429 -0.23231316396750706
0.11970700681709459 -0.27373126609982357 0.49862532402454163
-0.42650501469080881 -0.61834865482970081 -0.10953635427946384
-0.04143049626721397 0.40781851479664694 0.71888368792426949
0.39099414681220201 0.5158599039039844 -0.17490171631481727
0.016970872715201236 0.25732019650721732 0.69050720742447824
-0.5298491252461025 -0.7267071551830786 -0.18415238611474205
-0.431210370414151 0.37034130445211327 0.75130575964529578
-0.73923113420544739 -0.37337319245077732 0.42765476218560833
0.80748493479159056 -0.06611207941705885 0.40834198158336354
-0.15943151940617153 0.45667107855855738 0.69183162598864167
-0.43445693026502014 -0.29200212902768441 0.6328994066991761
-0.62315013351572313 -0.87401192249282267 -0.21021458487870526
0.36607253073702478 0.50215450285349994 -0.21467188188166464
0.70303374360964843 -0.055034417336226493 0.54899444465301461
-0.55176586395365157 -0.79094539828407284 -0.15997696599677805
-0.85877005110602633 -0.75644481260056207 -0.40174718294248751
0.054675557528787985 -0.059705680058061955 0.74655878497737505
0.41749013927165601 0.76281616621886505 -0.31131921712817928
-0.66749208027622775 -0.39288651480390757 -0.21132274968875098
-0.36180765330330367 -0.048746945336070782 0.69242321444930788
-0.46196600989844622 -0.048221245626284479 0.67324358435693321
0.2482890832643308 0.52068947452860104 0.4572967954227129
-0.17524829794860752 0.23251335078658081 0.69580493817243216
-0.33924573346044468 -0.30649899179250345 0.64656388489419059
-0.55512981432385933 -0.53272236964606501 -0.17768514707291594
-0.80012974399646652 -0.61722548910994468 -0.35553106507212823
-0.020348542860247357 0.19164436806882917 0.69022603390333026
0.18956857234561161 0.082299157444683607 0.65889685449304858
-0.80954115290136208 -0.5757542958464763 -0.34003054045445641
-0.1479133605786605 0.44539671639700235 0.69852555590874332
0.721524439544175 -0.17943549059618613 0.60176300057787235
0.71981188252247574 -0.1553082875622131 0.59844033604137847
-0.2672310436030112 -0.32379987065435178 0.63388843226437086
-0.14165380720313042 0.5834318891859589 0.68848400776181518
0.41578866779260426 0.79008227003286913 -0.31027443603705451
0.17578041297923572 0.90142718011895018 -0.10674386848876866
-0.71077542348477629 0.056060325978441572 0.60371625887250546
0.28998682014136618 0.54020458025270623 -0.20811089824015405
-0.48575797488833788 -0.039690979841710237 0.67537796478108247
-0.66562940558708672 -0.45364739942910365 -0.19117994971364183
-0.654846826052779 -0.818133717109085 -0.27838671502821155
0.57288464121450122 -0.25292201364656153 0.69023928593731143
-0.28712400732093246 -0.055233076182877511 0.69849878837067081
0.263725347685068 0.034917545588492985 0.66542085637348491
-0.26482322732300467 -0.51684793134944962 0.044999625092902076
-0.56932544850584554 0.3706852611743473 0.32222503715273104
-0.46503275844018077 -0.60564158282359259 -0.14674019839988897
-0.056311728528967452 0.75779665135941032 0.17282273240792659
0.41469432459646743 0.42994205307821687 -0.23061259077687346
-0.82788144511674622 -0.69777593552196415 -0.36475440064935993
0.30937167694146944 0.88879829271790878 -0.2501674894402926
-0.4737689281138362 -0.22243478065068586 0.69064102295740215
-0.34334524006620909 0.71015939917407556 0.15921157966464086
-0.54042362062205029 -0.25532209090058205 0.59487525879872261
0.15931143402894907 0.57542725315375698 0.54655269712650933
0.16562520731569394 0.027699857609074029 0.74772046219123878
-0.50305538003796291 -0.07196788335814451 0.64625086146513655
0.45585699158880677 0.90785874294259949 -0.36671536559057949
-0.17449368890921765 0.3130833597620914 0.75024053428585935
0.38560337245502285 0.82500632631427329 -0.28301240805162686
-0.27664520728453385 -0.031758744303219379 0.70128056141607065
0.55558470496673373 -0.47110178643712625 0.62124141615489736
-0.38616707651746468 0.15715047866879087 0.58986640883066321
-0.0099241378054066368 0.12613392798644477 0.69348921386634954
-0.12333624677394174 0.49068328028191205 0.60014861373414885
0.58810563957204731 -0.43528454884110268 0.5122421109740426
-0.52071909297399344 -0.73799875896539313 -0.17507201664038369
-0.068695171501744062 0.49100568440457376 0.67024944199948711
0.51938562543284528 -0.019230123789735605 0.61722947221318414
0.1551054354067605 -0.077816692883171376 0.75027349882206096
-0.6277849953025586 0.074144847236567002 0.65086037371906069
0.14392445405508114 -0.28950778207518596 0.5372188902037266
-0.64015896203610534 -0.45874918153753069 0.41557791824867896
-0.67127857679579905 -0.039240535204272439 -0.43328261020228642
0.11386450726454739 0.036848421802936834 0.72322168557940769
-0.54005445559525045 -0.090648960020232081 0.65428668844231497
-0.42543060823214535 0.64984803456892326 -0.16727751978189079
-0.41908514794257151 0.20524584743180657 0.67210394261588424
-0.11557770999850339 0.709725855918101 0.26257896790749058
0.065942869675416474 0.25688843071247314 0.65256836438384502
-0.24849126359800192 0.28018180246985525 0.71363647588795665
-0.87094761257793996 -0.66249789247188562 -0.40420267120503439
-0.14465481088124899 0.18780585861989293 0.70490570032478861
0.018629818202204294 -0.10988048325282267 0.71090082294356016
0.11690081952765682 -0.017583793138810328 0.75114073275557924
0.32760856510220826 0.35567009871816313 -0.031213820778400667
-0.72427186804451194 -0.51923173254589161 -0.24664556522714282
-0.48298723036317437 -0.13482694966512015 0.70949801806895019
-0.48115332077303669 0.30561592134185106 0.43197036967366897
0.36877813768623136 -0.22920339550237701 0.70846823966428518
0.4801194367691658 0.95726058662532498 -0.33843077897636892
-0.21981412359817273 -0.44724004527637273 0.22585325315131452
-0.53442193734956489 0.093331972770488575 0.6187915551138099
-0.8174151093989982 0.012955724062869559 -0.19587749720903747
-0.17699455011544449 0.35962021871629452 0.7233912286379246
-0.1771510244026783 -0.021511811090145064 -0.57577524962445381
0.28728953918914846 0.16134830512167464 -0.14718060239613034
-0.41801019631519293 0.10208734371966902 0.69965974166392375
-0.21650899813980279 0.32501901706724939 0.70670169186716325
-0.54641858735962823 -0.28634690080015801 0.60088551762036957
-0.74664898942956359 -0.37854377402717798 0.45226361514952457
-0.38211558754625458 -0.45628508822460856 -0.2856985535991981
0.23558400955322634 0.69277045248387248 -0.15677669327951213
0.74446402118382071 -0.2430575250197001 0.39400677449524046
-0.60743542683261409 -0.22378677495416952 0.60154678250184856
-0.067122600866646245 0.6506769670752266 0.60766161753425241
-0.61493732078251162 -0.56698210229603663 -0.23538372100782157
-0.7220129631045662 -0.4268263811086791 0.44257089401038791
0.28927798893577855 0.48043810585303642 -0.27907939352795741
-0.49552608920337976 0.076176641520842067 0.52254089465344089
0.38950291267001896 0.056637641352404594 0.42820214407586188
-0.87110944916575062 -0.70783066854151389 -0.40760758378844703
-0.12850316676415569 0.59101459889071695 0.53318648742632513
-0.22869631504026924 0.72518754180622191 -0.18886790839577794
-0.65367743637065645 -0.11991497264817418 0.39561411195899882
-0.33526104821057801 0.11273948309551285 0.72561136580624286
-0.84816063246163453 -0.66190577874378587 -0.37971538808659411
-0.36191181882240159 0.26526085566114277 0.73566782114465257
-0.74699989822682344 -0.16499711598120348 0.13512205624315654
-0.77098449458185114 -0.69632125040487258 -0.38186030826953599
0.67358764664180693 -0.025446786684879503 0.53845514969688679
0.19821158420649682 0.47143520761162522 0.55534440857298817
-0.63222466233060304 -0.41550498738739439 -0.2512569429145714
-0.14467677264239709 0.44085584096246494 0.70190421212063814
-0.21316462659386121 0.37211369633667413 0.68970450999754374
-0.36618468029026252 -0.53984034013037263 0.02376159860028728
-0.69331337906043378 -0.56808045520577388 -0.29401137708930802
0.55564923794368415 0.023410558348530647 0.5473173002252657
-0.71669005091899329 -0.1887162685230056 0.44837307930378184
0.69657981589229467 -0.19794734886916851 0.5984392682246934
0.4888256111681305 0.76749436459268838 -0.30596278226741258
0.47093086020021113 -0.0076600184399578733 0.62746565059686887
0.42496356098183252 0.4795476768339399 -0.27865313140592601
-0.00281561774559385 -0.1218406437516187 -0.50754804810849274
-0.39384834432264842 -0.59303459199580599 -0.050931854887318953
-0.0036008771133026161 -0.18155142163523461 0.61848271224909346
-0.40282617170235241 0.18385254673480156 0.66937118319701105
-0.53374102820651637 -0.76908268578119054 -0.17111436642005198
0.12576479131393767 0.69445940088143399 -0.14917519111478786
-0.58524166547927992 -0.016169056798267651 0.47118834691317774
-0.68329937804425089 -0.51649455229513186 -0.21606703869594412
-0.42939672529505291 -0.035208483560904329 0.68204971900809697
0.57530411949372007 -0.24560843871315674 0.68777562505481149
-0.45950855016964964 -0.4973460057705627 0.22119987049241494
-0.65308703093864751 -0.64103905417537987 -0.2671553541959748
-0.22180542477222032 0.26375365852382743 0.70527904678244813
-0.76154327012766077 -0.85121257456731958 -0.30535716981894556
-0.018049685018830308 -0.22163606581808076 0.52516569057553131
-0.33703223463060106 -0.36417463931490168 -0.37584549525135719
0.36554223159630461 -0.32266532644107326 0.68979186676794213
0.4267602752414541 -0.38344294088436109 0.6767890526534478
0.0022803862531184868 0.16064436431752765 0.69014151572303528
-0.48737427854060289 -0.54440944121901191 -0.17580452898801421
0.077922416116653112 -0.33126569471445627 -0.19482977128779366
-0.04049908756464498 0.11721259620605107 0.69082366617930224
0.10705663173636618 0.16622077336121169 0.67546906072516277
0.33347018696134795 0.43906363158471168 -0.12316807036284599
-0.32543906370528619 0.033706580326398991 0.7024848669965833
-0.67265425359335196 -0.1564908372335353 0.33550813530090107
-0.21617569747630888 0.2094511188251636 0.70963967978806153
-0.52933198579927665 -0.11777338426000197 0.64756567608951499
0.43925949131215525 0.87720115532672227 -0.3013571503182349
-0.74433537777024295 -0.14574656688328913 -0.35415088744333056
-0.094743879370052686 -0.42496599061073281 -0.045348070026935472
-0.61917265353551454 -0.46452466048694385 -0.077152060468158756
-0.55966464165754604 -0.097181859342451007 0.64618396622738306
-0.23390076491581452 -0.22192299002707178 0.67993440881386813
-0.24866633875811758 -0.13445184625529172 0.70885153850539251
-0.026976294056806575 0.27130046728664664 0.73629596482949544
-0.33274599897283058 -0.047072226823226523 0.68325511630727431
-0.58280689414791687 -0.12863774345133461 0.57953826849966938
0.46943111342211685 0.581956755524208 -0.23262904116381877
0.06308226386673442 -0.066604196327365417 0.75402660619433848
-0.6378886854570468 -0.43134281366400029 0.23079580504266126
-0.57268596445824582 -0.17041156764672458 0.64070371716780239
-0.50594284389702615 -0.30848676434900529 0.61277542769225768
-0.86363908452492344 -0.59065988684242088 -0.43175058248384779
-0.34190923136031554 0.72654956420704919 0.10560500629951977
0.19795721876115357 0.92534790434293734 -0.12081331229231518
-0.57381864195016286 0.53008660062996293 0.15737809729739977
-0.16894214434875407 0.46359514147080277 0.69339319132657207
0.67709630389549624 -0.18840866573572188 0.57626426324923996
-0.054375504051390855 0.1641256408141879 0.69125344673035571
0.11088222014782759 0.31387956981361681 0.64695073338287401
0.060586688988206835 -0.20735672025947938 0.58269271516047183
-0.73238825060581969 -0.81103063109786744 -0.28546682062750323
0.14978511055847535 -0.034983673293189063 0.75843204903401062
0.35767806687685899 0.65574666205280585 -0.25166157634621605
0.11581137117272552 0.028080162848339557 0.73202583255049691
-0.18985990663953184 -0.35305231230735873 0.46924593194072478
-0.46071376927712299 0.10268426617411885 0.53763477897606582
-0.47515437117275383 -0.20382828004105 0.69999062657449007
-0.033703628468981506 0.63915015643394346 0.43997054075350206
0.0044548389271963987 0.29301537074465084 0.72916392144088016
-0.016937196783348082 0.76746535814058792 -0.10939191605512646
0.78265974937572969 -0.051813819054607149 0.44630615564359455
-0.75001965904994505 -0.32638110327855024 -0.13035221537456312
-0.14393260761562765 0.14254120725957892 0.69538991936316219
-0.13950310141448513 0.15854381474864312 0.62562558982811511
-0.68395510416301741 -0.21159625963316975 0.34729233308325203
0.38947084468434912 -0.24588386769953 0.36375054642917193
-0.65778581245135781 -0.23284049393612755 0.60160777244110564
-0.11526019375841833 0.15999497160003462 0.69472429370465982
-0.091552474001503861 0.4612263439084347 0.6740237606801841
0.16513839853450854 0.043545200431069742 0.74244907510034841
-0.43825076019563652 -0.63980967626774254 -0.12541022074312924
-0.25046788613500665 0.29761189876241062 0.67950386915182359
0.27415414050949882 0.3810825324504345 0.30244190868314857
0.38077752628532702 -0.29800627664433404 0.70020945005162782
-0.39801568051150743 -0.58479662821519018 -0.059729051444370823
0.28281294319212785 0.53088195788612014 -0.18713866471225049
-0.69260390527172 -0.3597384232689918 0.30766989589738802
0.68991147623468285 -0.15636656418674649 0.59462226756473158
0.13327474187937521 0.42572368102608416 0.5569322256935092
0.074709480798794359 0.26910728018216079 0.66387930401444084
0.43570812749577781 -0.44727396258007296 0.60037318008567153
0.083329507235789496 -0.025321830365339838 0.73662597763401638
0.1719962075808209 -0.073960004479127678 0.74257028727227214
-0.72396924213010772 -0.59135610426650209 -0.33123029737985188
0.82583484627635906 -0.12318627425185991 0.44451325037262918
0.12334086492193699 0.020351272976640807 0.74007625159253065
0.10321527725296234 -0.029577976491339517 0.7553847689569243
0.0013726945237759122 0.48932751892197585 0.59834693128790528
-0.10582955434891286 0.7725444452708945 0.13733269087146988
0.6491880051647595 -0.14771852155473797 0.58200266952199098
0.41641704178300715 0.57274673237602225 -0.23639795400661517
0.23368629632988042 -0.0086427640113840506 0.71935931771846362
0.27426081707929184 0.5342058360051285 -0.18282796690296493
0.10806800060397725 -0.01122898423411706 0.70907905993780274
0.25490240237658868 0.95710534527763125 -0.16887898083557071
0.089039568569905914 -0.089649597810789683 0.75891743558923752
0.2343413480432579 0.1445223117372848 0.43793870958651271
-0.76275135788478277 -0.049296787650180203 0.58449381918967569
-0.67526390260776603 0.35927849627138492 0.17421533939204703
0.064477605384027983 -0.18901261181764298 -0.42181609922510144
-0.63180988699663798 -0.38593698126990011 -0.29130811537646678
-0.51733780290038589 -0.12259037019187388 0.66290210440502095
0.17528173645469361 -0.057040615198278438 0.74824695495315696
-0.55720487753384318 -0.18694146214801308 0.62830759244663048
-0.45513641143998312 0.1023229562213693 0.6029181583307055
-0.57261952655558246 -0.3775576838505395 0.56952229086250483
-0.45839115004596726 -0.23141875980568866 0.68968537416424869
-0.18871236972833469 0.185579403400048 0.7054308346870114
0.62707348373749727 -0.1256086836739892 0.63714853279274908
0.305861157466153 0.45816364067895526 -0.095341464539750037
0.19266684697395789 -0.066835734094299076 0.73361284847816999
0.40612765393002875 1.0186037206203371 -0.24673187890058845
-0.79444775118417099 -0.1854632316922265 -0.21078430185934027
-0.021275137720077535 -0.29727123347650053 0.40087947395249346
0.79512712751934722 -0.21549778491759886 0.46611817468768624
0.29408338206226858 0.80926332500331233 -0.22755946849284647
-0.33847772151807026 0.19429337408641711 0.73466962320089146
0.27820417810042636 -0.027076804698719342 -0.16290584494479454
0.80885345458575608 -0.093882737650488379 0.46494465289043041
-0.38308528102508294 -0.53427929364557381 0.034898879273924183
0.14441379118374922 -0.096362133451386056 0.74000305683736944
0.26155384581959834 0.084076650212261544 0.46857721350811538
0.41940173415296439 -0.31692479549528435 0.70048593630214484
0.14134511853292828 -0.012071338885796729 0.7561464251997152
0.18105771899684628 0.90997575376715978 -0.17765322440865797
-0.56143640636109493 -0.27165098899167428 0.54802235853223724
-0.69307123811528815 -0.29517271050455096 0.27241093845358244
-0.44594024578394986 -0.043414524955304755 0.67545679429713179
0.40574371736892639 -0.27800603246057998 0.38412985839703623
-0.57057732458390675 -0.414536440197811 0.54858389246690153
-0.28228967366522328 -0.052104864954441485 0.70256159896819526
0.31300624340136024 0.46148938054386501 -0.12863535270723653
0.46459528915849951 0.80455100431634419 -0.34756002680414688
0.16776513702331278 -0.30499925422630536 0.54129223348893385
-0.28483881919699222 -0.11361315936663773 0.71710458607624983
-0.84104569512303862 -0.69804968920071198 -0.37152697887958919
-0.4004402027126413 0.1876333898473822 0.64441230718138276
-0.51271036348295618 -0.60043419867726389 -0.18226883301239688
-0.38589687297571462 -0.33796863337106092 0.55914331979197185
0.27233248186995329 0.39195147138421027 0.4699892766673982
-0.0060248887370132967 0.27742350945148153 0.72146972218498551
0.62529456356921254 -0.27837131502798124 0.67279632292498581
0.67065138424291826 -0.38414139676545866 0.53099670467515936
-0.80815705719726816 -0.82742048504451904 -0.39279173704595427
0.66188539179819106 -0.36530444524156375 0.47637473911821093
0.29242307197934042 0.73475000567064064 -0.22189159323841151
0.69664250268768702 -0.13552202652237186 0.60681797612505894
0.090556945145645842 0.53016320017654284 0.60872327552685868
0.087381710554284148 -0.041249208990079972 0.75693531429470184
-0.50882064516265491 -0.078258124570507778 0.66103363816920413
0.55897686689383697 0.03824278029355499 0.48837527645475026
-0.43346526941547298 0.58122976610542354 -0.27896867234495082
-0.74563888588673921 -0.76337154136318897 -0.35338595606252371
0.031883571639771527 -0.15898108521680929 -0.46841650179177929
-0.20643461892474588 0.24093557042133024 0.70753915654409805
0.11986267365370676 0.52801938389328673 0.59398982269761536
0.2118537462914257 0.792196795859615 -0.13353586328561665
-0.59667190925127644 -0.22167627063415352 0.6081295381382622
0.14329707308542139 0.561249522940092 0.56754805902187533
-0.46061109901110758 -0.57900791169978727 -0.12891744396763885
-0.23412342639858691 -0.27991183164040712 0.65529799467427274
0.2840215873383885 0.49000670526727491 -0.10092222402520859
0.1109741025099768 -0.012020137919077006 0.70949067810899902
0.3076690092785565 0.45977101267124892 -0.056270043596239466
0.32559827827280252 1.0118836462346561 -0.19797892246302445
0.14485346349092057 0.049008152695249427 0.7362076608795125
-0.068412427021264502 0.080221208808353289 0.68757096440374554
-0.24199682291823651 -0.46606078550389135 -0.15398797377426143
-0.064652050399733693 0.64782216044424779 0.58014514680211393
-0.45143684984928728 -0.60490350797017278 -0.12372692283559869
0.038350863453172901 0.74356639110213618 0.077657964307086005
-0.50261857755155792 -0.12910143515507716 0.69112679379439301
0.19428658857258513 -0.11386980059261205 -0.31027795371546291
-0.75189815847448993 -0.76840113824460965 -0.35685345341923869
-0.45451249460441645 -0.51882253379730048 0.031665054518607863
-0.49564619520244996 -0.29626232749487141 0.5875111857251325
-0.054169180670291806 0.15968810787760396 0.62083305590386151
0.44481372133149111 -0.29480101896896904 0.39129879292372888
0.041288496602272962 0.74533100597530533 -0.0076606178072778364
0.31192270920424492 0.97006836531786411 -0.21221806646646946
0.10031280323427957 -0.25061367761646103 0.55927139608240228
0.056971210406857264 -0.050292376193533238 0.74456949657754945
-0.67243809380686093 -0.39517955252452913 0.20508884235001662
-0.5550824957226278 -0.36392181568877774 0.57868123357395951
0.019643766628909931 0.36376005670866146 0.71906652767598445
0.43780066284406849 0.57669606242467908 -0.21561558990797219
-0.70971517854458044 -0.25028154039142136 -0.34762567286809215
0.28321051551665238 0.084220259378245024 0.50908799182673437
0.11274448770256806 0.38112172384926812 0.63862362293665187
-0.42977590114774017 -0.60650983774004041 -0.10209978799958172
-0.37301523357458627 -0.070733544088316364 0.71190401915723511
-0.37496662175337026 -0.031960427280564259 0.6898734851922832
-0.70010579161063968 0.055993816590141854 0.55344273633956442
0.13399939835003227 -0.24777438464738694 0.61986402968107146
0.69821480503018563 -0.21994303105873339 0.62186639153433731
-0.62127388885838575 -0.06323696052666683 0.42478974273174686
0.61313209368433708 -0.41182200739611641 0.50125235678037727
0.71203783344758675 -0.083597893973696824 0.56376940767339034
0.59617625940917196 -0.45292070587370187 0.60999051700828488
-0.23442421797794277 -0.20797949757112638 0.6620404668700155
-0.22896766973830557 -0.37306922828961148 0.54540989970655862
-0.52389248850425352 -0.30435375308244328 0.60795304255077531
0.10111488095584875 0.033921313228647956 0.69269107236963467
-0.82638106468428585 -0.80515789834828744 -0.40639824858390783
-0.43386425772743226 -0.44976667530406705 0.52831098817435107
-0.1208368547832338 0.3896945822620772 0.73677652343493272
0.059422421807442491 -0.023306011107977559 0.70114904205682338
-0.31987094815589734 0.7237896341607426 -0.12856285579302501
0.25375829731904259 0.82821875832253711 -0.20753321248896223
0.28669879382930874 -0.26739417767108103 0.36640075610226513
-0.45671532688996214 -0.56830847756204439 -0.12394161248298635
-0.5125019109910538 -0.17558257403485578 0.68601270518809521
-0.80403444449589689 -0.70269774748942759 -0.36116679044837879
-0.46430605498199834 -0.34440121357490738 -0.39803041820930191
0.2669271577234732 0.34193373565594798 0.40231989817181585
-0.2875151158264182 0.63916914115126477 0.29758281091721395
0.32562560681131514 0.55803372684838393 -0.23052415677015775
0.0071495237610779 0.32352198393559545 0.73196165104857114
0.74646814571446696 -0.057899156737991994 0.51130317103861866
0.73489102164581244 -0.12333372406262294 0.57202185652291027
0.39531337725793114 -0.27303180211917055 0.70612389603417192
-0.090576997325993031 0.24043980199624226 -0.55821221464389315
-0.80957020206324504 0.13180098579088628 -0.1473872472947555
-0.76374943043432331 -0.31669760394377994 0.016795744482726672
-0.5011361415661868 -0.001178822332457731 0.55744663450532894
-0.71737638891736621 -0.70746948990120284 -0.31908303146711203
-0.73840346813337598 -0.50496450494353506 -0.36582939681573123
0.052943845089139879 -0.048796385542826601 0.72278001524876168
-0.23259944550014461 0.35102653234645531 0.7105151452500309
-0.10341141473553711 0.26024531408137075 0.74744092215939439
0.63097672263250593 -0.15114931781505214 0.60139291412565621
-0.21598766242445849 0.77489510660575101 -0.022327691992897136
-0.42958398049558255 0.11273812543713588 0.65798148007738011
-0.49715719647353379 -0.22129664706826851 0.666261177785617
0.0718164492443433 0.46518531414091313 0.58619127169500607
-0.22223777808379341 -0.21324067644784883 0.64464852199340816
-0.3519202212807081 -0.53967181904382544 0.041481278250231533
-0.27697823929221443 0.15619573820438418 0.718611434119102
-0.22406635556171572 0.21993947302009026 0.66315910284983004
