# XYZ point cloud file
-0.029345695507621075 0.039581847524022884 0.58044050373881761
0.32986818806368201 0.18096838345982219 0.047357525430493069
-0.01399394537161317 0.025577194324950009 0.590013619243689
-0.32589551876597078 -0.24547855282295944 0.088174830286237432
-0.098286170326306183 0.26880586667939793 0.45639047492548956
-0.35548623765970283 -0.20182080472198691 -0.033801366131624877
0.33394903660582015 -0.17885072833336513 0.54557181152983802
0.041416460311841943 0.29777561525455359 0.44216414026003847
0.050483641315795073 0.22778724485775825 0.49410380124961806
0.35613244997462618 0.23491496513373383 0.030522718107579783
0.0050366568893634653 0.1313626927587869 0.51407781399345365
-0.2153396824165455 0.068175186459400502 0.49289646308417601
-0.29219278081341477 -0.0024273267494833162 0.47780230587226968
-0.17734589941174422 -0.02409073075704125 0.50628278858038289
0.055475088536284821 0.049941675834616089 0.55763765243551033
0.1531745711292738 -0.16334434456509306 0.64264726795152438
-0.147505342313976 -0.11662495811583815 0.39866743750980171
-0.38682372919249342 -0.13053208476720246 0.0057597096524498459
0.36697588483588267 0.11019599555829887 0.043431375801485289
0.15376834186789751 -0.048298863785710015 0.33948077749602518
0.34284169083376809 0.14943585893634143 0.040922959074739418
-0.031323833860620334 -0.15412355733814453 0.51973202627039805
-0.21683319177465424 0.19689860592427794 0.46189810241688778
0.29911332798011581 0.14536920003770451 0.078586574785888652
0.035397498686828996 -0.053733943527457813 0.59515146347141545
0.027302938910464175 0.23196852048126848 0.50767809081426551
-0.49425430581544505 -0.27477109494143093 -0.087241178413150128
-0.036570073637840823 -0.0071965000390918771 0.56876770901641216
-0.49214846250569411 -0.30271024106341615 -0.083845170585614109
-0.25181234939101316 -0.27104952142699912 0.13004534741678464
-0.31835359339677194 0.11267453131000549 -0.10106832132469626
-0.10250818193854891 0.13910816068182372 0.48828116160962587
0.30778586829904026 0.10932116619191992 0.061472908870375265
0.47304007938240333 0.25600600465586104 -0.013390702559712503
0.098303938285222964 0.030325370568437635 0.44646859019761936
0.34345223002388647 0.06988408652404933 0.068645511428183731
-0.15636181675714589 0.32041574232404507 0.4417360327963028
-0.31699837067974768 -0.21289835062081716 0.17393433218698032
-0.39376790391606548 0.061452144251757837 0.40014632986262588
-0.012053270696539446 0.0015780793552206199 0.58691869684888076
-0.30330988039280815 0.12410347917949102 0.45557011092357291
-0.33252349740560511 0.12853316643468754 0.41969018380784501
0.099195829249598438 -0.15617955540042805 0.37607323494010814
-0.1082479850036939 0.24382328618028681 0.46377218176834678
-0.30212278129875891 0.12496222989647052 0.45068433881014347
0.30381410377068957 0.19199607214929373 0.017741096396118733
0.13580601564211223 0.29265248905193625 0.43529392744060641
0.17287297208798455 -0.17656670238519764 0.62081393722082967
0.062147181542697154 0.03052873630642243 0.56453989727304255
0.033649443492905204 0.00429742812313616 0.58311747084666588
-0.09542503102980196 0.28682755598207793 0.38506987441470664
0.41038049778783264 0.29776048012249945 0.014904276320981319
0.22477358057657465 0.24607830294399125 0.30431207632596097
-0.034528528105493103 0.24355932553623533 0.50517120867638943
-0.056901031583630669 0.24547999136162629 0.49939209254614014
0.40770438124299846 0.15917226515103178 0.02065398544533692
-0.45969958575027953 -0.30900553426284022 -0.021585529800886905
-0.36418065501652291 -0.28869874141185103 0.071240722677376606
0.27859364307901668 0.052424874193655491 0.16541393154250725
-0.36757267927127973 -0.29743693471846133 0.083280908292034467
-0.13957624772074426 -0.069226310834011248 0.45569792624579608
0.4240306240581066 0.05587846466346047 0.020678401368024124
-0.33246789633668128 -0.2872109049846282 0.10445994111770752
-0.078944109715919308 0.29373971663133835 0.45246971949693604
-0.34854750667782364 0.11168730846738181 0.41688670095175973
0.056816663503010546 0.052484250017753087 0.54260833379662132
0.21950774254672417 -0.15968523884056229 0.60178459199073575
-0.014406028744511112 0.14715738526164907 0.47221117989041894
-0.058534816317015924 0.024755620171741058 0.56738779685467999
0.21902287940187878 -0.14824638239975613 0.60884270247810302
0.32877451185803763 -0.22984727080400616 0.54407090761569399
-0.34899737752125787 0.009427879085746417 0.4404088289798464
-0.046252868577006064 -0.022940213450835526 0.55947078161082342
0.095624660249334498 0.28430848850837476 0.44863830313120645
0.50108999973824331 0.1772981594532124 0.0099445738885695911
-0.39959218529367574 -0.2544021535711497 0.0048397511104643076
-0.23688835663931235 0.039560821349457917 0.49589698915021907
0.14241277161682234 0.36096651171940541 0.16143193659269919
0.011951693761248754 0.16429855165500726 0.49722306012212025
0.06049910875074737 0.040187547425935652 0.56604435662827535
-0.4105388124252467 0.17483310133456648 0.29982448191543115
-0.40461882537959903 -0.35393236211296775 0.038683698450860199
-0.27585926647485404 -0.0069017573152324596 0.47144267917104332
0.067692597461121967 0.28398189497025794 0.43315667372552624
0.12725251053128409 0.36796711534053045 0.12855130875280951
-0.45896203218048026 0.064265439468801019 0.36502349063807205
0.19845094406140459 -0.20017043256309627 0.62077406086449305
0.17643034642050665 -0.10599406116762849 0.61472592558094197
-0.13956934919836012 0.31064516806490344 0.44174486026616311
0.33035727507659618 0.070898315961496261 0.08412826002139441
-0.35304222892578135 -0.28982060450207398 0.082913937371640892
0.2570387532518198 0.19188544787935385 -0.018291245756734797
0.0023245105695200684 -0.1722931782832092 0.40940754594142154
0.2688421266426288 0.099285929775439097 0.22162966002230064
-0.072761039658631982 0.17699152686637906 0.46457302784059129
-0.4124261298678098 -0.20917365571419094 -0.011016458425648468
0.29038103180378849 -0.23747271933759195 0.58286221552932116
-0.29294500584186073 0.0022856812516254751 0.47902873619970476
0.24038637189074705 -0.19052652248825869 0.62993285223401663
0.0017996671862554915 -0.0994856861936462 0.59707916933413185
-0.48857053272740347 -0.30254117941758762 -0.080390888234205843
0.065895890679598029 -0.20682766523771368 0.48078537070229699
-0.20100458837388421 0.28186952770133 0.37974295601309638
-0.43161284902422564 -0.23118301255146184 -0.050627897881229761
-0.043717871682075179 -0.0020029474899790414 0.56619070176781205
0.24365152204014515 -0.098516134674799222 0.57843041438425569
0.17333543821366101 -0.19450662272749195 0.63727384132246157
0.084274050149561408 0.26952420229511675 0.45120388117494237
0.3474807329437028 0.27690024216686632 0.0068526437149795116
-0.34984428349629432 -0.1948026552099113 0.092298732936120176
0.20648245827876902 -0.25532552348932513 0.63185460165423446
0.3320310040950058 0.30215191226002702 0.056749244488856015
0.045984284017889725 0.35647525602468783 0.44535891687803397
-0.26662172418688568 0.15540505161509857 0.44458141815905416
0.37220020657506048 0.056525841039187147 0.10655642243335889
-0.33364312149842185 -0.017191313997310505 0.45228908313327193
0.10464309914596057 0.0061545019487182565 0.55602885810186953
-0.044808431921364439 -0.14976320895540524 -0.14290337746429463
-0.25576291971903736 0.13299942298249617 0.45219649333235207
0.30562706526541644 0.23539821205963701 0.024487777645770259
0.39409293782119298 0.18150432289353768 0.023543812636084599
0.26923325756760241 0.064934475770794087 0.19659306751691508
0.14197419110671847 -0.0061062272932859638 0.46152600542094813
-0.13496080839598409 -0.25391522847774917 0.13412003459150657
-0.3493650242784071 0.07605635493761706 0.45281073192145072
0.1974177608581493 -0.23210224800099297 0.48705626990157946
0.16745748469092639 -0.18804174900385304 0.64312419511104602
-0.0095220738853633285 -0.16865330757602734 0.47068877625227945
-0.13291237720647398 0.37382383260559027 0.41060391565915921
-0.37749455394626735 -0.31132526250081388 0.13100026097449663
-0.23528035734779365 0.11922514478576601 0.46115080015751186
0.45389428517492486 0.2865450529844305 0.00405603651704739
0.30191567053151586 -0.24621104116638584 0.55427859239939903
0.12951351631486882 0.35909396720368375 0.36701854519606536
0.002529479375630337 0.060369149627529636 0.57038676963003765
0.29351746089351782 -0.18071710014817938 0.47219859374471507
0.063013849617772733 -0.17790335008450392 0.43424520236859515
-0.010154261868492685 0.33424902604628126 0.26286176278839557
0.35868715162251735 0.14117683034991499 0.038894868117622994
0.33252359387527947 0.19093993198029491 0.046249336265868468
-0.29572846789508028 -0.23819062504909425 0.004603462171939493
-0.11316136498697141 0.2659369190382937 0.45660893171951455
-0.12698523097589348 -0.071829333202636639 0.44910508408873551
-0.022592806609598611 0.013998358140327002 0.59145549655379903
-0.22486322742825357 0.1535044574571747 0.46070807802354052
-0.37488312048159755 0.087182590123290854 0.41275311543200133
-0.40619177067157353 -0.23680081764714425 -0.014227473027162263
-0.050711041074847536 -0.10996105465856613 0.53064199497648357
-0.4330248795382643 0.064669547061901839 0.28898454332852314
0.24375130594817582 0.1582422466517337 0.28439914412889522
-0.17638984023411969 0.22625556882740483 0.36142094741336428
0.069592137078987676 0.19372965457157174 0.48907581468616024
0.013279948518597672 -0.21508688211871085 0.53839190368698175
0.10223925443777529 0.18636973029002177 0.47578468177496125
-0.074887783734533864 -0.10494400403596496 0.44673443169978266
-0.41284184919831368 -0.3407507773153417 0.065288283458858482
0.21161302856307965 -0.21397586104590685 0.64392625965289152
0.24350022372358601 0.095370687950387389 -0.050184180267271311
0.035282121498483782 0.0012359868890670367 0.58045457664065891
-0.061865161547309699 -0.1072591511509666 0.46636839874264746
-0.19528223946898429 0.26295470571623819 0.38563723483151535
-0.49144517646475777 -0.22678065066294215 -0.10187317028758505
0.25319947847362489 0.24227382780316642 0.18878005352756724
0.33477852096169913 0.1292460516227564 0.043653517002821995
-0.11894781551498979 0.21424419194733724 0.46956468115571359
0.035147731136072551 -0.1925565312977513 0.62581981494753047
0.40623431164570045 0.11130490149557984 -0.00087360278043482897
0.48174376263630364 0.22355105194781821 -0.01420299638037742
0.062194084156658828 0.19869464226002323 0.48550379783549513
0.063010441060903227 -0.266102857933878 0.62952769675922071
0.024944828635758504 0.28683189711887452 -0.090716486427621229
-0.223003404876639 0.048632074007968124 0.50225330119232137
-0.51080679677605378 -0.29526297494330095 -0.071416259059657011
-0.24457179284336145 -0.09767188333987134 0.42117979058292815
0.41764122274273502 0.09828442072289148 0.053399253274159536
0.16963788068427707 0.32455077472954652 0.34286455262787774
-0.040265171802347739 0.25493520314666046 0.50041008885076554
0.037548828704610085 -0.19321900686689594 0.47396482902629844
0.058735803534848398 0.30784662222541825 0.44516512484770826
-0.38171801349797274 0.097774033027641288 0.016205562292430586
-0.008104145643530427 0.31390990064578345 0.39833698788547267
-0.26881900647579099 -0.12639063768100123 0.36534817995066959
-0.34471709363075004 0.12221579029976351 0.37973015784050485
0.34586107126810212 0.072874797183870327 0.093818404446506423
-0.27191978735854311 0.19370659614094618 0.44554210528411048
0.094281765977097254 0.33444242211646785 -0.024375383886022062
-0.35635056899903877 -0.097394522748049453 0.39238687180151033
-0.38218000603893787 0.0042401597735853072 0.42056409895482394
-0.32877055970633429 -0.23406331736058822 0.064273170887245823
0.38653188040041786 0.16199265800262316 0.028501066347182136
-0.37664541327518358 -0.22214945821070584 0.021845502370720138
0.18469054525549286 0.26186086819910015 0.41758313833219862
0.0294402226954186 0.30224239262782748 0.42660044767572741
0.17699895823080933 -0.15356753941670584 0.63647743223520525
-0.12546613678252333 0.04430310640834928 0.53317172174966865
-0.41216215710043386 -0.33708082679746887 0.053474723057047535
-0.088090656100225956 0.12832139688719504 0.49363400193969276
0.32821471898529836 0.13196166592738331 0.044790667368923565
-0.026133074715980809 -0.15531911008986155 0.47774480514666096
-0.21650989776763072 0.33928373046451826 0.41637726624342652
0.19522417363577604 -0.2787867219571179 0.55149049000746719
0.011907131776853805 0.046919769946101073 0.58266044959411389
-0.34300059558301238 0.12077243253774009 0.39348433990110399
0.18754949980139626 -0.11621425979385056 0.61860452318799974
0.11436991805875268 -0.21104879711973687 0.65914288113264374
-0.19584615983253431 0.32965822764673181 0.43704262714711695
-0.055110161774824633 0.18369771204922045 0.49167039340848373
-0.078403826858297887 0.18075373136851022 0.48502637264165949
0.21832397189299202 -0.17743126553856101 0.60384681626266778
-0.061180266371670844 0.0097633108924901485 0.55755244459519404
-0.26496685699124173 0.21173688820940584 0.40366494827164073
-0.32706748407196523 -0.27372695421744753 0.11191983037621027
0.0062610080948874332 -0.24368701261237696 0.21421343538111254
-0.35211776998577476 -0.33669952409011705 0.10446724848807168
0.41809807879549432 0.07436126262863324 0.071410394947211686
0.42660521612426061 0.35740435061153902 0.01280660869182107
-0.021116712411445943 0.17648487484310618 0.49967995759341444
-0.40626886907330423 -0.25385031271513397 -0.0032454483141821644
-0.27008947150633933 0.050934370834230316 0.50426784979713568
-0.34728197917177805 -0.28969513816394776 0.12707557076298104
-0.2514357766145619 0.16398103202038489 -0.11920698097022789
-0.086542892583003544 -0.045368312661137611 0.49444627449671086
-0.28863910494038164 0.038047557609593136 0.49117215616819876
0.079053761023747005 0.37607871459194558 0.11344658713677427
-0.071809297705030958 0.28777869544176127 0.4528379600022665
-0.24297365333112669 -0.10665027675662095 0.40232452762690407
-0.1263967704641302 0.17832653077130967 -0.16420130968033761
0.10434760313327873 0.025965657554141611 0.48617414677454707
0.089025851979065901 -0.22835165520302536 0.10188366582709509
-0.44211454385979071 -0.25173819429817479 -0.06125533589362045
-0.32122935801453917 -0.094640280080585171 -0.12106734305377168
-0.071052039536808345 0.25753695670465954 0.49021594208530395
0.1666631701083725 -0.015985057652044193 0.53387045744851136
-0.38317812522020456 0.024314459808352021 0.41475952774445102
-0.40889374045577431 -0.053340420335309502 0.3963829055063291
0.13957851173608229 -0.15433681885345737 -0.036246774271091076
-0.32288347846209714 0.20853116811000455 0.33314639074884894
-0.13852782253110357 0.064125851824710561 0.51851948144459203
-0.05892051870822354 0.15080626589956389 0.45426883488416792
-0.4686619057999073 -0.27077772652933807 -0.08796335395159996
0.28960002069317964 0.089439562649313298 0.12736554429268787
0.028901496169662796 -0.17792321335416311 0.44317153457616254
-0.30780852181411256 0.18956039663796004 0.42771441249534109
-0.24750813381351183 0.011230073861377796 0.49671119315130363
-0.018091000759748826 0.34818420910317521 0.23478227804087137
-0.3647502369163152 -0.28412818944172358 0.064823175689095625
0.17679898604554015 0.14649895751971209 0.43295445284909828
0.19910920556798392 -0.078407402977929891 0.44744980703786197
0.29481924244470475 0.091841124735131091 0.0090088878200490774
-0.26616931522081871 -0.26723083251357044 0.066501411419313566
-0.37372169597386318 -0.10131380765957207 -0.05768338287083638
-0.32381510031152588 0.059001657704852342 0.47963803991409082
0.054533960283360237 0.0323003474246535 0.57548457350438809
-0.041364101630299126 0.21501652587640557 0.5039126619937796
-0.39029342864831579 -0.29416762367579252 0.048878312538302854
0.15586660119735932 0.078344416425800617 0.3934133518999659
-0.027590452680437395 -0.23075191365654729 -0.058913854048269793
-0.045334316535358271 0.28634553469161017 0.47252211193775429
-0.096151095854200369 0.21412691799502326 0.47596451924482308
-0.35667933248961853 -0.28273383524248324 0.069999592544953748
0.44351412477497776 0.0808412025477388 0.049356815588102287
-0.25744312303771377 -0.063263858353341459 0.47296271764759079
-0.017928121746418665 0.045092748211243858 0.54656370684410693
0.013823506024014897 -0.17519755685341698 0.44973181370746229
0.39618646965171633 0.13955762884060385 0.028983015263864903
0.3048863900147824 0.11745369559769847 0.067032915978977453
0.1172193679932666 0.22301905566542529 0.44219937908988893
-0.23627085054722846 0.13710526135712478 0.43206578252868322
-0.21703874259574682 -0.25740287739811268 0.10820652971126875
0.24525272863246447 -0.028691594079148206 0.060453798705673578
-0.34412909471525888 -0.25182245690735339 0.049626685406072735
0.20893103464482407 0.13031578469235758 -0.082789998208931709
-0.48245493215914081 -0.34752588612882229 -0.00892456407449288
-0.39396128149258325 -0.28692830997014096 -0.021389973354557501
-0.028643670598756547 0.016782210427935235 0.59125191518663056
0.11431015164787367 0.25383564295427952 0.42062628811680752
0.52870333671868175 0.20581143350247444 -0.016275902383486529
0.26411343102896756 0.20368454651980228 0.00046102703808759138
0.29815704103024149 0.10120496362121173 0.091052440076044253
-0.46799204674396538 -0.30315704611709404 -0.037672852258256895
0.088782153117993395 0.16610806035391884 0.46530651585624472
0.28951132658352624 0.23655250849999943 0.08210543963149225
-0.44801333195551585 -0.2469270530412904 -0.11513358476646526
-0.43372167254367133 0.091460866649216155 0.30118290607917958
-0.016756757344993104 -0.16694251240208624 0.48660547204852656
-0.44268483305529477 0.085295944136173668 0.37623843675848934
-0.37197242145144582 0.08679083988882047 0.41326716889284604
-0.3771070426192446 -0.20674552844506233 0.033263042600841175
-0.24597609637064097 -0.092178684702280564 0.43635836042331388
0.47478556724179954 0.27169616429644133 0.0088460136052983251
0.18437727510972163 -0.1288875632283159 0.43455859189206397
0.15618427926701628 -0.11602501281713394 0.41331687711516341
-0.34439812519237795 0.12992831603115043 0.41393324365809547
0.4762131031697473 0.25236310711082294 -0.0037607264716077449
0.34332876706495019 0.3228286174504077 0.043914104103687263
0.32155181007320005 0.10334858872614777 0.06084730968723559
0.043756106260493241 0.23227344445733716 0.50021228367829329
0.50989674679022079 0.27034095988881085 -0.032026046158601301
0.35041950787427995 0.077553921456331332 0.056166873638806403
-0.41905993427360994 0.014657920432050206 0.23926206733336733
-0.050015805890121112 0.35222644353980398 0.36911766674807311
0.13764814424072133 -0.0047214151598612697 0.39085106169894729
-0.019452458527204224 0.20949530343565365 0.50852439865869559
0.28427969291305449 0.1081189241043653 0.17763137738069032
-0.28506353140466545 -0.06793492675653709 0.46298992496348335
-0.063475862806784522 0.3200724487066236 0.44349771078619804
-0.24250643445606257 0.091372374587992911 0.50154864356413253
0.28011727373068557 0.17850645301494583 0.12148161094828849
0.36308564369534341 0.15088904422207564 0.036554623985198542
-0.25096582957943137 0.10574795796562789 0.49451416224782929
-0.1993379527929835 0.083846161013275605 0.49809003999817092
0.16736853512145672 0.3494729257313039 0.087038708459637182
0.13844067750449171 -0.11270415876568651 0.36531667306632287
-0.022889841037731187 0.086878076878881688 0.52796097209783199
0.026513957588325442 0.10946841706264232 -0.19129671731268585
-0.38765494945905404 0.074325262806588188 0.40311170556490622
-0.35405177993922693 -0.27111055773090759 0.060224503300637638
-0.19169156647764943 0.094645819245309265 0.49160372528279606
0.19255657589432279 0.28038500299182934 0.40395917673590964
-0.053859336762294867 0.18565301758884653 0.49044263813749911
-0.097026600338829233 0.25583287816640327 0.45739585193024834
0.074766748768985591 -0.23849576525481947 0.51168834005045805
-0.40951496801364312 -0.27889311351540536 0.013118337108424083
-0.20366180476582343 0.22759752853131393 0.43467377068502311
-0.10943677016300854 0.35699673872964383 0.17070858676244621
-0.27393567306712757 0.12067875968533251 0.47825816544171651
-0.043761393379947909 0.010666574996756689 0.5842307898806629
-0.27946921538226877 -0.26690001591910889 0.18717493470048346
-0.044368573483806448 0.0082097483618743874 0.58082572421204315
0.0081288702025019942 0.30721791922886432 0.4241195635954399
-0.070383241554063308 0.15424478614582568 0.49020964181476878
0.22374816096580083 -0.24282303870665595 0.62968847728597799
-0.21156319054436171 0.075605004665103781 0.49088194317081324
0.16794611284388036 -0.18570673026039092 0.65125224985653474
-0.15445986487236893 0.070594292019933461 0.45443005284430504
-0.084287803345301088 0.21013725723750465 0.47624530962387623
-0.41312537124473825 -0.022190881915520551 0.0058290585736298639
0.045982014235368636 0.056473461192776894 0.57582481809720687
0.34531927065334872 -0.20203097554231869 0.51892191055454895
-0.4343967276299846 0.11880823677328692 0.31202359617443715
-0.068094043849937586 0.3733856190758324 0.4050880129135962
0.42208299752969286 0.18999973963326358 0.013288613083903805
0.33761869928780575 0.27000966165171975 0.053431640620972942
-0.44024965165858992 -0.1979526646585911 -0.041592629922913543
0.22910409619052155 0.089324841396646065 -0.065365321428725892
-0.46863391175312641 -0.32145694998024621 -0.025808579307059321
0.040299321998140326 0.02506960767110257 0.58351816089864861
-0.068753600521778938 0.03195249184621328 0.55080167641242028
-0.38566875823772939 -0.25601929309284138 0.020635453161416295
0.064251836928031159 0.019284111451524047 0.56423604594081656
-0.12051971242974927 0.25135271276537263 0.45955796790392189
0.021158469249347292 0.068403104779535123 0.56669629940928179
0.12277906646576128 -0.19593377036477652 0.65755086683545028
-0.23545712374167413 0.10489660798512457 0.48283449707157067
0.0011127086319337887 0.17576927570539194 0.49324398315104812
0.32782762906364021 -0.22864010539633889 0.49567124686474839
0.35602212854436927 0.11920874639203899 0.042603371133177387
0.057996907171855898 -0.24576382342521105 0.10575689665268415
0.28011482439834406 -0.10832544272284075 0.52329186025532215
0.041357864393350499 0.23361321244831701 0.50233789651999972
0.19347099439852081 -0.031721493742627199 0.52306473123137465
-0.13852595456793979 0.26234622302734417 0.35324812281431539
0.11449732051230774 0.34945102102019682 0.43194691129515328
0.1569362064382625 -0.18348104011333072 0.62711846457518028
-0.045631601323658399 -0.005228288792519846 0.56389574907111617
0.39311327974662263 0.25014317528458574 0.0095153095682905808
-0.46561661907271562 -0.3557093054539352 0.048027731105345806
0.42435066828335666 0.26540152951629503 -0.0031485985197056698
-0.16941236275647692 -0.051884624350850977 0.48824234274384193
-0.35987954311269288 0.14715371867395216 0.3983496587029815
-0.42371878271949792 -0.082515821282963198 0.31616684239640447
-0.38600119352877738 -0.091190275241969626 -0.038901741709663512
0.24564463935611444 0.18620872488327259 0.27891532320600082
-0.38172891865219039 -0.29230381438021441 0.057685810205109572
0.31638091941097746 -0.20880706720760206 0.57565396673702063
-0.26145966428099304 0.16714367769870925 0.44459199247339654
-0.050551379872939638 0.013205908027054056 0.57697479569123522
0.49357522186660568 0.19333233566163091 -0.033369401069365839
0.284034239845739 0.21005608922469732 0.094058979249392341
-0.12296954453760398 -6.2760370645939534e-06 0.5263559330641493
-0.35716432389449815 0.11715245152337311 0.41424226302258721
-0.10606703849393129 0.21921575619853406 0.472118224640517
-0.0069762930305135419 0.3329035898297068 0.34285993391547964
0.39751564410370926 0.22439606162844666 0.017814278660390842
0.044986105946530283 0.045512379835100522 0.58046553826266289
-0.079442063985764144 0.30424070197119701 0.44671002416155481
-0.36592507829762555 0.10987061571933837 0.4101231580550917
-0.27927020765038729 0.15289036744087559 0.44046215248622456
0.35081066119070925 0.11147068366140703 0.044644368249977556
-0.28654368169701699 0.031449509735117176 0.48864433687128694
0.19825808029235767 0.32494718302376191 0.069227622042081133
-0.32740284080537185 0.12648522954983646 0.41162307927567715
-0.42949996973644272 -0.23564113220769178 -0.099624781450009831
0.098632209703211515 -0.30103568321175833 0.59131605247167296
-0.40635228823732089 -0.34550903913513131 0.12078878299785888
-0.044523809363115813 0.36768518021190871 0.43976514190626065
0.24715424531275834 0.238011251002895 0.22705541260437506
-0.060460184717051092 0.17186935815528298 0.48989686345922445
0.01192882006470564 -0.0011398141238025128 0.5847959012457451
-0.43064501128390081 -0.36435487843183328 0.020701254247586537
-0.1989582638890284 0.30278916424824193 0.44362552758573315
-0.0095247643579280637 0.048122896778634558 0.56339652959346909
0.1690475609446303 0.31852308222182191 -0.0017455416155334469
-0.32737668797529046 -0.24578812656169269 0.074241470244193863
0.31485162574511322 0.10329029685064889 0.066266643991264751
-0.28021074830452863 0.2056774920447928 0.36696152544620303
-0.34045750145091352 0.051902616941685284 -0.10525946367394232
-0.060020049454826793 0.22372563699197312 0.49442459894075141
-0.31499842880266343 0.10969248763412937 0.46938987404943677
-0.23886727909507272 0.21109136840779558 -0.080048621337055731
-0.39435636656930811 -0.11758006750905371 0.25677489810747345
-0.3350555329135701 -0.22793237429478141 0.064525413695456446
0.23317320358579111 -0.13670380903356796 0.61593452528661174
0.45685535933737892 0.19230885312660803 -0.0019798362628479782
-0.12715977640067566 -0.086180466788613672 0.43851533855780711
0.16615552650797177 -0.14965446039337937 0.02547523755310635
0.11835992448167432 0.16411493646396841 0.472916673718348
-0.44003112417868712 0.12753654614215507 0.33887155979177486
0.18104833446992857 0.30435620813221875 0.40506827819657948
-0.071994885346522819 0.27038125847119204 0.4715073603424228
-0.052594471193281978 0.04060745276876998 0.56212376526859253
-0.34768842175029513 -0.25804767154756758 0.052529941491128912
-0.34093751677859013 -0.29018511756282594 0.11162717472007624
0.1245257796845953 -0.17357171895317927 0.6527795295250598
-0.048772414546012048 0.036467661537214299 0.57540977902408597
-0.016228856472820487 0.26658409043913461 0.49731062627786671
-0.25941533354598129 -0.0003374221069340072 0.49062867954237355
-0.12436000320968416 -0.2477966348055563 -0.023819928644748994
0.16834261710920062 0.30437375734935962 0.41521048322952248
0.1851449584967933 0.32952936039320574 0.18434772325417392
0.48447367967886557 0.32417810989378532 0.0069965615121408142
-0.24637223011855255 0.077515466899311602 0.50883563057276726
0.13553020895103426 -0.16076932116462397 0.64916882074834126
-0.072823621983523157 0.26483765730281361 0.48488201719619628
0.14368049339118774 0.018913467401266093 0.38080879977774185
0.16575612562632064 -0.19207990509695003 0.63359351818276377
0.14153946810772219 0.07836481277992452 0.42392090511942193
-0.34324926157507435 0.10642081860121819 0.42695438112099349
-0.27948364786106539 -0.25526467004753783 0.034204129304998804
-0.15151099526919953 -0.2425352578371166 0.17508866790280991
-0.0600822479821502 0.34021470756837341 0.44562652032250544
-0.2329043482720019 -0.0049341104326937682 0.47896301106396166
0.32578996714094821 0.091112653021583057 0.075212580640259902
0.36909020237173051 0.084809811930410151 0.056998523558581843
-0.032344835716122705 0.31207528974945081 0.39670142002969855
-0.21563300987568362 0.108474445682892 0.47821537104910794
-0.13538067877907664 0.25113529317512218 0.45628794106117598
0.1526051798445725 0.32051640622167632 0.27617865679436904
-0.29604210257316355 0.11825824312790528 0.47437671441690243
-0.27831385067580722 0.10892296631274409 0.488047739196102
0.13274540785041911 -0.22600488047 0.66085030681675261
-0.24265208959018986 0.13665401085203319 0.46149359015722147
0.35520507196318124 0.19143237741874919 0.0029490985217534016
0.27366332458475506 -0.17659409139348217 0.60996503923165568
0.33094878730701838 0.2633131707683472 0.0139978706867597
0.4069264733060341 0.25399425321473584 0.0050879766643767699
-0.25785220695885996 0.023920584291273458 0.4906274532929028
-0.051753707069777985 -0.04824545451504833 0.54660550463347968
0.1177651535404324 -0.20690923959586466 0.10009490089411831
0.35764319511483283 0.078352441433525127 0.053988053131684755
0.32459038124835671 -0.1601453357975457 0.52823689710551114
-0.31100685790684457 0.19952816388195749 0.42772545490225666
-0.2499230639990388 0.078723095899027568 0.50935680703578057
-0.031736877187190898 0.045732649009500678 0.56818056205994505
-0.45506325567904293 -0.18851002359138244 -0.070132595960826188
0.31862814269171924 0.1110155713279192 0.021200995258213645
-0.37483882407956448 -0.16885357096112133 0.12310191353384499
0.21815631755771611 0.24599085850182012 0.38434021512258099
-0.0073113056349330329 0.053693773319052118 0.56453438518083154
0.022351365522125854 0.28417696370415763 0.46676213227868579
-0.39802018458229621 0.04973677467743863 0.39847892245642846
0.13454801008960096 -0.24507993644599371 0.65996035947496345
-0.34504515268461611 0.15955855762630183 0.40404560118238525
-0.38358059929291244 -0.33192580496959712 0.14215426854114155
-0.047301327400911308 -0.12587374510170629 0.52157910546338215
-0.3336872106664337 -0.040915689814025928 0.45111375446296931
0.37082807316308058 0.27051640237309005 0.027924882231472409
-0.21992412896540334 0.32489872512862117 0.41922531251444328
-0.34963229719438033 -0.28108951715240055 0.074594247032987809
-0.20844923971994811 0.098690605730232889 0.48469722678408478
-0.030958478589074353 0.21373342898959735 0.50863659693318686
-0.28755341376612048 0.10486093106988253 0.4869745679454589
-0.33578885424042593 -0.23111912163517537 0.058274979686139566
0.0063234607924862393 0.18450474201334832 0.49196937683335862
-0.29200629846459697 0.049684875178346383 0.49889675517172216
0.33052731894466503 0.12000329864340845 0.045081093563240249
0.19899988354751202 0.23569966951803833 0.412832112923052
-0.45813979808358624 -0.22090492585369692 -0.067008727725539535
-0.24172659018117429 0.074774267514169462 0.50484828024104444
-0.13499127293713289 0.07536443726696701 0.51208754167896664
0.086525127133270124 0.28088827818878731 0.4505481805611749
0.1982043446162613 -0.16256318238465986 0.61400985155079557
0.45146574347121315 0.14363379045101074 0.0013596467412243796
0.48223352046423512 0.1727963902246451 0.0022622057013628183
-0.36270193683696506 0.12788970861041349 0.15820741929423182
-0.47090004054693657 -0.0067158125308895422 0.36123229790565825
-0.21609706139212953 0.10076404119652249 0.47463661582235739
-0.23714843781386533 0.12985245489765082 0.46509030612829316
-0.076327992424137667 0.2556708877770249 0.48123696593803689
0.2420742704214979 0.21431644630866231 0.27646841711427717
-0.31225744830284746 0.098578485755673989 0.47707152070223569
-0.051218851203081207 0.18821304312901574 0.48536331076379091
0.36936773575258469 0.2389711758291711 0.021498193849455505
0.036041037756992612 -0.23757464881131907 0.20805712202818941
0.07943382046857056 0.22063948592752036 0.47174806557964033
-0.35072684172673863 0.12406208479480141 0.41386459364463341
0.26357727741431652 -0.21030113807635073 0.47270663283493863
-0.3371272007204078 -0.28768351936314795 0.093447979867573486
-0.079945756052530736 0.31752082391790332 0.44283486312819015
0.083727105852188427 0.29063180919999715 0.44843406605831948
-0.33292025885186094 0.22920825204234679 0.36814902183829579
-0.099359124138356875 0.20107528297602123 0.45112309651065202
-0.30635121224024642 0.012330774678973602 0.46335639738429812
0.0799231093204959 -0.16610465891569842 0.38217051643820488
-0.37124038987212238 0.027863137793315298 0.41360740241691873
-0.35981595347060097 0.054749050651134862 0.42840019007045071
-0.26005046006647314 0.13907457476968352 0.43201064731155103
0.04367990372096503 0.35630285698230718 -0.0057991938079759164
0.22637175338663881 -0.17367034218095723 0.59963012066969057
0.03791752925941673 0.21379998280686319 0.49984230580738176
0.38984905985486878 0.097340544019939634 0.046777261907056555
0.15120487879087169 -0.16622866445513096 0.64768621165748141
0.30440372433152502 0.28490917294088264 0.055329512745303816
0.30369015652130943 0.1873153144229385 0.07430518755335197
-0.22686180151072119 0.033796330091503443 0.50255818534898378
0.040973486909506099 0.061148201370050975 0.57314178367941948
0.41130988175561545 0.1394985440521932 0.021396742298745053
0.3306807846904628 0.02102757464573797 0.064263410196944232
0.29091366389897533 0.011335707216861335 0.12075878047748884
-0.42783778655401056 -0.34819230266515833 0.043806111183609581
0.062024152578215828 0.31079054785778776 0.44346284835628702
-0.090436888065031779 0.19614413443090364 0.48071927577513895
0.11583765918949054 -0.14807930815473053 0.35070386103454287
0.38274735916144814 0.23202344243395273 0.018432957907548703
-0.2729687084597644 0.13760719460542301 0.44380134312525871
0.34909523505255047 0.031379492639473955 0.1097950341055093
-0.011594949966493035 0.36944799173753762 0.44066661836251736
0.037322490496524224 0.065700231917993249 0.56655315733578304
-0.40459996464487796 0.038162432080967257 0.39491266788277302
-0.37235896307267552 0.098745528937301041 -0.01759354636749863
0.1594530330682527 -0.05508410435109927 0.32018063122805529
-0.030721352263793859 0.31406270245731482 0.38425066393691731
-0.13053492949040227 0.27736569804974892 0.44794457821369205
0.29470245143070695 0.095474189245052077 0.10260079994333908
0.18227699119074137 -0.19622520889132866 0.6409834957902375
-0.013629851949009305 0.13774746089153589 0.46412871805453637
-0.32197615355039139 0.13765637279648579 0.42373438683523468
-0.40618163361617443 -0.17253560187320149 0.0024356294164052938
-0.48231742211050205 -0.2725373909188834 -0.090925483868106366
-0.27177257909661645 0.14363261609205452 0.44636843859651898
-0.40846984117444518 -0.1189111195229151 0.068629306480710278
0.34216214165205611 -0.22343636238198472 0.51546461105717201
0.16118773937956454 -0.25742848901876336 0.65075072112059973
0.44894007487756943 0.072425574278747101 0.0049719449378654301
-0.2010978793207695 0.24354849813416463 -0.069024660773415042
-0.1241225051569913 -0.21635729953542715 0.25651915827489102
0.23363161721884046 -0.1704209749569186 0.60265575788314041
0.15921487448215188 -0.16362669601082852 0.63615677195608222
0.17843819764478758 -0.20534524815266755 0.65520327506705567
-0.44233455543114542 -0.17861508371817589 -0.062860369237596719
0.25669371971893118 -0.19842948785720421 0.62276003826810444
-0.49011289556600823 -0.25567778932169194 -0.090971525360848488
-0.1784203491596095 0.25358814153134351 0.46026351126015619
-0.34263200343042954 -0.29128626124992907 0.10518413878126907
-0.43888714809858054 -0.040077410122519488 0.24450229576357041
-0.12737583631212429 0.25120873457190646 0.45772421037356747
0.0026965933689691406 0.033152344604651579 -0.20566658367864846
0.099472523478799924 -0.02631787781331341 0.58133457765524965
0.11664142159054677 -0.14439696082290876 0.64194699977428393
0.00063641463111402223 0.30012747910049542 0.44552176446649994
-0.15371310023166077 0.24048941568668508 0.460865419742295
0.16428172650590328 -0.17538828832841552 0.44905720885158829
-0.41117348713387186 -0.21480082383149687 -0.014576844520896692
-0.047072191089023038 0.3016014193013084 0.45676228915626249
0.39641401438147239 0.084756886107613283 0.081695932316608266
-0.42391042566479809 -0.22608733562315597 -0.039381352820159365
-0.2257852136847058 0.17667633410624276 0.46090725220516005
-0.063511599256493953 0.23574249760957305 0.49857378869849744
0.038396295168401248 0.18783635783917857 0.49350025729752889
0.28089774777837545 0.020502910419824563 0.024574433044149968
0.12441812023052151 0.0014521213264333324 0.44620673545111478
-0.08127817265082915 0.26227901225771222 0.467369865536576
-0.28157980889351453 -0.27601349249433454 0.079450557318997486
-0.47998232069861202 -0.35124893639911059 -0.01824126734633863
0.22905005395579883 0.04711302867202953 -0.057301906676140019
0.075443633074280536 -0.28833723305123088 0.62276653476569466
0.020946999228096411 -0.1743415296592862 0.6151203776891484
0.042032098256866685 0.0094088494182073337 0.58097664151920902
-0.13710670337137687 0.28917301738238066 0.44448448658558315
-0.036277400008843802 -0.00087079833741759288 0.57569015011258962
-0.057473112167213423 -0.058689978579325244 0.53469383589351216
-0.44997895884926081 -0.204853984849686 -0.055060873491898338
0.18741288119231536 -0.22484170808279477 0.65151128558694704
0.0017157811354358461 0.3180815426508497 0.44594596843966749
-0.25118296252359806 -0.26640971097063826 0.15781429566855693
0.047134777872567563 -0.2228667745604099 0.50532865074087774
-0.41025219783762534 -0.11253824643618839 0.19338967776179483
-0.49675073372362483 -0.32975534464035822 -0.042324508505204306
-0.19385973183469554 0.1006662099685921 0.48860425928257034
-0.35043064184418848 0.12344382767921022 0.29246353273284981
-0.087935096238452082 -0.058675388969410124 0.47280117695314705
0.36739061760058234 0.080344615842449479 0.062179982822984842
0.10166248014395302 0.22770149592500766 0.46941414266915171
-0.33209957356514658 -0.1987175519301643 -0.034402098539307369
-0.47571575845597946 0.0049628374633021374 0.35942296065315937
-0.074628894388384756 0.29700146555343915 0.40874997468476926
0.10917061868416608 -0.022526593671460635 0.57727940789794274
-0.22644506631259878 0.1373662561713356 0.4656477966762167
-0.0024177678704648299 0.32516021760385039 0.32733551536365385
-0.30739621957651408 0.010761570912449649 0.46587214885184236
0.12614605906283546 0.23890109566344908 0.4541303291810328
0.14218696390411634 -0.23137194872657474 0.66054850024616929
0.18967728914380885 -0.18091978284335772 0.45588127471669226
-0.2604453126460165 0.11195021529846702 -0.14720823107042316
0.2569152983040483 -0.086473597653038137 0.53598679332230992
0.025375404714285212 -0.18284120946925256 0.46170169267193839
-0.47653642037142352 -0.34700040613839628 -0.018920237379054849
0.36825080008225447 0.081563044716515987 0.091027788187719172
0.042034893006587533 0.15110568245777334 0.49867877594169097
0.25493657167568384 -0.19009113212622777 0.62393064387572705
-0.058446570525575968 0.052783980187798521 -0.20884904377717436
-0.51246899076371322 -0.32436219701321956 -0.038626140434599748
-0.019105119432950665 0.042413351874769314 0.55447825723918687
-0.061328090277722194 -0.051520579895945447 0.53123037329637202
-0.36204314911478991 0.0098623306140777564 0.43329556969341071
-0.44362400077643632 -0.35430096830506919 0.032851961614408703
-0.20497361506199485 0.088785595086592589 0.49131525365361617
-0.4264860200256651 -0.017715522055865338 0.39242730532695336
-0.20654085925926666 0.28878658958706288 0.44080487734205409
-0.0089462830601313575 0.23357213557352058 0.51071447482422461
-0.11361691970731946 0.071835329130657932 0.51997388971900693
-0.30080555242371543 0.12764144153007023 0.44375819233801017
-0.17260827889577671 0.094514355272937889 0.49184002790770487
-0.45205818731802072 0.011085961598366251 0.37741752141157436
0.020434879390081179 0.064761958569568165 0.54136302841252348
0.0075552056018966529 -0.21873576761038466 -0.069681876385157576
0.18447072306822757 -0.0046801931099111488 0.28530126523065269
0.11635422292380612 -0.15574068115203493 0.3236779932456883
0.017401861547556744 0.22709689830824209 -0.13891531530230147
0.077557341546470593 -0.17209040927653635 0.36326131134208761
0.46540571353356169 0.13414450441379597 -0.001602768276720179
-0.34758552924708802 -0.26973265998233431 0.064848171773394941
-0.36212657885627897 0.19934939244397931 0.40195580824075094
0.055308956655590845 0.0046757406806405971 0.57138011844433834
-0.14719673861212168 0.19562484163095184 0.47292286744743128
-0.36109630483764144 0.019382559735424965 0.42352949402823681
-0.062546368370520702 0.28730478623990602 0.45314967576082821
-0.16064824827340921 0.10365860097177834 0.48927733050255262
0.42139708056665198 0.099978009533388562 0.030582730077742537
-0.40079196339714634 -0.095025206429034531 0.32984781393240986
-0.3510351272218763 0.0829669409082118 0.44640674275468251
-0.40345898832704763 -0.12010935656618327 0.046275387439148996
-0.027354333212658326 -0.061552661219766838 0.57173269036483743
-0.33920060350781789 0.15178416198362593 0.40709905215205511
-0.3750205944058031 -0.24844725168320864 0.02524017611853091
-0.3424104049233001 0.12782252761211479 0.41617068257416551
-0.45739145305742607 -0.28472965824593527 -0.037831537973658041
0.0076299260802576256 0.020441520244829384 0.58971600725741957
0.25764771551802551 -0.090492477888243217 0.50280610523350544
0.11393014467066878 0.34498245451439241 0.23092341034388009
-0.06659303441274278 -0.022136067906818786 0.53992550071825596
0.31218755319121966 -0.19621904794276657 0.58147305372983138
0.041318582610018903 0.32376255174051344 0.44002491101675101
0.1438026327894277 -0.14968354289908672 0.42643579229568701
0.032549266453086916 -0.024650422943836493 0.58136680226526272
-0.49716398557296343 -0.31285469904251045 -0.074275118027404358
0.13165240064345046 0.34041404832038807 0.33561997552246187
0.046399397040720727 0.30773943318940161 0.39182594681246291
-0.19686973625530071 0.094856506002164526 0.49204375907799658
0.30820942439546944 0.10279399526662783 0.073275276147850316
0.091563490935427178 0.12985332430112254 0.48952244986643734
-0.05546030327607808 0.01886202296744989 0.5722623153154085
-0.058288381801258851 0.23833135009769246 0.50049023943550131
0.27628051306732676 -0.25991179998072522 0.54381044093577124
0.46657079355227488 0.13333001259711869 0.00096830879853457286
-0.31207900009760853 0.21920729940141231 0.10806998239935582
-0.38212093727065055 0.044395575735341253 0.40492077262865256
0.2995524101446384 -0.17351253810994519 0.58722329587364386
-0.047813882962997815 0.32714287727715474 0.26811128819006569
-0.37596475123965212 -0.10251532746389871 0.34602145430156817
-0.081403308066530594 -0.095588892089580407 0.45040610129734288
0.3533478956947797 0.17927201018357586 0.035692636190183286
-0.14650382508013951 0.30387515427370232 0.44282425464014202
0.33213700536028273 0.16741657555833331 0.044299604994419151
-0.41777047790665173 -0.005599639875948588 0.12872282096996127
-0.34812323378870363 -0.031804944622375625 0.44344948549549201
-0.33047525145970846 -0.25000922178387602 0.081170774693697476
0.44141508656132278 0.23310712458041322 0.003493975397859006
-0.31432095741231331 -0.049300041164907792 0.45958168286883472
0.25345626257594722 -0.22574062202371664 0.61900392818385763
0.17068471249626696 -0.14561085153520975 0.63820313461054068
0.053525752161525893 0.27041773260485991 0.46500906599000491
0.36234868801275516 0.1749588884133054 0.033443072278663361
-0.42235353996590957 -0.17551503375839039 -0.067910566671581934
-0.066141028427327275 0.020785665202654527 0.55490100996458547
0.23837841260511125 -0.1831504627141852 0.61843271043100234
0.33000164061031573 0.014873213307565747 0.083828008911763841
0.46404162975979463 0.28168827631401616 0.0068040160626347823
-0.20700868288213717 0.024050013696772107 0.49063115187598638
-0.36692885685696902 0.15818845314497681 0.29696807317649354
0.24389706874614622 -0.16071444686907876 0.61973427129727199
0.0046887614284872904 0.24857529346434487 0.5048231032513798
-0.1941169950944758 0.082347755417356977 0.48275865732348877
0.2847159203524316 -0.11915255732689659 0.55576625164966875
-0.43271938488692513 -0.18567903665448593 -0.030256038791754564
-0.23069224976731864 0.014809078304279591 0.49975177376481461
0.3222853437099894 0.18726436764520471 0.057274113466479287
-0.53261731373827526 -0.32573643356872772 -0.11173680096209601
-0.025020852813299528 0.3631135826774588 0.20476187803013707
0.23517162317244847 -0.16908883547286835 0.60506237716725186
0.012732061373849995 0.067428570233294238 0.54771763910347782
-0.38650653502718574 0.22014519726224291 0.32271008755171482
-0.11666645605505238 -0.23486625268515132 -0.049759749554743465
0.069997556595215588 -0.29023496853304848 0.60642642937107705
-0.3785207856964381 -0.34310508720370503 0.13801723379989855
-0.044573714157267311 0.18544360077953626 0.48774631393400869
0.093972409717803157 0.068850524197510851 0.47486399600046614
-0.32862302451892778 -0.096750779360130823 0.410557470527119
0.43027419737613803 0.13989696428243273 0.011702862593316155
0.47880196447198581 0.24840461538542546 -0.0084643229104692241
-0.34650656826105231 -0.23962373673631882 0.041750485413593608
0.25726593647896534 0.06410466797123468 -0.028035129065858005
0.13594335857959791 0.24107654525843902 0.44981249026823333
0.15135241137751382 -0.086480973848351766 0.40010057322104098
-0.41101132803680529 0.054583552260149631 0.26408214949924214
-0.066210602010128572 0.18103673949219207 0.48859342518119486
-0.28701810647446319 0.11788310969173033 0.47863568111006138
-0.056151827668064334 0.27388619611002352 0.4878403340491082
0.33510819783067608 0.22653080521500746 0.049818672375536666
-0.47940794480285676 -0.27947639308235528 -0.09235920605082501
-0.52275687215126765 -0.34855405241498039 -0.024006919533149457
0.18592836061235829 -0.10237462062411283 0.17526103794518474
0.19421881768507404 -0.041104147517631598 -0.063871075084848933
0.0031595192075892786 0.062922842201253132 0.54433366484730883
-0.35334575990980505 0.14024686947608775 0.40210583786812371
0.17061059786577989 -0.24616253935784302 0.49845451460039802
-0.48591057795718373 -0.35778179808445587 0.028137787570306771
-0.23904522415555834 0.12773923321833297 0.46306613536712005
0.10136981118411473 0.02317542259032139 0.43922041470813566
0.33649950495590708 0.095530867626381966 0.062691821989188906
0.40387117833611058 0.092757164600175801 0.054868732630790618
-0.34868890399007291 -0.12564067579677479 0.31605738043588949
0.25533375351444348 -0.20785547391273251 0.62234987581523038
0.30575020980766104 -0.24081957938012169 0.50085907012636222
0.29737956193368198 0.083934620498439971 0.10704303883246427
0.24270376482747572 -0.11003822359041998 0.59069141984778706
-0.38913370877382841 -0.32510528096455221 0.13142701597420708
0.10692765199671606 -0.24928806422491093 0.65861496223823013
-0.0085141126167370632 0.17674172844274372 0.5002769992334507
0.22854350116826166 -0.1956891546100156 0.63348899799756042
0.042694271203864473 0.30121127352098021 0.443761251819772
-0.21303015845606521 0.10992339856319591 0.48082689343993457
-0.11287096567891003 0.097177161104657683 0.50082139031100981
-0.018483007815013792 -0.0066387510252310378 0.5784486052737996
-0.03383405783731995 0.28889501924247346 0.4724251332851378
0.049897792627228203 -0.20669875025064965 0.48622358183422743
-0.045543497558854534 -0.10231406924308818 0.54613572745734684
0.10401018998242509 0.020630485148465244 0.45843747356622022
0.30525541273801182 0.19912143971348134 0.073494148913719914
-0.32750612809594437 0.13591025138260721 0.34433471454632181
0.44968862844382124 0.067734749544777151 0.030918199116491046
-0.17771677760557777 0.16479085557931583 0.47422867370128508
-0.09393479825974077 0.18088065645149629 0.481291208988048
-0.0023579395153240697 0.06229064001184241 0.54863845826928148
-0.35373446994839197 0.0039679654106967999 0.44138129166477902
0.069838040977080323 -0.18591661371276927 0.64520665219087248
-0.44766605663385695 0.10492203032917782 0.33908899212606541
-0.39742563212572829 -0.081582516475067701 -0.017830315972912486
0.02721683456297349 0.15600258614230667 0.481788269826946
-0.35670940790635103 -0.17599850482864354 0.20080815532608234
0.051445474989865993 -0.24278269519906523 0.023414821665887292
0.15388274576397354 -0.072970911561446722 0.59984753942022184
0.48928991118180593 0.20862498372829102 -0.013529035493261454
0.38798617289040865 0.08782260883774598 0.06749850543500055
-0.22043369319155348 0.11338358426113701 0.47478564378714239
-0.25878729720505678 0.17482501342705939 0.44731791159512035
-0.37660459033279514 -0.34977298621779668 0.12764730660823759
-0.47597464930068123 -0.22402839994559059 -0.13826055129086393
