# XYZ point cloud file
58.62054443359375 -98.222915649414062 -140.68901062011719
57.171653747558594 -99.578239440917969 -140.72714233398438
56.757678985595703 -100.07039642333984 -140.73910522460938
55.804584503173828 -101.42681121826172 -140.76937866210938
54.852195739746094 -102.77593231201172 -140.80641174316406
54.429866790771484 -103.26203918457031 -140.82479858398438
53.411407470703125 -105.11167907714844 -140.86961364746094
52.893047332763672 -105.73652648925781 -140.8939208984375
51.969963073730469 -106.93221282958984 -140.93753051757812
50.941299438476562 -108.08794403076172 -140.98674011230469
50.276222229003906 -108.74934387207031 -141.01908874511719
49.006088256835938 -110.12578582763672 -141.08128356933594
48.600433349609375 -110.58657836914062 -141.101318359375
47.254787445068359 -112.43247985839844 -141.16757202148438
47.06939697265625 -112.651123046875 -141.17706298828125
45.788082122802734 -114.29617309570312 -141.24374389648438
45.224964141845703 -116.18401336669922 -141.27192687988281
45.212261199951172 -118.06510925292969 -141.27299499511719
45.876663208007812 -119.93505096435547 -141.23994445800781
46.978561401367188 -120.78767395019531 -141.17864990234375
48.789707183837891 -120.65233612060547 -141.066650390625
50.586776733398438 -120.56742095947266 -140.95848083496094
52.382572174072266 -120.25782012939453 -140.85699462890625
54.182621002197266 -120.77595520019531 -140.7666015625
55.971187591552734 -121.25163269042969 -140.68753051757812
56.071815490722656 -121.31215667724609 -140.68344116210938
57.758739471435547 -122.00436401367188 -140.62135314941406
59.353031158447266 -122.99179077148438 -140.57734680175781
59.557445526123047 -123.15526580810547 -140.5732421875
61.391117095947266 -124.18113708496094 -140.54627990722656
62.035064697265625 -124.77851104736328 -140.54745483398438
63.293869018554688 -125.95066833496094 -140.56462097167969
64.271980285644531 -126.68011474609375 -140.58482360839844
65.145599365234375 -126.88275146484375 -138.1986083984375
67.125587463378906 -127.98712158203125 -138.24372863769531
69.088150024414062 -128.36300659179688 -138.28536987304688
71.028671264648438 -128.01803588867188 -138.31755065917969
72.965217590332031 -126.93859100341797 -138.34413146972656
73.138687133789062 -126.74987030029297 -138.34513854980469
74.902290344238281 -125.02501678466797 -138.37435913085938
75.086372375488281 -124.85235595703125 -138.37884521484375
76.237709045410156 -122.96282196044922 -138.40403747558594
76.90484619140625 -122.17706298828125 -138.42686462402344
77.831520080566406 -121.12503814697266 -138.46205139160156
78.714202880859375 -119.26297760009766 -138.49971008300781
79.035896301269531 -118.80416107177734 -138.51394653320312
79.941139221191406 -117.43708038330078 -138.55490112304688
80.482406616210938 -115.59129333496094 -138.58499145507812
80.928886413574219 -113.74009704589844 -138.61128234863281
81.208892822265625 -111.90018463134766 -138.62965393066406
81.275833129882812 -111.7877197265625 -138.63229370117188
82.135551452636719 -110.06658935546875 -138.66557312011719
82.127388000488281 -108.21726989746094 -138.66781616210938
82.178848266601562 -106.38011169433594 -138.66928100585938
82.1402587890625 -104.54441070556641 -138.66612243652344
82.16937255859375 -102.69382476806641 -138.66557312011719
81.344284057617188 -100.99645233154297 -138.63519287109375
81.28033447265625 -100.88578796386719 -138.63288879394531
80.939888000488281 -99.049507141113281 -138.62428283691406
80.30792236328125 -97.20684814453125 -138.61109924316406
79.373069763183594 -95.814773559570312 -138.58943176269531
79.082633972167969 -95.395614624023438 -138.58393859863281
78.3291015625 -93.525489807128906 -138.58885192871094
77.492347717285156 -92.533790588378906 -138.58213806152344
76.734542846679688 -91.675544738769531 -138.58023071289062
75.626739501953125 -90.621299743652344 -138.57984924316406
73.68768310546875 -90.162918090820312 -138.54656982421875
71.724586486816406 -90.347305297851562 -138.50035095214844
69.768104553222656 -91.132026672363281 -138.44203186035156
68.627037048339844 -92.060478210449219 -138.39614868164062
67.814888000488281 -92.721382141113281 -138.36808776855469
65.932273864746094 -93.889907836914062 -138.3316650390625
65.749656677246094 -94.071540832519531 -138.32720947265625
64.084053039550781 -95.6082763671875 -138.30409240722656
63.552360534667969 -95.994964599609375 -138.30415344238281
62.270683288574219 -96.78082275390625 -138.315185546875
60.774082183837891 -97.82891845703125 -138.339111328125
60.447734832763672 -98.100166320800781 -138.34565734863281
58.621768951416016 -99.368019104003906 -138.39521789550781
58.338436126708984 -99.637619018554688 -138.40385437011719
56.768867492675781 -101.07106781005859 -138.45823669433594
56.119564056396484 -101.42856597900391 -138.48332214355469
54.902042388916016 -102.02105712890625 -138.53253173828125
53.011783599853516 -102.88418579101562 -138.61282348632812
52.698570251464844 -103.16219329833984 -138.62608337402344
51.103889465332031 -104.34909057617188 -138.69453430175781
50.270233154296875 -104.96799468994141 -138.73028564453125
49.183830261230469 -105.99951934814453 -138.77580261230469
48.517082214355469 -106.80531311035156 -138.80278015136719
47.236625671386719 -108.35470581054688 -138.85337829589844
46.941337585449219 -108.65847778320312 -138.86500549316406
45.814937591552734 -110.54140472412109 -138.90570068359375
45.305465698242188 -111.18470764160156 -138.92451477050781
44.349964141845703 -112.41897583007812 -138.95912170410156
43.782814025878906 -114.31675720214844 -138.97509765625
43.692157745361328 -116.22914886474609 -138.97251892089844
44.358386993408203 -118.1251220703125 -138.93928527832031
45.224529266357422 -118.89946746826172 -138.89874267578125
46.707187652587891 -119.97179412841797 -138.82643127441406
47.053997039794922 -120.26261138916016 -138.80909729003906
48.874118804931641 -120.43104553222656 -138.71578979492188
50.674114227294922 -120.35628509521484 -138.62283325195312
52.468807220458984 -120.024658203125 -138.53477478027344
53.593006134033203 -119.69459533691406 -138.48481750488281
54.276027679443359 -119.50002288818359 -138.45675659179688
56.09124755859375 -118.70718383789062 -138.39677429199219
57.590747833251953 -119.48139190673828 -138.33143615722656
57.851150512695312 -119.64357757568359 -138.320068359375
59.603084564208984 -120.68316650390625 -138.25028991699219
60.093242645263672 -121.17250061035156 -138.2301025390625
61.199764251708984 -122.97182464599609 -138.18931579589844
61.365467071533203 -123.13710784912109 -138.18562316894531
62.929039001464844 -124.79764556884766 -138.16926574707031
63.208843231201172 -125.07466125488281 -138.16976928710938
64.960777282714844 -126.69281005859375 -138.19340515136719
66.94390869140625 -126.86972808837891 -135.83297729492188
68.883720397949219 -127.39261627197266 -135.86334228515625
70.847457885742188 -127.50853729248047 -135.90107727050781
72.283668518066406 -126.69441223144531 -135.91792297363281
72.771842956542969 -126.42190551757812 -135.92608642578125
74.745796203613281 -125.09515380859375 -135.966552734375
75.063056945800781 -124.81722259521484 -135.97390747070312
76.457481384277344 -122.94042205810547 -136.00889587402344
76.754592895507812 -122.60952758789062 -136.01826477050781
77.971382141113281 -121.10108184814453 -136.060302734375
78.884292602539062 -119.79444885253906 -136.09555053710938
79.329696655273438 -119.26371002197266 -136.11283874511719
79.911445617675781 -117.41422271728516 -136.14346313476562
80.6495361328125 -115.57979583740234 -136.1798095703125
81.059349060058594 -113.73151397705078 -136.20588684082031
81.127326965332031 -113.61943817138672 -136.20851135253906
82.001457214355469 -111.90425872802734 -136.24250793457031
82.003829956054688 -110.06454467773438 -136.2523193359375
82.271194458007812 -108.22019958496094 -136.26530456542969
83.012596130371094 -106.37643432617188 -136.28718566894531
82.208885192871094 -104.55754852294922 -136.268798828125
82.083961486816406 -102.7178955078125 -136.26617431640625
82.076446533203125 -100.87629699707031 -136.26766967773438
81.26202392578125 -99.180580139160156 -136.2486572265625
81.198959350585938 -99.069877624511719 -136.24720764160156
80.586029052734375 -97.231422424316406 -136.23828125
79.712226867675781 -95.402191162109375 -136.228271484375
79.310523986816406 -94.873641967773438 -136.22271728515625
78.4515380859375 -93.575408935546875 -136.21664428710938
77.38916015625 -92.514625549316406 -136.20722961425781
76.282661437988281 -91.775001525878906 -136.19584655761719
75.479942321777344 -91.176223754882812 -136.19215393066406
73.5128173828125 -91.131797790527344 -136.15672302246094
71.568145751953125 -91.278121948242188 -136.12605285644531
69.659149169921875 -91.693206787109375 -136.09915161132812
69.042686462402344 -92.130592346191406 -136.08473205566406
67.747329711914062 -92.979759216308594 -136.06205749511719
65.891494750976562 -93.952629089355469 -136.04949951171875
65.683372497558594 -94.132293701171875 -136.0477294921875
64.070381164550781 -95.224990844726562 -136.04861450195312
62.539348602294922 -95.999809265136719 -136.06602478027344
62.271842956542969 -96.167625427246094 -136.06979370117188
60.463771820068359 -96.982337951660156 -136.10624694824219
59.497440338134766 -97.778579711914062 -136.1280517578125
58.647903442382812 -98.467926025390625 -136.15046691894531
57.443126678466797 -99.584236145019531 -136.1861572265625
56.807632446289062 -100.16365814208984 -136.20655822753906
54.948745727539062 -101.17299652099609 -136.26844787597656
54.765399932861328 -101.33887481689453 -136.27471923828125
53.680850982666016 -103.18447875976562 -136.31378173828125
53.024974822998047 -103.81544494628906 -136.33615112304688
51.901168823242188 -105.01187896728516 -136.37358093261719
51.100086212158203 -105.86546325683594 -136.39907836914062
49.843791961669922 -106.83309173583984 -136.437255859375
49.187271118164062 -107.31829071044922 -136.45655822753906
47.771038055419922 -108.671630859375 -136.49591064453125
47.257411956787109 -109.32225799560547 -136.50901794433594
46.303138732910156 -110.55110931396484 -136.53208923339844
45.716259002685547 -112.44452667236328 -136.5399169921875
45.9473876953125 -114.34418487548828 -136.52105712890625
45.931869506835938 -116.24938201904297 -136.50765991210938
46.803005218505859 -118.13496398925781 -136.46295166015625
47.13153076171875 -118.41102600097656 -136.44868469238281
48.96234130859375 -118.91223907470703 -136.37338256835938
50.776111602783203 -118.32245635986328 -136.30732727050781
51.687969207763672 -118.01723480224609 -136.27581787109375
52.591228485107422 -117.73090362548828 -136.2459716796875
54.402362823486328 -117.75583648681641 -136.17970275878906
56.212154388427734 -117.43405914306641 -136.12741088867188
58.031909942626953 -116.99714660644531 -136.0877685546875
59.215572357177734 -117.68024444580078 -136.03729248046875
59.758491516113281 -118.10066223144531 -136.010986328125
60.725845336914062 -119.39159393310547 -135.9483642578125
61.427093505859375 -120.32677459716797 -135.90655517578125
62.032829284667969 -121.14515686035156 -135.87440490722656
63.142734527587891 -122.6058349609375 -135.83024597167969
63.406688690185547 -122.92926025390625 -135.82302856445312
64.803764343261719 -124.77471923828125 -135.80551147460938
64.977798461914062 -124.94686126708984 -135.80560302734375
66.747337341308594 -126.67932891845703 -135.82817077636719
68.953903198242188 -128.88372802734375 -133.53759765625
70.961174011230469 -129.46986389160156 -133.57794189453125
71.946273803710938 -128.7047119140625 -133.5780029296875
72.80743408203125 -128.09742736816406 -133.58377075195312
74.380645751953125 -126.7447509765625 -133.60017395019531
74.704696655273438 -126.40993499755859 -133.60452270507812
75.943672180175781 -124.83515167236328 -133.62489318847656
76.663909912109375 -123.95979309082031 -133.64140319824219
77.574920654296875 -122.97370910644531 -133.66561889648438
78.434501647949219 -121.10502624511719 -133.69435119628906
78.754287719726562 -120.68268585205078 -133.7049560546875
79.781700134277344 -119.26874542236328 -133.74026489257812
80.503761291503906 -117.42576599121094 -133.77264404296875
80.915290832519531 -115.5809326171875 -133.79905700683594
80.984352111816406 -115.45949554443359 -133.80162048339844
81.872291564941406 -113.74635314941406 -133.83419799804688
81.928939819335938 -111.90361022949219 -133.850830078125
82.166244506835938 -110.06908416748047 -133.8677978515625
82.919105529785156 -108.22380065917969 -133.88897705078125
83.050727844238281 -106.38622283935547 -133.89805603027344
82.532028198242188 -104.56322479248047 -133.89518737792969
82.00469970703125 -102.73893737792969 -133.89035034179688
82.018875122070312 -100.900634765625 -133.89315795898438
81.622322082519531 -99.071586608886719 -133.8902587890625
81.205009460449219 -98.276023864746094 -133.88534545898438
80.703422546386719 -97.254096984863281 -133.88034057617188
80.198074340820312 -95.402030944824219 -133.88124084472656
79.290184020996094 -93.987648010253906 -133.87651062011719
79.007827758789062 -93.573471069335938 -133.87562561035156
77.93408203125 -91.700233459472656 -133.87982177734375
77.431289672851562 -91.209030151367188 -133.87921142578125
75.882469177246094 -89.835395812988281 -133.88090515136719
75.571571350097656 -89.56396484375 -133.8822021484375
73.628456115722656 -89.268753051757812 -133.87031555175781
71.694572448730469 -89.22845458984375 -133.86087036132812
69.766624450683594 -89.697158813476562 -133.84881591796875
69.140098571777344 -90.131813049316406 -133.84107971191406
67.823051452636719 -91.006278991699219 -133.82945251464844
65.957916259765625 -91.752647399902344 -133.83094787597656
65.366584777832031 -92.166229248046875 -133.830810546875
64.115036010742188 -92.96405029296875 -133.83604431152344
62.307510375976562 -93.863975524902344 -133.85595703125
62.120819091796875 -94.037384033203125 -133.8577880859375
60.486904144287109 -95.41656494140625 -133.88111877441406
59.912216186523438 -95.870750427246094 -133.89170837402344
58.676361083984375 -96.815093994140625 -133.91741943359375
57.703639984130859 -97.661209106445312 -133.93974304199219
56.8443603515625 -98.719009399414062 -133.96131896972656
56.245250701904297 -99.49603271484375 -133.97731018066406
55.032035827636719 -101.33067321777344 -134.01177978515625
54.973983764648438 -101.40544128417969 -134.01336669921875
53.647933959960938 -103.15784454345703 -134.04817199707031
53.058906555175781 -103.87960815429688 -134.06211853027344
52.103408813476562 -104.99679565429688 -134.08253479003906
51.174480438232422 -106.85863494873047 -134.09988403320312
51.114948272705078 -106.93442535400391 -134.10081481933594
49.832725524902344 -108.71483612060547 -134.11769104003906
49.1785888671875 -109.65227508544922 -134.12408447265625
48.441249847412109 -110.59101867675781 -134.13064575195312
47.425579071044922 -112.47447204589844 -134.13334655761719
47.246269226074219 -113.04732513427734 -134.13131713867188
46.870559692382812 -114.36990356445312 -134.1251220703125
46.858932495117188 -116.28024291992188 -134.10392761230469
47.216030120849609 -117.22366333007812 -134.08432006835938
48.288162231445312 -118.16488647460938 -134.0447998046875
49.055805206298828 -118.43321990966797 -134.01983642578125
50.871189117431641 -118.39199066162109 -133.96762084960938
51.438697814941406 -118.09799957275391 -133.95620727539062
52.687000274658203 -117.48854064941406 -133.93252563476562
54.511810302734375 -116.89840698242188 -133.89645385742188
56.33538818359375 -116.24909210205078 -133.868896484375
56.638542175292969 -116.07878875732422 -133.86695861816406
58.186790466308594 -115.30307769775391 -133.85809326171875
59.500946044921875 -115.95162200927734 -133.81082153320312
59.924068450927734 -116.20568084716797 -133.79364013671875
61.244682312011719 -117.64582824707031 -133.71414184570312
61.569103240966797 -118.19631195068359 -133.68687438964844
62.225582122802734 -119.38423156738281 -133.63064575195312
62.809860229492188 -121.18035125732422 -133.5633544921875
63.153919219970703 -121.74609375 -133.54325866699219
63.879058837890625 -122.97657012939453 -133.50868225097656
64.777336120605469 -124.83658599853516 -133.48338317871094
64.948677062988281 -125.00672149658203 -133.48188781738281
66.691909790039062 -126.71749877929688 -133.48635864257812
66.885726928710938 -126.90542602539062 -133.48892211914062
68.757003784179688 -128.69735717773438 -133.531494140625
70.997016906738281 -130.33331298828125 -131.23402404785156
72.993827819824219 -130.35281372070312 -131.261474609375
74.87615966796875 -129.07870483398438 -131.27542114257812
75.151168823242188 -128.7862548828125 -131.27717590332031
76.440887451171875 -126.82012939453125 -131.28652954101562
76.719039916992188 -126.48667144775391 -131.29052734375
77.856101989746094 -124.91745758056641 -131.31002807617188
78.716758728027344 -123.58647155761719 -131.32876586914062
79.146553039550781 -123.04493713378906 -131.33872985839844
79.674728393554688 -121.15888977050781 -131.35870361328125
80.28717041015625 -119.28779602050781 -131.38432312011719
80.847602844238281 -118.25306701660156 -131.40237426757812
81.308326721191406 -117.45587921142578 -131.41641235351562
81.777175903320312 -115.60939025878906 -131.44087219238281
82.361625671386719 -113.76179504394531 -131.46507263183594
82.941131591796875 -111.92391967773438 -131.48637390136719
82.969329833984375 -110.08079528808594 -131.50140380859375
82.99114990234375 -108.2333984375 -131.51405334472656
83.005966186523438 -106.39827728271484 -131.52391052246094
83.016822814941406 -104.56314849853516 -131.53121948242188
83.029533386230469 -102.71476745605469 -131.53656005859375
82.918800354003906 -100.87320709228516 -131.53996276855469
82.149864196777344 -99.057319641113281 -131.53916931152344
81.182296752929688 -97.671699523925781 -131.53643798828125
80.880943298339844 -97.259330749511719 -131.53558349609375
80.160606384277344 -95.42279052734375 -131.5355224609375
79.229240417480469 -94.415397644042969 -131.53367614746094
78.524543762207031 -93.629867553710938 -131.53303527832031
77.324424743652344 -92.110809326171875 -131.53457641601562
77.059761047363281 -91.786567687988281 -131.53526306152344
75.485336303710938 -90.185539245605469 -131.54074096679688
74.890525817871094 -89.922286987304688 -131.54182434082031
73.601028442382812 -89.336593627929688 -131.54583740234375
71.674461364746094 -89.254402160644531 -131.55015563964844
69.750030517578125 -89.722694396972656 -131.55540466308594
69.124908447265625 -90.156753540039062 -131.55657958984375
67.811256408691406 -91.029319763183594 -131.56196594238281
65.939888000488281 -92.001228332519531 -131.57684326171875
65.72857666015625 -92.193748474121094 -131.57876586914062
64.102104187011719 -93.357070922851562 -131.59765625
63.053726196289062 -94.094352722167969 -131.61270141601562
62.295825958251953 -94.691635131835938 -131.62493896484375
60.493419647216797 -95.725616455078125 -131.65501403808594
60.308631896972656 -95.89306640625 -131.65852355957031
58.689582824707031 -96.994094848632812 -131.68733215332031
57.45086669921875 -97.628173828125 -131.70701599121094
56.869476318359375 -97.991737365722656 -131.7161865234375
55.026138305664062 -99.086326599121094 -131.74179077148438
54.710723876953125 -99.370925903320312 -131.74632263183594
53.144954681396484 -100.601806640625 -131.76475524902344
52.572731018066406 -101.15951538085938 -131.77090454101562
51.242488861083984 -102.69469451904297 -131.78323364257812
50.939056396484375 -102.99506378173828 -131.78512573242188
50.104202270507812 -104.88937377929688 -131.79171752929688
49.303543090820312 -105.96077728271484 -131.79289245605469
48.672267913818359 -106.75598907470703 -131.79237365722656
47.869167327880859 -108.65192413330078 -131.78695678710938
47.359146118164062 -109.30814361572266 -131.78392028808594
46.458824157714844 -110.54868316650391 -131.77696228027344
45.456233978271484 -111.93058013916016 -131.7679443359375
45.068439483642578 -112.44773101806641 -131.76437377929688
43.95635986328125 -114.36180114746094 -131.75019836425781
44.456981658935547 -116.30402374267578 -131.72776794433594
45.447479248046875 -117.70755004882812 -131.702392578125
47.301193237304688 -118.05401611328125 -131.67581176757812
49.146690368652344 -118.03583526611328 -131.64913940429688
50.972297668457031 -117.04831695556641 -131.64105224609375
52.792243957519531 -116.52305603027344 -131.62516784667969
53.307605743408203 -116.24370574951172 -131.62467956542969
54.631366729736328 -115.57386779785156 -131.62405395507812
56.468509674072266 -114.73976898193359 -131.62448120117188
58.288089752197266 -114.4273681640625 -131.61143493652344
60.075462341308594 -114.57776641845703 -131.58343505859375
61.374965667724609 -115.91960144042969 -131.51365661621094
61.726066589355469 -116.42310333251953 -131.48780822753906
62.381031036376953 -117.65178680419922 -131.42623901367188
63.270503997802734 -119.32277679443359 -131.34437561035156
63.319843292236328 -119.39389801025391 -131.34089660644531
63.780002593994141 -121.19894409179688 -131.26998901367188
64.734794616699219 -123.00051879882812 -131.21156311035156
64.8973388671875 -123.20351409912109 -131.20600891113281
66.0137939453125 -124.83728790283203 -131.17567443847656
66.774749755859375 -125.85104370117188 -131.16818237304688
67.490928649902344 -126.73494720458984 -131.16877746582031
68.834953308105469 -128.35635375976562 -131.18571472167969
69.175056457519531 -128.71495056152344 -131.19218444824219
73.113883972167969 -131.58544921875 -128.91236877441406
75.067115783691406 -131.02194213867188 -128.92921447753906
75.231880187988281 -130.83651733398438 -128.929931640625
76.577720642089844 -128.84458923339844 -128.93782043457031
76.843414306640625 -128.49369812011719 -128.94047546386719
77.930007934570312 -126.89347839355469 -128.95394897460938
78.75177001953125 -125.53904724121094 -128.96733093261719
79.167388916015625 -124.9888916015625 -128.97427368164062
80.0731201171875 -123.09786987304688 -128.9947509765625
80.352348327636719 -121.19866943359375 -129.01341247558594
80.776153564453125 -120.265869140625 -129.02543640136719
81.230575561523438 -119.33773040771484 -129.03750610351562
81.688262939453125 -117.47995758056641 -129.05966186523438
82.273574829101562 -115.63539123535156 -129.08102416992188
82.862144470214844 -113.78458404541016 -129.10025024414062
82.898933410644531 -111.93553161621094 -129.11863708496094
82.932807922363281 -110.09313201904297 -129.13520812988281
82.960182189941406 -108.24580383300781 -129.1494140625
82.980400085449219 -106.41014099121094 -129.16075134277344
82.996566772460938 -104.57392883300781 -129.16921997070312
82.88226318359375 -102.72885894775391 -129.17596435546875
82.09442138671875 -100.9188232421875 -129.18531799316406
81.574638366699219 -99.094978332519531 -129.19013977050781
81.154296875 -98.528556823730469 -129.1932373046875
80.317543029785156 -97.2991943359375 -129.19868469238281
79.368133544921875 -95.480575561523438 -129.20268249511719
79.186737060546875 -95.2794189453125 -129.20365905761719
78.089210510253906 -93.660255432128906 -129.20774841308594
77.296958923339844 -92.612136840820312 -129.21055603027344
76.593879699707031 -91.815925598144531 -129.21328735351562
75.448806762695312 -90.72998046875 -129.21835327148438
74.378982543945312 -89.947052001953125 -129.22395324707031
73.618476867675781 -89.329048156738281 -129.22755432128906
71.691970825195312 -89.246742248535156 -129.24488830566406
69.767311096191406 -89.714874267578125 -129.26748657226562
69.142127990722656 -90.148643493652344 -129.27757263183594
67.828262329101562 -91.020416259765625 -129.29988098144531
65.956428527832031 -91.991096496582031 -129.331298828125
65.745079040527344 -92.183311462402344 -129.33586120605469
64.118240356445312 -93.344482421875 -129.36793518066406
63.069683074951172 -94.080101013183594 -129.38832092285156
62.31170654296875 -94.675910949707031 -129.40351867675781
60.511608123779297 -95.487571716308594 -129.42819213867188
59.994693756103516 -95.851638793945312 -129.43611145019531
58.708282470703125 -96.675018310546875 -129.45201110839844
57.551971435546875 -97.610183715820312 -129.46534729003906
56.885936737060547 -98.154037475585938 -129.47122192382812
55.231582641601562 -99.377494812011719 -129.47789001464844
55.041130065917969 -99.531944274902344 -129.47822570800781
53.217430114746094 -101.16761016845703 -129.47637939453125
53.159439086914062 -101.22322082519531 -129.47616577148438
51.27105712890625 -102.68585205078125 -129.46058654785156
50.968852996826172 -102.96676635742188 -129.45741271972656
49.365440368652344 -104.52418518066406 -129.43681335449219
49.061958312988281 -104.81843566894531 -129.43223571777344
48.020912170410156 -106.71096038818359 -129.413818359375
47.429470062255859 -107.66274261474609 -129.40130615234375
46.849254608154297 -108.60720825195312 -129.38787841796875
45.522666931152344 -110.191162109375 -129.35894775390625
45.221172332763672 -110.51225280761719 -129.35263061523438
44.237144470214844 -112.43125152587891 -129.32478332519531
43.626720428466797 -113.3966064453125 -129.30949401855469
43.075504302978516 -114.35506439208984 -129.29519653320312
43.630275726318359 -115.55490875244141 -129.28565979003906
44.231964111328125 -116.31482696533203 -129.27888488769531
45.514759063720703 -117.08478546142578 -129.27116394042969
47.069187164306641 -116.32869720458984 -129.28701782226562
47.373462677001953 -116.14234161376953 -129.29110717773438
49.231693267822266 -115.90805053710938 -129.29827880859375
51.0660400390625 -115.89979553222656 -129.29818725585938
52.890983581542969 -115.52210235595703 -129.30686950683594
54.722419738769531 -114.9539794921875 -129.32220458984375
55.63836669921875 -114.36366271972656 -129.34074401855469
56.568656921386719 -113.74634552001953 -129.36051940917969
58.39764404296875 -113.220458984375 -129.37506103515625
59.794212341308594 -114.23564910888672 -129.33186340332031
60.116233825683594 -114.49167633056641 -129.31991577148438
61.528427124023438 -115.96871185302734 -129.24758911132812
61.767353057861328 -116.26950836181641 -129.23231506347656
62.718620300292969 -117.69971466064453 -129.15953063964844
63.33441162109375 -118.70648956298828 -129.10894775390625
63.848407745361328 -119.43482971191406 -129.07292175292969
64.5833740234375 -121.22468566894531 -128.996337890625
64.924980163574219 -121.74292755126953 -128.9759521484375
65.743949890136719 -123.01432800292969 -128.93290710449219
66.694572448730469 -124.16869354248047 -128.9027099609375
67.333839416503906 -124.83818054199219 -128.88983154296875
68.483001708984375 -126.75238800048828 -128.86900329589844
68.673110961914062 -126.98089599609375 -128.86817932128906
69.98974609375 -128.7359619140625 -128.870849609375
70.882461547851562 -129.81622314453125 -128.88034057617188
71.996444702148438 -130.77751159667969 -128.89541625976562
73.407829284667969 -133.58380126953125 -126.54668426513672
75.359046936035156 -133.13319396972656 -126.55779266357422
75.517860412597656 -132.93399047851562 -126.55880737304688
77.145713806152344 -131.11016845703125 -126.57133483886719
77.327598571777344 -130.92817687988281 -126.57285308837891
78.119651794433594 -128.93070983886719 -126.58607482910156
78.894332885742188 -127.60210418701172 -126.59780883789062
79.287467956542969 -126.98046112060547 -126.60367584228516
80.141677856445312 -125.05898284912109 -126.62202453613281
80.743171691894531 -123.15168762207031 -126.64155578613281
80.807815551757812 -123.03656005859375 -126.6427001953125
81.693290710449219 -121.28388977050781 -126.65972900390625
81.651031494140625 -119.37605285644531 -126.68302917480469
82.224258422851562 -117.51978302001953 -126.70152282714844
82.811225891113281 -115.67070007324219 -126.71754455566406
82.848808288574219 -113.80289459228516 -126.73823547363281
82.890274047851562 -111.95304107666016 -126.75729370117188
82.9293212890625 -110.10903930664062 -126.77423858642578
82.962455749511719 -108.25930023193359 -126.7886962890625
82.989013671875 -106.42047119140625 -126.80015563964844
83.012039184570312 -104.58037567138672 -126.80838012695312
82.904914855957031 -102.73074340820312 -126.81565856933594
82.124382019042969 -100.91514587402344 -126.83267974853516
81.612129211425781 -99.085289001464844 -126.84054565429688
81.192657470703125 -98.564491271972656 -126.84760284423828
80.340972900390625 -97.28350830078125 -126.85981750488281
79.208793640136719 -95.812545776367188 -126.87410736083984
78.917457580566406 -95.492317199707031 -126.877685546875
77.597824096679688 -93.669502258300781 -126.88768768310547
77.294677734375 -93.383132934570312 -126.890625
75.723213195800781 -91.843559265136719 -126.90215301513672
75.432182312011719 -91.547164916992188 -126.90352630615234
73.606376647949219 -90.014961242675781 -126.91268920898438
73.482131958007812 -89.958793640136719 -126.91387176513672
71.746208190917969 -89.225555419921875 -126.92926025390625
69.819816589355469 -89.672218322753906 -126.96804046630859
69.1932373046875 -90.105857849121094 -126.98671722412109
67.875785827636719 -90.977737426757812 -127.02528381347656
65.998046875 -91.949432373046875 -127.07247924804688
65.785919189453125 -92.141731262207031 -127.07957458496094
64.15325927734375 -93.303924560546875 -127.12403106689453
63.101058959960938 -94.040283203125 -127.14926147460938
62.34051513671875 -94.636566162109375 -127.16699981689453
60.533588409423828 -95.668914794921875 -127.19170379638672
60.330039978027344 -95.83477783203125 -127.19480133056641
58.727016448974609 -96.964309692382812 -127.20851135253906
58.073936462402344 -97.608787536621094 -127.21403503417969
56.899215698242188 -99.107658386230469 -127.22246551513672
56.606594085693359 -99.430610656738281 -127.22208404541016
55.311061859130859 -101.252685546875 -127.21652221679688
55.042861938476562 -101.57841491699219 -127.21299743652344
53.952667236328125 -103.08000183105469 -127.19351959228516
53.143802642822266 -104.39821624755859 -127.17224884033203
52.7540283203125 -104.93838500976562 -127.15998840332031
52.019130706787109 -106.81607055664062 -127.12701416015625
51.225990295410156 -108.09352111816406 -127.09058380126953
50.835369110107422 -108.69070434570312 -127.07175445556641
50.458908081054688 -110.60309600830078 -127.02920532226562
51.175556182861328 -112.04074096679688 -127.01293182373047
51.586807250976562 -112.52212524414062 -127.00860595703125
52.996990203857422 -113.41962432861328 -127.00717163085938
54.832866668701172 -113.21706390380859 -127.04220581054688
56.644039154052734 -113.19384002685547 -127.06675720214844
58.440250396728516 -113.24065399169922 -127.082763671875
59.951248168945312 -114.26290130615234 -127.0499267578125
60.159439086914062 -114.4324951171875 -127.04344177246094
61.843505859375 -115.71484375 -126.98894500732422
62.083930969238281 -115.9898681640625 -126.97616577148438
63.449886322021484 -117.55155944824219 -126.90076446533203
63.598289489746094 -117.70927429199219 -126.89299011230469
64.29241943359375 -119.47895812988281 -126.80942535400391
65.003646850585938 -120.49161529541016 -126.76356506347656
65.544891357421875 -121.24026489257812 -126.73171234130859
66.534049987792969 -123.04547119140625 -126.66450500488281
66.7071533203125 -123.24858856201172 -126.65785217285156
67.774971008300781 -124.88883972167969 -126.61147308349609
68.637214660644531 -126.36374664306641 -126.58056640625
68.945518493652344 -126.79877471923828 -126.57351684570312
69.853569030761719 -128.78802490234375 -126.54901885986328
70.950675964355469 -130.35153198242188 -126.5413818359375
71.302017211914062 -130.81340026855469 -126.54069519042969
72.6168212890625 -132.89108276367188 -126.54233551025391
72.892677307128906 -129.90843200683594 -124.208740234375
74.9666748046875 -130.31381225585938 -124.20253753662109
77.109565734863281 -130.72334289550781 -124.19375610351562
78.263496398925781 -128.97256469726562 -124.21452331542969
78.088386535644531 -126.95906829833984 -124.24691772460938
78.216728210449219 -125.00229644775391 -124.28033447265625
78.056053161621094 -123.06563568115234 -124.31935882568359
78.577178955078125 -122.01030731201172 -124.33316802978516
79.015380859375 -121.20101165771484 -124.34205627441406
79.850502014160156 -119.34026336669922 -124.36151123046875
80.781959533691406 -118.09630584716797 -124.36361694335938
81.244964599609375 -117.51769256591797 -124.36270904541016
81.861495971679688 -115.67326354980469 -124.37510681152344
82.741226196289062 -113.82625579833984 -124.37661743164062
82.921096801757812 -111.97569274902344 -124.39198303222656
83.097625732421875 -110.12779998779297 -124.40444946289062
83.1669921875 -110.00471496582031 -124.40355682373047
84.058517456054688 -108.26572418212891 -124.39154815673828
84.122749328613281 -106.41091918945312 -124.40003967285156
84.097702026367188 -104.55556488037109 -124.4075927734375
83.743240356445312 -102.69747924804688 -124.42092132568359
83.316986083984375 -101.90167999267578 -124.43360137939453
82.801063537597656 -100.87250518798828 -124.44789123535156
82.076622009277344 -99.039688110351562 -124.46360015869141
81.291587829589844 -98.140663146972656 -124.48271179199219
80.517486572265625 -97.241462707519531 -124.50004577636719
79.288459777832031 -96.079116821289062 -124.52711486816406
78.600830078125 -95.471725463867188 -124.54127502441406
77.330528259277344 -94.300453186035156 -124.56341552734375
76.6778564453125 -93.680343627929688 -124.57247161865234
75.438941955566406 -92.680526733398438 -124.58917236328125
73.978042602539062 -91.886573791503906 -124.61192321777344
73.561004638671875 -91.61297607421875 -124.61620330810547
71.656753540039062 -91.300514221191406 -124.65631866455078
69.781585693359375 -91.23358154296875 -124.69694519042969
67.907783508300781 -91.661033630371094 -124.74717712402344
67.079574584960938 -92.083541870117188 -124.77519989013672
66.034294128417969 -92.565528869628906 -124.80641174316406
64.213310241699219 -93.141754150390625 -124.84310150146484
63.15130615234375 -93.972694396972656 -124.87590026855469
62.385978698730469 -94.571182250976562 -124.89584350585938
60.570064544677734 -95.608879089355469 -124.91704559326172
60.402313232421875 -95.777633666992188 -124.92023468017578
58.752403259277344 -97.421440124511719 -124.93813323974609
58.584259033203125 -97.587417602539062 -124.93855285644531
57.679798126220703 -99.445091247558594 -124.95395660400391
56.914314270019531 -100.69162750244141 -124.94895935058594
56.534564971923828 -101.27161407470703 -124.94256591796875
55.056671142578125 -102.90390014648438 -124.89808654785156
54.874771118164062 -103.07994842529297 -124.89125823974609
53.771034240722656 -104.93869018554688 -124.84050750732422
53.161590576171875 -105.7154541015625 -124.80842590332031
52.328384399414062 -106.79180145263672 -124.76044464111328
51.648880004882812 -108.68215179443359 -124.70011901855469
51.629776000976562 -110.60143280029297 -124.65457153320312
52.905811309814453 -112.51889801025391 -124.63984680175781
53.073005676269531 -112.69483184814453 -124.63902282714844
54.897708892822266 -113.16766357421875 -124.67570495605469
56.702003479003906 -113.19761657714844 -124.72265625
58.492469787597656 -113.19331359863281 -124.76381683349609
60.269779205322266 -113.20287322998047 -124.79518890380859
61.760147094726562 -114.21767425537109 -124.7686767578125
61.974575042724609 -114.38607025146484 -124.76309204101562
63.353164672851562 -115.96787261962891 -124.69954681396484
63.593692779541016 -116.21519470214844 -124.68910217285156
64.972175598144531 -117.68795013427734 -124.62398529052734
65.194175720214844 -118.08391571044922 -124.60572052001953
65.895088195800781 -119.45098114013672 -124.54308319091797
66.512168884277344 -121.2620849609375 -124.46312713623047
66.781768798828125 -121.66530609130859 -124.44647979736328
67.608871459960938 -123.07141876220703 -124.39131927490234
68.333656311035156 -124.94661712646484 -124.32550811767578
68.635231018066406 -125.38093566894531 -124.31216430664062
69.607345581054688 -126.85454559326172 -124.2711181640625
70.711685180664062 -128.01312255859375 -124.24433898925781
71.640411376953125 -128.8272705078125 -124.22800445556641
73.294593811035156 -132.16181945800781 -121.78794097900391
75.177597045898438 -131.26460266113281 -121.80466461181641
75.60015869140625 -130.96907043457031 -121.80953979492188
77.108360290527344 -130.14524841308594 -121.81784057617188
78.623268127441406 -129.04437255859375 -121.82649230957031
78.734481811523438 -127.04650115966797 -121.86932373046875
78.874740600585938 -126.31454467773438 -121.88365173339844
79.103477478027344 -125.10030364990234 -121.90703582763672
79.357925415039062 -123.17733764648438 -121.94470977783203
78.658119201660156 -121.83824920654297 -121.99159240722656
78.338478088378906 -121.23482513427734 -122.01375579833984
78.647659301757812 -120.45166015625 -122.02355194091797
79.100776672363281 -119.36823272705078 -122.03419494628906
79.960723876953125 -117.52591705322266 -122.04334259033203
80.898330688476562 -116.28054809570312 -122.03279113769531
81.362274169921875 -115.70006561279297 -122.02547454833984
81.985450744628906 -113.84576416015625 -122.02799987792969
82.862815856933594 -112.00138854980469 -122.01580047607422
83.176490783691406 -110.14788818359375 -122.02027893066406
83.246170043945312 -110.02428436279297 -122.01856994628906
84.142608642578125 -108.27796173095703 -121.99594879150391
84.212844848632812 -106.41529083251953 -122.00161743164062
84.250701904296875 -104.54997253417969 -122.00441741943359
84.260688781738281 -102.67018890380859 -122.00362396240234
83.454132080078125 -100.93961334228516 -122.03013610839844
83.391281127929688 -100.82666015625 -122.03211212158203
83.193115234375 -98.951866149902344 -122.02808380126953
81.783004760742188 -97.121070861816406 -122.06539154052734
81.481269836425781 -96.845710754394531 -122.07391357421875
79.788139343261719 -95.33221435546875 -122.11830902099609
79.484642028808594 -95.065872192382812 -122.12553405761719
77.721725463867188 -93.533096313476562 -122.16176605224609
77.5357666015625 -93.365142822265625 -122.16475677490234
75.6405029296875 -91.879524230957031 -122.19326782226562
75.420082092285156 -91.709136962890625 -122.1956787109375
73.785888671875 -90.512725830078125 -122.20906829833984
71.871780395507812 -90.178970336914062 -122.25238037109375
69.972259521484375 -90.212371826171875 -122.30175018310547
68.077217102050781 -90.633354187011719 -122.35929870605469
66.19598388671875 -91.186424255371094 -122.41206359863281
65.176483154296875 -91.945213317871094 -122.45706176757812
64.313392639160156 -92.570106506347656 -122.49042510986328
62.479751586914062 -93.437156677246094 -122.52597045898438
61.942665100097656 -93.817054748535156 -122.53805541992188
60.638759613037109 -94.674293518066406 -122.55553436279297
59.557365417480469 -95.640571594238281 -122.56935882568359
58.803218841552734 -96.498291015625 -122.57820129394531
57.991950988769531 -97.475196838378906 -122.58113861083984
57.415904998779297 -99.361892700195312 -122.60305023193359
56.9501953125 -100.28061676025391 -122.59832763671875
56.483119964599609 -101.20829772949219 -122.58774566650391
55.354942321777344 -103.0478515625 -122.53977966308594
55.086154937744141 -103.47341156005859 -122.52503204345703
54.190681457519531 -104.90705871582031 -122.46780395507812
53.507278442382812 -106.78551483154297 -122.40327453613281
53.611568450927734 -108.6895751953125 -122.36434173583984
55.011119842529297 -109.99336242675781 -122.39127349853516
56.829376220703125 -110.34196472167969 -122.45703887939453
58.642269134521484 -110.25294494628906 -122.52721405029297
59.536792755126953 -110.60718536376953 -122.54175567626953
60.415756225585938 -110.97416687011719 -122.55138397216797
62.169795989990234 -111.80220031738281 -122.55508422851562
62.711833953857422 -112.37641906738281 -122.54003143310547
63.81622314453125 -113.83065032958984 -122.49179840087891
64.056144714355469 -114.14688873291016 -122.4803466796875
65.259765625 -115.91534423828125 -122.41043090820312
65.406837463378906 -116.11267852783203 -122.40229797363281
66.365852355957031 -117.6741943359375 -122.33484649658203
66.996376037597656 -118.69725036621094 -122.28940582275391
67.527816772460938 -119.43972778320312 -122.25617980957031
68.059188842773438 -121.26863098144531 -122.17397308349609
68.616378784179688 -123.11906433105469 -122.09354400634766
68.673789978027344 -123.23322296142578 -122.08876800537109
69.491455078125 -124.99848175048828 -122.01719665527344
69.9365234375 -126.93850708007812 -121.94406127929688
70.902008056640625 -128.79769897460938 -121.88214111328125
70.974418640136719 -128.92034912109375 -121.87831878662109
71.95758056640625 -130.94100952148438 -121.8194580078125
73.445716857910156 -132.28237915039062 -119.37439727783203
75.388992309570312 -131.83607482910156 -119.37854766845703
76.500686645507812 -131.07351684570312 -119.39165496826172
77.292221069335938 -130.553466796875 -119.39757537841797
79.337959289550781 -129.71495056152344 -119.38884735107422
79.892036437988281 -129.17196655273438 -119.39274597167969
80.108688354492188 -127.18122863769531 -119.43967437744141
79.478736877441406 -125.19163513183594 -119.50758361816406
78.872764587402344 -123.92507934570312 -119.55839538574219
78.521171569824219 -123.22184753417969 -119.58785247802734
78.047500610351562 -121.30133056640625 -119.65478515625
78.481254577636719 -119.41934967041016 -119.68685913085938
78.806533813476562 -119.00430297851562 -119.68408203125
79.852340698242188 -117.58095550537109 -119.67166900634766
80.500686645507812 -115.73113250732422 -119.6759033203125
81.075393676757812 -114.69175720214844 -119.66546630859375
81.543922424316406 -113.87844085693359 -119.65467071533203
82.031768798828125 -112.02519226074219 -119.65225982666016
82.625831604003906 -110.16891479492188 -119.63962554931641
83.214935302734375 -108.29621887207031 -119.62239074707031
83.259513854980469 -106.43217468261719 -119.62641906738281
83.304756164550781 -104.56451416015625 -119.62538909912109
83.222732543945312 -102.68478393554688 -119.62477111816406
81.946357727050781 -100.85408782958984 -119.67649078369141
81.49871826171875 -100.32366180419922 -119.69416046142578
80.5572509765625 -99.035018920898438 -119.72686767578125
79.508766174316406 -97.887184143066406 -119.76227569580078
78.821640014648438 -97.224197387695312 -119.78453826904297
77.54400634765625 -96.044937133789062 -119.82167053222656
76.885307312011719 -95.423667907714844 -119.83738708496094
75.64111328125 -94.3050537109375 -119.86194610595703
74.76422119140625 -93.602790832519531 -119.87664794921875
73.769134521484375 -92.877182006835938 -119.89059448242188
72.133682250976562 -91.745323181152344 -119.90328979492188
71.920989990234375 -91.557960510253906 -119.90188598632812
70.069862365722656 -90.856010437011719 -119.92268371582031
68.235885620117188 -90.242530822753906 -119.93032073974609
66.379417419433594 -90.087844848632812 -119.94644165039062
64.517562866210938 -90.4486083984375 -119.97545623779297
62.666412353515625 -90.873786926269531 -119.98982238769531
61.258415222167969 -91.659591674804688 -120.01367950439453
60.790687561035156 -91.924270629882812 -120.01870727539062
58.943088531494141 -92.648269653320312 -120.00572967529297
57.946670532226562 -93.463653564453125 -120.00984954833984
57.07598876953125 -94.168426513671875 -120.00531005859375
56.037239074707031 -95.311767578125 -120.00233459472656
55.194900512695312 -96.651588439941406 -120.00346374511719
54.799560546875 -97.185859680175781 -119.99655151367188
54.408340454101562 -99.110115051269531 -120.01808166503906
53.925624847412109 -101.00875854492188 -120.01243591308594
53.329814910888672 -102.89874267578125 -119.97869110107422
53.271663665771484 -103.02400970458984 -119.97452545166016
52.524074554443359 -104.7938232421875 -119.91214752197266
52.579074859619141 -106.71218872070312 -119.88502502441406
53.239894866943359 -107.69068908691406 -119.90413665771484
55.091190338134766 -108.30471801757812 -119.99825286865234
55.999858856201172 -108.68758392333984 -120.03756713867188
56.912490844726562 -109.09416961669922 -120.07261657714844
58.723232269287109 -109.36271667480469 -120.15003967285156
60.523658752441406 -109.47245025634766 -120.21666717529297
62.310195922851562 -109.94525146484375 -120.25129699707031
63.037616729736328 -110.53501129150391 -120.24574279785156
64.036529541015625 -111.23488616943359 -120.23674011230469
65.443367004394531 -112.29727172851562 -120.21145629882812
65.733283996582031 -112.61423492431641 -120.20127105712891
66.665580749511719 -114.07167053222656 -120.148681640625
67.317085266113281 -115.59255981445312 -120.08861541748047
67.462600708007812 -115.86639404296875 -120.077392578125
67.459632873535156 -117.68985748291016 -119.99947357177734
67.628921508789062 -119.51915740966797 -119.91683197021484
68.286537170410156 -121.35584259033203 -119.83382415771484
68.836532592773438 -122.36274719238281 -119.78849029541016
69.331298828125 -123.19798278808594 -119.75065612792969
70.051010131835938 -125.09205627441406 -119.66471099853516
70.84039306640625 -126.34101867675781 -119.60928344726562
71.292884826660156 -127.01842498779297 -119.57958221435547
72.109245300292969 -129.01031494140625 -119.49655151367188
72.673591613769531 -131.03288269042969 -119.41931915283203
70.463485717773438 -137.68605041503906 -116.73219299316406
72.394241333007812 -137.80633544921875 -116.73726654052734
74.372962951660156 -137.92576599121094 -116.73497772216797
74.855674743652344 -137.34059143066406 -116.75102233886719
76.083778381347656 -135.75495910644531 -116.79398345947266
76.467811584472656 -135.28305053710938 -116.80616760253906
76.57366943359375 -133.21563720703125 -116.87380981445312
76.837471008300781 -131.18121337890625 -116.94245147705078
77.135879516601562 -129.17256164550781 -117.01038360595703
77.078041076660156 -127.172119140625 -117.0845947265625
77.132858276367188 -127.05203247070312 -117.08766174316406
77.840736389160156 -125.23123168945312 -117.1324462890625
77.980316162109375 -123.29994964599609 -117.19062805175781
78.672584533691406 -121.40564727783203 -117.22052764892578
78.800849914550781 -119.50582122802734 -117.26375579833984
78.972740173339844 -117.6319580078125 -117.29763793945312
79.040916442871094 -117.51798248291016 -117.29676818847656
79.930061340332031 -115.77860260009766 -117.28495788574219
79.958396911621094 -113.90788269042969 -117.31072998046875
80.273422241210938 -112.05252075195312 -117.31526947021484
80.963340759277344 -110.19481658935547 -117.29279327392578
81.258781433105469 -108.32414245605469 -117.28593444824219
81.172592163085938 -106.46452331542969 -117.29463195800781
80.455177307128906 -104.61824798583984 -117.33326721191406
79.526741027832031 -103.05949401855469 -117.37911987304688
79.33526611328125 -102.77902984619141 -117.38816070556641
78.513664245605469 -100.94186401367188 -117.41665649414062
77.603233337402344 -99.382667541503906 -117.44388580322266
77.42767333984375 -99.110397338867188 -117.44854736328125
75.987327575683594 -97.273994445800781 -117.48426818847656
75.705299377441406 -96.994117736816406 -117.49125671386719
74.1182861328125 -95.443893432617188 -117.52011871337891
73.83282470703125 -95.1689453125 -117.52328491210938
72.166648864746094 -93.574920654296875 -117.52778625488281
71.989891052246094 -93.399436950683594 -117.52646636962891
70.150680541992188 -92.291702270507812 -117.53281402587891
69.326614379882812 -91.659744262695312 -117.52027893066406
68.350959777832031 -90.894035339355469 -117.49700927734375
66.497657775878906 -90.463981628417969 -117.49555206298828
64.630378723144531 -90.683708190917969 -117.51478576660156
62.753734588623047 -91.385910034179688 -117.54338073730469
62.529052734375 -91.574302673339844 -117.5516357421875
60.858924865722656 -92.717582702636719 -117.58393096923828
59.858997344970703 -93.454490661621094 -117.59407043457031
58.981082916259766 -94.3316650390625 -117.6060791015625
58.235443115234375 -95.339385986328125 -117.61995697021484
57.097633361816406 -96.887092590332031 -117.62187957763672
56.819255828857422 -97.210350036621094 -117.61691284179688
