# XYZ point cloud file
0.19254889845458045 0.9923947389213903 -0.33913942233995176
0.57281821440436609 -0.10358749044528004 0.43293103946867184
0.14760717638386733 0.95275272752636475 -0.30044981732023501
-0.26872689154807095 -0.58368759088442168 0.41103899674372535
0.43711184976373829 -0.19912043517071076 0.30131506411564146
-0.12491481894301248 -0.14665381827646007 0.7570094891200867
-0.26802878430953392 0.62992993444893486 0.45924681046841176
0.57696128745595132 0.92190685170872566 -0.39133104524333451
-0.45175515745954264 -0.78992071893553817 -0.31806526104580701
0.10794673174007308 0.63284616587645948 0.65157605644906091
0.21683796072272976 0.75188130194921188 -0.43891739990004019
-0.18830310619388246 0.43632331903646993 0.78784716884383066
-0.3956482383327744 -0.047058408967024956 0.79263111128396257
-0.096316365599334652 -0.38142349463962066 -0.55554563038287963
0.74901522771161666 -0.34786860633540861 0.68653891146544499
0.56784519115545962 -0.14270409273889229 0.62892808592376515
-0.11123037243853151 0.466102542949133 0.77368822849479368
-0.72536230210655717 -0.77903014265273551 -0.4934209396220961
-0.87515223430689915 -0.81525893283515982 -0.49082227918117116
0.034134362440624955 0.76006938429853399 0.67297717514078315
0.21788564930606658 0.67746301833001565 0.4926008415105958
0.42887881371310854 0.61809957437118346 -0.2446751032633987
0.053969884875112228 0.40896967483852009 0.82544884536915664
-0.63017282573804057 -0.49474523024827066 0.54357265583244985
-0.98814221770828148 -0.95459428786708145 -0.56783319590086645
-0.032871123776953226 0.22303962923426202 0.77077473007419695
0.51402339293449995 -0.6646993629324589 0.53098428724080193
-0.51326484088470803 0.029840621029629588 0.76848595977304957
0.7861575359528743 -0.34030150180080998 0.47001231007739452
-1.0159337858275075 -0.71576826509645297 -0.36769190705116461
0.3082455771255912 0.66339987813899581 -0.1587410322078977
-0.64699251187323625 -0.31479286144817653 0.64567594599029654
-0.20318974193600425 0.52299673155891169 0.73913993249400978
0.46577184691509643 -0.28706147677820226 0.37687474638929608
0.30345129586792918 -0.11295335085901126 0.74209783175070854
0.28632484373285205 0.7160735675617067 -0.26333706571554671
-0.15697853088070435 -0.52866213338830903 -0.36117717430660079
-0.02634797430841207 0.37379500816280675 0.78009734151908461
0.30086234241751786 0.10650470435568193 -0.3805095778183416
0.054026856843043092 -0.25789903016703208 -0.29626300919967008
-0.77821937706718636 -0.65168707221533761 -0.43970054601100106
-0.54436358891586334 0.51622655694281372 0.28370531355503648
0.082276829609416957 -0.019535055386018296 0.76855083615272246
-0.34612401343085519 -0.24863422032450044 0.79294349338391967
0.32761775225239198 -0.16501274615442529 0.78140765153757918
0.76363940624362669 -0.48240996034784533 0.62594864417116014
-0.6752055194527653 -0.20365729045850101 0.73283983480479709
-0.43091884456316265 0.079301585382048678 0.79000093913352565
-0.15638602952340008 0.486818901077402 0.82500179850604916
0.52110643074424701 0.71283023193718487 -0.18317378932934325
-0.45244327869404088 -0.76069793790253781 -0.2412702266206761
-0.68365352794868084 0.18780841313009544 0.37933230644101101
-0.55242128770275656 0.5599813056744769 0.31233373611602566
-0.084202447127907476 0.41785247210596932 0.83074629340284911
0.33315408470231755 0.73481600297975147 -0.25284048679763416
0.12638759638550301 0.6897953577308753 0.56377466901531204
0.42310871721718257 -0.045120225674853742 0.26214214937206748
-0.17443903077092493 -0.047091358766304658 0.81057682552391963
0.50970750271175991 -0.70128236037272629 0.43727044243543034
0.77665775972591788 -0.33726572944424849 0.66259188101995736
-0.83761747503238571 -0.24361534492855208 -0.35755117834725247
-0.20727813015218111 -0.1380560184876316 0.76375039271426282
-0.53976248573426489 -0.26152177009504829 0.64301181287739251
0.21469191919228248 0.54292316731536605 0.61684455499872648
0.17459088349019858 0.51296573743575991 -0.37945937496658111
0.52180483957710155 0.76879358943557374 -0.33473908269950758
-0.67231444149851516 -0.7702606008087205 -0.40284864379314644
0.38043727113492576 0.80345841540175789 -0.28691327408964984
0.33563661179887472 -0.061519178957688769 0.65885344066845253
0.74988387272621448 -0.13768357888920324 0.57435245550375047
-0.063201663631541116 0.20397140226764554 0.71769507649584696
0.68316386528524831 -0.48062371479817134 0.63435163875862877
-0.40469579388565791 -0.76394708256498589 -0.1113333442009381
-0.21129135336101612 0.41988255302346644 0.77541995152961984
-0.36445018781399963 -0.36123511998483337 0.57651092313010643
0.88246777335231741 -0.38371142645039402 0.56914296292592859
0.70692521055089408 -0.5504778319449164 0.62814283183817388
0.87373891554345562 -0.19548283803961164 0.43220506656705027
-0.040735666888635613 -0.11185180771591696 0.62726002198595854
0.020625180267017207 0.94055747670758194 0.053727014424780783
-0.33408041315673387 -0.65804980651644041 -0.21382227340869697
3.6510849259485667e-06 0.68168644271099055 -0.53374132198147528
-0.48754105721342356 -0.033663563106987038 0.80071402507067724
0.38080398744159361 1.0878667410931002 -0.45581218475287777
0.27338609448727613 -0.14889481219434808 0.75191352897847352
-0.037311955441587941 0.34782603699862191 0.71002711344344949
-0.93225178520044949 0.058085094193740083 0.098656784242661999
-0.31960831980420501 -0.62706684331383888 -0.1430436481530748
-0.48231948271261693 -0.44710410779480902 0.68659379513871421
-0.52370339757042128 -0.14777687452354993 0.83328044529155321
-0.36863642534401553 -0.62684008224538212 -0.13288428168372413
0.22736175430785543 0.14316751086021995 0.43911033841116431
0.26960490717195285 -0.27310849732956477 0.72428420302201602
-0.64734287554478431 -0.35469489147048128 0.62833976186747709
-0.5360622755172848 -0.47700997961876768 0.50366825946219329
-0.6433587959242324 -0.46213019206763928 0.61435708300640979
0.19951344050172182 0.33847365369464288 0.68599030232731284
0.092427165808459222 -0.25706713869796793 0.65630010838149389
0.10911539526978231 1.0784006823840211 -0.3598270069010816
-0.59588939484907044 -0.80674159231997322 -0.34164331271844617
0.22767050277631995 0.94250925819963616 -0.16411045219005871
0.36056253670590266 -0.27442266194202958 0.67462684636062242
-0.43673445863607974 0.20093523582920314 0.65639139352482445
0.018058420535078668 0.45994612770260979 0.83761430801840842
0.32052200248835483 -0.3924901854455678 0.69398547243992859
-0.27366286275142837 0.53661003932045137 0.55545207486441495
0.20374809385268655 1.1221180704843432 -0.46098066419153927
-0.67257154874472569 -0.20994661863800079 0.69799238563106503
0.091437219456746988 -0.3895767732395905 0.57791746258699472
-0.33048463321736943 0.35134023954725624 0.52477011139375662
-0.69161643293817576 -0.98230465200807826 -0.4876414423277553
-0.11915010593795472 -0.016780838973076584 0.80098630599392351
0.70369409367792812 -0.30794116109172398 0.65281519099332463
0.24183878511998902 -0.093894791101926778 0.81246740194560108
0.31020550822684267 0.71074491911125248 -0.24755593909502327
-0.58300527469924468 -0.68382115167493929 -0.28264359830734787
-0.87393111744578977 -0.70924460064700234 -0.32888327588818811
0.34356840404362554 0.3832384237594213 -0.30739339234255691
0.59848107221723623 -0.13491400333963544 0.43781354450739762
0.099611420338467482 0.83567128984352035 0.10879070710783001
-0.40224713566918613 -0.38187097023356253 0.64934621199753995
0.44101067045700226 -0.46765261445621675 0.6411718259158139
-0.029809081756744682 0.18265319721376416 0.7229267247371105
-0.82044792869394723 -0.56993206223266712 -0.33460292775055489
-0.89027900034397511 -0.074825873372287077 -0.36793163197311962
-0.17995794269828735 0.72039873124370768 0.46820758327178247
0.62622277187126052 -0.64530113229546693 0.57612453891247295
-0.02996766406844209 1.1013033098696767 -0.2889977297626718
0.66353479794588122 -0.10215836577232373 0.5395339741386822
0.25579785159330193 0.82100442735764512 -0.12525649305228637
0.4611614784742315 0.0077987304087985265 0.31564793526209556
-0.33304365319956997 0.010404207992253944 0.81967182485453005
0.24157191126933775 -0.085166891499480979 0.74586078371547515
0.060289539591081187 0.61542416593863303 0.62083907511252701
0.28102911910412676 -0.11224786300392697 0.81153041334201603
0.23919693945068587 -0.017719416900177087 0.83084995278339502
-0.095908470201779394 0.18450992678724898 0.74360576757651664
0.034740054193342473 0.5741370679090787 0.78857061195007727
0.73788223780546858 -0.37148311635919917 0.61744828529750428
0.62215730619557874 -0.41210659846011399 0.71028098515735039
-0.25666868618280958 0.11074548982832955 0.79152273243470095
-0.78619454623070606 -0.90325952663312892 -0.51543551366017404
0.027206032144469816 -0.060701395740305308 0.69424351968869225
-0.0043084483057311829 0.36168397939334263 0.80743767239331721
-0.11316108444222284 0.34696847921443208 0.79419217468114844
0.32140047035478947 0.1652080038528414 0.54690171465809101
0.090928939218662741 0.26431135100647074 0.83263142020687919
-0.15467930849654454 0.33417060694982537 -0.69376241369040503
0.19416542224537015 -0.31312260956080085 0.46067963416273905
0.18866640676478497 0.62724668250404925 -0.43336780676234898
-0.27711001177176442 -0.4230403027728924 0.38780446906094923
0.62334801738062851 -0.42632342960909941 0.70594802955707525
-0.35396703792237716 0.66092416238888818 0.42747112494365513
-0.79358421359988274 -0.52609088894857114 -0.23120706250191869
0.35052406486870513 1.1298217932452599 -0.36707663421556624
0.094132366258508071 -0.16549902704992814 0.79271141915400811
0.019352587490320872 0.1282772390655742 0.77200076367578774
0.34942925628185417 -0.35982551854854394 0.72414382672770916
0.22974013307036145 1.0812680785642543 -0.32332647311980889
0.56949345564909049 1.081205668415167 -0.38233642255939149
0.8326001146097548 -0.21009189205736245 0.50070953502911042
0.43636923719453335 0.49833979265091566 -0.18679600363149174
-0.32768562228801557 0.26268090672817168 0.84946030246715765
0.29249213598415125 0.10109132997342307 0.53595230748357814
-0.031862883881697002 -0.30507579035565335 0.51410001685919404
-0.83575058082943343 -0.63471575476616948 -0.24702525033628042
-0.28702088218775668 0.54012545455109606 0.81166552867191033
-0.12983666757925505 -0.29348532227450708 -0.44318842039029516
0.65657425788539836 -0.56706951068878908 0.66085340207887899
-0.54875546427920252 -0.95624824692544808 -0.38312386633427664
-0.67908206401726812 0.11242873022385025 0.81210521210880415
-0.84692327466217243 -0.25261461709047284 -0.13506213963550984
-0.057193624032476187 0.50710411682799794 0.7816924394959015
0.048800290320705209 -0.069419512939037809 0.76232666154670348
-0.4431691792643031 -0.71390974637221705 -0.3154843265117151
0.71649275088904574 -0.50585167676194764 0.28037672711560191
0.77085172438951055 -0.091715255085587977 0.37331222753986992
0.073836164405264526 0.20389489859632715 0.62388622989638431
0.022446535110510979 0.98211272262517912 -0.38299157899208591
0.017121595480181107 0.84134538189673647 0.56710636273577908
0.010836441409376896 -0.34668911165705829 0.50786782351466719
0.39421779318945305 0.95374414314383582 -0.34298229333287455
0.1827194586171963 0.80494521078349246 0.49177321384750705
-0.04818543838789946 0.24637422124672881 0.81596217155806094
0.87243850683063329 -0.24305129962416316 0.62197540602418933
0.38199566871140078 -0.17905941081551946 -0.077406217630342944
-0.24900425211121746 0.55786677509618388 0.84368125138928285
0.40494886732218394 -0.35561441983627073 0.7181082631106106
0.67934071713067734 -0.47381390256074596 0.33189955241468638
-0.32319455305607736 -0.16008490876082249 0.8375599652487411
-0.83385951289872562 -0.58187594228215556 -0.33156175055019954
0.39268885826432243 0.65890967045504523 -0.17881570706637717
0.75782317557093126 -0.37930036120215238 0.65673272766128754
-0.68947099747643659 -0.77495074601860114 -0.40611735395733461
0.23565540030117749 -0.23225084627123094 0.74578226108426104
0.53903811747261976 0.9817424722936412 -0.2890938749387395
0.20393430355931663 0.24195344474318503 0.77003375670609309
-0.40804227190617226 -0.33568056962010573 0.65747166125626233
0.40128063898973032 1.1514309983294875 -0.39571485649407645
0.56718295122085305 0.81554637826164944 -0.39581438065925134
-0.10384178144935863 0.51450345007743925 0.78124402272929228
0.0057496043645164363 0.17268462667895523 0.81420790572573054
-0.46691740895298128 -0.75257438716280722 -0.30752807985398434
0.29025661424349281 -0.32159216045426531 0.70621149964620766
-0.23751768534926487 0.57823903539387267 0.76986719051230867
-0.42433552174950684 -0.72520036229099905 -0.19520968533598904
0.1974613541462249 -0.18418305029631732 0.70725250292063091
-0.4070726969947378 -0.20932582082595363 0.88217600587230383
-0.48341849459304331 -0.093409962523431478 0.73574131137869347
-0.40198576989706059 0.36853005314843035 0.5386560878298603
-0.36122559802689835 -0.39196863136820603 0.65989883426884788
-0.95686894424453595 -0.75602936448710167 -0.42480054789414101
0.78702237113434048 -0.60729578256922689 0.5626136612858339
-0.35407869722767771 0.18488519903855849 0.6504159350496721
0.74684011508341985 -0.36807222980662146 0.64385234585630613
-0.93404586517037913 -0.69944794660639253 -0.45079332076935463
-0.24844158058185428 0.039213581709362177 0.79224207618812503
0.56417562990756487 -0.61111976739184737 0.48591486639318671
0.18913145596797243 1.1066110706378685 -0.40817754170541498
-0.1893613699509844 0.56670758325118342 0.76924173078229696
-0.48731613083408032 -0.57256185786870972 -0.19839641220216286
0.25627177462118933 0.8035787745262537 -0.2860782107772657
-0.37823019888571441 -0.10802687515938825 0.81854639037085786
-0.012900423370412639 0.54688408228032248 0.6898252165469394
0.26950866022470699 0.41418186393883349 0.37876612749624261
0.25993787542137436 -0.11262863514945565 0.83832383016633472
0.017155640483379031 -0.2660594858608869 -0.445103827031752
-0.6534291286124807 -0.97649821160159522 -0.3931604303730829
-0.36324767948766823 -0.76881268744939746 -0.17990391743652978
-0.3890967431876895 -0.16266880774568815 0.79890045547772814
-0.67586741102316417 0.019098165193889738 0.73150619554663621
0.86745820076701818 -0.44224938280303405 0.5306194508868689
0.7167084229868399 -0.3155747599413683 0.36828199324238931
-0.51973548515694645 -0.66499099909778892 -0.16209015230259105
0.19694547874857982 1.0929119945949211 -0.29405532254519695
0.71560538780526617 -0.44201649929416131 0.70630025615140202
-0.626241369866543 -0.75613131612430839 -0.34017403621928022
-0.18471591179340408 0.42822343937231233 0.74512503012362608
0.19171408198522144 0.61957851431269306 0.5849775287942256
0.26373211989326339 1.2710970997284918 -0.43989754070376641
0.33425718081832834 -0.020128391480746188 0.76902331229147247
-0.77136135374151671 -0.95352442971971429 -0.47237084857252443
0.70879373793528888 -0.41210391114318679 0.44974400958174421
0.31368439464833386 0.99879924858430424 -0.49572690617759996
-0.18384396956015081 0.43872915936653989 0.62749229711228338
-0.10400088335213376 0.56654345125060912 0.68958596925381066
-0.81418542990730458 -0.32155413328559224 0.59935859002462166
0.095247786657903788 0.2469083578535809 0.81762131902113211
-0.88874991488002841 -0.67750393598937597 -0.35147613262796362
0.72034514523752069 -0.46078876158927606 0.71483054733580165
-0.39055329704435948 0.0062789752813174893 0.82015819604255746
-0.019206342972932333 0.79661351517098034 0.6587866137059013
0.032266084625366176 0.51762538009834458 0.66745055918335527
-0.72455508960055237 -0.34731725962189097 0.59248192098973362
-0.35216975801213657 0.095991464379449276 0.79878730206040327
0.17799340784684059 -0.3469671670364054 0.67963380956822483
0.14543543349167454 -0.13560003802066589 0.81420613769804628
0.4056992433245501 -0.27771961606767537 0.20339556392745628
0.38370159427767625 0.6768230865874223 -0.293108667067985
0.068551757783541944 0.46703260715926875 0.67590980325794625
0.012381393297550503 0.4784751764987778 0.76047638634818426
0.73618403389768527 -0.48768523912054018 0.60309696390929446
-0.74900391257834986 -0.45712067717308758 -0.19699173792569624
0.089374157013900835 -0.059053337473292444 0.80488048462968464
-0.39994367919914886 -0.37938955160598953 0.61548060658132275
0.12104167174172176 0.99411832608724859 -0.23558741454089027
-0.55159848919985777 -0.67229770177426129 -0.34027819957609307
-0.45529309673796092 -0.4157629001022709 0.71769060045511157
-0.30672480777223754 0.39205030648744144 0.81134969333636864
-0.3540289254325355 0.27844466247832678 0.76291808033237274
-0.5019065793385824 -0.47988632703009282 0.5835489592687475
0.41330974909558282 -0.29069274629276975 0.15689772293662774
-0.00057556828169857965 -0.23010755414684469 0.80048664308561257
0.39417874454820634 0.65378369343831721 -0.24339031038453207
-0.70819664793314718 -0.63363356177123187 -0.27097360073259491
0.27951305413093586 0.091387323223663053 0.58454349922259041
0.014988686733087953 0.32408633456810509 0.84477213853722866
-0.40095453584444218 -0.82882130936709597 -0.26565121851500884
0.16168126817157269 -0.19641861526884519 0.7432794037375583
-0.25113621371291828 -0.48681036387233556 -0.49811551326825931
-0.90266225232121222 -0.6353808752868626 -0.38460249475660913
0.6501520877538276 -0.27201458431195746 0.40341592622709133
-0.071746770812360694 0.67637313792686093 0.52262932043474475
-0.65211076141078728 0.20165746888986691 0.73810923884210666
0.56236411815826415 -0.45525785148562381 0.74110278288021281
0.47117788180799813 -0.12383119863672887 0.42923251265972073
-0.32691611727634218 -0.67242016476908262 -0.0488494209414716
0.10479338830583451 -0.38559694715794546 0.58331264849654119
-0.11576714936233845 -0.51883400743311725 0.39024706995088643
0.16677762835712784 0.026247935396964017 0.76346540412364483
0.30544776890853687 0.30848230924212583 0.57812556698500117
0.72044555226007834 -0.36705375122625306 0.64785494579491321
-0.55766221126645732 -0.26816978653404 0.73023509744869575
-0.20331687135878962 -0.32660390027251118 0.65249053293175141
-0.46521408337205195 0.04528055755924143 0.68143455934745667
-0.51418836860893702 -0.66167883462860377 -0.28722101684204837
-0.89758963624814925 -0.89839138816859077 -0.45028314279204906
-0.52696269826343034 -0.72015568642755445 -0.23896956767907884
0.74317681537407676 -0.48495705614452778 0.74739641919803645
0.35775114673781871 0.61347385385799358 -0.013728548869546664
-0.76117996154270617 -0.37655828615990572 -0.09520558375229804
0.17965640119294957 1.0818494786948438 -0.29813520063678656
-0.31023090164096079 -0.3107827319249683 0.74923408795820468
0.47128874242186392 1.0319287838648776 -0.37971025169310479
-0.17303972391163391 0.4299892671366905 0.70975088941631714
-0.34503153582488721 0.33798093927969663 0.65899861499149903
0.027647224411821547 0.64153578005833101 0.69667409338555508
-0.40694346528499636 0.15406266719460771 0.68534544698575406
0.36353021850349432 1.0988399424975217 -0.37909602474924142
0.34898331510650316 0.69269891477850587 -0.18872022625696427
-0.42386464717416406 0.45007226285889734 0.63968301490267709
0.26526751948555294 0.04184317917619973 0.80400008096331277
-0.21454463985149275 -0.42880587477968657 0.57123334756716115
0.044309104988494497 0.82773290880861783 0.66678784634817934
0.20454447590144476 -0.40624664393581389 -0.14493018991692352
-0.82922282917404555 -0.80323081446187583 -0.3279819436809488
0.32562196616254813 0.50088752918074331 0.33053485278780848
0.68108337245361206 -0.39109443419730106 0.68110335164015279
0.12652683980248014 -0.034899561842284932 0.82774844011188353
0.27588215915099035 -0.12317796260774072 0.81992477015622089
-0.43970813443456258 -0.32596678813416791 0.71328015446795145
0.47661439484514556 1.0817428428208271 -0.39936919219684164
-0.40498801445241561 -0.53094786234693547 0.32812492679591987
0.71316414381571391 -0.13194947679610758 0.71072942737589706
-0.17530525493270943 0.84035911970063193 0.58605328514959076
0.24024216639196361 0.33263241932806276 -0.54543127746803677
-0.52892786072388542 -0.70095377610135579 -0.33446275644103718
0.28025129417891659 0.85603921809008732 -0.2078006531606178
-0.78107696715965869 -0.62250016727120627 -0.1785846133599085
0.35875129699034414 0.80467880783113976 -0.31623956107027595
-0.82337733390837631 -0.81488813591229814 -0.49974236679936457
0.18316306418739181 0.33036214168101363 0.65775499501900203
-0.37716714006462748 0.10935999523938733 0.80059823939424035
0.16267053482898319 -0.036480527790500261 0.82634971203685303
0.59975942832072171 -0.11535811468549984 0.55620671757852236
0.13239141297086299 -0.56401030588794976 0.12410239545337109
-0.028442855276857415 0.19908464628945133 0.74422959437895031
0.29275147471458229 1.0951508540313224 -0.46916212773841082
-0.4876734587026279 -0.31305619804855889 0.69899906632741526
-0.10412924147018465 0.60069095852017318 0.65963885876455741
-0.51297923529831824 -0.13497355857372106 0.65404197941773212
0.18482716281424505 -0.031784755080125571 0.79307989259057621
-0.80926465109847978 0.19941800776862051 0.1799501420348264
0.81944042777970605 -0.36484034307771562 0.60497577804328628
0.25394987753879583 0.69526555577827098 -0.25584369747593172
-0.41261085290156085 0.29674279631002864 -0.66312671023128722
-0.26791176559030827 0.6994554052518942 0.68740897450557359
0.29017408316118587 0.091241741777006613 0.61447035050437737
-0.70479513150209527 -1.0477924023446321 -0.36939401050048293
-0.51869162043925865 -0.25630801420760285 0.61392747526879088
0.46968897590813796 -0.070548361049284303 0.69827334810129038
0.28802176761030207 -0.012258985396837119 0.40971960503350413
-0.44693036236305694 -0.3475445237628465 0.68365996911183657
-0.32187215739122799 -0.024657540679379863 0.73549934950874363
-0.43414126306972989 -0.66502543688921589 -0.27530660488609549
0.2402555818834653 0.48429875258048316 0.62304560841458656
0.6855738676773182 -0.3584740571751972 0.67630938079145331
0.4243383277927526 1.2270439044801318 -0.52723775110891946
0.078698139911962173 0.47974190158769936 0.72131243329346884
0.41237281998637254 0.61055098620257597 -0.32574305256426062
-0.092679157126767997 0.84659294153402787 0.20121104412546309
0.37555674112594328 1.0154167754197641 -0.41706638291336873
-0.4687918548053176 -0.42495726377623422 -0.47935754797235308
-0.75370127834937328 -0.43729469019276745 0.50157533652599717
-0.49465322120409017 -0.20942640535646717 0.68475390822058824
0.52270830665957124 -0.70777523115036711 0.52920582640454494
0.36905629489498359 1.1024333913899049 -0.42616816907495192
-0.13747629419626417 -0.36657307821410035 0.63966159742020956
0.14336418450116373 0.027096644516986679 0.83004128182658565
-0.45170807462331375 -0.3202050345995815 0.63570094157173163
-0.69470078786912026 -0.44074069586054776 0.37106748350708951
-0.77167631088958988 0.16918097843915181 0.31186335038368185
-0.73759314843882073 0.096605873173585266 0.76389046754512702
-0.43653554746533363 -0.19216756986945471 0.80320215608799206
0.36517547526411498 0.25883608805929992 0.54034917843114361
-0.4780004598341403 -0.47798920628203767 0.57833245536050804
-0.050019110311163573 -0.0013003364510226767 0.75837470360401227
0.039176428882894854 -0.0017133140467340269 0.79358600449113581
0.21007905912564162 -0.050974774026145475 0.73845525528188638
-0.63021489557699262 -0.72189993777716976 -0.29956259839477362
-0.31447193323248612 0.30779744439237078 0.63409620592786986
-0.20125057117924161 0.39404657580155833 0.74239796869916574
0.24562546987236633 0.72360449166450413 -0.30157187789599682
-0.682458875116291 -0.2576374550809688 0.64405919319834393
0.72916638936833866 -0.41550400315409863 0.7391472403507775
0.73026483344973592 -0.42917364133926128 0.66674907373186354
-0.35292232517978217 0.46194386035890922 0.74102276596406291
-0.5743720761428488 -0.86604082082196987 -0.27522016389006509
-0.35068031161579238 -0.16086766723419643 0.84756105968974715
-0.44124953935554068 0.60911956505971876 0.72387333032956036
-0.070272091054732755 0.94934522304295532 -0.17084279557358251
-0.54549149638973304 -0.74258899386585053 -0.33292239796221779
-0.044101816482880807 0.46440568689616812 0.74665208790045323
0.24935136025960158 0.10249005426276625 0.76922577229234257
0.25111716942476559 0.29674426740606163 0.70932513470067526
-0.28651135109630754 0.019509433107995022 0.71993234121243432
-0.70217175117169539 -0.40413845858604036 -0.56088229759519059
-0.067088229332646243 0.66178914315801185 0.66820062043731365
-0.34172322371364938 -0.2578460657958983 0.73574597752240045
-0.19836146448523628 0.91415353290569579 -0.27239952911554788
-0.73121436738574452 -0.36312332324777996 0.38185784237696385
-0.08567357706302392 -0.03215690957285533 0.75959337850610353
0.34337678895231249 0.60027439105789604 0.16917628273625063
0.73728217601980184 -0.62125919794307194 0.54381144959121119
0.38304076606149806 0.71419762358827477 -0.33123712346925149
-0.083914979539940759 0.50060924386059602 0.75467671342614384
0.48557667261361814 -0.22324209460300537 0.30280311640800317
-0.3550539497268872 -0.32442890557078963 -0.65722263534162195
-0.73874564332862303 -0.27229770469934778 0.60865367879726584
0.59467158931650843 0.9183811046121817 -0.28123061499580704
-0.48528994591455898 -0.22499441191597036 0.88754029902406373
-0.75593476103734059 -0.36197190607694374 0.58703069388374907
0.2665885240067265 -0.0070954788314017136 0.84625139807284455
0.16982272674533583 0.59359588806033337 -0.49013636078541101
-0.43291726217036075 -0.79909142162385116 -0.25835347619240867
-0.81045613080677281 -0.25584683682824538 0.20647364260695866
-0.4213776314913833 -0.12972676361842606 0.76982071589117407
0.06338398166845316 0.79256573157934396 0.44756219366036021
0.38945694499237238 0.69183515254866323 -0.27723720177424838
-0.74090334031716854 -0.41555856851984529 0.61853748342217418
-0.81860510154960409 -0.42856991640588538 0.33519909001360482
-0.50703528234983075 0.23999704017951196 0.70176064077118205
0.35994216416031755 0.85048349167300774 -0.36031494649183049
-0.41985200783351573 0.50422609789478301 0.7096570621489775
-0.4845863285579588 -0.045669332483840641 0.6485638412125061
0.66152620207344981 -0.3746539649016345 0.68108966403424631
0.022292336893142917 -0.055840565364881911 0.65228978304167295
0.24594869309935596 0.72189094268257614 -0.22876451483594717
-0.41528458259775825 0.032282691322063073 0.83286466993040875
0.23985093646615319 -0.06661304935892387 0.79283895213848421
0.092997980147443648 0.3236076443615552 0.7491785132852895
0.24178101273101493 0.48928853829389229 0.67856810131669398
0.18278345261539819 1.1827629077826747 -0.40592056037817947
0.27111848869383515 1.1354018674360895 -0.39808031716886205
-0.74359570762504568 -0.40392122731187285 0.032970160396950554
-0.70061790950510971 -0.87175833815536485 -0.44930217754551549
-0.52595571586781098 -0.24089302697860493 0.65000146289343075
0.72979385843386524 -0.63709382899548128 0.5373101226742163
0.605604160177041 -0.29009663714614042 0.33232681596120539
-0.2107107761550413 0.55233733319035405 0.71283627111884407
0.54797614367702074 -0.31870111555358971 0.73380865184073407
-0.54731749596396373 -0.38770528962912465 0.70284042881741282
-0.12971669538293451 0.2484680119300986 0.72358408327408252
-0.45712424234103644 0.28675660296056904 0.60627877446137379
0.61600864103961772 -0.33065730387056291 0.71221886470555873
-0.18406905671954465 0.42122817483899366 0.76959880177573314
0.39011823200040485 -0.27960857880708234 0.25290851003476078
0.2622839417329752 0.53123525059613774 0.61222925360065261
-0.66724291623910936 -0.30619378086421412 0.63295787365682799
-0.74372318718133013 0.18824808723469477 0.7601968741184324
0.015638519636077319 0.3392390022154923 0.78039608364868496
0.16519489457220526 -0.34711181307581596 0.55656555872241675
0.48222387158110269 0.73068370967486107 -0.2497083125756463
0.027529465349701354 -0.14060340137587302 0.73196628154137233
0.23308875695843767 0.7761510043467581 0.43788257458019686
-0.8724854385948424 -0.65335112472424761 -0.34599236042049064
0.077232304707888666 0.18213592649932941 0.7470763278778616
0.28414062542280405 0.25473614676407186 0.61277370478557636
0.1252216012801961 0.91600972974230288 -0.20090526186851232
-0.1938755723039165 0.27313295112282532 0.76215642309283727
0.18907901499356328 0.71548556406462449 0.42352548411820035
0.63457448767030478 -0.45780540310801054 0.78216408555442385
-0.58443024991778181 -0.97833393719137929 -0.3227169348008001
-0.71184412774190431 -0.55566118829615307 -0.10289664056461501
-0.37763783826030028 0.53961725822172779 0.82311919033382708
0.2044776906284751 -0.080880902054756287 0.80110866127640179
0.14135220610211441 0.56886483801444854 0.7417767320868407
-0.57791104084429268 0.078895914994261407 0.81247549098537064
0.26950930094041858 0.032222519796004434 0.83040697457840551
0.44015268735582591 0.83499631281779374 -0.35033835535617719
-0.49962617723544245 -0.63209044968735428 -0.056526120211749742
-0.33912459023219377 0.39457421267115933 0.74431953056380529
0.40181228413988723 -0.49848807867254497 0.64274488051391643
0.47938304870908865 0.064414918761587892 0.51955755635990108
-0.69127301765164173 -0.5095415001357062 0.22854691632288837
0.49131607324093451 -0.08600402856668854 0.50207420925404289
-0.75707163984219772 0.22890316018307777 0.24207514001508379
-0.49547738210503489 0.049247007849879232 0.63171590692854718
0.16417466690190619 0.07069733388169297 0.79334012896883443
-0.54514130592296173 -0.097938584111919802 0.81595758529090112
0.44157277959093122 -0.66438063107456458 0.3742896182985076
-0.25702516679025145 -0.096623177953294448 0.78086766545550645
-0.35144252953513977 -0.042905196275812241 0.79243944124577936
-0.31861544476721981 -0.34407043027695527 0.64091965553217456
-0.22006900287826259 -0.063902371080430065 0.73299332565290776
0.032526999289825831 0.54566375956941382 0.75068303335115871
-0.88999788282236381 -0.92353509384332932 -0.49484376960819221
-0.34903394590697712 0.2149495205989993 0.802678116117999
-0.43074115199281504 -0.77656353868814865 -0.33268543379606452
0.045492109042294615 0.56995363702126767 0.73159952009210194
0.15991871753639764 -0.038677807888484406 0.82962137396712876
0.22948272366607103 -0.24498363776516729 0.81854977361416292
-0.76774646308201433 -0.46629813869072478 0.48742877140296237
-0.29769050109655737 0.20615005091307026 0.7354191453170893
0.093637744763329422 0.17569212919075294 -0.65049617337622223
-0.43687449258387101 -0.46968713966047426 0.65294806767856084
0.41321449216657591 0.70849580776660837 -0.33230306584645053
0.2359691237037973 -0.15733810651525637 0.72123929156725453
0.56652545236148999 -0.43525566811790917 0.73456074472562616
0.34236555184007234 0.66813181110932529 -0.23166665823044053
-0.72091435198595999 -1.0364048560460866 -0.4971561680021308
0.31302554105934988 0.0055778822346681523 0.7894325430270035
0.019987209994288158 0.66515648058497145 0.63740254171809685
0.84176501916849844 -0.55390761433677671 0.58648812671574468
0.31819177718056935 0.15328816136813339 0.43912365504613238
-0.23633211170701784 0.45436016224301312 0.64017676007820867
-0.1768684903743134 0.47451862252529331 0.75022812240244985
0.51087513192605716 0.99671758523231491 -0.4434726521253598
-0.9225291514202878 -0.80386997943076643 -0.40692519456292064
-0.18124469661248988 0.01871786281525889 0.65619108301931917
-0.51044593584716225 -0.033637167074511254 0.69587730180266494
0.22185862367656917 0.13075848802290491 0.51381819305130527
0.24642184981948212 0.9233086753863291 -0.28311795518338201
0.66324518114420972 -0.47899360238338851 0.68833867880246302
0.2797509407041483 -0.38748833764389179 0.66354536801073571
-0.23095301051790429 -0.080217184271336173 0.73877876799882713
0.56943044708245338 0.64975268987920387 -0.27065455030224506
0.42955218650074478 -0.62366582206805976 0.59477286043063593
-0.55740800188818174 -0.71018069154220997 -0.28436418152287324
0.46056750678650804 0.07674412983925194 0.32756797799740323
-0.43370313390583437 -0.053540728428577822 0.83032224807279764
0.32774637523359562 0.24118901271740878 0.15869224925559156
0.60458831817394554 -0.3036687856224054 0.64095710902064429
-0.46771051114662932 -0.614368084702964 0.11611780229026358
-0.32498898233485018 -0.0034532033167291587 0.8815069601556047
-0.63249051417270952 -0.35401188013777052 0.58097857419252286
-0.096214568265164502 0.57023464236583621 0.63652217054574134
0.16162143967211229 -0.19599290023096128 0.75536254326368457
-0.63880747092419909 -0.6086829169244159 -0.26029701564820851
0.10977911493148795 -0.21040514143369649 0.66366357588924085
-0.71134004256557937 -0.67598739272035147 -0.37472629209518615
0.1206017363389007 -0.061836718122149748 0.73352864767196557
0.090941189073124207 0.46091976413411473 0.72308124991076106
0.3698467780426693 0.030698278477551355 0.62281602406791947
-0.21409564989604313 -0.16894796958811042 0.76212616894095575
0.1056139562232925 -0.014973030383030661 0.85918642871486117
0.1543014709294912 0.73846983867808325 0.54828075976940305
-0.56673063408562285 -0.30850131117854351 0.51721943168525897
0.1604728462864573 0.55093207196730809 0.58567940592193413
0.36269015180661768 1.1498162291136582 -0.31573888144745954
0.21300575646924713 0.34322063720047691 0.64706329009196484
-0.4354174453013302 -0.68875269814366691 -0.085414610032363392
-0.64110868197177506 0.46029599357788964 -0.65824900270579967
0.18066773923759882 0.020799449947924487 -0.56837585229731413
-0.4702565143989208 -0.073649388497167845 0.75931452557565215
-0.4078670412118921 -0.28588193675470386 0.6527638253713457
0.88253716536182392 -0.36148075964518789 0.68464343241794978
0.53389222116856594 0.84845562371763528 -0.40003133569440763
0.75692305675247518 -0.22427549199844643 0.73515716760128491
0.15923385909691756 -0.38830249947337769 0.6415877711090241
-0.58685088681840725 0.093174922471903621 0.86044479089100445
-0.092307315853050298 0.38395560022427588 0.79165931132594469
-0.78510811952015302 -0.26686084080915373 0.14151783568684184
-0.18248766340988976 0.066077232828512855 0.81597151441565252
0.44867248509960689 -0.48565479559243574 0.33228684276090004
0.72738979160127926 -0.31197608548805356 0.63983728396873385
-0.52582690439581903 -0.26583292380333301 0.83700340426180819
-0.5990422623195153 -0.77627403816232166 -0.36854442919603336
-0.00057489480146433181 0.18911707543268363 0.78187734524043595
0.60953546696705274 -0.56514426430743825 0.61876022057872149
-0.10779683771437121 -0.32370432384821735 0.62127937332959338
0.55248524516017561 -0.69134250860328805 0.45921261908174049
0.35832606711328552 1.2189749043415312 -0.42804098291920489
-0.65066114473406511 -0.74529138876884815 -0.38076296865059511
0.086489912254835488 0.87081781591074225 -0.3355540681491016
0.15829385751844871 -0.28597230243089644 0.60980736614330322
-0.55210540086609772 -0.34620546565445265 0.62819056263470863
-0.022644451102649121 0.30594197360330844 0.70805080067300796
0.42693590403059289 0.64077557714679756 -0.18997570097289795
-0.81440734495775402 -0.62734083660656559 -0.38123708913744636
0.41252190617272255 1.1950805361760071 -0.54085455956153616
-0.28938481322283849 -0.029886849820743411 0.78335345489675312
0.048196169985166293 0.67166589212516215 0.67376867567921206
0.078652957215890495 0.43361364754795506 0.79945531558040184
-0.4485521237208534 -0.70132836936450227 -0.28420808038342216
0.39754286221612922 -0.082289051034287297 0.65739006891715412
0.67197672012443377 -0.55763936166590167 0.64981093521299016
-0.4857483650233565 -0.68995119635805846 -0.15058106123027759
0.21485837487538806 0.91886060568374095 -0.31104392421335181
-0.038366144796833979 0.57732764728225572 0.74240363210333626
-0.72604343650924985 -0.76941665571039541 -0.38294901462108477
-0.40409651280447889 -0.17741161306698761 0.77280311066963669
-0.75350518054964777 -0.75671441958385843 -0.33162162523583394
-0.74654057729013967 -0.99515423849973494 -0.52786064845602709
-0.25342153987186578 -0.1196315576377085 0.71709433857324978
0.25181326047857056 0.11479380783794824 0.56340538548162655
-0.2425442894554104 0.21224722239357652 0.67823471715079187
-0.61091916704956262 0.032645068744323158 0.540808707650136
0.33954743575316648 -0.30088777756660345 0.22158835621707151
0.79496895872076578 -0.44084172236686658 0.71405816245994558
0.42574177567946059 -0.54534540221923766 0.43131536523305147
-0.07932188469769752 0.50434031488715236 0.69413316270923886
-0.8145656996206645 -0.30287757836697526 -0.21522111500991237
-0.44844438771799844 0.023610435851319167 0.73178850655642336
0.46206705049691799 -0.55303013908986731 0.40785451757287206
0.46793219948945275 0.79678262610522044 -0.27044730660945415
0.33302603273308407 1.0729278319376685 -0.44105378188640643
-0.39876974385019359 -0.13682956663206491 0.80544551488651805
0.025448897998320064 0.54429441098790754 -0.66060989330430964
-0.67500614483096566 -0.52365080541553244 0.2111686198142797
-0.49973608094183852 -0.82083406039031903 -0.29690356659535233
-0.20629635237677846 0.26358397770983721 0.78272796562992841
-0.71872992454249829 -0.99260099895941467 -0.33330014096959992
-0.044426664874404942 0.33565253514276394 0.7514063085355307
0.32374537261234515 1.0781647023026104 -0.39478844915797762
0.065032688210719058 0.91516197640574282 -0.11293561989034817
-0.2180291747903933 -0.22448266797488614 0.7237012816723869
-0.43733908459270854 -0.087659048154646868 0.75020381309023865
0.42125225977486203 1.1621500119915922 -0.3892002170314468
0.21446771970489031 0.42737564007443885 0.64165777429990101
-0.75375461254658038 -0.79419993266386602 -0.43039311860555252
-0.27858649406012503 -0.16215677257527972 0.84722880811705537
0.6487251886458969 -0.49855274161794405 0.44256875588783107
0.54738774811052338 -0.63478515872702435 0.60622758718732417
-0.7348808909487845 -0.80618925597020707 -0.3685996834228602
0.91123684179445696 -0.37466698030017387 0.44406162738862864
0.49154155380339404 1.2100345283544942 -0.49758963063633743
-0.40391669721442724 -0.57398071790142158 0.51214437406354207
-0.070903530367108836 0.24333909884762983 0.68307467268653266
0.23449297615727982 0.81041761801369017 -0.24572420577341347
0.12514642873375514 0.66497977610994585 0.66437699540493611
-0.36447475555330033 0.25688774803695846 0.68612589760135823
-0.5553125801540002 -0.90685966435759147 -0.34917624825730531
-0.40290350347965376 -0.73464901632364654 -0.17513252861408812
0.11402809167395311 -0.42396677361574664 0.68560835377053486
-0.81549278641577239 -0.65043321938019849 -0.29164367094313182
-0.67156651033223547 -0.14287611816737167 0.37521358794486925
0.026140982591006612 0.40203151987876495 0.80024990670477347
0.24835975798251297 0.7270449730801678 -0.27532953178312169
0.44316582151843065 1.2075410306704994 -0.36232560677799164
0.18756127305871129 -0.32075703807269651 0.40026052512059085
0.67968643641017223 -0.665286995407536 0.54857956329561475
-0.4587469603169545 -0.14991511819123193 0.78475570960926433
-0.25612955002564597 0.57234811958122744 0.74642669978415466
-0.49735755555634498 -0.57796786908449072 0.46804667199337757
-0.17225258321566095 0.49246294835047122 0.7184662383640319
0.15108958693040453 -0.13340045352685515 0.74898974488488523
-0.095135677430732812 0.003241190322989862 0.70064510747605446
0.75928478627909168 -0.36166175432396042 0.66279626567098759
-0.4057178514401043 -0.045323461635025097 0.85527942832483905
0.20044448154307393 0.74009873932115156 0.40318951537139647
-0.74131021571276623 -0.66922240020336865 -0.28503610702385274
0.11537269806801831 -0.12983415711937329 0.74854883086018287
-0.44105430462856798 -0.69586115413766914 -0.17039342650211253
0.2109494967349903 1.0939543202324042 -0.47008862759832404
0.70143844533981614 -0.26683535631978827 0.69159781907087226
0.31238245225380723 0.47420380624913872 -0.44159086869381614
0.76796064243407347 -0.44805163554179117 0.40681340294991486
0.083445976704942026 0.55013944627910538 0.66427048813305767
-0.28565906212192349 -0.69869367168105745 -0.29834216279750869
-0.73300874909168368 -0.76861249191890879 -0.40236020251256654
-0.068851321520055464 0.29435703691398318 0.83173413077542335
0.36292814061066103 0.034335516796030419 0.60302101429899224
0.68635387266551007 -0.099511647344068699 0.47580735250520245
-0.75402892132776422 -0.4290737565933882 0.4497437893829721
0.16685414123956477 -0.13041637585485866 0.73314017985542979
-0.60132026283684414 -0.92657765029455197 -0.46911913017641194
-0.58852202832235534 -0.47567287630522692 -0.29684801928979709
0.45361181653255933 -0.14823869563204362 0.67838021164705697
0.77727807159366957 -0.40924046112242474 0.67546823430830738
-0.31093145338673267 -0.34638041409499865 0.74075255271686302
0.33474383621802417 1.1938024522331969 -0.39019580556180067
0.27455054163916159 0.8572832611243979 -0.24602968722645713
0.8376009580925361 -0.17760509367262367 0.60324126651911758
-0.12382301820433028 -0.27609573204758409 0.79131849536677024
0.24553137391446711 0.77707847645922179 -0.13779281106117303
0.0039068515350946242 0.35779169855598525 0.76513344968300068
-0.33329702291072216 -0.4973383629958894 0.23968096139091166
-0.77324452361942431 0.077254226744438714 0.61743738389808644
-0.35760828269747158 0.37799479187644636 0.76003637732502316
-0.83666080264013498 -1.0428732118068753 -0.48464024112383086
-0.13838685070294865 -0.50530914800227977 0.37991807719449788
0.25847511947211999 -0.47731526272123315 0.59479744170548265
-0.17343467459503525 0.37396000366563076 0.80622449970731846
0.50675584253856876 0.0039081111311478622 0.6529511259640195
0.25470883605503225 0.00090585234895090849 0.83601174271089551
-0.23504450552600886 -0.48505230716242798 -0.28112532777478627
0.23007982372151403 1.0059083480786186 -0.32177042297252711
0.32400502368045103 -0.36386523651525771 0.0066753611298615567
-0.18930929844411626 0.27961184267662897 0.74331335263771781
0.022171071058306069 0.69424798806954113 -0.64199929056501492
-0.74264588906428397 -0.95365421644271331 -0.48097853351203979
-0.81659811721647024 -0.10097441095850845 -0.52854511243439273
-0.62181152623319669 -0.4240332710781014 0.66655450037950104
-0.45410994882479638 -0.10974393129466398 0.83536214834434386
-0.2274167511305496 -0.42550071825045688 -0.63956079623223872
-0.55576613073972592 0.094449922223676097 0.65731671514225631
-0.49410222196766007 -0.089329123838808755 0.8568126885085281
0.32023088924581344 -0.31565392336639375 0.22235052758799956
-0.79213880350793708 -0.6981994969272538 -0.2604272360376223
-0.19243257876607256 0.29442140952909046 -0.66387472887424881
-0.31061319659449094 -0.39294204167449776 -0.55968945660494107
-0.1783825481219985 0.24501914539870162 -0.7078122016607864
-0.51257562773363929 -0.35583457867230406 0.67027754005578188
-0.51228990089287585 -0.44241832907276635 0.588268818864365
-0.83973147067098619 -0.9445621269299096 -0.44323837129942856
-0.83589154015998357 -0.88653096831940204 -0.4200319963191177
0.24880229142882637 -0.22523176682158041 0.83349572948411765
0.49937489250553213 0.53919300946983784 -0.19015122871503554
-0.030576979902619428 0.87914746131980248 0.62278910713051339
-0.87251850163326949 -0.1156158224378574 -0.31639721670664045
-0.47559255330805783 -0.69917193090383556 -0.221949162704421
0.23604570783672241 0.85973805511701906 -0.39246670391623262
-0.13036457505017918 0.81472906007609058 0.57354312729931944
0.69861289974604013 -0.50895332271333338 0.66288139276181379
-0.80374172920893283 -0.88775915786974036 -0.46066544653959474
-0.495820766679266 0.038712773734305372 0.80741968609977466
-0.38618640883072253 -0.37365177499815694 0.64021673203135432
-0.4224682025601334 0.44353510596817936 0.67192270338454207
-0.55870155935513299 -0.17429693441631455 0.68243131952186253
0.16684550363558159 0.45817473168971379 -0.49046584534028614
-0.094655575942974579 0.34506673780039954 0.78210474369357286
-0.61652251745351716 -0.40018653822297789 0.62640563361416124
0.22178162692018688 -0.41542767334002484 0.62556451399047663
-0.092551347964768382 0.57369983653060164 0.706685199955432
0.6425360082221987 -0.44276663889477952 0.69543276200675486
-0.3974387278520215 0.57551141050864274 -0.7311354988018568
0.45879360167207395 0.48561959266753529 -0.087537236601193058
-0.098283999450745618 0.65224782507189527 0.64190579268857739
0.1284785196073841 -0.068734393942766037 0.78906391573639034
0.76237755538616359 -0.37584774208408422 0.75992808093973174
0.76237108216263838 -0.46957585120985268 0.59289378081942612
0.18833088702656919 0.65314605857828578 0.56788267063006348
-0.38700507669836259 -0.42363161878280264 0.68424461721763308
-0.54531903009606619 -0.76175575230575543 -0.24832041860721699
0.11453488535927825 -0.1498949480168652 0.79083821256731746
0.37796899002823725 0.66385328319146186 -0.16858316534832873
0.38979105346316079 1.0872985501614441 -0.47998521549703543
-0.9658478170633078 -0.81052798628937506 -0.39180306066652015
-0.60856573271845882 -0.24687446642198418 0.62921626937836628
0.12370192229667598 0.6542290707369518 0.65285138880759597
-0.87940248744236804 -0.91759742023882218 -0.44926583022257027
0.24513576686730598 -0.60585047677490955 0.45650453352642639
-0.12979119565373942 -0.38432162643774026 -0.42470424190889311
0.30553743370459419 0.32957823470361536 0.62518963157539176
-0.60740966061811097 -0.3217686313568997 0.69091876860145263
0.034835418558471609 0.84511575874571765 0.55372180008467975
-0.75759977209780516 -0.31698924851306298 0.46776469527118003
-0.099797047005300676 0.29522484440930974 0.86131837655015175
-0.7795574219727559 -0.90189708051237893 -0.48092929951946228
-0.29770620867538788 -0.3342824343736206 0.67530305193404239
0.32415540762759498 -0.52833972100854698 0.61769115879694514
-0.75397843374698681 -0.3631591001628327 0.59148853669009238
-0.45700411364643667 0.16591722026455535 0.73965872777506192
0.61876461297369634 -0.37154169233557788 0.7275751717273824
0.22058506264132927 0.35793976437459074 0.63974149022360738
-0.33835955688470953 -0.081885908051980039 0.8186654272710161
-0.71577811041574613 0.35837815601054901 -0.40076657433315699
-0.53272083575059881 -0.4016390635222109 0.64639312876422217
-0.69247620349948136 -0.57783504499558536 -0.19997249998123756
-0.47279021623097695 -0.72114163613112003 -0.31638332409177572
-0.3563288088294474 -0.0044244292417561226 0.76585788374429953
0.62914715382376496 -0.34542167969321191 0.63564914365061043
0.088382835485195876 0.37277961173313301 0.78607112606808549
0.17682768590313991 0.69939474459341522 -0.19306492940514097
0.16401493673272949 0.84569398736189649 -0.20495112932641746
0.3139256244895865 0.73835431543312957 -0.25354799650517279
0.56270011677410547 -0.049607393211707596 0.39922628981838137
-0.64764598200830026 -0.60290448748747139 0.095078237777684649
-0.42578086362172129 0.062173400660087363 0.72172874990848435
-0.1049299363823728 0.26496259777341269 0.78916031105477558
0.12066396785892763 -0.14554230841544324 0.72777241108135104
-0.86310254879920922 -0.85991681286132993 -0.38029530084315555
0.092865608338176919 0.13158724240719177 0.75851489047138188
0.27216373544480454 -0.0033033742527979193 0.83110257682561972
0.063711564416190747 0.89604200119270594 0.62150881504189925
0.20602503042024978 0.052022881822129996 0.73785115396988665
0.15753953066168158 0.7836271011518452 0.50445961100170411
-0.79356322706926186 -0.010109229770251638 0.67444904117612658
0.41562154676532082 0.065894403431782322 0.45724966848662785
0.13477006779042355 0.32724385653259302 0.66099019726812891
-0.29029879510341239 -0.62605079873051084 0.12919086273792413
-0.74863380001720969 -0.45796118103894212 -0.28151044675799142
-0.41481461752006332 -0.66138937523613928 -0.051246599247268598
-0.68441277463494732 -0.037193043119192026 0.61570252437406658
-0.082432454029695457 0.33509459997192081 0.78900969100817697
0.73734433407137523 -0.5961321872932448 0.67962182385136405
0.53059488653420672 -0.52326417981754414 0.45583572244214388
-0.045178107293909697 -0.40940880194126317 0.34722819820830253
0.57247597759873514 -0.55771824064608744 0.46415654977883847
0.62483936646963389 -0.44734911829722801 0.69123648120010373
-0.13581904402290146 -0.61334511896444122 -0.15174361784186097
