# XYZ point cloud file
0.16731426344104083 -0.23418991649973964 0.7552025994806294
-0.5618558872620405 -0.6017863241867436 -0.015005441534914343
0.093534615258464515 0.36881394113456262 0.52514287745359089
0.020678326838982075 0.076304343834645072 0.12504347160375057
0.17701829790132961 0.45268341047585681 0.42362667586195601
-0.0044276263319515952 -0.28472889522719902 0.53055147299184757
-0.27940710145491909 0.034139542323885927 0.52538816283524736
0.17953329299358867 0.38863791952001614 0.46770607211988502
-0.2438540864382901 -0.10506084185070097 0.639350267852558
0.25480504529385628 -0.26092209179190085 0.67782581891671945
0.079843984288864189 -0.099254077030178134 0.66901275694357065
0.065314463737511375 0.031149266807663667 0.67129212731839538
0.010386371260161176 0.079199789078408855 0.59223233677672105
0.028485586024042941 -0.070459987802003299 0.66009894484403131
-0.58797751942136223 -0.61034101056237433 -0.24366271548201118
-0.69300282082176878 -0.72018702232997067 -0.34002122344573427
0.13945216332568644 0.5514202222949588 -0.07753080783734223
0.14564437416981157 -0.3093084885115156 0.56231853591804037
0.016784860981689409 0.34400722159708697 -0.15712841531514599
0.32066657458952097 -0.2710953125917801 0.7060575988154465
-0.32264448591318662 -0.2803526987294569 0.44551066106475179
0.19741193703192894 -0.25627489521058611 0.71183604203968198
0.031975604928062396 0.26238336533182371 0.58191539859352126
-0.60180688078476074 -0.65100635301554133 -0.17122263047181366
0.18611295431062636 0.61041324767318828 -0.039359415572018552
0.188294399493242 0.30544602382771674 0.44051902463093645
-0.44461758003831198 -0.50230410619049737 0.10543416806467809
0.015392250938249252 0.4347335706540511 0.50153705931794756
-0.015348356250431183 -0.039967791509735395 0.70279374946408324
0.1683234422573141 0.58631853453540983 0.17137666154799919
0.12171572587930835 -0.34229764110723415 0.60484950326171905
-0.2840067587251397 -0.38967317388492306 -0.02787835430449237
0.26299594074574295 0.74996241668349706 -0.12249508542034326
-0.77020534411745478 -0.82472665924829991 -0.32123518135753737
-0.69374249669529564 -0.7678571106963431 -0.29123784370944705
0.29738238546711449 0.75687058262760742 -0.16733251104179303
0.1418816653590117 -0.07158740347471676 0.63293035752102011
-0.64457008050301789 -0.69529424780057592 -0.25965313505550036
0.026431224855073654 0.46432327618817321 0.42811687564322726
0.22955498170827848 0.27527414367807795 0.42762917357901403
0.23172116207618398 -0.17990343322257996 0.64541680783703603
0.25771008975593201 -0.20761139663568784 0.69323171313220588
0.48040623041948194 1.0817680484742245 -0.381900571155532
0.025783598104702321 0.71747160534557564 -0.41128131726457146
0.029141070504134392 0.13732678280511768 0.60642969139612535
-0.21203634395331072 0.018054867464610713 0.66925834560936659
-0.1168799291503283 0.11727670395298939 0.686957830425174
-0.64897944453240142 -0.5715180041172675 -0.50442393731945057
0.24558196871878168 0.38036835005076719 0.36655304831316737
0.094507634429705112 -0.336410260280259 0.5605119463694177
0.045077174407205045 -0.12644028450510658 0.45232643492781605
0.15298198309301303 0.18043668728330786 0.57251912081388623
-0.26513258739240475 0.078111063303715741 0.52995672340552613
0.21305341884730455 -0.22807796888870513 0.67590592042892073
-0.17194288732650453 -0.15356298386078732 0.55832311587014116
0.04159797745845184 0.045105274150602614 0.68781274773196455
-0.35934447050484719 -0.11057493449436134 0.3676969753610731
0.010428597542092577 -0.087466250730817707 0.72020952214482525
0.32527973133065324 0.96485973343543607 -0.30656707601758465
0.083274578211630979 0.17480642603730667 0.6655151597948169
-0.015537308739481448 -0.10997803702734499 0.71103305164772834
-0.24657972202703282 0.0017697220096163369 0.65122733384506715
-0.089049263217792385 0.14517512520937967 0.66591011995657001
-0.13304661146376084 -0.15450155119646758 0.52381668613990162
-0.22251686573786256 -0.0089988186305299533 0.63964604729076846
0.18466010917928988 0.54386371986019633 0.38997255259093516
-0.11830875725973167 0.037088456279709164 -0.15518859190070466
-0.16427079859065374 0.24213459429641301 0.51025216760358838
0.23949835072310566 -0.22614694111805411 0.72328143825346125
0.13233993424033819 0.77235199740702165 -0.22861432384567826
-0.23404865686629905 0.026779125871026203 0.35647545047708312
-0.23844121590888978 0.068822804466631957 0.70724829818511759
-0.060573966390246148 -0.23641028377032841 0.49681657869886037
-0.17353419417856797 -0.036232834926160085 0.59588067398986799
-0.48101372053206748 -0.50920674395919174 -0.14998559950593615
0.13467218543371828 0.20152077070746915 0.4800964966337295
-0.046750829617973277 0.30295035845134749 0.52086974582371459
0.30574667428083235 0.8248958152982353 -0.20499205552700756
0.16640620584514165 0.2718850044036264 0.50027260974585963
-0.81190144728754265 -0.84379499484346687 -0.43253636795583095
0.083337554500139244 0.2408898336987611 0.570673861717233
-0.13378968650372702 -0.17410047457473843 0.54248324794567915
0.17237605587423255 -0.22782380246593598 0.67680996139281124
0.10829405432424832 -0.038554817820076803 0.62188889288061944
0.20551111076893647 0.55356076291821243 -0.021295790847577267
-0.41174249212897263 -0.28784562081621284 -0.10589149067269205
0.1109787571174764 0.32128206132865156 0.51835945286173191
-0.05899672596087524 -0.11757914327527041 0.6106684601844965
0.20152168662489545 0.52839088537440659 -0.021231001178662501
0.038434957633169176 0.33883495348338005 0.55306395690725663
-0.58309918007250094 -0.6299720948567088 -0.21785016395448153
-0.0078272627925559668 -0.21785627647209871 0.42182784300089782
0.38906400104416061 0.88107889208365497 -0.20345554774317948
0.074488432503342583 0.51231761277980992 0.4050346322934692
-0.75443693585788463 -0.8101713470474764 -0.29721533767966918
0.045872786603593063 0.21119530707671688 0.57034534467069253
-0.406393226508728 -0.43116569809316119 0.18613738933573998
-0.09294127339597924 0.13603729084605257 0.52779128135230191
-0.40690069264575424 -0.43245403497697638 0.18891726550176097
0.11792379991476576 -0.013320855560846723 0.59015220550339687
0.24400391517449438 -0.28239879322875983 0.67040898473417998
-0.15675437161469974 0.34546889293636157 -0.33818677629137417
0.26273805687319585 0.77650817944681561 -0.12480341654691651
-0.55388788842015979 -0.63490013177680205 -0.092036133126593367
-0.064230787242229637 -0.059637205153234174 0.64154020518288346
0.28871811784062373 -0.26506568060829039 0.65480077351077115
0.031729078629982643 0.46097544714256966 0.46146634168631062
0.29986526980543493 -0.19011070630089122 0.70167089629128698
-0.39535466238567918 -0.32586323018985119 0.24114855144316302
-0.12976151562474059 0.072927792606726966 0.70244933183250846
-0.11944886641033636 0.19167154604175696 0.48609933572981551
0.0055204278263112361 0.0031961167965398607 0.14586307383166597
0.18744193418940558 0.22364428415011511 0.16285981439578179
-0.32518694841608176 -0.071120046329394837 0.55043715869523568
-0.21161371541443652 -0.16355591750292001 0.60429484653521126
0.26975511620378056 -0.28857832836402608 0.69947535702465657
-0.30005842761224033 -0.3574292277288425 -0.13616159756057256
0.15044521399193023 0.95532164708070422 -0.2749784912991784
0.10671913622509299 0.2218568029122166 0.47297717254849586
-0.57212629866156028 -0.6129418750768747 -0.20601917570169626
0.42227887573198775 1.0746149728566701 -0.40555139612030794
0.14707055247823531 -0.20546016400388384 0.69503184440083876
0.28904839636936064 0.96991707056791832 -0.28856784198494101
-0.11914904101519752 0.022160520675895357 0.72350359985940682
0.27199983225946267 -0.28391414719814201 0.67318647205611204
0.22113388951164259 -0.30251992450864562 0.71505477521239347
0.14079847164268755 -0.046043981340440188 0.73578555805491708
0.35177483744826854 0.92830482916725487 -0.31406295984045074
0.10170725429554617 -0.33867361113634398 0.58962198944498856
-0.11444550903254291 0.2151099209926263 0.39733656780928156
-0.15745824078358317 -0.040553461411526714 0.67357210931747846
-0.27318014896929388 -0.0051517819502968909 0.59565947378458373
0.061502034423503438 0.3126079633153846 0.59834560912794288
0.15707610435835861 -0.26101918199536944 0.67166735875537664
-0.37632521987461365 -0.14034735444391877 0.11954449691832877
-0.28479687091695582 -0.07842501849617825 0.57588568646660987
-0.58164077680670567 -0.61223474863185201 -0.092863725090530008
-0.062630232045856937 -0.054780142079266458 0.69478409142201225
0.073949259820664248 0.019802514716184105 0.66337571638250648
0.20168135971689138 0.42962216145034032 -0.00016984144206733109
0.26566789072857055 0.56943710809883652 -0.099290689737367877
-0.093204594195818835 -0.13899786359689159 0.16635795940857115
-0.27327976306073143 -0.017588198392582913 0.33175660715884553
-0.51160727102196091 -0.47512276135025555 -0.15088098066818356
-0.60623640581341331 -0.65993446214499185 -0.24714395707205183
-0.51501752900158204 -0.56957025210156975 0.027580168239621256
-0.59899488498105591 -0.68811781566990438 -0.12565169041030658
-0.32273685252723594 -0.06415300631442572 0.47087553541930338
0.089186368735250432 0.37172860104514494 0.49301243679774825
-0.059670019434002519 0.090631178515911043 0.68770535310053793
0.16746994106688007 0.35339374097942944 0.34656371301238287
-0.066581058031305207 0.17813666977562342 0.66430943943035414
0.22955120318442557 0.77473993677658093 -0.12582392315824009
0.21627842478431125 0.29746259672781233 0.3701221890389455
0.15149160567973585 -0.35411706663661724 0.63014904411660955
-0.55342452104709527 -0.60561518363809075 0.019915723439365651
-0.25854356438029424 0.075872289151086569 -0.49336725229759126
-0.72584457117198586 -0.81394783821038286 -0.29400315605367267
-0.25923962969298764 0.091197738599170602 0.37346180822227776
-0.099509299841603505 0.12911673119714087 0.58339484243412021
-0.10888075079969917 -0.11872512537082192 0.64550113666022269
0.075132331373347183 0.55094915965475921 -0.20947496543774141
0.037145365652309192 -0.066403853403728674 0.68156983666396931
0.36839217797015489 0.72745414843544709 -0.1556177878160605
0.24181507041935879 0.71247558857459736 0.22750060081701381
0.27023917639480788 -0.23932687583600154 0.69232880568266242
0.13170946929379312 0.36149636980498734 0.46908414810906474
0.20459170659520132 -0.20218682791931325 0.67913326368722626
0.044248353470839774 0.29372621457579207 0.5598536224398023
0.15813517928229504 0.35767436814396247 0.46439280327940247
0.24509586352606538 -0.24450124076566704 0.70318307468270735
-0.58074418929659255 -0.52804333626167055 -0.29488499920514222
-0.26374733379562965 -0.40195068133224665 -0.029991201490372932
-0.57805980555285075 -0.57029949212173325 -0.30099844973362022
-0.58347550140449689 -0.65306305343473636 -0.073268572073653615
-0.61222671764261882 -0.62742832828320039 -0.24492687919437284
-0.36825108940447182 -0.44672273640108262 0.20057691096142685
-0.74871478989454043 -0.8497046561839362 -0.26040552219713264
0.11918568027386223 0.17936684426441912 0.51411189450436734
-0.24748382828252313 0.015505377863527917 0.61416838298259901
-0.21461505348057985 -0.058518297775149053 0.66388934868836658
-0.071797878058674103 0.26933840783196661 0.35025557264100005
0.082648090765539139 0.34447865874401729 0.067918959889999575
-0.062731261523949811 0.011137987668264931 0.70407804550258035
0.26653918313523062 0.94567510145072675 -0.29526581711915412
0.027328067777958376 0.14762557853748262 0.58002656349240977
0.068495198941648905 0.032406159382599553 0.59990309669214514
0.15655169796598611 -0.013449699323019204 0.56837447237807737
-0.0042771080806056627 -0.059060747458782592 0.26101559637692728
0.16180373512096069 0.47701991709260244 0.08807450630112329
0.18553856322978002 -0.25686544582758597 0.66755363939223411
-0.15804004584245823 0.074042640703933127 -0.33652486448366764
0.032884943948287115 0.37408975012935752 0.51547469070630259
0.28269727551448653 -0.15544879052160349 0.68743098206234121
0.029781325346894261 0.41462032736417564 0.48497008378292517
-0.004866678433498639 0.64403088562080624 -0.080069863356995286
0.034801481225464226 -0.021776355611253517 0.70880817969407162
-0.16152392102697599 0.025944119511621622 0.71697622346545309
0.15970462199956492 -0.24528536350638108 0.69596890117797516
-0.1912011018908657 0.10211119037247965 0.63728918942997448
-0.22969268421929279 -0.0069535149924376954 0.54462800018423818
-0.61160727672150339 -0.64830454001963633 -0.22625710521787454
0.089658934461918083 0.33711063194249002 0.55893697913116835
0.26305838462294273 -0.25279811064048052 0.62118686108945087
0.14406775410927697 0.73281464433031895 -0.21548162313557773
-0.47617047025804959 -0.57330497521930412 0.05850996752715884
0.18397533810451994 0.44016072622821067 0.012673591986747723
0.28541059240073463 0.80572939310328262 -0.18893253841714042
-0.14424016276748353 -0.1285621738951121 0.63591274383425578
0.030807793172604292 0.086994849508627459 0.65652237329716634
0.09089207517879383 -0.088712467147948448 0.56730954825417279
-0.050302037397283006 0.34004975301299734 0.36222122575630333
-0.30421623671051468 -0.063197431691778563 0.10225957859875107
-0.24727105952325024 0.045565350931862633 0.55545349387161691
0.017946848687912631 0.18759444190738489 0.07607634769795607
0.37591432523560853 0.95057637262369254 -0.32238128736487026
-0.71629756595954253 -0.74236886394482027 -0.34349837834116415
-0.12933633667153055 -0.017111187619878426 0.62977651572444804
0.23665531147423757 0.66950379329019816 0.067356181280167349
-0.082982542972334317 -0.072281632001129525 0.57637001974082358
0.31760103680953422 -0.22342674291730369 0.68486038745275934
0.24926723451421906 -0.17036519544067918 0.71873777883971268
-0.030347584146759865 -0.41348946886275695 0.52905829840870311
-0.1947995740846673 0.19064611181598118 -0.47339963840327187
0.22296178249842602 0.97462575808876772 -0.20185352399338796
0.15556860785166637 -0.2988605927118545 0.68886417710738912
-0.34553120710514484 -0.11349957651425077 0.5379635687283425
-0.28702265559587892 -0.067541427865478579 0.26768289495135844
0.046487148587543103 0.43910311028796456 0.45714807142501701
0.21991776332797919 -0.23614590037538929 0.69149778945938112
-0.51648135011548113 -0.581133381091824 -0.059865477132828249
0.10402008118105577 0.89058524002006934 -0.31905505772221054
-0.20103567048095849 0.0087266441737207656 0.68718085665500728
0.15892242025918435 -0.15229277395916424 0.7198079754909894
0.046709373836782753 -0.15884494538314509 0.46591967507497739
-0.79879771173027592 -0.8548583783954995 -0.31440203167598113
-0.031486967383744346 -0.25647067210100483 0.61451092221391135
0.1510985691265494 -0.30080128171631226 0.65494452516084622
0.18703388029201817 0.55915350078149118 0.19579392748416252
0.22732652550783627 -0.27780590905924119 0.58011762973733316
0.23717341644936996 0.79879730017905237 -0.14427409330779567
-0.13357907246969203 0.15067209247915717 0.4889499875960982
0.0082788136911084997 -0.015102839171412696 0.69925533080667412
0.3212080404950185 -0.31331778517085174 0.69753350345597798
0.082796439994268001 0.61270815947479407 0.17299385710077292
0.25036574650329491 0.76687270164387455 -0.19341319151934749
0.073482709897809251 -0.061696378912864502 0.61915956477169187
-0.30910790888744544 -0.29986726551617826 -0.24838591809761068
-0.22505337827688587 0.055143066523891393 0.59959771126771699
-0.0097723367004659556 -0.25369749885838561 0.49066702769164666
-0.64752198678447903 -0.66877186731697824 -0.32504457181735974
-0.42134057215361609 -0.56853775602439405 -0.1809053357773093
-0.495930757941767 -0.61564414675843337 -0.11401505358845287
0.32295170541446816 0.84302350718742403 -0.32228902290825145
-0.12360855129975212 0.15581861234445438 0.63456615245726644
0.171073095540347 0.32877331813135852 0.32809209654172772
-0.040524469760596205 0.53620303302767391 -0.07419462800972948
0.16403925725070612 0.42977041911154457 0.38899125862999384
-0.20899012163883368 -0.049573511352581562 0.74394767698878139
-0.0016272766895932822 -0.14016860938109638 0.68297768764015132
0.1354711838811431 0.047602452844724863 0.51131736073923983
-0.21990883091721936 0.093030781216550798 0.54552458907237844
-0.062682776647282168 0.14827380660548103 0.62308120397020961
-0.42380423842469572 -0.26346397586911352 -0.26341658900716447
-0.073015551621981589 0.0081553852654662196 0.65781171758639256
-0.20339967840404938 0.053246050712274881 0.63832617078278364
0.41796539441005076 0.85509049014128879 -0.20454937937357981
-0.019186923512764409 -0.30651834000067185 0.5536568174706703
0.15583691597966243 0.5816055982409295 0.22534655498325773
0.23987883792505216 -0.22246048456595036 0.67739501891888132
-0.10702126237094467 0.032502921460106193 0.66116803191012397
0.1172239488078739 0.11594914285205532 0.55844243765443613
-0.069815788488708064 0.11593899148245179 0.61526456298486198
0.086154689260818818 0.042598603478374408 0.55786950354503595
0.080464423405367969 0.31336804814144054 0.53186561428240176
-0.23805292131018729 0.034295327980436954 0.63594080962680555
0.21834549695399552 0.71994401423583232 -0.084025653686960966
0.080310379774214291 0.28014686778305381 0.59187262417417474
0.15882429571598267 0.81407992525977158 -0.053491008783069227
0.39310630672572611 0.91895362769840783 -0.28213524022220893
0.092370765039348601 0.29875124405696685 0.11567233570123603
-0.62554309748288173 -0.69555779928172279 -0.071242936754161462
-0.08980231426781593 0.28580575482183335 0.61458816678734429
0.045169727200195076 -0.072238772695334297 0.71294505812868536
-0.12035211428912007 0.025512720954753515 0.67226835320792466
-0.20921320677625699 -0.1802667450058047 0.50502550938790158
0.30417725766126014 -0.27140968776957863 0.61209706536559538
-0.083619605229291794 0.18037389385698838 0.48648421645583467
0.26453064347193944 0.68010359023159173 -0.13641005918598842
0.15827968051940777 0.33254834143927403 0.46943232598436657
-0.0017681170974571669 -0.090901839743171176 0.68055909397108283
-0.11551237083989885 0.11332763518407818 0.61735747148603815
0.013197873935035354 -0.061629788111309092 0.74556070511053651
0.29535217690328097 -0.25010871971373305 0.67399565343337031
-0.31011519662045983 0.055335501036061691 0.51222240266631092
-0.13687668925811158 -0.021347829343492275 0.68330816664242677
-0.2223479487695198 -0.03069693524162978 0.69143363522486334
-0.31060492110590676 -0.15163824466850381 0.56275730272761726
0.15956610310156338 0.56485594065433054 0.21744645708984259
-0.021294688085701896 0.62373351281039036 -0.47621775413367506
0.11980830941791254 0.40540843932609638 0.39937004019650729
-0.12204342945658353 0.0073710026953101304 0.67692022502639371
0.17922236814529047 0.62177298017805516 0.172268608679497
-0.19285901879485645 -0.0033801744487187702 0.6772613353584791
-0.42624541025053742 -0.16779242690205834 0.48492520318541876
0.43068122379080886 0.99835892662946057 -0.32582987191211488
-0.74792873734681464 -0.79248068329688115 -0.6282699981740274
-0.093936515525129272 -0.2777139675436851 0.48336046338823302
-0.10984516509961595 0.096199701801047505 0.5867918095121073
-0.1259600921578371 0.041547467720636722 0.6706983424086268
-0.18889234460548854 -0.21347178052265009 -0.095932626586620939
0.034079812930601472 0.26116790673553097 0.60822658872947244
-0.20774107227462002 -0.12261395036467915 -0.1920223085612196
-0.13127408956782327 -0.10991312739562159 0.65989799337481991
0.20510803355015539 0.60368176932995876 0.062236538820019727
-0.038776736893705976 0.21172807053022766 0.59987176856998725
0.26521321720552848 -0.28384141668012475 0.67255719281646698
-0.36433251216712548 -0.16510016250488438 0.25632808006471508
0.12313456246437715 0.10371140271868429 0.39699759748165875
-0.099287085889998572 -0.20599556181229828 0.30926088105021415
0.01250208033159883 -0.0357084923705423 0.78281588813333136
-0.52065449228101857 -0.51971409257707946 -0.16035807793554299
0.11605410452327236 0.54532334184978537 0.42078889440957257
0.2728147227243064 -0.26058866405031333 0.66027995905617487
-0.16744993654712415 0.071899846883777874 0.69823521074278805
-0.41423763898944899 -0.25845120766768603 -0.41471425926222
0.22757606949848252 0.76057815901114412 -0.14543080767455213
0.11032955033433289 0.3392777010716056 0.57355047647957946
-0.19637629749210783 -0.0064483088263909694 0.62713728825162585
-0.21487925788993167 0.1272614112121167 0.21224012588891339
0.034791578483384544 0.17948090187857041 0.61138204004803209
0.089137399120893912 -0.12963024808121171 0.4640666196226958
-0.17018488828911094 0.082938395560749417 0.58447243655393843
0.024256029392157652 0.2661369466064632 0.61830407961107237
0.2040421942562427 0.53538837633283975 0.16737724866662224
0.21569831554884078 -0.21598532449735908 0.71588012948152813
0.14172737639181243 0.23929362879245913 0.5200331289715866
0.17758117675130758 0.47571790862674695 0.033474512843479187
-0.75901939764559523 -0.85398317856924233 -0.24497560785362457
-0.031036034723189054 0.26365778870065415 0.47464643868665662
-0.31058892433688767 -0.21012419047540506 0.53697872094368648
-0.23676660456470144 0.028418994094045913 0.51261310594815623
0.15078764498838404 0.62431565992153149 0.157685679411253
-0.012864603041859546 -0.083781428729126195 0.2982402290754359
-0.17153519246455784 -0.021983167923140534 0.69067432390717942
0.2364084095234037 -0.27447926080056539 0.70090812251087486
0.22511008185062065 0.43763629000463794 0.065620768165029264
0.059134116541954107 0.46658724077031766 0.45819544371403403
-0.49971530527695818 -0.53785406455332574 -0.038051765556541967
0.042070579466614966 -0.082300258614611044 0.46437310899803924
0.24602977887313182 -0.27748169418186186 0.67361105425752665
0.15674500631285793 0.37863978428853778 0.094567775166937262
0.061455218694375979 0.44383033327044358 0.4849623546222479
-0.58430514155757041 -0.66936841220204468 -0.1546552777870189
0.13606764950653338 0.30934621191575773 0.47356254472442794
-0.38014007114001291 -0.48749678183776551 -0.2216343584441772
0.16665965988561116 0.86495116434246344 -0.33654531868716198
-0.14495938339998293 0.24252256874980155 0.50865180175465219
-0.0051762839769856628 0.21266525778355622 0.54981145071146642
-0.45677971367863979 -0.40553361708161889 0.12476980110111696
0.20976145117613587 0.62041678844458514 0.02672704665196024
0.13002066021857273 0.11514173801943706 0.44758053264146336
0.014287931200529957 -0.015949552944936163 0.7000665972741873
-0.24944343961184889 0.20192270823089797 0.54908551155925311
0.11007539692196944 0.40102213076797477 -0.037663563093565222
0.059393239849703239 -0.19671063058434829 0.50625033806756892
0.037594240405546375 0.353184822891977 0.56708882712654729
0.18894774262255565 0.49275960225981852 -0.040055484594172353
0.17701064646863984 0.63009672411658646 0.079423133298309412
0.20751354923929921 0.82024112040287522 -0.20907780520657249
0.17285420291531428 -0.27977775762884971 0.6564510089193043
0.04572593071012121 0.2937079198006784 0.58618128501446587
0.21945225503519672 0.7671271706556877 -0.18477801331769761
0.12695337133266349 -0.16356161860094581 0.54263884893380254
0.19142041641734009 0.73732910615249947 -0.16134791522181874
-0.31213898114104588 -0.27339964282453688 0.47787605213296502
0.0024791636353027613 -0.21608602414041989 0.47347516229622294
-0.083666855727667744 -0.014623144607775085 0.67662291946008413
0.071499470541306454 0.51635236061612466 0.26756640679208088
0.3467074417455982 0.57267203117840682 -0.080933017173634825
-0.59017095644977913 -0.68294378494800734 -0.11186766212549853
0.16990434260014387 0.36546931442044267 0.44887341389588176
0.10671023183369188 0.50084760203953571 -0.13618479399841821
0.047916782537320235 0.32143633127426208 0.57149992755590517
-0.12790869371319014 0.10878957661941241 0.66297328225078855
-0.41231129312686976 -0.53954163011351786 -0.15010575440687829
0.2832225746767324 -0.2498591644538839 0.69138961826137368
0.18163573904132813 -0.15197223655245035 0.63728478580539805
0.073763054503762193 0.31409736230397595 0.55838788986280741
-0.66598341516869919 -0.71733191939301455 -0.38986953295335997
-0.71210587699442307 -0.7133602269642032 -0.47091717710538272
0.18279448909019835 0.47276829805725273 0.42252541219241779
0.19994040447895411 0.38809807701688709 0.35747275495904796
0.13727280959956101 0.30769854870012942 0.074523307593290011
0.11506323845814848 0.22331409911485633 0.61913636778947745
-0.35669003664250565 -0.12705867696132034 0.4961713707892258
-0.85191368026141245 -0.84215256837614361 -0.6077831972356198
0.037023489906041096 0.14779234647451506 0.61620084945116615
0.040482340108037751 -0.33028058229617829 0.62611374338031112
-0.13095550624183894 0.18615961061342851 0.61246547604208368
0.22060660294458689 -0.29480468695682205 0.59467506420127492
-0.65001508285263976 -0.53637357677507946 -0.44198411356818745
0.12450991472773043 0.38884503645783375 0.069966313091520294
-0.28181103542651198 0.0042340940138580474 0.54971148141522419
0.064490499113550093 0.3867513921108523 0.51142164172497284
0.019956466771564041 -0.24294566130401218 0.5209956347064455
0.086969378592476332 -0.084110573671744848 0.68064771700821758
0.12688124583945348 0.44472140409103011 -0.0062922455104634789
-0.43449457124137425 -0.56294397430433762 -0.03601944407404703
0.075912018159733918 0.23063415958501948 0.58967059100757746
-0.12162576407057724 -0.15223275102751677 0.066677214691344633
-0.28390114878367545 -0.373255013247491 0.067958000064558016
-0.58720900984172286 -0.57368579884433757 -0.37450964605056303
0.0089796207827261831 0.54278667342108744 0.10883329666145361
0.019416952569150325 -0.00072194212024639937 0.6716294117370516
-0.17651676559534235 -0.0013627672855490713 0.71055724728820202
0.099801410061455154 -0.10376443147558206 0.7128101955812407
0.25318938815185088 -0.3042298713261663 0.67042924681466132
-0.24758525991400149 0.098028383786438814 0.60449759397585567
-0.098881494250865787 0.18978095349554869 0.63057282495954992
0.069002980317150131 0.33886689296869221 0.5931054940249596
0.228291311060695 0.37565511603121138 0.097490278028421196
-0.55811462471961804 -0.62715739336776322 -0.053026944060813042
-0.10490756992731198 0.31899998327080559 0.21720200849589252
0.024181293480176169 0.58436387025689585 0.11653267372640752
0.07306461885032467 0.27148791030730229 0.61578610822721713
0.15148396952573928 0.44934336035717248 0.0066574782146001654
0.18185940637507714 0.41259171569688013 0.38072902003901021
0.021511246782659699 -0.13921057250270291 0.43741138725407758
-0.06731256084035353 0.050240493377443879 0.69492590672664023
-0.0023415811544271747 -0.36845899575839358 0.57662260966178669
0.29286155147583581 -0.25569805962457126 0.68039638567504879
-0.36309811150832794 -0.14151468809474335 -0.35582375292681462
-0.10558015611426741 0.00892311923209399 0.6741660159040308
-0.23585013233689067 0.0033477144319486174 0.55646370872761275
0.17826310929011147 0.28129661805448647 0.46391126630233137
0.00061255322338182872 0.26846701536099093 -0.046194733753496087
0.23886155412434773 0.42711527499301155 0.001231787523941319
-0.63382156525157141 -0.67872409412948331 -0.28470675839240028
0.19649897956595375 0.5041503742598592 -0.022055697822795428
0.08952716516399617 -0.076312187355765837 0.62702605194044247
0.27066540530243843 -0.1890187567395446 0.62434572755589335
0.0173698181159192 0.14499333512526222 0.58040758292163763
0.20438936304539912 -0.28559208235969025 0.67270073505999128
-0.52192854692981783 -0.5713757026482611 0.066587443783452216
0.038141088253335953 0.31997035501281484 0.56343003538937841
-0.235076486679755 -0.10564912454497216 0.55070686195815344
0.32009002871388792 -0.31114022881131986 0.64577188122057416
0.21069262383517084 -0.31087794676552571 0.6733620116545046
0.28662885454346632 -0.26249973381626701 0.57970626817339799
-0.068522978194327955 -0.036117916107944625 0.58534521904297043
0.18815298000382685 0.73251667429402634 -0.011260049549467688
-0.48307608878087749 -0.56317280842798789 0.0085818096948372669
0.027645367082513417 0.49856742518445984 -0.2504697177332123
-0.1458513573207072 0.14616406287738221 0.65831476497490871
0.33225876722490688 0.81903131272500973 -0.23947581138003349
0.068631834957734394 -0.09175348073202283 0.69134994609672573
0.05921534846030263 0.22204539482794852 0.54489822932586462
-0.18331004081216429 0.2751230169918441 -0.069832709111015523
-0.45118403608148472 -0.51441898447689605 0.063968993943267091
-0.29115528706618798 -0.085970162017666801 0.64309811167530517
-0.19336334679846956 0.10407915274953015 0.70999093180830497
-0.45736237576743644 -0.50398323227418484 0.053938854501205363
0.041079917505513652 0.031351562556012458 0.46417043867504437
0.035804867923968753 -0.13963878638126487 0.69364081555167079
-0.29838516087744194 -0.022373650017478382 0.54173245458826935
-0.32735023792410733 -0.15179468984563807 0.47891422076714629
-0.34444053625470583 -0.082705758191799983 0.55180158203351604
0.1307721245820892 0.15505975829221702 0.55309060729366899
-0.053238616286609863 -0.11885240648460599 0.64098807204074237
0.23941855777839249 0.89500523508216268 -0.26504105391245975
-0.62946825666039452 -0.6883429685646536 -0.19471535081285843
0.21971140730699723 0.68810292931547057 -0.060918224503010543
0.064957073096643114 -0.16216138949902037 0.66738240220414458
-0.065781594062056636 0.2566867524073011 0.48995614455330905
0.11556319333935228 0.26208991252885178 0.61568463234995485
0.03048648676782062 -0.19064625063486046 0.69256029886334758
0.048676954933231098 0.43757812311782951 0.35956575194848273
0.28358219281414687 0.9204359419113981 -0.31182757667672534
-0.24745070836343752 0.084736725546663824 0.57265148192950088
-0.10244367636082075 -0.18693119303167716 0.61080368957737496
-0.013398333952640784 0.32154317467926219 0.37315522764066078
-0.78890369787193748 -0.87136660096280427 -0.36039376630064168
-0.043736596793885862 0.049501651537271596 0.68419871136613597
0.24516852947792411 -0.23301901857870599 0.67103331531155019
0.080117803742352112 -0.059242271689368686 0.71898903484609955
0.133923318811773 0.43241860138551358 0.01075478204177055
-0.54863617866041503 -0.57560872911609895 -0.14591294429160459
-0.61389722397206359 -0.55354068542567347 -0.32830424271815917
0.003943722312175213 0.10223838539922991 0.076223055597948397
0.13540560857647188 -0.18175893178246849 0.55062445717429287
0.16944186215971291 0.60053694069378039 0.080906098654821346
-0.24581890692862118 -0.086338510588555711 0.60848730542887386
0.064777230180062539 -0.24052532055115211 0.67196526336121831
0.022306818021117114 0.124310823679632 0.591604515361697
-0.52662169651682367 -0.44977350132742888 -0.31007859778302815
-0.28435864164977498 0.051162006294597856 -0.40759527760549019
0.11077377832359248 0.55411743735583818 0.26408882141877532
0.12909294772852464 -0.33189550786400179 0.65004927455032102
0.22805045187229767 0.96702084682662148 -0.28661142248102722
0.21242453192919009 -0.16243531775988984 0.59877872241698094
0.17840664814165064 0.55576052788962471 0.016192173058765968
0.06500713091605137 -0.10564498395501992 0.46203795780917045
-0.095212471130852405 0.1239560873606253 0.67990311157540795
0.065327610462749264 -0.061685230168454064 0.67599905057650311
0.14663197054365296 0.37278545183815703 0.42876764940337386
0.094928048745787086 -0.073477855197683684 0.7220512409540879
0.098221170544778746 -0.027742908078140671 0.71708191446574288
0.0064673301451977361 0.14354132609076409 0.60032812220355491
0.14397126036398811 0.33072347676232505 0.55310984428685539
0.24462017015249748 -0.26635866092912552 0.66002632779546244
0.20405612897386349 -0.24090439775598071 0.70569290014307906
-0.050064779216863586 0.15170821224976497 0.64053491931161244
-0.76012026483526784 -0.81542640463905514 -0.44040116032105098
-0.022943930357208764 -0.015845231391524883 0.62652012120372036
0.08259907857415083 0.21544251367869238 0.61381854782577716
0.045783791459771406 0.24133144857936353 0.60108540388315601
0.10601542998224811 0.032103020471069332 0.52781183931940001
0.096534283826224976 0.13511324518812745 0.65758220882772822
-0.1480124999012391 0.15230312429323176 -0.33803791237091035
-0.07517646129646105 -0.19895598586700436 0.53939972080444809
0.04544981099114298 0.37764441248592079 -0.10303591574496368
-0.26098351468910519 -0.20744145968066291 0.43479566363903255
0.20147448433440673 -0.24582051202024724 0.70459308488690309
0.070709564995349083 0.57930758731354759 0.21983913084006812
-0.48246187575284438 -0.38194913338930914 -0.21197063219808357
0.34516881116705811 0.86731581493919185 -0.22045290827229125
-0.0032302814381293121 -0.060863403405419181 0.71591303467132628
0.031492032019816207 0.084383119854246236 0.64071627654507879
0.060154382890329039 -0.17929833407845824 0.70663280899514436
0.27578129100619542 0.84971595391216215 -0.20688534843118345
0.43482217946359736 0.74859429404723921 -0.1554914902463731
0.28303500648760949 -0.24689844803010763 0.60513390579977877
0.099204616020748926 0.19833243798351863 0.13767611734831053
-0.026732246868166332 0.26507382408692004 0.65352703624834418
0.076371592617922257 0.0015274248270131796 0.53066330198861367
-0.13739353762245354 -0.15190682760316537 0.54454340678480284
-0.54997869158501655 -0.46816966591410686 -0.24053923293565813
0.050893534824602127 0.42532675303037848 0.5644745069478796
-0.35870570508310118 -0.41708905827644804 -0.089110803484476198
0.19037851804047956 -0.29791815025003576 0.69056679540005328
-0.71746668385447832 -0.80941762065815859 -0.19980721606026336
-0.14401467273994484 0.30624788072156972 0.61896327419051222
-0.33703260354529285 -0.091982969211762536 -0.18026880633515788
0.09893997527947529 0.32055623236001418 0.55849351724314433
-0.0052997631269986467 -0.016470264023079162 0.67538506195676817
-0.55012800038463983 -0.63282719843439228 -0.10923424931399758
0.082257100449723786 -0.39553132728412466 0.50652020162494116
0.21995227655610405 -0.203722852573125 0.53806894934415417
0.043663479452496601 0.10885643126206995 0.53339974177245686
0.17528926099035247 0.82312862313429469 -0.26472048356562283
0.19401509157429309 0.55885485174258243 0.32443001566906171
-0.13626847731723313 -0.17780153728360126 0.55193325552620509
0.27153095471052158 0.65859277152535678 -0.10947395426901163
0.22806838613427782 0.49172312333539964 0.31116024701451617
0.042719904794464858 0.1645029609697761 0.64351449023578156
0.35397114039535471 -0.24955733101739286 0.66125530211626482
-0.11882215738966351 -0.30057088624098327 0.27388242256807682
0.062688676329539561 0.41882754444434112 0.59167641494149015
0.088188410024555575 -0.18753759061613651 0.7030229982805839
0.084212144557018309 -0.36069080490768102 0.52742422694397528
-0.14088246740121291 0.041554818554366962 0.7327103183801823
-0.53425411679188139 -0.45546313722680137 -0.31408332559121199
0.14940004132224272 0.35990706602304756 0.085109291893573524
0.27295744106147923 -0.26614697350616334 0.67960528566493927
-0.63981794760671817 -0.68070863586198893 -0.29607437254860464
0.033562591605817316 -0.11672206556663861 0.69988004267981696
0.36395465915041325 0.6425454955884381 -0.06105752181942925
0.12528434190578108 0.098043459958097268 0.62578599901039222
-0.23033243405311865 -0.061739670380468542 0.60520227354434175
0.37975394331237733 0.87854005993899587 -0.23484050588565669
0.28283163684621626 0.46190643692035194 -0.040386833935068922
0.087816633810121614 0.34130188386989496 0.55378132312188133
0.042968979432935983 0.11122533195058748 0.66062362348561954
-0.5713998061524812 -0.65199170862520561 -0.111554032554608
0.031620628239505844 -0.16198753416229311 0.6900615098820857
0.071196963121203494 0.43460795058682522 0.52232656749524509
-0.52552357756077617 -0.58652306854612246 -0.0080338557963698931
0.016568355162681181 -0.098345179275966532 0.66704081598834708
-0.18113734690452998 0.052880379037182096 0.77992702157795302
-0.16334955507465754 0.10027721571142198 0.61236959373710742
-0.016320569947939512 0.35999315321969594 0.36608843638135002
-0.23722587572452292 -0.095611936900661693 0.62505258007421372
-0.67502421635879506 -0.61228087365700579 -0.45924436329973867
0.23151509011227589 -0.35962000420965656 0.64432239582206119
-0.057081166759167967 0.21760195563973039 0.50084211710760895
0.26168236694291802 -0.26248352201844349 0.67250998012027197
-0.63908282445360709 -0.57860788909254024 -0.4707247654650038
-0.066806295672028004 0.11092964663714666 0.65697289172867612
0.05853317855793716 -0.33810546706260092 0.60075476582490273
0.27259952204697946 0.90218435998302149 -0.27882883798394392
0.078982740957860176 0.40795419869659244 0.52724148684599159
-0.46443985569372437 -0.47598139906617865 -0.044370516563309342
0.15385245864796571 0.54297574449600383 -0.058212288177455884
-0.14136960039993551 0.077230798369126857 0.70055955535665726
0.11420052692189753 0.34140206350222779 0.48499493954650352
0.11735303983541989 0.19754948941080469 0.38312865708515953
0.091613861849979994 -0.067435540073666644 0.73901152790740154
-0.3266677946756309 -0.42507380700230635 -0.03729005609806299
-0.75575012705412203 -0.81890335498423283 -0.25737374466378227
-0.53101623276369081 -0.61049935511836162 0.029270855571069745
-0.16145902964354397 0.049998707351386645 0.69371352867387859
-0.16641178825204594 0.23271524832779814 0.55792084379643725
0.28679104492193774 -0.33557675785750296 0.62960178889049156
0.14353161091875821 -0.29600768786139653 0.54305725200446475
-0.50539313639453431 -0.52043162643883312 -0.024014308966023801
0.27305786984086167 0.87071528438012979 -0.20749039534711472
0.25934996659122589 -0.26797467356578619 0.70657656299202032
-0.60567835894368149 -0.64710325530098856 -0.21000510785812992
0.04508070639435624 0.31746918267856905 0.53930291879669412
0.18664029642519386 0.3420703959601557 0.42184128904573925
0.38694406234299161 1.0699024893516944 -0.36448270780138342
0.12695791295863834 -0.050182109358390681 0.6819658043869119
-0.78259305815987901 -0.83302595850924344 -0.39124426406423418
0.15481377906748262 -0.31083156944369228 0.58282855656280419
0.25500011124312927 0.74267363386560836 -0.23741793961892704
0.041064646208060496 0.33058555874208295 0.44886048792191191
0.095725802950435201 0.38510293422337305 0.4714336418617403
-0.32504823815601946 0.036261357365916361 0.47108714197164953
0.092051400412158313 0.12561996450530322 0.6509349565008915
-0.60076920391499655 -0.53180842232344938 -0.35734482676568491
0.26436477389095803 -0.2727651629790534 0.71206540720377376
-0.11076497493083914 0.13964270123160497 0.67668489339215088
0.17630418725366215 0.52069695062434063 0.39818696861954117
0.11731937793101499 0.31074170845899846 0.48163621212308705
-0.31368470009770388 -0.0079897160543262319 0.49035116431902831
-0.076532291925516582 0.1741156161511731 0.64203608634646225
-0.03226262336963226 -0.15942401742925921 0.67411115676379141
0.029098351207583639 -0.056565440407019441 0.72619113517623091
-0.056952078111859761 -0.27665936922089829 0.42652072695268528
0.13954969552931007 0.37544517033813074 0.01949436607303201
0.11626185206414619 0.26701248601619654 0.50352166667019072
0.11108570298142983 0.28259382465738214 0.55361756709127641
0.22490380888304562 -0.3046924637802001 0.65898572687084944
-0.4371208232481727 -0.32357433257106438 -0.16676002570251131
0.020207470806474892 -0.016052129341868948 0.70427490909299562
-0.24691483230165712 -0.095826004219522781 0.58004896982477383
0.20889762507288956 0.78531097591703025 -0.15423272293844204
-0.55051976462502661 -0.59765964840504859 -0.17817210433136024
-0.26985823350538563 -0.06832562125628111 0.66808440963190696
0.010670374030289587 0.3364443819834334 0.59368852067238609
-0.028118304208427203 0.28204451826282922 0.57217438078060501
-0.31473375991380692 -0.13193982818545191 0.55527210486211087
-0.070449517641102966 -0.29784583881964338 0.40509169650613258
-0.053900874749612693 -0.065808637969037909 0.73108897053820054
0.13933299313754377 0.35200436477622132 0.055067487293511186
-0.53650212235244876 -0.50735232740091418 -0.19751682310490565
0.080576203936355562 0.0018613719028781617 0.55634390887903817
0.084197581632806662 0.18698434409606263 0.65093549250596838
-0.58793848337696919 -0.68414537683125554 -0.047928463356140011
0.007501218888460115 -0.091736539526417082 0.69036824194842983
-0.46331871780810896 -0.57338494564423581 -0.17047412983736984
-0.58318896656762875 -0.50360358380011361 -0.39541869194223467
0.12564220063382991 -0.25788819611636887 0.55055797574280241
0.12107321878089916 0.47312145587158172 0.33068926112146824
-0.10323149848224855 0.34617551476203395 0.53177834249626899
0.17436496537783941 -0.23656903124357553 0.72585408555289044
0.072064915881366431 -0.1577816608083612 0.53179970669043375
-0.45105526296554121 -0.49923655085942686 0.1334852995088551
-0.095045336274138137 -0.18578527905301323 0.61467499772775991
-0.24970195109137183 -0.27075849978311539 0.47992521073525318
0.061207466304170843 0.0020161840199889869 0.66345911768632138
0.1429614979409608 0.11799748118086811 0.51203350484112586
0.24633333210972219 -0.25625167644219693 0.67343967391458959
-0.24224417007678334 0.027783600744740733 0.63373634066888773
-0.17131039989400865 -0.099203591913782668 0.62536840871239185
-0.11654505489928946 0.1679165396818787 0.53926502557218381
-0.52883557485290633 -0.57305470585580287 -0.11984791260589933
-0.76594396046169855 -0.75777316463096811 -0.44438602443873831
-0.54981703735725906 -0.59057461985515003 -0.084458550541688243
0.29186370197645461 -0.27903508992393977 0.7300348313162629
0.14304751413187367 0.33200983673439283 0.16785012392750354
-0.38364330780886247 -0.21937871895287447 -0.097060821162419736
0.26223262178691398 0.86534882313250128 -0.20963520711318245
-0.18812642767196719 -0.046721028601010572 0.68911564317027074
0.34855506980986672 0.72213635951138988 -0.14743833346762286
0.046298893855425405 0.31656082928453921 0.51266060542610503
-0.012587862452675291 0.31698053039608309 0.4748888605014483
0.15110471248802204 0.3897702277360629 0.46941187724303213
-0.073692542600054645 0.21761314652947777 0.52796859370635041
0.33330210620405953 0.8297473991631521 -0.20713826090319959
0.14647069633987497 0.40441705470359063 0.057418967602691051
0.0064689514017244321 0.4271978638938132 0.42329256410400118
0.11580661170161055 -0.0093800873671428531 0.68963802701780175
-0.2177802400589276 -0.16264702740892459 0.5812073004338919
0.2040091397851731 0.51857706249129898 0.40125480858878104
-0.2564751742184942 -0.44022303947221675 0.20584302547108654
-0.66495017980469684 -0.63926095994521637 -0.29981219856085611
0.15465295547968561 0.24715090882463886 0.34877024281529051
0.23185722821678267 -0.25056476896174895 0.69013536588719782
0.044772967786130713 -0.011844660026850418 0.71633531304250275
0.092602803282370694 -0.075802248956880758 0.72912921350571702
-0.23240692473063407 -0.034456813091492705 0.64693025271054427
0.37881814488962529 0.77730570687750733 -0.18240713830715122
-0.33909121366699391 -0.26329295680268594 0.37708450080118788
0.30044870051310857 -0.1657961463959628 0.68229639801814446
0.15040607553459795 0.62881146027496815 0.31668926299869599
-0.075969924853098503 0.042828087656563318 -0.082967783559803776
-0.56075402980590006 -0.62005577873276208 -0.16216558125969077
0.19267163815251531 0.58655644552642183 -0.031005082319566446
-0.52408356187903882 -0.44513295170768219 -0.15621287176142495
0.18598998332302652 0.51208777604719824 -0.043817917662136274
-0.70482946255837409 -0.72900297890653998 -0.44928294958129056
0.11753872679076016 0.15573859519048855 0.53690700159309857
-0.078503776386488311 0.19012894604342429 0.63863657094920734
0.059400628636593344 -0.020083060073072756 0.71636885166747133
0.1795716850241228 -0.15499037739362065 0.60237798356087313
-0.25000300992129432 -0.40894363242626186 0.3556827164881281
0.029409196524350367 0.13333967246888198 0.60293097091878822
0.29925494925631879 0.8581818306769412 -0.27502447809173081
-0.24096512063486064 -0.021090580061937855 0.62494968371517401
0.10276360262400375 0.41206510166546778 0.44100637039541651
-0.1847069934507054 0.06958313621388916 0.54523711522088769
0.062699118447533619 -0.02498222158057678 0.69407656186254585
-0.11568730759740675 0.36382925196243976 0.017281836807432116
0.29411410450829545 -0.28342708156825624 0.65754108516699605
0.10927666768811228 0.43408228281386679 -0.005530006774037477
-0.16461642864252402 0.21627896733213275 -0.43440655575946868
0.096205893309007862 0.5433262161208825 0.42349481290708785
0.091984200069803901 0.0014542078985601559 0.5733813735427391
-0.81272292501964649 -0.84256365945963452 -0.25551024890646251
-0.23020041517958234 -0.0067265779693048977 0.53409969335542018
0.16474750601063803 -0.099449463674194716 0.65694062217594806
0.016485884839822385 -0.073635831576618571 0.48433903693037861
-0.24338298429670358 -0.051166084968545217 0.6244787471553398
-0.10578972252821428 0.090830639914340067 0.61723629728101959
-0.51628942365744102 -0.58237795745404486 -0.076454879696371131
0.17296316114247934 0.23698241804054093 0.48574385394551733
0.23662824706957097 -0.24225572702537435 0.68551104006580099
0.43412917554666008 0.97549522294152191 -0.34762799109155812
0.12843510554626936 0.26746998786898735 0.53100769015072213
0.11768908610566808 0.29946386493786553 0.03041967109109156
0.14606295607223219 0.66600635527791352 0.075568468687356283
0.2916936440560487 0.736138179801759 -0.18314221242063328
-0.4532964389918549 -0.46608290928874535 -0.25539575896846733
-0.36130128383499072 -0.081147468927534674 0.41607184816680987
-0.20580128668365694 0.029547453980235255 0.58988478142722278
0.040438455625405045 -0.34204118092162283 0.62715159131579368
0.3359371689077828 0.83666958631720045 -0.23337933870490735
-0.16452571370137481 -0.12992374797911976 0.62981467096429611
0.065211379185073581 0.010767892134552481 0.70627322964319839
-0.23711702147645164 -0.05069340887415355 0.57696668735916301
-0.35423515388176663 -0.14124971878398912 0.31750963470312576
-0.12006094149012048 0.33272691852511993 0.14087260106658961
-0.15665677244682774 0.31326416780860827 0.56586369870949871
-0.18379471087562327 0.049918311795886156 0.69953227623016545
0.14619637970719368 0.07678359962073511 0.51128015276997019
-0.30788135592964216 -0.13744424695456345 0.55479398229623222
-0.023599063356698036 0.035999923714450599 0.65348342149647265
0.011918718462147981 0.018625075380314327 0.68338713946116114
0.057062202973630405 -0.042258445429466163 0.66415592773588861
-0.57907155963602919 -0.60284845017111843 -0.17979192161677235
-0.016977577288955437 0.28553969542753049 0.46667677555574411
0.032679328103797034 0.30151015358096955 0.54354757334990222
0.11408299560243429 0.46440167218005618 -0.041483931902439652
-0.26682693573181382 0.046222844313174583 0.52965140797350008
0.28495686425256705 -0.25833298984879505 0.72129309576316747
0.25360133196914547 -0.27395676673763625 0.68659606065813816
0.020020244758119365 0.40325022936961602 0.51400774088241408
-0.64512643806173542 -0.69612873176126389 -0.12633948449688823
-0.14899692735434589 0.050612156787048362 0.74014943752660955
0.043958997159202706 0.54835533942083159 0.46058060237128318
0.16071970091947874 0.80403648430138241 -0.16604268356987678
-0.58445984381536331 -0.64663501696052161 -0.16687421459922047
0.089671487199832534 0.29308378377629463 0.5429726738439381
0.11337452043717011 0.020117894353932519 0.65616214197693334
0.14554408945830732 0.11857849088436934 0.58050349732385187
-0.086072402989087804 0.1031656613871757 0.59936130606792914
-0.4719387018038117 -0.40717132591287752 -0.44022115435563092
0.12822457970066059 0.4403711799948673 0.43540545113748563
-0.18131693173533381 -0.02032329094006452 0.66361775727139261
0.12952578596797326 0.82924319505930355 -0.25825917587180247
-0.32526248255506085 -0.078583141560597258 0.30306116054248711
-0.042139979602870636 0.029611545019186281 0.65824762844998452
0.16447313423031229 0.32372873544173963 0.25124263156045795
0.18910527260479104 -0.35688305026032019 0.63434169328706536
0.15199409893202498 0.41174236178604717 -0.012881784862509238
0.088251139297821357 0.32819257228979692 0.53761213593385704
0.019068864897560212 -0.23455600394131576 0.48251164956607556
