# XYZ point cloud file
0.016134085550175925 0.30855504797410926 0.86291362680664463
0.14008068693136977 -0.27441006698006376 0.76025982888688404
-0.52149204045078701 -0.32433797827848077 0.7311761530259222
-0.35184006429128623 0.034914949886260427 0.81264785868402623
-0.0055738246724112983 -0.29135167619361901 0.47908868772801227
-0.45858944009348956 -0.30084179812646994 0.71448848100673956
-0.033509674615237905 0.83563120247490374 0.66589855691924171
0.12046719590323463 0.32116070022611543 -0.61621788158305435
-0.70963401620105682 0.0073058656788895782 0.68067983365637641
0.6503253966166902 -0.37111092338024942 0.75310429592899553
-0.10330948915227278 0.89250164017479272 -0.30930208229579392
-0.6406407486117498 -0.20914804865648629 0.43918127802249618
-0.57309125987170528 -0.26125038685075408 0.81142204893837366
0.31179820777739842 -0.3104619085210425 0.35802220758506031
-0.31182617107325949 -0.24812085074681711 0.65098944919802904
-0.49205282199112244 -0.54010708196133894 -0.33742011715453124
0.20709179585384696 0.41869246960796813 0.58762504073824751
-0.45042396651685035 0.25473442781416855 0.70860427498422052
0.31036137397504593 1.0933367936898533 -0.37181022358095461
0.16936200553081093 0.53220794024740492 0.68131945982272413
-0.82375343225526532 -0.98207005971875372 -0.4805613389826604
-0.019584983363611919 0.39930874651466031 0.76342036314959927
0.02059387783357991 -0.33538473470392649 0.49395936206689584
0.59811917394190672 -0.36338430610836436 0.66388691365043151
0.3357013591325817 0.021234921816215113 0.67526222964480098
0.34122950062098134 0.85537849908634889 -0.2436972267371651
-0.72906690743872282 -0.44176040418482909 -0.13977721079309546
-0.022797152637497931 0.52665866474976664 0.73292566268894355
0.094182088830019772 -0.24034392638900925 0.61414564262225646
0.36286458515560316 0.83718947491357643 -0.27079680006539064
-0.24211691109229694 0.43599164123378475 0.77191802631854767
-0.59680217239928801 -0.70961034338634921 -0.36611891096503157
0.46880167274489448 -0.13961762630808394 0.18905772984823521
0.39959402663618881 1.180874910264496 -0.32917011746380354
-0.31686481434565295 0.62901174216969302 0.6535636719512663
-0.68772285311757031 -0.95851924883867223 -0.41183533454999832
-0.07544356418065945 0.31649439273995261 0.74196059455746166
-0.31088265187093089 -0.60842300805888438 0.020586918425092193
-0.35752639065699832 0.048554146746695892 0.64681302207499769
-0.30834830820605497 -0.61210418541050338 0.023025765443263957
0.35001831877000544 0.086193124333058257 0.63375633102574369
0.74626503722938775 -0.4331947503548701 0.63208257055218731
-0.94629384729200794 0.13026293197457095 -0.21676869181291014
0.2384508821531055 1.0370751767443449 -0.22685465056995469
-0.43424858965259716 -0.72534672212351792 -0.29916942610756614
-0.0099937303626278506 -0.17869753341418715 0.6905161647480309
0.81226081840743536 -0.31731551790490631 0.60462183829015714
-0.40003136223256242 0.51474207620210732 0.69985401483398846
0.72154587155536287 -0.19968150483865266 0.73733723214239788
-0.48785603229942165 -0.57833351192821558 0.17031130422769891
-0.34837183686334949 -0.11042846543116358 0.81960827807961323
-0.52463237468631529 0.051205237247834212 0.62802924987862774
0.43521568412618272 0.30686825533397366 -0.26767793812353347
0.58207692381970855 0.58622687320034661 -0.18022846026004302
-0.62187122641492287 -0.45432197701018628 0.60880211879836565
-0.18470198928975012 -0.45383227409042171 0.59373170899053562
0.75542352990351613 -0.48302490760886752 0.68711193572194063
0.03831003892038165 -0.096527059711410956 -0.60771636931051631
-0.46514363776501533 0.9135753515464935 -0.12652961780544736
0.11989539673572658 0.41515522796068582 0.5936275482027753
-0.59546691772871796 -0.6954360341245609 -0.35227667068356894
0.31901305642485767 1.293390462105416 -0.5307898824327193
0.52603975928765934 -0.3523729480038833 0.70454009879162172
0.12351264915320925 1.1555406598993534 -0.34829151259259028
-0.25194752051156843 -0.16738367284067479 0.82362329627600772
0.78233471465120452 -0.41501935977012483 0.63732294095987818
0.68568657122777399 -0.614924394674361 0.70492725341967777
0.32159350202374792 -0.027031783715964153 0.8605398681176446
0.31952836975856247 1.1751026766056407 -0.49436253824682552
0.65286141026886035 -0.55034168243556181 0.46103982054453141
-0.55405834887680072 0.085530937664920259 0.53424506326876031
-0.25276768992404364 -0.27302021851247638 0.73615679858309058
-0.59338599482101895 -0.34724125865089928 0.67629852243793387
-0.15971947523097718 0.44872791966678616 0.82470119603200231
0.60805691761169722 -0.45692023252209957 0.63923894352703314
-0.83225004471880748 -0.43756583644243019 0.18721826623717064
-0.51286059875495482 -0.42168364203199094 0.62258435370459075
-0.56626640666721073 -0.7724580462677948 -0.23282299244786842
-0.023594845963337718 -0.20396929451041856 0.76234632527892643
0.17243253190928076 0.066984671903377979 0.77792598351648223
0.46277101779477192 0.77282282131835545 -0.33182931070907173
0.46888848174514308 0.90947898238613623 -0.42038724567953167
0.32546293876508869 0.095664852277358658 -0.22644553065874362
-0.68676148259153891 -0.28696999723998395 0.4083467089413535
-0.68342677385481476 -0.61313019215512865 -0.23237432758056098
-0.61378473713214277 -0.73724943824876821 -0.39194993339459216
-0.40233635093883269 -0.7247891252151808 -0.1606407264169194
-0.46333591590968748 -0.79165170838652443 -0.32790866296047483
-0.67129094309829007 -0.4206535554273092 0.53876118041986487
-0.12609296200449993 0.54657771351825524 0.71663441001712158
-0.21019977540680657 0.0096200332071347816 0.82154169064721749
0.19905210599639123 0.62496023283091873 0.44200124030595944
-0.33704206250487889 0.10347189841297588 0.82630000467750442
0.15802605670182146 1.0074628675443518 -0.20439344709161489
0.36518037735290676 0.60691557696800968 0.41774384061358916
0.69826771105825802 -0.65203016909199185 0.53521041905458944
-0.42987339596188523 -0.79350193824963222 -0.16147106501577468
-0.77016949767968246 0.020581649167350502 -0.55247501813265032
-0.61932361885167087 -0.91834524020761243 -0.44577027357727861
-0.79681340318779803 -0.21838226413186446 0.50444975804543191
-0.36555602957556577 0.019675690061029982 0.71118617891374925
-0.023395255730646269 -0.31761642070939811 0.66282929992249784
0.061522960460838938 0.75378456531628157 -0.48482137831488359
0.1956188751060548 -0.12277411427800899 0.75043248926319528
0.50383350389436288 1.0677732307375123 -0.40387434710052439
-0.0066283587125441912 1.0211387395836136 0.51140298061540967
0.73031950814194868 -0.33295716013243393 0.6928432611438069
0.0049258638387081888 0.59443107157504116 0.68312042264250294
0.62061537529273103 -0.2772819070847774 0.68240178136700536
-0.1752429622749041 0.40203061972343734 0.76469095837812517
0.073726808507082353 0.62193050223564272 0.67673857943147198
0.69000246337177895 -0.38653813113108448 0.709386624952133
-0.82699495984725591 -0.67943859598944201 -0.32099660138907549
0.21945300002718948 -0.12564857761407477 -0.54341879785469516
-0.739526265997136 -0.66772068736748613 -0.38032904694962433
-0.46659328480932061 -0.79289172580126266 -0.26092260990478344
-0.69758596055848976 -0.75144109645281443 -0.34119526071853823
-0.14449621687763159 -0.56771402377061442 -0.023655167076702455
-0.56474079550731116 -0.97368023299229156 -0.43903172641088872
0.17254287372339938 0.37192809786717795 0.63621715482842944
-0.56089850406718789 -0.30104205011249485 0.70139554409894345
-0.35371583177353472 -0.35758041910400795 0.71561680819145668
-0.48352939381461013 0.20265566867803209 0.4861605773818134
0.25224606519519366 0.61070078405159389 -0.17893094789407904
-0.11457472899824062 -0.10702212248930998 0.80594036322697349
0.10250359015923394 1.12216449819784 -0.37881251568819785
-0.046337369712589727 0.21866511312243464 0.72074108156847672
0.18454598023373681 0.10704921989521043 0.68433660330554247
0.44480875560281063 0.12730267646136939 0.58562723746477374
0.41534820727620314 0.1749757882208689 -0.061972280702470073
0.26361755780675278 0.7557720254767375 -0.045615997566953226
0.64913487858656183 -0.41306979341088024 0.63476805389932345
-0.072420860937002729 0.31973148723345113 -0.7666404146867194
-0.29465983996492895 0.45583018288969246 0.73659928385492535
0.68162880735431841 -0.12032105687018824 0.72822236480508451
-0.3505342289866018 0.48009265801454371 0.71262386524635701
-0.82606713520972086 0.45825513143494145 0.13230681788514698
0.12476299051771633 -0.060887784915682808 0.81347623709454631
-0.35042042988745514 -0.2129409098717403 0.81209025715040717
0.57945438273154526 -0.45263997458481775 0.68813048010393274
-0.54861006089919506 -0.15170293228046638 0.75837931996656849
-0.51476001239575009 -0.27589111515450071 0.61879741999874938
-0.64377472857654805 -0.75830246844775662 -0.35025101714230544
-0.10678745381766763 0.51574193848759364 0.7911781240744542
0.80350836838913953 -0.25543663274017447 0.53620563603168669
0.013918048120276083 0.90028616225479552 -0.36349958487900125
-0.25591316095531091 -0.68249364784719235 -0.18570450184627418
0.41179773059625724 0.76568158551137921 -0.28426936496034294
0.28467579323424008 1.068784180977993 -0.34986923563056926
-0.086508846819485896 -0.35969026378968216 0.64602441987805825
0.0066235030970531739 0.12607466288561131 0.79745504222954722
0.40700284565706646 -0.033285220181623387 0.53920532777963359
-0.51865576258221235 0.27639775342036588 0.53279152323710655
-0.76394923948879079 -0.29291884926075351 0.15729303206357947
-0.6302232099022067 -0.26103207011614638 0.65757578038763764
0.27511376946020416 0.45894872269752796 -0.25580971288416166
0.34265007408356141 1.2022777123224364 -0.4942267527483164
-0.77112025108104731 -0.8785847714497157 -0.41293452901766337
-0.22735707108094516 -0.18765039944934703 0.69778786704717355
0.17139862674665274 0.95179467029760678 0.12723962677462453
-0.019239448373197909 -0.17251335141416835 0.59397292139502156
0.78934215405656349 -0.24173185844314915 0.68631990409625487
0.61963182945303696 -0.21099584747582867 0.77602165650173305
0.54812058036501199 -0.74910436218305243 0.34451847703525473
-0.62354629027347297 0.18836454633519395 -0.60391308249171693
-0.16872347292933476 1.0800028969609161 -0.071532474338372509
0.62023933126714326 -0.61171058820551139 0.65434099359039344
-0.60078296414759969 -0.51054797000557217 0.57840925846269009
-0.66131875009540764 -0.31219749808957387 0.31602737174628714
-0.32467727377879285 0.52810804628728469 0.68917345213404335
0.65993293340488091 -0.36761168277109313 0.68975547989905728
-0.42485547707243754 -0.66990312259073415 -0.26092978612684803
-0.59707230265438582 0.78571027872355037 -0.18218796684823424
-0.42020145858562419 -0.27210865688718844 0.77072587629658962
0.47280486563330015 -0.23893013066141222 0.77594306880388864
0.48730275668243639 -0.067969357948186815 0.29195208939878903
-0.69464769389528325 -1.0160793452992767 -0.42935375537193465
0.33787817040336332 -0.49567168274893625 0.5415602692280661
0.64345199548972687 -0.54501974067428627 0.59448763801091609
0.085788764436315113 0.82534464381673134 0.3230599813865016
0.81193714762471103 -0.26550386991137298 0.43647621079018428
0.15450479024247876 1.0273072743601803 -0.21979707572911344
-0.5065090710451825 -0.00013724951273408337 0.61491957424134114
0.068604241057673931 -0.070078520476502426 0.79921315150385652
0.83674647451901762 -0.49647424777452898 0.6783309466597629
-0.3609419192491341 0.68752521132207445 0.37504752609528857
0.25688956660483164 1.0204113204520742 -0.38580992235990763
0.29805267153460946 -0.042738987735822853 0.65562936869587318
-0.086124901819265354 -0.042654955054022281 -0.69358698626348136
-0.57523655828684106 -0.23247629056885133 0.70284520276655016
0.45069783402126795 -0.28415902127195114 0.3168848268426494
-0.74380382231943187 -0.77631338865489674 -0.40685622193857895
-0.068622793914982161 -0.35339867459972929 -0.62002202672864115
-0.28290594299627081 -0.58716729674266555 -0.40688756696092199
0.35070081061467206 1.1051212498251546 -0.58801843419858102
-0.45798803800187216 -0.002513807191327988 0.77833071168948109
0.26521277369804697 0.60673703551538072 0.36766062515006759
-0.79128932628944249 0.36913214286714746 0.095683640663380309
0.048452803383859155 0.69787236861438862 0.59665843777573713
-0.32559872881547403 -0.38337735112478732 0.8009067627851989
0.21489794154227315 -0.29937663245037172 0.70662887263709884
0.38365931822516242 0.22364324497948385 0.51716387321522816
-0.63837931467432618 -0.18472453874126726 0.66472051942907573
-0.29084863628110647 0.085407609960240549 0.76815972787196163
-0.84355744712849923 -0.4106284875686006 -0.26247039180729548
-0.12916257645405871 -0.10173815536564579 0.74652960433669691
-0.50831219389093629 -0.21390935175163772 0.73999901629620801
0.47302620149863284 1.1770909444339177 -0.37189718199299726
0.44908523376793763 -0.49795644869947786 0.41674139572067226
-0.066498427003694793 0.80388988696107511 0.41656101848624161
0.68996032692511022 -0.29479273279865215 0.67033485785661284
-0.24455789733238475 -0.11410265590777069 0.75927310159586359
0.21410101546261195 0.28043904390471219 0.66997692018599331
-0.26622119670260336 0.043635978230630812 0.74442624993330497
0.24095531142342708 0.15503394899896383 0.61656991517262227
-0.094880693024331109 0.4764479729531943 0.7426595108489682
-0.55812572685226947 -0.27731255344301475 0.73021074346227977
0.18195090476216169 0.96667151996399325 -0.17437233849835643
-0.07801850863903681 0.44034857425386953 0.80944145676028256
-0.24422453723977089 0.91939673853039028 0.10203892205220555
0.39369745608448614 1.197293344330103 -0.45447198763630148
0.31163582014657631 0.57900260749713794 -0.13564550347025595
-0.47377899231158693 -0.87131175293003693 -0.25818372138322943
-0.53526427552409928 0.16554670266198235 0.8025843421130876
0.20267496225991 -0.14818915013977119 0.79341991133101253
-0.26549612036696413 -0.1438962258452321 0.76780330417672094
-0.16639571902154504 -0.3920869313704145 0.46389709806343582
0.88424310606083623 -0.24016208635334779 0.50120740722287138
-0.39377189477922059 0.10612180825462136 0.61597222781910244
0.36601798716258038 0.97964003021696722 -0.37881956853665244
0.10061570491053118 0.59419393198675818 0.66892002507999671
0.15194596869065435 -0.20058283017006318 0.73086279702349088
-0.38322404772724994 -0.026541932653677769 0.74340622958852176
0.12020081472617417 -0.17776838850078214 0.83660035459698179
0.79061581866391428 -0.30818921818333322 0.65152513066611561
-0.79210993817364539 -0.32752407906788461 0.63070967026397451
-0.23402535362312893 -0.22856366684261609 0.75751227980709501
-0.40359363748535593 -0.34622543507937742 0.75646028825071454
-0.4477588077675545 -0.51872439467971532 0.57296961604824315
-0.022626368226483784 0.79700076120077812 0.38521006693789239
-0.62795322907157392 0.53623603920342244 -0.50154579380128439
-0.040471475929908962 0.61921586177832655 0.59642905367955379
-0.24296081994848251 -0.17042583285226431 0.76478843268076169
-0.014511042994512557 0.86101741332464199 0.34299913480023392
-0.38780137845379059 -0.27183940854426858 0.75573896415144493
-0.69290624136823364 -0.62577011265343252 0.51794882994783187
0.38896211290599503 1.2635002010063006 -0.46020146388520011
-0.87781350244940981 -0.814408427810414 -0.65363199332005806
0.29699655822593396 -0.38894777373349765 0.32427318083083456
-0.34677738190743046 -0.026628213995830041 0.70065967491207992
-0.30169495125263612 -0.13154041875350275 0.772556891298672
0.21777899530122458 0.10774289931091374 -0.62320773591269152
-0.17448290161548385 0.35134340307803935 0.81137277012128628
0.031598450183006221 0.15263349155550809 -0.65712973287283383
-0.086914099064809847 -0.33667147639184503 0.68538118774378809
0.20315851315682298 0.87782870764636334 0.035167182803320429
-0.30781896969202904 0.18801472203944103 0.76845957310084323
0.77379472743621402 -0.42036169917162347 0.63605702237386197
-0.7062775156599912 -0.46854684572941929 0.29189390353387257
0.40250749069137193 0.33344742715460773 0.30695864598780531
0.29836990184727341 -0.096614163842069001 0.03102453532891758
0.077450220148389981 -0.14972976864393761 0.89577616429208007
-0.6190651065401207 -0.62294992131627458 -0.28086867005799476
-0.22803834945267099 0.73400816024350934 0.69325722170105308
0.78158884700335651 -0.33101016170364961 0.61887134069351113
-0.43288656074544551 -0.1616696742980408 0.81013040221930588
-0.80961841465034468 -0.32368371747289526 -0.46097205431001598
0.1868914983380634 0.99836446623750508 -0.26994078622272077
-0.063717679041014996 0.54927913847683341 0.81655218536523222
-0.40723799308593112 -0.25986617197566719 0.7018797919702715
-0.77935015625137893 -0.10894375576246373 0.33320137020712082
-0.078983230661895831 0.25966529478583311 0.78147294806580803
0.54771345320927534 0.0068448523924042881 0.28521630940119991
-0.48871799027842666 -0.12744745188988915 0.69536365086108631
-0.2065565568611154 0.34119994884249305 0.82309808905566939
0.20029700252970883 0.82372595609273347 0.21299529587838606
0.61633052012251799 -0.35290995421057048 0.74236029370879564
0.1422917108209667 0.46701931965117005 0.6910781503110055
0.34508183943508186 0.77903791727733718 -0.1933620485373595
-0.56167248013220483 -0.99755092063400674 -0.423865124711714
-0.34364057699922768 0.25872010261820488 0.63443400534689331
-0.35076891440805724 -0.56678713508902412 0.51106177151974652
-0.59861914186925613 -0.24971852774388203 0.60507643699778413
-0.097209143212374727 0.8223866072519721 0.32642364644376798
0.3943195835530684 0.11563679780964398 0.010563554229154448
-0.30873505706934257 -0.27424410324059423 0.7626660343445586
0.70156633841315319 -0.47734404656150087 0.69218637981026454
0.47324825775953983 0.78246563156241256 -0.1971262797792086
-0.31795811062751689 0.57265145066782752 0.70223335356594241
-0.46168961165520273 -0.6479790225220361 -0.21256524528239495
0.38520997616119423 0.022380461539293961 0.34491010859242976
0.74266518282598248 -0.42400722277003844 0.64014276572666517
0.3828230919401836 0.68963473701954481 -0.15211760528894303
-0.28710195065648136 0.56242183312484251 0.72834257940677816
-0.48097415069712213 -0.74552266137470813 -0.35371025714846294
0.075647947701393825 0.54346565433069749 0.65850911768850295
-0.04603683456952723 -0.22433882069616651 -0.68933198471771107
-0.074964416715141979 0.97476685100096994 -0.45324775782956017
-0.66115917892127829 0.039042954645693406 0.67719230900104854
-0.20801311931394917 0.24827546251112187 0.70912442172325996
-0.55004096002798963 -0.64118237756038088 0.039984017495308777
0.22272885180075175 0.89501931311898475 -0.03667666865196928
0.34793984265160383 0.32664855238156942 0.4372158286924428
0.081301999584992402 -0.066012239844814857 0.80091416917614033
-0.83172227574520718 -0.14484784465836187 0.7112691669782194
0.30673476567501279 0.6953854427811732 -0.36763264635366255
0.52012735438582958 -0.15689618521227011 0.35249467000570789
-0.26222738344024155 0.44847546552909145 0.79368398160694209
0.38398871247030097 0.80908780175185169 -0.34092066962996626
0.057104975133117186 0.86393759314647633 0.14239622482829795
0.077374857705986066 1.008082831478107 -0.30822174612185371
0.65811264475397113 -0.4662588347689276 0.60493759004406122
-0.1770092388299549 0.40400841218790751 0.79868773641809376
0.17766970789296987 0.9949603750511522 -0.3418140370724263
0.58326376146224401 -0.095825104018879337 0.42937731796165224
0.1308666665837972 0.95291737760459494 -0.30263742036455454
-0.25707028381577057 -0.59527391203850044 0.40702373077957787
0.44791275019546362 -0.19315186432239351 0.29594557874355232
-0.12354046867153112 -0.15443044537991391 0.75765379560853674
-0.28839357972160151 0.62094587627266762 0.46127547657131451
0.59040262337662508 0.95129938394828462 -0.40475954131406056
-0.44151382231948588 -0.78418283584929283 -0.32192234339838066
0.10067980912663455 0.64246934142867751 0.65692239046166634
0.20698661154777742 0.75895902442011653 -0.44788776227164107
-0.19953113935714306 0.43544788335214069 0.79090437878194564
-0.40026998726281171 -0.059139311651548176 0.79110247676682555
-0.0947137965697884 -0.35579936201165463 -0.56155385864277108
0.75626088702562733 -0.34695757826763085 0.6869742946655677
0.57600735812728576 -0.1386251586163727 0.62907365774355384
-0.12131673673499144 0.46771961293524233 0.77746695002033661
-0.72462043374765006 -0.77672701966981439 -0.49200150301181544
-0.87561949862641075 -0.82232951263739995 -0.48794601935535731
0.023185490377279905 0.76937597704009208 0.67982414829891269
0.21294708341697088 0.68979325636275002 0.49649145842849762
0.43330567879192472 0.6359803793378811 -0.2571229469444507
0.049003144130087328 0.41498899062901318 0.83047322059786843
-0.62585298711811888 -0.5185770565908836 0.53571775400799293
-0.98677943109158317 -0.96853985133277787 -0.56113598339730508
-0.037373573641149349 0.22315746900918176 0.77325221003919253
0.52776622914997695 -0.67710567620668805 0.53099101676712657
-0.52145880198156025 0.014897426061472263 0.76517238561334988
0.79850282333123612 -0.33498950669814498 0.466755678461098
-1.0187896562610925 -0.73745512173700423 -0.36747467733788497
0.30544380830218287 0.67494828849747446 -0.16717105535291488
-0.64796872625271629 -0.33804890191323489 0.63823349365467408
-0.21672246045341836 0.52173355544397637 0.74235913963938405
0.47751642580002152 -0.28417923202466167 0.37305385307500494
0.30851881801965675 -0.11418857274256577 0.74428909126506326
0.28155712556832935 0.72654866757179559 -0.27222427273627581
-0.1502912781468444 -0.51121623068442013 -0.36736267110521048
-0.033007039603761612 0.37653136127747944 0.78377604056895045
0.30492629597462972 0.1270020487353043 -0.39448381752883677
0.058091864736065091 -0.24026520305309917 -0.30569775796971399
-0.78210529589647226 -0.65398019218400716 -0.4391261959184618
-0.56969294683925131 0.4923623593053672 0.28299375693435636
0.083707867569211558 -0.021874367009620421 0.77069101272016916
-0.34484623280743332 -0.2631254997102932 0.79226555698775769
0.33307571658834867 -0.16796828336704639 0.78421868463536093
0.77179818376774811 -0.48526242198244152 0.62538756295463749
-0.67918445758682644 -0.22780417439856748 0.72597781783862203
-0.43909794388100831 0.067660481465360078 0.78829372227238181
-0.16737010867089896 0.48813489638664143 0.82912935614384775
0.53058296000696892 0.73587341383495453 -0.1948470795486319
-0.44249186732243917 -0.75764934169918563 -0.2462550470021645
-0.70086959475253696 0.16351771826229822 0.37346499127159305
-0.57840715746403681 0.53529733416411673 0.31216448024968457
-0.092425094466442204 0.42030186878023246 0.83499146379988787
0.33096142994340561 0.74766754710443317 -0.2621626547139364
0.11842579498726558 0.69956256758916435 0.56880059988814224
0.43172981727481474 -0.036316748046667957 0.2557840592221936
-0.17584333475942326 -0.054345532986472378 0.81173461827096816
0.52597140210086124 -0.71228569616065851 0.43647995363431136
0.78446016062859592 -0.33481356856007416 0.6625694076690678
-0.8535879234417072 -0.2590223251144308 -0.35653735979820489
-0.20716375396634934 -0.14708070984178345 0.76380209556786838
-0.54116875775871787 -0.27953411686004292 0.63719602881624038
0.21146516994530806 0.55431067916724697 0.62089274543751749
0.16630032091521763 0.52200208615980426 -0.38980971071383941
0.53168645114502766 0.79273393234218448 -0.3486644852582188
-0.66928455806117171 -0.76928267297420083 -0.40434047815952745
0.38052510582400423 0.81896857789856758 -0.29659007429750339
0.34091261632388381 -0.059917021196149278 0.65971212723747996
0.76029668079837265 -0.12798851835768232 0.57301563898061758
-0.0682660771366983 0.20301499533043987 0.71908350889407302
0.69180286820681491 -0.485660317811206 0.63430832497273038
-0.39197998921393218 -0.764803947182362 -0.11720928757030613
-0.22284766113503274 0.41795131652312723 0.77800772707608878
-0.3609163819002239 -0.3742813133898677 0.57232480237728467
0.89228879615272749 -0.37830553860974891 0.56711190652293908
0.7153753200638242 -0.55742400028644212 0.62790868239356001
0.88817312216767252 -0.1821780494179861 0.42743055528606888
-0.039307186277027562 -0.11606926633328474 0.6263006722876483
-4.0646108607766962e-05 0.93703958007472687 0.057318411056508367
-0.32534635011653723 -0.65109760928201821 -0.21968031244184161
-0.021268157593758552 0.67936986524934095 -0.53882400107015194
-0.49366603853337843 -0.048478552597519542 0.79806721732552965
0.37705438897966737 1.1032685067804786 -0.46198745511035177
0.27862717721840191 -0.15171518494866909 0.75420729111503348
-0.044333683307240079 0.34925826142817851 0.71249043870449214
-0.94940643263549784 0.020459354728016521 0.093037100328782429
-0.31106049363281407 -0.62206904781815586 -0.14950030874751974
-0.4771128156894715 -0.46776779917418843 0.68306887082654821
-0.52720669893265892 -0.16587711585790732 0.83060783876958588
-0.36108710196119809 -0.62348857768634902 -0.13945070922604863
0.22852845778525754 0.14826193529538489 0.4365673506056833
0.27673736828683104 -0.2791968540607801 0.72621360263781654
-0.64721486929803973 -0.37832763165315475 0.62074149672915091
-0.53142655836138619 -0.49573008872212343 0.4967364280069777
-0.63987899694637917 -0.48748515335303866 0.6070336703931698
0.19803387077954682 0.34586774050030966 0.68902610277581289
0.0986621769067062 -0.26303831486142926 0.65666005236946212
0.086909372942868934 1.0737798301667858 -0.35869103397502222
-0.5887024927060871 -0.80563260581258378 -0.34474435598241193
0.21679664620748085 0.94916662241076177 -0.16618727804628719
0.36842231594727526 -0.27856663912856217 0.67578992988014974
-0.4488852296284076 0.18929933358046647 0.65381931822919181
0.01172141281915895 0.46615060744505854 0.84296886639089585
0.32968171083365405 -0.40129146792972037 0.69572126421957492
-0.29113711710252588 0.5294793052824196 0.5568153988333755
0.1861194117926992 1.1231955958343116 -0.46194381932737549
-0.67651734254149076 -0.23364108834398101 0.69072285706682734
0.10094444712311379 -0.39709537922091886 0.57748977573798932
-0.34561495366437889 0.34216807729577603 0.52342938394119187
-0.68128996165215394 -0.98352229701274929 -0.48630582273746725
-0.12045459134719572 -0.02242775689384402 0.80246517610410706
0.71197552881668713 -0.30643596101719517 0.65293836395762916
0.24582022949304339 -0.096343170606956186 0.81573248382991714
0.30691050406990605 0.72245361859652779 -0.25673149476958557
-0.57969829293407305 -0.68282907005767957 -0.2871728659386692
-0.8751803193895773 -0.72229616146830722 -0.33096036860642997
0.3455972005552379 0.39976269525709718 -0.32103567943723377
0.60940361551697375 -0.12746258168779256 0.43431005754061047
0.085042812401147749 0.83777175921966229 0.11007897270833666
-0.39825007564458392 -0.39782442062153134 0.64591026230521997
0.4513743968737991 -0.47654711344378864 0.64215970272596934
-0.033816763610412082 0.18214036793261057 0.7244730433493185
-0.82588019436435278 -0.57913285401021186 -0.33635874642608599
-0.91124342977494877 -0.099482919851494156 -0.36443185168336356
-0.19954943293036465 0.71526629560966803 0.47191546174165921
0.63716039689986026 -0.65642974326465087 0.57587489247446477
-0.060389155391085581 1.0867448259018138 -0.28367642430264262
0.67369996936898513 -0.093516189265173466 0.53780728559393154
0.24839068460009006 0.82963965598556766 -0.12972727821417074
0.46965710970270713 0.017191358929356859 0.31012952318652509
-0.33802503848061694 0.00066758170938818751 0.81943606201618291
0.2457776953135955 -0.086592216379441922 0.74804192403846059
0.051431758243412951 0.6223690582441388 0.62540623397516804
0.28547065095687252 -0.11465434947522901 0.81481967112682163
0.242192933879668 -0.018165020805427368 0.83453320053522262
-0.10108680214547139 0.18263524261805175 0.7450480405100901
0.027098657918913638 0.58241659201310769 0.79448267713570608
0.74676540349505593 -0.37085821031996957 0.61688367054880899
0.62947827893857333 -0.41733691165951292 0.71147807570614141
-0.26288579532829726 0.10432336990993729 0.79196766867754409
-0.78214820464487467 -0.9054889559438708 -0.51275130820265602
0.02861893132602944 -0.063913309217570102 0.69480830773180813
-0.010109042489446551 0.36504620883810857 0.81152512972338542
-0.12119928721780582 0.34715342043772335 0.79724957245276684
0.3243316225493551 0.17216670435013182 0.54644387573402931
0.088509206558626374 0.26817434990153233 0.83696002380138879
-0.17620266619558578 0.34042371787334402 -0.69720182051413282
0.20325099097384758 -0.31524183896142954 0.45832835739777877
0.17912964314547963 0.63518362230756087 -0.44327583520667524
-0.2712616155457539 -0.43085270131967146 0.38236988114099368
0.63076449537966095 -0.43199219460019211 0.70707881230880432
-0.37734661781954859 0.64718271288527429 0.42948965792835025
-0.79855371694778654 -0.53750049498696839 -0.23558779845354838
0.34408893560085474 1.1438707310361522 -0.36993833578738666
0.098179787328229295 -0.17155900218521936 0.79524318347137779
0.01737788233045201 0.12784057504194202 0.77432752635463231
0.35770696253943868 -0.36788657168116146 0.72621594653016075
0.21575765299768701 1.0861969426773967 -0.32431509253274982
0.58097136989836518 1.1129296454753583 -0.391446902977167
0.84497354918656509 -0.19946706742594777 0.49757104868592883
0.44183876778745823 0.51609328489717932 -0.19949127498909291
-0.33785740066836567 0.25638427015023213 0.85065475823327308
0.29558409738829194 0.10634052978667574 0.53497912495905808
-0.025673492500528639 -0.31029373767939816 0.51168203699775461
-0.83777596358385598 -0.64809107011055289 -0.25126800830282914
-0.30191892612301618 0.53750819193356536 0.81483873356435588
-0.1311315731500855 -0.27401918737053199 -0.45015576057587481
0.66472303705462288 -0.57651103045878482 0.66125350754225387
-0.53411953275465684 -0.95564982036156154 -0.38465081503408882
-0.6905789370023081 0.090916467905637344 0.80693521637097998
-0.85929950116098386 -0.27374175682575608 -0.13953139874592502
-0.066488829625894752 0.51109434111561125 0.78631208901811789
0.050699362340172804 -0.073261746234123848 0.76414359010228416
-0.43594831591906313 -0.70671314311228395 -0.31982693154069253
0.73319476632269698 -0.50298582539128045 0.27524946785401383
0.78520960231802839 -0.077849649890219474 0.36771260888400548
0.071090463212424737 0.20582015672960274 0.62451139266628708
-0.0030255350158032712 0.97269825809468546 -0.38248672206299084
0.0033614204108021184 0.84851669415637154 0.57407109160903147
0.01866024338413208 -0.35212002587656599 0.50575045538616692
0.3936964725684442 0.97044531918732146 -0.35094410097264372
0.17519544385019969 0.81803236633641685 0.4976837177622695
-0.053108520904357803 0.24670310434639475 0.81913534189052939
0.88204133905847293 -0.23324236040392687 0.62098018198150839
0.39338182338140548 -0.16406782150496291 -0.08817336754299987
-0.26304395694939764 0.55742937603344611 0.84764953216053218
0.41311187420103135 -0.3627253055479418 0.7200113631529419
0.69476876748960681 -0.47196627804749358 0.32755827668684567
-0.32382639052102657 -0.17282202399058733 0.83776653432696868
-0.83898978666845281 -0.59198036122024966 -0.33333966753358624
0.39464408218243019 0.6747019354518784 -0.18900373721009345
0.76563779937404064 -0.37893809336582773 0.65666631010890875
-0.6866603045280355 -0.77473794605411506 -0.4074107377974272
0.24189866550435735 -0.23786989782312773 0.74796229978308304
0.54898283682508442 1.0098520408179099 -0.29823731689179134
0.2037385122031381 0.24772837180015017 0.7737399886723324
-0.40550730335319862 -0.35099566066685561 0.65389105584499596
0.39820788896839776 1.1695303827835015 -0.39950981562851418
0.58037250907497118 0.8429312265959108 -0.4111244539425325
-0.1144168067369904 0.51713169628672162 0.78558763777412288
0.0029824611236746179 0.17278952204744069 0.81731574713143829
-0.45852888661316005 -0.74707388890029813 -0.31172731476926252
0.29829839720397455 -0.32861908500540782 0.70796096963679567
-0.25243775137588287 0.57689545733104852 0.77355357786674439
-0.41468891628303695 -0.72248729382901988 -0.20084426186989823
0.2029665016560811 -0.18821255019070282 0.70867345715972263
-0.40738616489276502 -0.22589922665324114 0.88237662124087457
-0.48831061613577198 -0.10838891966637876 0.73209660829050449
-0.41862979985841164 0.35672907273968946 0.53710882673238203
-0.35635789174034116 -0.40739136151471556 0.65722987197019744
-0.95909781766249491 -0.77107696377046686 -0.42323486647463415
0.79623122644411914 -0.61290434124995929 0.56114939716323065
-0.36463333215905891 0.1759931510064785 0.64851135011183914
0.7550637222860308 -0.36744315712404951 0.64364819649352079
-0.93837145514853493 -0.71135683751520506 -0.44824138147884351
-0.25295021419170283 0.032025297488640359 0.79254687729958917
0.57796072683057886 -0.61959028058171395 0.48495039947474261
0.17123095609571681 1.1072650645496822 -0.40863253015345258
-0.20296831606666643 0.56693556759171537 0.77325515868773032
-0.48519141396775112 -0.57026475892951733 -0.20455194132390631
0.24858555974201746 0.81183663945764395 -0.29329578646543197
-0.38096880017078583 -0.12082534586051974 0.81765859684413655
-0.022422432089720168 0.55140589590042888 0.69408503102422792
0.26839830967012457 0.42336792690175651 0.37713752638576814
0.26408446541111008 -0.11569630495254479 0.84200159666792018
0.019551351729502287 -0.24382777715326798 -0.45392572126790931
-0.64069167698082463 -0.98049341257041256 -0.3942734715407008
-0.35012253867622434 -0.76590885860676172 -0.1852089723079251
-0.39064734993690209 -0.1765146643016644 0.79757357328580269
-0.68559333184998827 -0.0029307179961217678 0.72516912935298272
0.87794028110647826 -0.43894477169104906 0.52809549171277936
0.73074782177763531 -0.3092892894883974 0.36351851159541937
-0.51423730103246967 -0.66590596933800805 -0.16841843713769666
0.18069009617062282 1.0956536914673471 -0.29364117253422783
0.72216142409556117 -0.44595496333534079 0.70702346496139157
-0.62180892009823019 -0.75552612628243399 -0.34333731713905902
-0.19613038818587114 0.42676607206185446 0.74768577521586721
0.18688980732834359 0.63116087366824747 0.589462363996752
0.24683362030270306 1.2765411016774175 -0.43734755194806318
0.33844792910169375 -0.018460259276745106 0.77186321449575956
-0.76401034952105373 -0.95860613133887496 -0.47111413489839293
0.72152035849706309 -0.41056521338528906 0.44677012834357299
0.30623694761620524 1.0090570109231241 -0.50305689467263193
-0.19658217629101316 0.43575886341702663 0.62891802542487696
-0.11630016733350779 0.56818906090620613 0.69352158817916276
-0.81649682912785337 -0.35307640317602296 0.58846123233308134
0.09306692965108887 0.250426865409346 0.82164680322353867
-0.89161070431644873 -0.69041604305779636 -0.35263233645623338
0.7265422625165785 -0.46544605413475626 0.71560582152522478
-0.39626073042221499 -0.0050660281604910651 0.81921802438914426
-0.032581998346009833 0.80380775472863553 0.66568602185033399
0.024206782725472387 0.522892609588955 0.67133938705362972
-0.7255620636890594 -0.37398069484179786 0.58314476846532326
-0.35952879138605631 0.086903736557979894 0.79824579474032298
0.18645387749006304 -0.35516098368716875 0.68092043749546605
0.14930091059515416 -0.14056134196101855 0.81725079989364957
0.4180381660138055 -0.27106710558447134 0.19690590097554406
0.38507361727009837 0.69266673143270729 -0.30482766438881015
0.062209452224344375 0.47281215889834405 0.67953161581243826
0.0050615342136817176 0.48382062423073213 0.76503239554608449
0.74517178076066681 -0.49109069772725 0.60238357834069944
-0.75525657826336001 -0.46747926104289395 -0.20203304977620018
0.091529343320906342 -0.062580603459007733 0.80760677390519042
-0.3961352462783152 -0.39449666664250405 0.61151401265488836
0.10235150281780214 0.99267596658598811 -0.2355172292526202
-0.5489097131893903 -0.6675881329682638 -0.34394379374429995
-0.45065771333352878 -0.43554115668384163 0.71494447134040051
-0.3193513649771802 0.38734868004250433 0.81315606749692559
-0.36566752605517827 0.27074864858732983 0.76288139812191069
-0.49628787231287053 -0.49945230339560354 0.57820146652967352
0.42631654875001246 -0.28293548817319802 0.14977881769399914
0.0039419722592173301 -0.2390861356223386 0.80284693205139668
0.39631801514671317 0.66992879281168394 -0.25478256506974617
-0.70891918550181554 -0.63872184287791711 -0.27523334977092606
0.28240400887355044 0.095909899196912729 0.58440439745181649
0.010351324971175302 0.32750949072842195 0.84922197969404678
-0.38701204272151468 -0.82478747164518573 -0.2698147169466667
0.16696055020829181 -0.20176602040695713 0.74522573802610736
-0.24996590940530083 -0.46606775199835271 -0.5023457470413355
-0.90758994782532643 -0.64783369840177851 -0.38437719258864966
0.66289380019967137 -0.26654640097149418 0.39941884825382346
-0.086638807401260287 0.67690808844697559 0.52647279871169594
-0.66588102928609239 0.18145005459778751 0.73327706596947451
0.56956244662626343 -0.46398379332740713 0.74288643099390406
0.48044554333957379 -0.11834888744832028 0.42586728830191767
-0.31578844144930596 -0.67175069429135625 -0.055314885200539621
0.11427443356040801 -0.39305514594034552 0.58299977488691468
-0.10437646850200721 -0.52602810662873178 0.38673461881546878
0.16858662847158712 0.026285002037384153 0.76595061029315303
0.30664112623629958 0.31776186336042223 0.57921144023278615
0.7286773530310926 -0.36718384438002794 0.64782047795273101
-0.55864443903374816 -0.28828229746627931 0.72543278294101032
-0.19846079454338739 -0.33742227439483852 0.65110072773991234
-0.47378900892417164 0.032269809679327022 0.67780291640015644
-0.5103514062877359 -0.65754974125895416 -0.29194804218571768
-0.89454561819064438 -0.91061357216912331 -0.44885011283471599
-0.52038870673120563 -0.71909888074507933 -0.24417862779043276
0.74805045576054141 -0.49034137083313745 0.74837264358475153
0.35809558666102959 0.62713427992779724 -0.020992259757393938
-0.76871053954738233 -0.39129724964795809 -0.10168619094417242
0.16244982534425123 1.0832731921604621 -0.29772553894606446
-0.30689965029207933 -0.32513168829206762 0.74840098274459876
0.47555582167084598 1.0547675106385657 -0.38809526203581513
-0.18456306885668994 0.42841871300877621 0.71203675238343145
-0.35874340019557049 0.32975918233210999 0.65850373750053137
0.0181521413555501 0.64907701435453458 0.70228782993144279
-0.41731010234624666 0.14349824188414351 0.68305344108714561
0.35858839149248301 1.11365301398695 -0.38333764554359639
0.34815930703660491 0.7063178373337029 -0.19789575968280992
-0.4414636577534683 0.43860150146732302 0.63939087099502423
0.26800145527649999 0.043745019575668564 0.80747689721323468
-0.20695353533043903 -0.44019524805770693 0.56891438237720493
0.032843336869065709 0.8385387142403431 0.67448677039507743
0.21725020352573132 -0.391944632833225 -0.15369648287226134
-0.82648368696277608 -0.81472454412988338 -0.33057493283620865
0.32564974429071469 0.51300424103477882 0.32878058405287902
0.68868149511964738 -0.39364396205481089 0.68169319505974713
0.12866372013686789 -0.037529847114785575 0.83102582976039585
0.2803554882876238 -0.1261062464281224 0.8233273617334973
-0.43764174445754556 -0.34304253965011711 0.71017745455196035
0.4806177534945979 1.1054292350890353 -0.40690031658397707
-0.39773703544357275 -0.54197184125769304 0.32140665822073267
0.72079746965351266 -0.12416920907869233 0.71206003929606609
-0.19524633381341783 0.83886873035512277 0.59215651736339758
0.23781711374732062 0.35126247327623261 -0.55917082860066003
-0.52451023275296649 -0.69584014187323673 -0.33826944986160612
0.27360216263252646 0.86570722116441345 -0.2133279875943046
-0.78183609520779385 -0.63499089975322986 -0.1845173490310934
0.35740328848139935 0.8189193849229266 -0.32594084955596614
-0.82320220727888049 -0.81828843934948425 -0.49711842831590758
0.18128364590860979 0.33698227858970631 0.6602108598453853
-0.38519587891027562 0.099697169015398046 0.7998342793600175
0.16519626994137671 -0.03861241464874432 0.82972275174329724
0.60905919716936285 -0.10889680268336388 0.55496019973733191
0.1484933621878195 -0.56173911713964841 0.11904061330529636
-0.032599038144676129 0.19886678655962919 0.74619930738808904
0.28213086003828636 1.1034237980377861 -0.47319364101652894
-0.48664360546486041 -0.33104515093096687 0.6949006483723883
-0.1172825326591127 0.60210695122468794 0.66366721111687532
-0.51760556752381781 -0.15073144976775499 0.6488406085717191
0.18759779949125299 -0.03314137079711621 0.79598386777192509
-0.82948768524875494 0.16659407016623273 0.17511013216653559
0.82846999068226967 -0.36135202622108054 0.60384592915168511
0.24760341083126125 0.70420469243450112 -0.26432920736759158
-0.44189229804107821 0.29078526948199457 -0.66005552164653736
-0.28657945593563205 0.69587784781524897 0.69153365804248068
0.29320302824693556 0.095807732314016292 0.61488700268014007
-0.68930525858064673 -1.0585670099346256 -0.37052701861663628
-0.52017171662168415 -0.27305992960326986 0.60804593110117544
0.4759703834328004 -0.067086965971629553 0.69985093085799299
0.29287771868367862 -0.0075359884554799805 0.40618328537074611
-0.44441930069405799 -0.36469988589280078 0.68002959447168543
-0.32630795421992254 -0.034129848000525431 0.73400521674127539
-0.4281957470848452 -0.65860475199266988 -0.28041076547001431
0.23831908755992171 0.4954511247714275 0.62656396590580776
0.69330704965486589 -0.35962255551620714 0.67683069138642615
0.42077289362814341 1.2458485816343678 -0.53129175320706246
0.072799431521761271 0.48663063679164553 0.72572656238103761
0.41603228638516576 0.62831041092381357 -0.33928201230466826
-0.11493744538694006 0.83974092166183301 0.20506301582931741
0.37270377622438566 1.0305518286433271 -0.42439506172252628
-0.4752613597341977 -0.41268208370810067 -0.48135044624583045
-0.75277480605438907 -0.46518624585382273 0.4910931956323914
-0.49679283515902561 -0.22570998079955062 0.68014589670702641
0.53668825275063181 -0.72169779284940816 0.52928151319653693
0.3642725748439517 1.117209155554574 -0.43119896788356904
-0.13075009771829293 -0.37711489825462419 0.63881029456808136
0.14480842704359453 0.026316367563471665 0.83354092637639887
-0.45030728178193513 -0.33605546112760676 0.63114012283388377
-0.69415805096012129 -0.462733711572064 0.3609545413394244
-0.78944936875385707 0.13982925979981964 0.30554042009871019
-0.74930030383061919 0.071744199580524803 0.75712418838972617
-0.43789313386558337 -0.20793387112182193 0.80136246761731034
0.36827941355532712 0.26875042519179626 0.54034886904459789
-0.47216341643960735 -0.49661630993907657 0.5732500148189299
-0.050764944659787758 -0.0051957929321035934 0.75965886566631191
0.039756994337247775 -0.004513596020461641 0.79597224835276137
0.21353653160353936 -0.05190201279271367 0.74048253647645979
-0.62661502522517587 -0.72271953827033997 -0.30357222427170605
-0.32722978463958707 0.30030241889062026 0.63336952150605086
-0.21243914497825589 0.39173162718178078 0.74449909933474956
0.23831902671526173 0.73199875744297649 -0.31007822820441611
-0.68543612183314817 -0.2817331810833692 0.63597227809338008
0.73484357697994174 -0.41846271425275017 0.74025936317917029
0.73779244293121948 -0.43162116648928084 0.66691203571591551
-0.3684344523869143 0.45503072690202373 0.7422608903142649
-0.56305191170830771 -0.8684548635300926 -0.27920052093601555
-0.35161712331536865 -0.17438496748696952 0.84763242693333218
-0.46120838967781186 0.59872938707474166 0.72537826556679086
-0.097840524121931338 0.93651742584640618 -0.16784378770626951
-0.53972604903020205 -0.73869710535533617 -0.3365626807009372
-0.052771160808893214 0.46763248426759008 0.75056857640383079
0.25134432559198938 0.10585155473469543 0.77231717729746485
0.2512700029138113 0.30477666722383034 0.71255936276745757
-0.29157193994848107 0.011476915030909751 0.71870191362677183
-0.71511813796038837 -0.40042456978447927 -0.55703937358727185
-0.080008420935118174 0.66542494105004524 0.67324683835722254
-0.34030993423556488 -0.27143554064134356 0.73408775794999492
-0.23208431962507792 0.8925098643033591 -0.26829755837918157
-0.73337270573937197 -0.3865569781494691 0.37142596634948788
-0.086302212175546344 -0.037187024739035124 0.76060403644312657
0.3432247882906454 0.61358552561122837 0.16541857941911786
0.74761446281978738 -0.62830347818274834 0.54247890595281767
0.38407391696151461 0.73009339715077726 -0.34304740780049592
-0.094040502460214448 0.50324082607145693 0.75875667504574906
0.49738918879109661 -0.21712489890303566 0.29742588764302802
-0.36426256172671678 -0.30306696980375492 -0.65759311265509801
-0.74194552976463868 -0.29898484623526533 0.59924701024069194
0.60917790847457631 0.94951850647213054 -0.29270171966009428
-0.48613756971246769 -0.24427590750604455 0.88680468957469838
-0.75678188656092704 -0.39046415317716665 0.57709378803890843
0.26964823242302138 -0.0068757841262989672 0.85025783130082111
0.15959320006886912 0.60203376837749034 -0.50035195588214521
-0.42102343709361101 -0.79554638978736802 -0.26287477419882777
-0.81811096318999699 -0.28092536890530617 0.19668158547249526
-0.42434082843282273 -0.14355896964329995 0.76753499451563023
0.050779042181956946 0.79857167041837851 0.45263120105511234
0.39104557180419341 0.70785963661791795 -0.28861633870030801
-0.73984511528485353 -0.44480334914911479 0.60928904875900614
-0.81976960740447069 -0.45663085943782589 0.32353425423527327
-0.52060257427413159 0.22605188991695391 0.69903517525004411
0.3581475999469399 0.86473420093327458 -0.36992175443781683
-0.43767263617182639 0.4942445538718494 0.71033910833260716
-0.49131240867742054 -0.059736170004435873 0.64393480395027325
0.66925622774510884 -0.37708029249259489 0.68176245697866378
0.023477040538812943 -0.05858701242971609 0.65213543719364608
0.23888714151975421 0.73013439549655579 -0.23634142892855969
-0.421887324727094 0.020521008036391564 0.83185444043631307
0.24358689757098162 -0.068082687141065357 0.79581922609244415
0.089508662679317119 0.32829452610391563 0.75268503198086378
0.24008148195504209 0.50126421672347288 0.6830504790696903
0.16262519918037466 1.1822302845256971 -0.40395960251848351
0.25849657260453629 1.1425496609798493 -0.39949155052950935
-0.74839066796379861 -0.42065773752995828 0.024431273953120503
-0.69481037697413495 -0.87194060590467748 -0.44927958163994131
-0.52776250443291595 -0.25822445876155875 0.64447127023579576
0.74037963190129918 -0.64474972545288889 0.53597298434051233
0.61917917236691267 -0.28439808669282751 0.32733901130401222
-0.22520804703003972 0.55056285914289305 0.71605460646823715
0.55509110626589564 -0.3224201167713332 0.73560443168161171
-0.54471541745818808 -0.40941022579508157 0.69819548137499332
-0.1368842042444518 0.24650456592592418 0.72489251147269762
-0.47203126220059044 0.27386320755173266 0.60383835964555921
0.6232813145230951 -0.33300797089978484 0.71350884081768839
-0.19511591551397256 0.42005646988652057 0.77237101413968112
0.40193408798145391 -0.27439944757772139 0.2472142062946947
0.26063548746330856 0.54411280603283707 0.61615004621512881
-0.66873736380516924 -0.33005316782543881 0.6250096991656191
-0.75748813915090274 0.16330891197684094 0.75383358548449841
0.01041277824406972 0.34248066072818872 0.7840702927058949
0.17434822263168748 -0.35249235216332497 0.55582038092425634
0.48935150802620875 0.7517821534386222 -0.26179126567252453
0.030569538555589304 -0.14589160815565272 0.73314865505196281
0.2275967752658774 0.79018627628333515 0.44248157241259634
-0.87589094460756911 -0.66532699945808904 -0.34734154919484084
0.075350384612987042 0.1838329515892636 0.74955926793176353
0.28532010305553879 0.26243379009041101 0.61406331045797913
0.10847958855999895 0.91584762217045967 -0.20231382196040748
-0.20248788394987383 0.27003629259284967 0.76363994542446711
0.18221962379570567 0.72600041787740466 0.42692329821223929
0.63992031006688332 -0.465712554980664 0.7840706489016398
-0.56864608386609383 -0.98289489243761174 -0.32510949561264724
-0.71297094395978711 -0.56660006975495936 -0.11007810175200916
-0.39416981543695595 0.53386142417379068 0.82532289769646994
0.20806640677786437 -0.083360158270213702 0.804125891863956
0.1364422117174362 0.57998364206918174 0.74765995086388415
-0.58774786390889755 0.061813376867438041 0.80890734868224445
0.27228928999786284 0.033777116910480132 0.83428522973418495
0.44399137828730417 0.85426126319203033 -0.36177252701455132
