# XYZ point cloud file
0.61919634640617183 -0.51471495916008525 0.72488116939486602
-0.16950789131142052 0.20455357374859329 0.6772962264639375
0.69293258681706149 -0.42719879454746046 0.67901947518694428
0.77518237135866919 -0.38331959295632956 0.68301336497739662
-0.39820078555426086 -0.71556925359782575 -0.20536917829090928
-0.32451478553009139 0.36329026816197318 0.82524148801344843
0.43134388457872941 -0.61424784521307529 0.58799870635907681
-0.011180202512118598 -0.44245982562739705 0.31478435996270626
-0.72253635613608846 -0.92873240220022213 -0.44830271421785284
0.3341075713901418 1.1174496761752206 -0.41786769004336932
0.71119860337448593 -0.43171081828503244 0.63025159979603806
-0.73449848024274633 -0.50503846195744151 -0.14035440657328024
0.32938206091896749 0.66109585066086085 -0.11317315122114913
-0.5685145285586275 0.2114173823723009 0.84332328497051101
0.83397743498763521 -0.15296762679641596 0.47989678986590967
0.32703370334807591 -0.12291934288083084 0.74127692284089264
0.22246179037802261 -0.0030187288817247193 0.72628970031128937
-0.99153747360581068 -0.88117774152611439 -0.52290968288636464
0.046193635564131696 -0.26142724639972847 0.65446172307777317
-0.12360467417123289 0.27336122623539083 0.741980952783174
0.43268917172270349 0.02648511118242336 -0.15679592999435776
0.24460886306415031 -0.32024720245777871 0.042615431013436122
-0.72985618921117457 -0.76124132136717559 -0.43566946759407799
0.0016467537695952217 0.74822217461161999 -0.55656011206585276
-0.45022985760836676 0.12281185682460771 0.62134312713845397
-0.45861170894421122 -0.984965370308303 -0.30729702682203097
0.69740630190332364 -0.34410188236292782 0.62444920434752405
-0.059813545339325813 0.37505395197686564 -0.65355720999124856
-0.91007103975498982 -0.79998664873493208 -0.49196053401700901
-0.10346730538985494 -0.28678798823352025 0.66576237646941472
-0.34418143678866731 -0.26324087106559091 0.84079595600341328
-0.43286079149494316 -0.092779799582006994 0.68322526882453793
0.13291911797107314 -0.084472454792045681 0.75047926584269931
0.52504149199794892 0.99140616550938354 -0.5214267752569004
-0.59146706204293586 -0.17609368965556449 0.73553187098373751
0.22426418058234443 -0.24179002146569317 0.75184662897244614
-0.29962163023550126 -0.7613794376582721 -0.09427619831217271
0.40040676684279219 1.0312914336840202 -0.46353233367528901
-0.52287935667624996 -0.15530557041170479 0.7047223103306024
-0.32639229463063035 -0.4062820475807154 0.69901010961537224
0.68979638147598976 -0.3406449492109056 0.68343787653173393
0.38360514309667515 -0.017093987456552995 0.45177171595025989
-0.74116078905122151 -0.73186933354477679 -0.25437663668057731
-0.83336538450186559 0.42762182036958141 -0.27645147054097574
-0.01554839787711515 -0.26359227226133131 -0.55154949349276094
0.90934445745159387 -0.21129828998662514 0.45028871820707472
-0.14359181135947452 -0.42208811458161222 0.68004983654982176
-0.82676358534416927 -0.78311888870467472 -0.34217384401143391
0.36515084451591395 0.024468983181107795 0.57700778896250959
-0.52242096170111196 0.21344418518593278 0.69216689476206383
0.035619373697754142 0.93806087041970709 -0.078341428231741617
0.023897287739489848 0.43944238753444909 0.83823574562442538
0.41207085067832594 1.1779319751610418 -0.42029697152965007
-0.57086256292496085 0.014991454592256037 0.70957828299019354
0.4107663024497672 0.7080516869491662 -0.31831121136156426
0.089034917990755247 0.2756018847057744 0.76274973443623928
0.53022984804107942 1.0198984083404252 -0.43378260226976018
0.11384501007065406 -0.14758354210619284 0.72870805832758911
-0.24940139750671797 -0.22748141204833594 0.72648544509165269
0.14347460835845371 -0.080926051187487857 0.739641323355265
-0.74256537435939052 -0.90225650285516723 -0.4107473711050238
0.18275002065513668 -0.35614573661848947 0.65328359923735668
0.53773453802520521 -0.43341234776852566 0.75266756428270831
-0.41163872948059499 -0.62352091632399187 -0.046314321670364755
-0.82773710817707258 -0.60059648255773324 -0.086125741394936561
0.79426934068696031 -0.37317786218967619 0.64389995010720469
0.89390055703696625 -0.21814281589970186 0.61167339750046956
-0.062278300694750932 0.3666399894146708 0.83354105069473228
-0.57189394994713716 0.2689793368318476 0.50954529474707666
0.027928278162994147 0.75285293642580298 0.63142215276497282
-0.015834500713754807 0.59632519007986806 0.73690373234933571
0.051417523084348105 0.30748437305604526 0.82253650766054953
-0.43615793890796795 -0.67336217424429146 -0.29536531297155033
-0.6997824464464486 -0.81941054238799094 -0.40018254192528513
-0.48314278190376481 -0.45633955811659277 0.62233075608305022
-0.16656313515356125 0.97835630769719217 -0.30479614046878112
0.080799029583717541 1.0667605093258776 -0.31275779443182827
-0.93512434234171415 -0.058502190669158072 -0.16746848076763676
-0.56319105358032306 0.13118301393478449 0.6412871485268461
-0.43265055974278521 -0.65682970038079436 -0.25153593090144888
0.35057340120090608 0.27345924069590177 0.60955834286708566
-0.13353183333158025 -0.47763214353856931 0.54499914999681209
0.32447961302395001 1.1806573593283365 -0.35014812486852165
0.76455362795798187 -0.39338254329837774 0.45195597751859928
-0.56608502883475964 -0.04877775335217116 0.81699327981435665
0.15279273701886442 0.41688893956121786 0.76061055291615709
-0.59083984767387587 -0.24788797186644818 0.70332584054648706
-0.10620668710460723 0.56263334333106574 0.75862358526795681
0.0085173709205923487 0.59239924551625744 0.65506636832121856
-0.43738419844780463 -0.15086596448646983 0.78602960368219854
0.14570999407228413 0.085824974010016319 0.6618205673218327
0.34390840325152006 1.1428884560114185 -0.45074430432214108
-0.74812283075035957 -0.8506244709008377 -0.37118431272462082
0.17960271022139018 0.80442365029071272 -0.29288116258153352
-0.059441347744315642 0.36681773821629671 0.81873810975675276
-0.46930299439812284 -0.78946607915749745 -0.20520764812914827
0.82901810519845132 -0.39415558070305234 0.68879439068694381
-0.39523207042229114 -0.48143545645772257 0.60937912332932775
0.19193000139544658 0.77754024508336883 0.41662678011577725
-0.44548661606081552 0.12364003307421179 0.73613107012903889
-0.31914136946865224 0.31398518873748715 0.86187560428057708
-0.2060745341740704 -0.14983987164184676 0.84043052402270302
0.27347282332742573 0.63882293454575301 0.15222389939732217
-0.10050283030131091 0.51243054079999162 -0.58711219729897302
0.47705996086601044 1.0528201230716898 -0.49370794189705691
0.0088251299334336508 -0.32531404349967108 0.55443961353939208
-0.17349819947698997 0.60686459812885607 0.64977238119375968
0.25724646709157284 -0.39255277576553205 0.29778433509193469
-0.070689908254926159 0.35796749787759197 -0.6383366933763952
-0.058660552827221046 0.38003048487836555 0.82885740568735145
-0.46640423374325835 0.51647200059334919 0.3713317651081498
-0.10762328911353158 0.97124954164951638 -0.077179722931621342
-0.36917056150906902 0.79222917834469797 0.58395533741228611
-0.20882533485742716 0.43889215089340539 0.84850722303881998
-0.48805543225590942 -0.66346690294849298 -0.40855249554379203
0.7491896510774021 -0.32401332734838917 0.68091838537501737
0.076330736064161187 -0.21732206246695895 0.52864388499128978
-0.16141423668119881 0.66945665257816156 0.7109779594940715
-0.61708486461085421 -0.65767990282468647 -0.3894830987583191
-0.52119703162421693 -0.48735577709740108 -0.12580028726748704
-0.055398896440347123 0.68008455486573816 0.7429321207790931
-0.58661713334523302 -0.47255353826121249 -0.54397538903369203
-0.083136771804017684 0.41139883129293997 0.7008087164367609
-0.18195089471667725 0.32885409380525532 0.80369104686227111
-0.47325714263184793 -0.27919777761263287 0.70757883473816996
0.31985634390565831 0.67356512870695529 -0.20842759889993445
-0.35339742696508036 -0.65628835513702999 -0.13077850686535086
0.44629904891005534 -0.57885512692397878 0.66799790025855099
-0.64363599230941659 -0.16594458838717996 0.66195036244841887
-0.29040672547667246 0.99279225480430577 -0.15118440100864916
0.22543789999966179 0.99145048305865924 -0.32948072703444886
-0.4724815938873359 0.42201971965975993 0.68949871693117437
0.61025733613008626 -0.25871669561025623 0.74295526833095948
-0.58000845880740837 -0.40015554684367416 0.57341086150325271
-0.33590130408651842 -0.3563903743564758 0.73844397178456234
-0.42888126698702322 -0.28864925726306812 0.61081823075177155
-0.54842950261030499 -0.12868449353766653 0.82229882775297014
0.17052770729811328 0.34310649180330755 0.66460986559212287
0.71741138915309577 -0.28156351899889565 0.64000503164253786
0.10883520963153526 -0.35236669836751933 -0.038267107921052812
0.65196190945532173 -0.63339561436456737 0.57462047811125672
0.77453340316130781 -0.099967184368739304 0.55169611267253593
-0.77136707615409783 -0.8385808966138657 -0.35664621357209114
-0.21080175285734803 -0.26866775268125753 0.77432371316519166
0.25844547732305223 0.97089862117537251 -0.30494951869408382
-0.0005527854455804615 0.68680212190089396 0.55880174525067972
0.2707527925962232 0.074178638489573068 0.60112767123453104
-0.31691235970623932 -0.50750053094010017 0.5158895646430075
-0.25158439290083479 0.28831273297882287 0.7576165793727565
-0.54408633250812155 0.51791183786150263 0.66538257066033424
0.3158211296910487 -0.27455969744047248 0.72744688712880112
-0.71216112529338638 -0.40831085425038438 0.65049538061815682
0.54801283399061163 0.92803079298803604 -0.29059374268019234
0.12853485232779072 -0.097069344438253324 0.76883486022764203
0.14368513054889576 -0.19779284974584677 0.74140956392945512
-0.43331528174476386 0.90225181323483783 0.12467856620847417
-0.58430575028015319 -0.54287577193092051 0.52310766221011473
-0.64037715296720066 -0.56196308357486702 0.073834732813218729
0.74701282511227429 -0.3715458359284769 0.68367033048405368
-0.47351153872475749 -0.067724883024808058 0.73171520545871349
-0.17584940792505677 0.39632775578687074 0.80279557843887872
0.84719181299912272 -0.17062935277831137 0.51177470008579284
0.30037570792325852 0.80925110586631899 -0.32475968384964027
-0.30670193448770178 -0.62871728085042466 -0.022861960472416065
-0.22077012121178807 0.018899749931919452 0.71988338319558309
-0.54955330856082263 0.36791054490916864 0.49783217750041153
0.24785651806083386 0.76569471562321878 0.51039551368295299
0.53007190334631638 0.79950357399213434 -0.27128169550650583
-0.41718394973255268 0.03174568880783557 0.74847968797582087
-0.56106179641988163 -0.69094269983821333 -0.25711610893165471
0.74485035754463613 -0.59666611955656546 0.62063232174435612
0.82041827208797713 -0.47626186924154634 0.56740250225874966
0.91398719056112743 -0.26369029938106436 0.50095952604088723
-0.01250120776706698 0.92633643021872247 -0.050299014123329044
0.24816641533007733 1.0818713056427567 -0.45470290591992857
-0.70809330282510974 -0.44292033672556874 0.2498984147438259
-0.46529496052248565 -0.11541470318326352 0.76038348366331565
0.57441078627676845 -0.45104233338164867 0.75157823146767821
0.45302789040816371 0.77758763491388816 -0.28634757714710446
-0.70820075107402403 -0.042165563653776772 -0.50241786565715252
0.71080551927743585 -0.40249102258299274 0.71300559359604065
-0.52407807519454153 0.10571357793567193 0.82642062689459017
-0.37213836723178417 0.19748577726480798 0.81691746321917602
-0.10009981768821063 0.13922324422940857 0.78216782400142826
-0.49252202591361005 -0.17136903504966927 0.79444081477039497
-0.50824789895906264 -0.075489258578885998 0.73462254948815531
0.27038957753504 0.66817988545495499 -0.010162967971108827
0.068660583163525857 -0.16684043296694107 0.74097911568746433
0.030144065058664182 0.033387084296597536 0.77407417287701996
-0.17090494153680424 -0.05126414557230774 0.80149454559867195
0.26851471859148024 -0.0019044257213423066 0.44209837185406364
0.44654313514994559 -0.46478945415212891 0.40876096585170174
0.55365872821901441 -0.065660640165047468 0.64103338156455081
0.6253930880130163 -0.3090115827233415 0.61829879503328478
0.0010996203671158611 -0.30018308962621987 0.6339073564736033
0.18141557470699343 -0.16678744527919154 0.70436807349749131
-0.487916615552348 -0.28404467133038835 0.68988697877191107
-0.6734924896268577 -0.17760966747950535 0.46113963394423152
-0.68284336103656962 0.18560052557184736 0.78776754490622203
0.42231780306572908 -0.0064957519452963908 0.12693284918680448
0.66475598027427996 -0.32045639315500463 0.66396855615622208
-0.26269184926557898 0.4118961380441184 0.79189478628303878
0.22110728078260689 0.89399429772318317 -0.19707469998626692
0.53670627949348937 0.82385493241012808 -0.37873473930877033
-0.27063895085657297 -0.1522159780967689 0.66237665536177737
0.11227643169763635 0.41558239739903691 0.69441576363543867
-0.10667694241041481 0.79441890211344357 -0.56484468664632637
-0.64918801976255036 -0.75108946247479969 -0.48290802723744886
-0.29224416949020515 -0.35541026038658963 0.67739299077833515
0.74410920895892385 -0.37003370409594094 0.58577438463574794
0.72637555292661116 -0.5833724317020117 0.51302656078228459
0.73274596296256611 -0.25549263986872806 0.61495841624569358
-0.41820500661935434 0.18152604368488756 0.62531849105269721
0.46394326090179661 1.0601901675884327 -0.44715328863007642
0.42090756189629897 1.0532174463744965 -0.42615618800299693
-0.21160115905249377 -0.1836284993920918 0.76957951676791314
-0.30647301170777919 0.9120522711686978 -0.27689416651207743
-0.40605664119421014 -0.78771950444082695 -0.17138271105930336
0.44593013802903858 -0.044401223368762288 0.62297658682229873
-0.41917676417489336 -0.021408579477181888 0.81053344214140566
-0.49534672186884521 -0.031081071980421981 0.7296495039702986
-0.015780393140557791 0.70028722220378148 0.54476609529000797
-0.76544827196660226 0.1219587278467813 0.70280152838359555
0.67047213770429348 -0.41530437578864099 0.71702465896584755
-0.71687640745923176 -0.46630824458249309 -0.21787405315298081
-0.50581102776902043 -0.31422942714650848 0.77340460780634501
0.079019093353283054 0.5573233152343029 0.69384671578681889
-0.56008783831063358 -0.35300685058930803 0.60890335073046664
-0.10345428632532716 0.64035863869953591 0.66373605062490437
-0.45033773326967275 -0.13452968831151679 0.73150191237365636
0.36142428198423904 0.39540976329751265 0.33237706520867505
-0.37263629029194512 -0.60546571610086009 -0.079954353936347644
0.53663855423515283 -0.5112675887316076 0.78714230636601457
-0.4870309404594515 -0.7828625028403593 -0.17738456104561884
-0.12056410628742764 0.55216771495326133 0.75966853826811676
0.3985880410863043 0.37603018750921047 -0.26286871816949997
0.032157545192198711 0.74086646829201763 0.66934788844096715
0.46673731156119302 -0.39695455753496312 0.37997081087874207
-0.69730062512704016 -0.30469858278888973 0.62937241654628018
0.084308214769047929 0.68100201952734096 0.70344106694992625
-0.34885678714812585 -0.43359290630360015 0.66756230879208633
0.73873161124085485 -0.37909354827097363 0.65491505452338039
0.32049616276742832 -0.14024692850262976 0.71594143515577002
0.13807967437233692 0.073987151013659158 0.79465313145102101
-0.004333249117324911 0.11310995864805218 0.69968435021249853
0.19442917399764426 -0.12260983845333762 0.71527114484468157
-0.66519838014541577 -0.70852791595505593 -0.35771990823291144
-0.76116157710937937 -0.84381270481263115 -0.4147396990758816
0.20900505088656107 0.80520200246132934 -0.30842951802035579
0.72483171268697344 -0.37308580430361804 0.40360255738572093
0.15161583766575681 0.60139624397940583 -0.53356272241376246
0.80361785234307881 -0.39286683331671934 0.70918959320525943
-0.28593092648729712 -0.5860545380936486 0.37240481553093474
0.62667822542274099 -0.47913966797989538 0.71427757391519009
-0.17513282394516771 0.35081656878262457 0.77792805933330378
-0.58262980555443544 -0.76855895279728825 -0.31910058472661262
0.22957508433336926 0.87372913727637025 -0.19404417392562578
0.22195957983217962 0.59042533192330504 0.59450719166002131
-0.30203768779482765 -0.63962352577474224 -0.097384005103432258
-0.41892861674361637 0.46890704198193545 0.73632152151457397
0.051638557713284072 -0.13684132638182511 0.78691652256748057
0.012676510678487851 0.82268035437772502 0.30716841933029215
0.67123261301555459 -0.57839788367271705 0.48917016616397468
0.12703123493253177 -0.15856003191433832 -0.49228745964008347
0.27468515357497925 1.0205929289416027 -0.25922001252235916
-0.70813629812806411 -0.97069722962336691 -0.42783427767823845
-0.64079533256316612 -0.86728067216804261 -0.42997996101292912
0.35731706365719962 1.0464760324398523 -0.37026513994148935
0.42615234293734794 -0.01626139954447936 0.67319526774162597
-0.65106395849888443 -0.79975741517151455 -0.38638644118562837
-0.4198975189995533 0.50361384102661999 0.65986029795018641
0.35795264730244369 0.58773266816338143 0.53167805375122512
0.67201619663565371 -0.16606956026248465 0.62766312052095152
0.68685635692883196 -0.26575468474913411 0.70918128189699559
0.4026870787339254 1.333017205471754 -0.48651695415601104
-0.57030233632788718 0.64162433372404015 -0.40642289383717056
-0.039066646106750369 0.20274261254099191 0.75309852577826852
-0.4644985119897207 -0.26809971729963333 0.756593837554977
-0.37963664290664845 -0.038281631344518452 0.82154603275276905
-0.98210765651267629 -0.71542096244596465 -0.45734446084145208
0.30920965241977161 0.71865341044053643 0.50215860137728541
0.66421411931235674 -0.48162299459970725 0.40279719764555111
0.45758355866133904 -0.016071264282787823 0.28473614682504866
0.19862982255602191 0.39838030870458052 0.74214663799422098
-0.72467238243365628 -0.2540544706641219 0.65047642571642328
0.65734943805961432 -0.3288070500984297 0.66404757819805127
-0.11339446759076743 -0.35991773408197414 0.53800411714635565
0.067214131998046156 0.066271441778849471 0.82096233677678399
-0.73029302740827529 -0.46607996103572846 0.43069727775197819
0.15544963022904223 -0.21332706623274955 0.78884710087729815
0.2255817945393952 1.1802271997506721 -0.42056545483114327
0.016676524222385858 0.308521246044692 0.86259557018987465
0.13971646578152708 -0.27376479914756047 0.76017351633222496
-0.52153745957156872 -0.32267962238767112 0.73165720911248755
-0.35126160073537793 0.035832226403055945 0.81276113362914515
-0.0058564433322452203 -0.29104294617731608 0.4794205012840429
-0.45860428936515607 -0.2994154478634794 0.71491425114104512
-0.032354753225965815 0.83512021780646917 0.66529384880182008
0.12165362259287527 0.32027949069533879 -0.61514229821090183
-0.70917909879397723 0.0089256440465805831 0.68117913971789879
0.64982565216600197 -0.37086545199633747 0.75305893568116389
-0.09973314874263739 0.89465763248413155 -0.3093420490279648
-0.64040339098388976 -0.20791404886805553 0.43981963986406125
-0.57300049700518052 -0.25938177442724886 0.81185776995070214
0.3111676720976595 -0.31056911331621873 0.35838048648298937
-0.31179525729872193 -0.24718932304395214 0.65134035993540706
-0.49212707902927644 -0.54078578072548167 -0.3372213690772643
0.20727742157991536 0.41796435865217019 0.58757262432971835
-0.44938040596813522 0.25565080686104169 0.70873547858430364
0.31142987591701221 1.092457705409188 -0.37151475685530144
0.16967421034016539 0.5313806598011328 0.68102366624008326
-0.82455357817724284 -0.98163843162563857 -0.48072429298340502
-0.018884261524351409 0.3991842622757833 0.76319038266429473
0.020201731017867708 -0.33500865707167637 0.49425121630071445
0.59751547408984695 -0.36317292150082636 0.66391883792255513
0.33544512955277028 0.020965665870106953 0.67528794589148866
0.34164319207546789 0.85417307199643 -0.24302705488806708
-0.72885794483399646 -0.44123346720702283 -0.13950348896439735
-0.02196043032034467 0.52639953842422971 0.7326170461737096
0.093890391354132241 -0.23996887877608586 0.61429259137368675
0.36316419104014219 0.83587518265237915 -0.27002045734325719
-0.24097375963808787 0.43636051848319113 0.77174098447866868
-0.59724643449120052 -0.71006636145562796 -0.36601843181030791
0.4680873407802828 -0.14037922834517857 0.18969305966035677
0.39984814010331959 1.1789406686534032 -0.32906407302527718
-0.31524666737692186 0.62962770112306821 0.65330577000311596
-0.6885957293451872 -0.95823727132685255 -0.41179932265619179
-0.074722676464007876 0.31657683613273457 0.74184360053276777
-0.31147791211063769 -0.60836206260096848 0.02111811506574135
-0.35687589973824529 0.049294112966153047 0.64709306736113881
-0.3089553902380322 -0.61203344370724366 0.023555819759738306
0.34976137458037826 0.085739262988325571 0.63383095137728418
0.74570916581912616 -0.43304380574348933 0.63220155107478604
-0.94379433872543217 0.13373203659583366 -0.21746706800555327
0.23966673243390169 1.0365058687337534 -0.22674617356053695
-0.43491160185090827 -0.7258623615819384 -0.29891447941570171
-0.01008162004842994 -0.1781885827312859 0.69061551705978097
0.81167790492765146 -0.31758347556231659 0.6048537042073221
-0.39855462117396812 0.51553822096378177 0.69972339900482883
0.72103532784308122 -0.20001343003524408 0.73737294136913967
-0.48831050384905961 -0.57764013764047206 0.17098002039901239
-0.34805724296237273 -0.1093127586270688 0.81975791345740756
-0.52392801730398286 0.052288415430700397 0.62840242367265731
0.43473120733284176 0.30520696190552066 -0.26642067299232508
0.5809200289208345 0.58382730302571018 -0.17899366577961118
-0.62216589836088687 -0.45243416462752162 0.60953180372297666
-0.18517552584409724 -0.45282437067026216 0.59401171147618115
0.75494478543309729 -0.48272725253981008 0.68717082434255161
0.038519907355042626 -0.098401299763197336 -0.6069946070298311
-0.46044280983023356 0.91781595807465854 -0.12729125896239957
0.12031995399551931 0.41467149437313111 0.59357375150808167
-0.59588191320530104 -0.69586501653822763 -0.35215349719879363
0.32076619723082533 1.2928247973966174 -0.53086244712024921
0.52545290316372828 -0.35205384092345682 0.70450223507095799
0.12611105797620681 1.1563289233703933 -0.34851754900584275
-0.25179791608425273 -0.16632685213076837 0.82368909617935948
0.78181352078598643 -0.41496132579593326 0.63746790117442487
0.68510139965689909 -0.6142365631562523 0.70488284001545143
0.3213959441781018 -0.026977853157413634 0.8602814228977067
0.32097694193253279 1.174431946897291 -0.49409372604745094
0.65202294013526441 -0.55001520211482458 0.46118985537365376
-0.5532016310436898 0.08666174537806226 0.53462707532981923
-0.25282739760250372 -0.27196071966096103 0.73635338916290571
-0.59348351464823335 -0.34550023013733 0.67691878049244014
-0.15869985582250479 0.44889110240595853 0.82441487896554833
0.60739336235662655 -0.4565358850632375 0.63926399443739257
-0.83246901011559959 -0.43607645856365407 0.18790406224366407
-0.51309859630360322 -0.42011269640879068 0.62317233817930617
-0.56694151777841117 -0.77239959649819889 -0.23248697246506467
-0.0237095759723287 -0.20327693661444179 0.76234492461799697
0.1724652001889373 0.066986168809990865 0.77780383483790061
0.46243870074205695 0.77091497765480854 -0.33070135172286541
0.46868655351442534 0.90747719266173887 -0.4193170471058778
0.32517810992986185 0.094296752027320352 -0.22540504964014474
-0.68670384391395789 -0.28562421088145884 0.40905166800972381
-0.68364563483272445 -0.61302261840576566 -0.23212303576441862
-0.61427407262597367 -0.73771870060869338 -0.39190150107974553
-0.40306739127151303 -0.72489853630472556 -0.1602320733979834
-0.46411553700880326 -0.79206851402957934 -0.32770864169350133
-0.6715426923390444 -0.41890134913061994 0.53955665526978613
-0.12498599983384384 0.54659716076787079 0.71635817656993517
-0.20976882402276953 0.010336441525624629 0.82154726036587533
0.19938151547645422 0.62401639830883049 0.44191634967350346
-0.33635171398779029 0.10430763546098287 0.82635201323047358
0.15974868292948852 1.0074972216774876 -0.2043586628735472
0.36485958677039942 0.60534152537654062 0.41776022293818826
0.6975072238227833 -0.65143621005524199 0.53526796017843914
-0.43073013311218578 -0.79338579012176336 -0.16107220788813414
-0.76710210211373209 0.022699055524996403 -0.553229725828567
-0.62017986720424201 -0.91852605285507405 -0.44580354443498926
-0.79679699710484808 -0.21659556345141562 0.50518228285717903
-0.3649835218477735 0.020505375217524602 0.71142981171230701
-0.023720311265084781 -0.31690907678073366 0.66294973323262774
0.064158615285893283 0.75469415351297542 -0.48418462502739601
0.19541637548510238 -0.12249635865129171 0.75037016198912454
0.50336963913391664 1.0652296214422097 -0.40313580553076989
-0.0053103818085551424 1.0205582343923214 0.51061958892601567
0.72980631432797871 -0.3329799904580959 0.69291908217246245
0.0057628123437902801 0.59403464788513416 0.68278763837802714
0.62005627283066023 -0.27728511020309909 0.68244673355527752
-0.17424516649925081 0.40226477302038166 0.76452009333154081
0.074376337803482961 0.62127560133281357 0.67636449807959131
0.68948471618915264 -0.38635233144572112 0.70940735003366662
-0.8272968329203696 -0.67912114416315505 -0.32098998172810234
0.21897322925396878 -0.12778013615027417 -0.54250339933711444
-0.73975909436814824 -0.66787939715357947 -0.38037775807079388
-0.46738846242149101 -0.79306095281070954 -0.26063061394775389
-0.69808268046099275 -0.75149928674590694 -0.3410920991230757
-0.14516070537485426 -0.56801993255397321 -0.023176045244960974
-0.56574401049759793 -0.97369064353864143 -0.43904747425316781
0.17279143611223979 0.37136175670718075 0.63613862698386292
-0.56090664552758529 -0.29941545690795213 0.70194479457667125
-0.35388291817532114 -0.35623430700281666 0.7159315615387758
-0.48234838635256239 0.20369655052648783 0.48643635915132766
0.25293398371908982 0.60999192468115604 -0.17814217694136936
-0.11443397330710248 -0.10630108734826749 0.8059276394251782
0.10532278675321116 1.12322284607283 -0.37894593910188945
-0.045786430223620833 0.21877634160605597 0.72070611885072644
0.18458423519551204 0.10687742342463569 0.68434219350235992
0.44438339127819226 0.12655330666812237 0.58577208201800524
0.41488107471604874 0.17366116808927279 -0.06098683449916642
0.26418207918243031 0.75489194433345874 -0.045176801784116094
0.64851199878704868 -0.41283687779986344 0.63483584544349192
-0.070013431545143945 0.3196420000019744 -0.76592948985858911
-0.29340159242247843 0.45633002034561532 0.73646009025108938
0.68108060717467822 -0.12080312698015572 0.72825162906616114
-0.34916216346725548 0.4807452478100136 0.71250210544534553
-0.82354986159767396 0.46174060515515825 0.13189898081702278
0.12472406831377914 -0.060544267487369297 0.81333240663083473
-0.35029679611248277 -0.2116604423665045 0.81226764749329305
0.57881457794228108 -0.45217784633805103 0.68809484886386407
-0.54834127405267719 -0.15023397642180658 0.75880798573631125
-0.51471595080231936 -0.27460359799586609 0.61935468351504674
-0.64431355485293818 -0.75851630870041475 -0.35013494840760817
-0.10578283670160182 0.51570929525043052 0.7908458752229981
0.80280384621595857 -0.25591390095274846 0.53653196796287617
0.016912274095592927 0.90170248363447758 -0.36329745534484381
-0.25669850458498544 -0.68296147562973886 -0.18533241615055118
0.41175360529819649 0.76409214205359088 -0.28328880502537324
0.28587268883255312 1.0680950665359701 -0.34958542284366345
-0.086865165322035587 -0.35887234197308793 0.64619545480023177
0.0069684152160647272 0.12626546001057726 0.79733681627838315
0.40658068923281032 -0.033687443353258573 0.53943499726860544
-0.5173731336854015 0.27756593688577524 0.53298996080961381
-0.76369846362820581 -0.29167940618921051 0.15782170835947795
-0.63018055851385135 -0.2594042873417326 0.65821044479155155
0.27556421752735361 0.45801546881014366 -0.25479298845009524
0.34392491972689143 1.2013621707243844 -0.49400119433563994
-0.77181465213475864 -0.87841005175479214 -0.41296580887312295
-0.22726811853479933 -0.18684542058177378 0.69801384987768156
0.17229068223564781 0.95101137374530387 0.12698680141378027
-0.01930264548428795 -0.17215549695092491 0.59420195676491616
0.78880592672453886 -0.24211101758746434 0.68645712867876973
0.61915866642199635 -0.21107978737552013 0.77595584069456081
0.54692417277924577 -0.74845792188261306 0.34452876900722629
-0.61971103983057763 0.19075737092686773 -0.60443650907583368
-0.16516080392776367 1.0822665759473431 -0.072218663519912241
0.61950483294738046 -0.61099402173121398 0.65428941543662766
-0.60117530442325329 -0.50865178527342714 0.57914320836726674
-0.66123053384134955 -0.31105498560854672 0.31670396238919629
-0.32323662895775485 0.52870674824438302 0.68900837433584616
0.65937863371132455 -0.36744501754984427 0.68978585979745333
-0.42540186430282567 -0.67040270467148932 -0.26061588311215012
-0.59217985122593042 0.79056274558128248 -0.18298563715085958
-0.42016628806579437 -0.27067960005101188 0.77103876762716794
0.47233592160702198 -0.23871839214796697 0.77582578732033269
0.48665075801539093 -0.068704694253373333 0.29251042176519526
-0.69558663344191007 -1.0155674115217086 -0.4293402149653005
0.33703587404237378 -0.49512209193989509 0.54161190496346379
0.64273165593541837 -0.544530650900513 0.59452854350725914
0.086790566400628322 0.82482388330234579 0.32277977801702207
0.81111628829768456 -0.26606614431555187 0.43692188762609341
0.15631280082960775 1.0274085518705607 -0.21979487089675764
-0.50589974628167411 0.00090389642295640726 0.61532675964296235
0.068612058986076363 -0.069667470840611756 0.79911314781855225
0.83636855878142224 -0.4962798826935888 0.67845779333949352
-0.35866718673799181 0.68890252647247685 0.37480313820816402
0.25835513089135986 1.0200536932269184 -0.38539955180606
0.29779639657581569 -0.042853827772052711 0.65569255089948264
-0.085246981034384994 -0.044230661489541134 -0.69303698775211053
-0.57512316399978669 -0.2309359965219504 0.70338309392188059
0.44995919669073814 -0.28446986590055179 0.31730376563350404
-0.74429987499115668 -0.77644106485647235 -0.40691211168055652
-0.068887687273238463 -0.35559440060105452 -0.61966540848959184
-0.28338698545847585 -0.58843570953523994 -0.40666948508287248
0.35208481865365648 1.1043940460799757 -0.58734151040778571
-0.45744241887833681 -0.0013959985084448512 0.77858654733788413
0.26532670209359122 0.60561591869871689 0.36772155637268789
-0.78883348490779337 0.37224714810024206 0.095404525736382695
0.049266639941584423 0.69727049066718827 0.5962825864953647
-0.32582273449113952 -0.38179248854996217 0.80105893427257868
0.21443640274657216 -0.29884852395561623 0.70659376339651558
0.38335122288061285 0.22279408590640104 0.51736691976999438
-0.63820335255049088 -0.18316915564873648 0.66531571010578006
-0.29021617461654703 0.086108068926117998 0.76826032929752319
-0.84308357512913634 -0.40986791993596583 -0.26256192517798738
-0.12900151843842078 -0.10110642988719309 0.7466149357376386
-0.50815520508777912 -0.21247503846307758 0.74042902849059011
0.47276397012500837 1.1745513433574641 -0.37159082666038401
0.44818039595767267 -0.49768347349228836 0.41691221633729114
-0.06499128991500136 0.80395631130546752 0.41619438825214061
0.68940189035239907 -0.29486659225050182 0.67042280981408453
-0.2443199160766838 -0.11326746818368072 0.75942181910255258
0.214200380107747 0.27992519291081219 0.66991317397271111
-0.26567814293364478 0.044304449685719671 0.74455922653338025
0.24092737145419818 0.15464256054809411 0.61664954250207771
-0.093932238172497406 0.47643003380209947 0.74241393540224365
-0.55808688831778763 -0.27566758628441956 0.73072330471561919
0.18339555353162318 0.96645592953765336 -0.17425059807202814
-0.077158848935158453 0.44032334365857473 0.80914170978631272
-0.24114866503771104 0.92131321373796293 0.10154769041047729
0.39437955793329316 1.1957410391200378 -0.45420709761232203
0.31193524425636454 0.5779792619155999 -0.1348098905508035
-0.47472884579700025 -0.87119965820720324 -0.25790273684822473
-0.53443002152561725 0.16673508969124784 0.80277177716373949
0.20244670930684094 -0.147807364194672 0.79328726916274661
-0.26529842336986409 -0.14296986724396632 0.76796135302689628
-0.16673576974069704 -0.39150384126728 0.46430782219708178
0.88347290047618188 -0.24086348800938406 0.50164054975622463
-0.39296798349461604 0.10690466113254882 0.61625407072514093
0.36657389983585098 0.97836253791728889 -0.37813931638990717
0.10116831394738668 0.59349343619807904 0.66858251863167339
0.15167715127778791 -0.2001423533475819 0.73083371751240556
-0.38273847797196403 -0.025599888600473797 0.74365163853332206
0.12001495753053337 -0.17715782942481617 0.83641668903583266
0.79007627352905985 -0.30840969105372285 0.65169185591838286
-0.79230264297703989 -0.3253449976877496 0.63155746237004351
-0.2340109344595982 -0.22756657555421622 0.75766431462018424
-0.40370910481461753 -0.34470488937856203 0.75677522069266168
-0.44820408044980908 -0.5171838816430796 0.57352413008820946
-0.021252858373441263 0.79692526598850266 0.38488767600097873
-0.62259733798867511 0.54098284048704048 -0.50226905650107767
-0.039429567735325577 0.61901382225075441 0.59616686108340389
-0.24282907124206954 -0.1694985472816164 0.7649355734377199
-0.013053799227098928 0.86095404299954392 0.34260677542570939
-0.3877807431810476 -0.2705106404204054 0.7560377054222478
-0.69348788323737853 -0.62341566844459351 0.51885027368773073
0.38976499794493424 1.261942668577031 -0.46015975975831758
-0.87819184579000531 -0.81505462287959318 -0.65447277252606728
0.29625933786151748 -0.3889816189759685 0.32461460166862466
-0.34630006339228814 -0.025809394936741725 0.70092355465892897
-0.30145013483202554 -0.13056540480525403 0.77273595212951918
0.21785207627670555 0.10583269554611086 -0.62205882549204716
-0.1735666476157034 0.35162493775338577 0.81118764298416934
0.032686615018445053 0.15145054847149009 -0.65625747701535708
-0.087224914810916765 -0.33581485257396437 0.68550629072669444
0.20399748384261152 0.87710071618831087 0.035215668865062
-0.30699538518649394 0.18866944902090488 0.76851122163508556
0.773265832186115 -0.42027853377078372 0.63619541439489957
-0.706548825081593 -0.46720401862690686 0.29267909370087075
0.40215318479137618 0.33229778593381321 0.30742306639541184
0.29795591508960406 -0.097494373334974682 0.031767489796662218
0.077359489680563165 -0.14901266750607078 0.89550754197252935
-0.61930719960562719 -0.62315218492531299 -0.28065561047366572
-0.22647325136085605 0.73425986283120803 0.69282801771498015
0.7810167484039674 -0.33117900490390539 0.61906225753913091
-0.43263433054405098 -0.16032799297947165 0.81038605516629048
-0.80844932424345561 -0.32313591885082094 -0.46146988275987688
0.18856363968260226 0.99832351153241228 -0.26975597213171554
-0.062774535619791294 0.54909319862616179 0.81613989690208744
-0.4071895328148063 -0.25864668284138848 0.70226151166548689
-0.7788752538430046 -0.10735152443559492 0.33371288116337006
-0.078335186390207312 0.25982862597367529 0.78134486803581549
0.54697194916258773 0.0058863026700839427 0.28582587234642531
-0.48839601566148172 -0.12626324376008968 0.6957822833457401
-0.20561081296270434 0.34156338700252231 0.82292319597307539
0.20087201988700709 0.82277418365671373 0.2129035735819258
0.61580552338977324 -0.35266712610273387 0.7423134954305759
0.14265719969686064 0.46638291481303717 0.69084058756780387
0.34536311361871341 0.777801474811183 -0.19263969608965859
-0.56271754796579909 -0.99738105920764752 -0.42385521455223341
-0.34258739727852472 0.25939658018632539 0.63456832082481984
-0.35136053267675216 -0.56546900805331557 0.51154756168779514
-0.59853515595747719 -0.24829799955981713 0.60570062090261345
-0.095412542981527793 0.82278850949597793 0.3260843518918044
0.39388948907798316 0.11448908191348028 0.011444875267050847
-0.30875951366243015 -0.27303389441139991 0.76287644207537841
0.70103030394006627 -0.47697776962506477 0.69220517695094941
0.47270939800794576 0.78040583646275818 -0.1962292136247239
-0.31647133711819642 0.57321321531633673 0.70201071585422703
-0.46216066589366456 -0.64829320721539307 -0.21219769093627594
0.38480309215765285 0.021722239607885108 0.34539412801818692
0.74211459453823547 -0.42386629554862765 0.6402549249850793
0.38279699884814899 0.68820452813625144 -0.15128781263257984
-0.28569156250737038 0.5628741137665938 0.728101228696584
-0.48162184891435 -0.74610968796909649 -0.35354301426864332
0.076252918933513492 0.54292338877484791 0.65824683036619902
-0.045971723631462069 -0.22657269682364856 -0.68886671563390856
-0.070864459718156247 0.97734469255849366 -0.45330346478823458
-0.66058958067852469 0.040509424499454383 0.67763356186441115
-0.20717224323329031 0.24867022567289787 0.70914858354717047
-0.55055220958256434 -0.64059533349750852 0.040610026293993684
0.22357971730172022 0.89427810664079654 -0.03654315041218581
0.34773437420548969 0.32568434689556014 0.43747329583455041
0.081301688946947337 -0.065621938101907418 0.80080623335603196
-0.83169868665678592 -0.14264719586954833 0.71200023952139713
0.30742128669360458 0.69448998842413268 -0.36660950829143246
0.51942381601149634 -0.15743699592704452 0.35295722094383031
-0.2610480886107851 0.44888237553300669 0.79348441462473396
0.38423023179258387 0.80770329250847528 -0.33995584117348621
0.058567300994750937 0.86390256331577575 0.14222253361143089
0.079966858224286952 1.0090332073257571 -0.30819000840602406
0.6574504390360012 -0.46594712605304345 0.60501619001526841
-0.17601536354649827 0.40424720067040099 0.79847761124686301
0.17959585791365384 0.995158408142365 -0.34154189804480772
0.58255007324725128 -0.096469466898405187 0.42978541407634374
0.13297192233840427 0.95337126784873072 -0.30240033728598625
-0.25777341734407955 -0.59429863147632034 0.40747860174738282
0.44724184134011313 -0.19364347918489955 0.29643720144555274
-0.12347767501395346 -0.15370818664326258 0.75772319538645228
-0.28655028504811764 0.62179489372674857 0.46111315318660573
0.58923573042473976 0.9482225503855175 -0.40359782362910046
-0.44230115051038332 -0.78463215100604478 -0.32171168018116525
0.1012577154857377 0.64170120705160461 0.65654130376134034
0.20856567631121692 0.75883503758744286 -0.44701404712004056
-0.19845768133364583 0.43571400793359327 0.79068755347105046
-0.39984162675482082 -0.058053339715908869 0.79132063336340952
-0.094902389510888696 -0.35775874600377611 -0.56118496568827148
0.75575976950239188 -0.34699194993577809 0.68706974322415171
0.57543334259086443 -0.13895333013751632 0.62920035609237601
-0.12033517450348086 0.46777079613723238 0.77720071569156879
-0.72507945904046256 -0.77723089654773725 -0.49223715167064874
-0.87613114191563568 -0.82228268973963026 -0.48829797803804453
0.024089388592178018 0.7687000412614049 0.67927556296272851
0.2131904558628559 0.68863135710258883 0.49624372181872189
0.43304709952813791 0.63432112231257776 -0.25600603696857505
0.049568451021187343 0.41469879741327631 0.83011358790666101
-0.62626194140814473 -0.51671743338245868 0.53650321108102439
-0.9874907932587087 -0.96801931093856242 -0.56168168859153056
-0.036839100521353529 0.22327829508331209 0.77313994218180504
0.52675923580448014 -0.67631842072272264 0.53094588568624346
-0.52088248980696772 0.016120674042656713 0.76548244694466305
0.79775554833746298 -0.33531638180557621 0.46712167022881346
-1.0192728044175237 -0.73652127321346939 -0.36773625026519241
0.30587645297132404 0.67396378066384965 -0.1663995418686639
-0.64806958555015193 -0.3362789293682078 0.63893369731102823
-0.21548473106094068 0.52200175450414088 0.74211841867335515
0.4767867649884554 -0.28441762531737957 0.37341940338478707
0.30821798357146779 -0.11407416316502417 0.74421981328798559
0.28231016741816717 0.72577512360537177 -0.27140477713890832
-0.1507858501877779 -0.51255490364285317 -0.36701055642549463
-0.032304719753855515 0.37646876670844609 0.78354277221974122
0.3047262692617263 0.12538919740997878 -0.39332682216093673
0.057886383593239721 -0.24159777578321462 -0.30502868616451195
-0.78223146295000312 -0.65419649873865549 -0.43935881592744863
-0.56737792271386667 0.49445041819215252 0.28290070558297309
0.083758218276006602 -0.021604500351327438 0.77062526571744172
-0.34482464304582994 -0.26180409543373528 0.79246852893167219
0.33272394567520713 -0.16772014843395855 0.78408392935493154
0.77126539219200474 -0.48503020586414713 0.62551080051717811
-0.67910707000705628 -0.22593616863189592 0.72660586315182041
-0.43842830012116174 0.068686734668203187 0.78848598700166939
-0.16628824444148371 0.48828077100706846 0.82880820057253946
0.52968549210477356 0.73352092427625593 -0.1938103022977451
-0.443235954337732 -0.75790005509652048 -0.24594025381090567
-0.69966718977434983 0.16522316099251189 0.37373296590153071
-0.57607024661098372 0.53744016420799401 0.31201830098506989
-0.09156096399723701 0.42033980409241112 0.83468214788220152
0.33140619569300966 0.74658522050145137 -0.26131191273860921
0.11900180949678152 0.69870958069886591 0.56844637237186113
0.43117539851634845 -0.037070932703814563 0.25637731593006308
-0.17555405303951854 -0.053608799063172619 0.81174696383406264
0.52485782786454394 -0.71156099936156547 0.43646777605791343
0.78394308569782112 -0.33494472861710545 0.66271312620709288
-0.8523326031070404 -0.25787952169536377 -0.35694745118020421
-0.2070158215747151 -0.14624447332523793 0.76392091864717671
-0.54113539270299071 -0.27814281413300534 0.63776658519343776
0.21165864642148247 0.55332376101295644 0.62065144841824527
0.16756121597749019 0.52163862090778323 -0.38885014623524761
0.5308955995040634 0.79033847502654897 -0.3474246105941674
-0.66980634767533864 -0.76961109593120636 -0.40434205414206748
0.38073267778664466 0.81756726929464918 -0.29571614621489317
0.34059389370426274 -0.0600524520423944 0.65976789889395704
0.75956313553459509 -0.12871338728853043 0.57330158540380083
-0.067699899047221734 0.20318076937134499 0.71906812744738957
0.69119390551938142 -0.48531432171375144 0.63437024135658326
-0.39282177170363664 -0.76468433192688323 -0.11677617142799956
-0.2217596141141005 0.41828484425541124 0.77783100130884808
-0.36110702938819905 -0.37322873908397547 0.57279887059126633
0.89174035532423357 -0.37857793217032398 0.56742412249866447
0.71477031794916446 -0.55695514198373619 0.62796124110270313
0.88723674506710015 -0.18312647107894087 0.42798385285465379
-0.039254511360288902 -0.11571060038694014 0.62649836239363665
0.0019806436403957406 0.93755391781344777 0.057037239881884361
-0.32596765333513034 -0.65164402529036192 -0.21931302773810657
-0.018180398213154092 0.68066512619643071 -0.53823258911286054
-0.49320216579867093 -0.047199555414866978 0.79835602365742986
0.37782359296113199 1.1019820086718419 -0.4614567921883701
0.27831935535544439 -0.15147468000230546 0.7541231116299798
-0.043624413809999929 0.34923738999985154 0.7123742809158955
-0.94835405325214595 0.023029038830636672 0.092996624044989318
-0.31164216833207625 -0.62246578397047791 -0.14906712941854305
-0.47744187575490393 -0.46598767028070665 0.68355533519120115
-0.52694350089464148 -0.16426917965406629 0.83093852982723693
-0.36162128252954329 -0.62378373299173617 -0.13900581915355659
0.22853563054184267 0.14779722801399142 0.43689393240983598
0.27627498432534559 -0.2787375581668794 0.72614625121254051
-0.64738550302198838 -0.3765202702158259 0.6214671819343085
-0.53179570931154085 -0.49427624784026314 0.49742959961423772
-0.64023098246584631 -0.48545966362678783 0.60779501107146761
0.19820071599258782 0.34528570668829106 0.68888923473172881
0.098332537026209366 -0.26255708557348623 0.65674316535610444
0.08969980082550677 1.0748657198224185 -0.35874703891940918
-0.58939137050854296 -0.80584323404812386 -0.34458889185809394
0.21796976169458748 0.94867942891313639 -0.16599166965711198
0.36789945742490815 -0.27827605589094517 0.67578817998769303
-0.44792441164905039 0.19021162868296226 0.65403741786286318
0.012415876341215437 0.4658807091178705 0.84256438960943481
0.32903112993999528 -0.40067631961961325 0.69564565984901172
-0.28958704866138163 0.53013767343855278 0.55671901992333694
0.18853853957712641 1.1237228421892316 -0.4618224718969568
-0.67645289181414725 -0.2318544305695811 0.69137129684082055
0.10037435340550971 -0.39651564461204813 0.57762404159124614
-0.34428288800256457 0.3429294040695714 0.5235537389877063
-0.68218621699516024 -0.98346480779323153 -0.4864309978335708
-0.12016664705610047 -0.021832657531218658 0.80244935706194465
0.71140731905784893 -0.30652932431720892 0.65305560005494812
0.24561834503412516 -0.096087546699562765 0.81555826341226556
0.30748000821827226 0.72151456848612527 -0.25589079135132842
-0.58012573844022608 -0.68309359797454539 -0.28693634824759862
-0.87558895921748636 -0.72181048626345223 -0.33098671223459064
0.3456441795679801 0.39842857155190536 -0.31983533713301249
0.60866464083930616 -0.12806932197571541 0.43471171502584482
0.08639641133412379 0.83764718912210379 0.11000997723762751
-0.3984775080835794 -0.39648413841019803 0.64635115009549349
0.45061636747685618 -0.4759623305833891 0.64212090452737947
-0.033334612289976917 0.18226862147488143 0.7244491922530063
-0.82587372528482383 -0.57885567531359516 -0.3364587557285601
-0.90925972928091703 -0.097314991775815596 -0.36510278019304732
-0.19779439478276828 0.71579870848182292 0.47162976060967488
0.6363465555396477 -0.65572378296964473 0.57586584631423676
-0.056744113410028163 1.0889063066609748 -0.2840928333417807
0.67297626727973014 -0.094201387583142449 0.53810396549927297
0.24921181758242472 0.82892166457855465 -0.12930828965646235
0.46907725586072324 0.016371521345421414 0.31067972019090107
-0.33751479162333098 0.0016096038744808361 0.81954359514759112
0.24556423897374025 -0.086447396491189821 0.74797427252589088
0.052173945479345285 0.62182443729468151 0.62509547120344244
0.28521577718928537 -0.11441533303800444 0.81464245984673767
0.24207523962980204 -0.01803906961375823 0.83432317195781103
-0.10050454616958504 0.1828953285978101 0.74502401248782579
0.027842965724593327 0.58192854737252997 0.79402618382290591
0.74618470389736391 -0.37087316838453255 0.61704095919552771
0.62891177168267554 -0.41699184575884107 0.71145442789214819
-0.26224667336001328 0.10498184339884942 0.79201156498492153
-0.78284227172698895 -0.90562114135205363 -0.5130249620973224
0.028672718286049559 -0.063610461049218081 0.69488153057873525
-0.0094654340829940509 0.36495649678003872 0.81125384257786592
-0.12037082054180548 0.34731990443176697 0.79705912104218957
0.32414387264934152 0.17154904876058641 0.54661878993674229
0.088872429553962462 0.26803607241733873 0.83667948950950155
-0.17323849691655813 0.34109004597959824 -0.69672593911833758
0.20272929388602634 -0.31509713000117046 0.45859965582527806
0.18063139024080499 0.63499580740092254 -0.44232552425529015
-0.27158579276999273 -0.43025387941665194 0.38289666696178237
0.63018934549300987 -0.43161970129754668 0.70705581702487841
-0.37523738558706921 0.6484468387395701 0.42928642777860127
-0.79853415852427734 -0.53703176056177782 -0.23547818540523302
0.34490875530331078 1.1426316861094388 -0.36973384052829417
0.098012331031188893 -0.17100662968666391 0.79513609149418407
0.017707878578745451 0.12798848040907451 0.77423906719624647
0.35710870229622227 -0.36732187650634529 0.72611489887485092
0.21744990747107007 1.0860486016193058 -0.32422735661305424
0.57983494157025817 1.1095316034527734 -0.39074067230206211
0.84417000828398248 -0.20021274115689724 0.49799385600840829
0.44145399345240222 0.51445521207116229 -0.19836132484607738
-0.33691166036223397 0.25710880629914756 0.85058696434360392
0.29541940165071434 0.10587333215851835 0.53519085470627914
-0.025976440692820013 -0.30988191463108983 0.51198594719296509
-0.8380643563286565 -0.64754011190869187 -0.25114101910157949
-0.30057312818524284 0.53795960206231141 0.81456035716472108
-0.13096890708753506 -0.2754589100961482 -0.44969262520241315
0.66407713304415861 -0.57591060271276362 0.66123905849539266
-0.53513481776746996 -0.95557178323777059 -0.38456732557604667
-0.68998842918383474 0.092575579696752897 0.80730454092172366
-0.85855889861690216 -0.27241923914579758 -0.13952679586687644
-0.065575421594383343 0.5109610296119147 0.78597249293990679
0.05071757647893449 -0.072875288674751459 0.76410635032148733
-0.43655829315642336 -0.7073304190533114 -0.31959543803555945
0.73222725042409298 -0.50310458360509092 0.27562236033085341
0.78419425466573411 -0.078949239396484572 0.36831193582657207
0.071436009208795781 0.20568102131785526 0.62457738096088278
