# XYZ point cloud file
0.12996435165405273 -0.12297606468200684 0.7728579044342041
0.14812147617340088 -0.1098625659942627 0.76978874206542969
0.12775319814682007 -0.094867944717407227 0.77160882949829102
0.10335099697113037 -0.091895341873168945 0.77353382110595703
0.1102520227432251 -0.12446093559265137 0.77600598335266113
0.14670312404632568 -0.12142372131347656 0.76953649520874023
0.14873886108398438 -0.097387552261352539 0.76887202262878418
0.037720263004302979 -0.10573148727416992 0.78183293342590332
0.044559597969055176 -0.11948561668395996 0.78138327598571777
0.060107588768005371 -0.10702705383300781 0.78023147583007812
0.029852151870727539 -0.091134786605834961 0.78073263168334961
0.017838656902313232 -0.10467934608459473 0.78243923187255859
0.025785684585571289 -0.11647796630859375 0.78160548210144043
0.066110730171203613 -0.12265443801879883 0.78041219711303711
0.052869796752929688 -0.089977502822875977 0.77822732925415039
0.0095552802085876465 -0.092052459716796875 0.78190827369689941
0.083017408847808838 0.013112783432006836 0.66329145431518555
0.087515950202941895 -0.01017451286315918 0.66958498954772949
0.11476510763168335 -0.003314971923828125 0.67366528511047363
0.081119835376739502 0.041566848754882812 0.65533590316772461
0.050303876399993896 0.024254322052001953 0.65439844131469727
0.05895543098449707 -0.0049595832824707031 0.66549539566040039
0.11505365371704102 -0.0212554931640625 0.67597198486328125
0.11940258741378784 0.018552064895629883 0.67002463340759277
0.041405260562896729 0.060340166091918945 0.6403052806854248
-0.031815528869628906 0.015332698822021484 0.66881942749023438
-0.050760507583618164 0.00017094612121582031 0.6823270320892334
-0.020940661430358887 -0.0077452659606933594 0.67559099197387695
-0.008458256721496582 0.025331258773803711 0.65708637237548828
-0.0488739013671875 0.043365716934204102 0.65988326072692871
-0.069266319274902344 0.021695137023925781 0.67790365219116211
-0.039947509765625 -0.017595291137695312 0.68501710891723633
0.0031894445419311523 -0.0037524700164794922 0.66848921775817871
-0.024857282638549805 0.061143159866333008 0.64236688613891602
0.1833573579788208 -0.07860565185546875 0.68633270263671875
0.17768573760986328 -0.079953908920288086 0.689697265625
0.19753503799438477 -0.10583925247192383 0.68587064743041992
0.19204950332641602 -0.079522132873535156 0.67899036407470703
0.16559290885925293 -0.0506744384765625 0.68580245971679688
0.16087305545806885 -0.057435750961303711 0.6867830753326416
0.19053769111633301 -0.10318231582641602 0.69190526008605957
0.20687520503997803 -0.11106514930725098 0.67578530311584473
0.17505192756652832 -0.04403996467590332 0.68185281753540039
-0.072608470916748047 -0.070554733276367188 0.70608854293823242
-0.071586847305297852 -0.096315145492553711 0.70917773246765137
-0.064238309860229492 -0.072285890579223633 0.70850276947021484
-0.070769906044006348 -0.044209003448486328 0.70172500610351562
-0.084421396255493164 -0.070886135101318359 0.70018744468688965
-0.082813024520874023 -0.10068845748901367 0.70117616653442383
-0.063043713569641113 -0.094275951385498047 0.7136995792388916
-0.061337947845458984 -0.051125288009643555 0.70230698585510254
-0.086114287376403809 -0.037340879440307617 0.69838714599609375
0.22073423862457275 -0.17238068580627441 0.69071078300476074
0.20698416233062744 -0.16381669044494629 0.70100021362304688
0.22538650035858154 -0.19279074668884277 0.69570016860961914
0.23613190650939941 -0.18228554725646973 0.67682671546936035
0.21547752618789673 -0.1524350643157959 0.68739485740661621
0.20466411113739014 -0.1450657844543457 0.69703459739685059
0.20743530988693237 -0.18347454071044922 0.70633578300476074
0.24372559785842896 -0.20310044288635254 0.68144011497497559
0.2284054160118103 -0.16146469116210938 0.67414045333862305
-0.055907130241394043 -0.15976214408874512 0.72144484519958496
-0.047502636909484863 -0.17933392524719238 0.7284390926361084
-0.042132019996643066 -0.15271711349487305 0.72803854942321777
-0.062879681587219238 -0.1406557559967041 0.71611833572387695
-0.072362661361694336 -0.16794776916503906 0.71174430847167969
-0.066956520080566406 -0.18749475479125977 0.71939396858215332
-0.029768824577331543 -0.17208099365234375 0.73406744003295898
-0.051671147346496582 -0.13443088531494141 0.72297430038452148
-0.076997280120849609 -0.14830613136291504 0.70621895790100098
0.25402450561523438 -0.27723908424377441 0.71970248222351074
0.22907888889312744 -0.27048349380493164 0.73173666000366211
0.26979625225067139 -0.31626081466674805 0.72957181930541992
0.27848982810974121 -0.28595209121704102 0.70363378524780273
0.24115264415740967 -0.24391388893127441 0.71045970916748047
0.21728533506393433 -0.23584747314453125 0.72182989120483398
0.24380064010620117 -0.30986881256103516 0.74251508712768555
0.29539823532104492 -0.32456135749816895 0.71256566047668457
0.26421087980270386 -0.25341582298278809 0.69520092010498047
-0.020674943923950195 -0.2593076229095459 0.76314496994018555
-0.011589765548706055 -0.29577922821044922 0.77911233901977539
0.0063096284866333008 -0.25608730316162109 0.76661109924316406
-0.029575228691101074 -0.22794461250305176 0.74919772148132324
-0.048505544662475586 -0.26445317268371582 0.75571012496948242
-0.041518211364746094 -0.29996919631958008 0.77205252647399902
0.017250299453735352 -0.29345393180847168 0.78221750259399414
-0.0047980546951293945 -0.22296881675720215 0.75307798385620117
-0.054964900016784668 -0.23436379432678223 0.74139666557312012
0.3366701602935791 -0.32095074653625488 0.62218189239501953
0.34582126140594482 -0.33204507827758789 0.5869598388671875
0.31924337148666382 -0.29021096229553223 0.61494541168212891
0.32125747203826904 -0.3086087703704834 0.65457248687744141
0.35597503185272217 -0.35786104202270508 0.63002300262451172
0.36495620012283325 -0.36786818504333496 0.59460020065307617
0.32841920852661133 -0.3022308349609375 0.5800471305847168
0.30445754528045654 -0.27717351913452148 0.64714741706848145
0.34011167287826538 -0.34624481201171875 0.66250872611999512
-0.13146424293518066 -0.29011917114257812 0.69685769081115723
-0.13173675537109375 -0.26306295394897461 0.68077588081359863
-0.1535879373550415 -0.29942870140075684 0.66596579551696777
-0.13006162643432617 -0.32257819175720215 0.71538472175598145
-0.10515749454498291 -0.28043723106384277 0.7228095531463623
-0.10713911056518555 -0.25236082077026367 0.70731401443481445
-0.15258336067199707 -0.27346539497375488 0.64980077743530273
-0.1534276008605957 -0.33061575889587402 0.68473315238952637
-0.10216069221496582 -0.31397724151611328 0.74056649208068848
0.28002238273620605 -0.22245025634765625 0.59920811653137207
0.28926342725753784 -0.23638796806335449 0.56560635566711426
0.26925802230834961 -0.2026972770690918 0.59692478179931641
0.26710546016693115 -0.20782661437988281 0.63070440292358398
0.29126834869384766 -0.24244236946105957 0.60318922996520996
0.30039656162261963 -0.25572991371154785 0.56921052932739258
0.27884054183959961 -0.21774792671203613 0.56337523460388184
0.25659525394439697 -0.18713474273681641 0.62849521636962891
0.2778390645980835 -0.22837209701538086 0.6348567008972168
-0.1314699649810791 -0.20279955863952637 0.64702868461608887
-0.13128316402435303 -0.18484807014465332 0.64040970802307129
-0.14915406703948975 -0.21548032760620117 0.61648917198181152
-0.13149833679199219 -0.22075223922729492 0.65590739250183105
-0.11140656471252441 -0.18982481956481934 0.67452287673950195
-0.11241912841796875 -0.1708061695098877 0.66828680038452148
-0.14816379547119141 -0.19869351387023926 0.60979843139648438
-0.15008997917175293 -0.23269271850585938 0.62520527839660645
-0.11008715629577637 -0.20850777626037598 0.68314218521118164
0.2352176308631897 -0.13080525398254395 0.60082554817199707
0.23267436027526855 -0.1051630973815918 0.6007390022277832
0.21940207481384277 -0.10628867149353027 0.63572096824645996
0.24513083696365356 -0.15683770179748535 0.59870815277099609
0.24836713075637817 -0.1549370288848877 0.56401586532592773
0.24853545427322388 -0.1344301700592041 0.56223511695861816
0.21118342876434326 -0.072232246398925781 0.63871216773986816
0.23176109790802002 -0.13712739944458008 0.63173627853393555
0.2564963698387146 -0.1768488883972168 0.56349682807922363
-0.13245272636413574 -0.1182703971862793 0.63152527809143066
-0.11564862728118896 -0.095307111740112305 0.66263055801391602
-0.14300239086151123 -0.094102382659912109 0.62791991233825684
-0.14748382568359375 -0.14104461669921875 0.59802389144897461
-0.12976813316345215 -0.14255785942077637 0.63360261917114258
-0.11291682720184326 -0.12426948547363281 0.66317200660705566
-0.124564528465271 -0.063122034072875977 0.66114902496337891
-0.15801644325256348 -0.12178778648376465 0.59327125549316406
-0.14524340629577637 -0.16132569313049316 0.60141229629516602
0.28044003248214722 -0.63016390800476074 0.84502673149108887
0.28197801113128662 -0.62390542030334473 0.84532785415649414
0.25870698690414429 -0.63095474243164062 0.85313177108764648
0.27833521366119385 -0.63576626777648926 0.84227633476257324
0.3000648021697998 -0.63114786148071289 0.83751964569091797
0.3043208122253418 -0.62597060203552246 0.83621501922607422
0.25885665416717529 -0.62427353858947754 0.85420513153076172
0.2574087381362915 -0.63661932945251465 0.84982800483703613
0.29672712087631226 -0.63634467124938965 0.83561849594116211
0.1865541934967041 -0.61803722381591797 0.87422990798950195
0.21053838729858398 -0.62476611137390137 0.86803197860717773
0.18346917629241943 -0.61126840114593506 0.87576532363891602
0.16536366939544678 -0.6135791540145874 0.87981796264648438
0.18785333633422852 -0.62399888038635254 0.87061619758605957
0.21072310209274292 -0.63057136535644531 0.86438655853271484
0.20908141136169434 -0.6179356575012207 0.86946582794189453
0.15915846824645996 -0.6071007251739502 0.88164639472961426
0.16822314262390137 -0.61949503421783447 0.87618327140808105
0.33675813674926758 -0.6713564395904541 0.8283846378326416
0.34612655639648438 -0.67592644691467285 0.82450652122497559
0.32872164249420166 -0.6517714262008667 0.82894706726074219
0.33043408393859863 -0.67114424705505371 0.82771587371826172
0.34069156646728516 -0.6926039457321167 0.82941198348999023
0.35031598806381226 -0.69920742511749268 0.82554078102111816
0.33734583854675293 -0.65260195732116699 0.82529258728027344
0.32311451435089111 -0.65383994579315186 0.8282008171081543
0.33386164903640747 -0.69063997268676758 0.82867002487182617
0.14281421899795532 -0.64439582824707031 0.89325261116027832
0.14295387268066406 -0.62660694122314453 0.88951563835144043
0.1337890625 -0.6461174488067627 0.89622974395751953
0.1476362943649292 -0.66507506370544434 0.89563894271850586
0.14712393283843994 -0.64575135707855225 0.88881611824035645
0.14745903015136719 -0.63005328178405762 0.88545441627502441
0.13340842723846436 -0.62482571601867676 0.89213919639587402
0.13910549879074097 -0.66872930526733398 0.89885640144348145
0.15163290500640869 -0.66479861736297607 0.89083576202392578
0.32876646518707275 -0.74278032779693604 0.83685660362243652
0.33772534132003784 -0.75044536590576172 0.83392882347106934
0.33625566959381104 -0.72953104972839355 0.83394312858581543
0.32178771495819092 -0.73869848251342773 0.83539676666259766
0.31892859935760498 -0.75284433364868164 0.84018611907958984
0.32724118232727051 -0.76014995574951172 0.83776497840881348
0.34561574459075928 -0.73731124401092529 0.83058595657348633
0.32909554243087769 -0.72569799423217773 0.83276820182800293
0.31235527992248535 -0.74877429008483887 0.83842849731445312
0.17840921878814697 -0.72007584571838379 0.89147377014160156
0.16642296314239502 -0.70427227020263672 0.89469385147094727
0.1715322732925415 -0.72501587867736816 0.89507746696472168
0.19139778614044189 -0.73332846164703369 0.88712191581726074
0.18110787868499756 -0.71762657165527344 0.88608264923095703
0.16960251331329346 -0.70215868949890137 0.88938093185424805
0.15892088413238525 -0.70918059349060059 0.89823031425476074
0.18530261516571045 -0.73815226554870605 0.89066004753112793
0.19353866577148438 -0.73073899745941162 0.88179731369018555
0.28334009647369385 -0.76624667644500732 0.85246825218200684
0.28789418935775757 -0.77257227897644043 0.85176730155944824
0.29571741819381714 -0.76426351070404053 0.84803056716918945
0.27917975187301636 -0.76247310638427734 0.84995794296264648
0.27061498165130615 -0.7662888765335083 0.85715389251708984
0.27346968650817871 -0.77237927913665771 0.85709357261657715
0.30180603265762329 -0.77083611488342285 0.84673404693603516
0.29058808088302612 -0.7604062557220459 0.84575629234313965
0.26749897003173828 -0.76261281967163086 0.85436916351318359
0.23144680261611938 -0.75809669494628906 0.87205982208251953
0.21818900108337402 -0.75216412544250488 0.87712645530700684
0.22913980484008789 -0.76324105262756348 0.87419462203979492
0.24460434913635254 -0.7621912956237793 0.86701011657714844
0.23132860660552979 -0.75501775741577148 0.86788439750671387
0.21892648935317993 -0.7493138313293457 0.87244224548339844
0.2143816351890564 -0.75703287124633789 0.87992167472839355
0.24395310878753662 -0.76767849922180176 0.86839771270751953
0.24354994297027588 -0.75886797904968262 0.8633730411529541
0.26467442512512207 -0.75864171981811523 0.82595515251159668
0.26979434490203857 -0.75991463661193848 0.83592629432678223
0.27507781982421875 -0.75680065155029297 0.82164764404296875
0.26016467809677124 -0.75493621826171875 0.81587719917297363
0.25398445129394531 -0.75878238677978516 0.83029580116271973
0.25906980037689209 -0.76006627082824707 0.84022974967956543
0.28027880191802979 -0.75795602798461914 0.83171463012695312
0.27079993486404419 -0.75325608253479004 0.81141567230224609
0.24909520149230957 -0.75509238243103027 0.82035088539123535
0.22030115127563477 -0.75186491012573242 0.84225559234619141
0.20860326290130615 -0.7467038631439209 0.84593796730041504
0.22543394565582275 -0.75308108329772949 0.85236716270446777
0.23177981376647949 -0.75538372993469238 0.83847713470458984
0.21403425931930542 -0.74799501895904541 0.83256936073303223
0.20206260681152344 -0.74295532703399658 0.83619165420532227
0.21372139453887939 -0.74775958061218262 0.85623550415039062
0.23689407110214233 -0.7566378116607666 0.84847736358642578
0.2259376049041748 -0.75160121917724609 0.8287503719329834
0.30375343561172485 -0.73795986175537109 0.81048774719238281
0.30954498052597046 -0.7375190258026123 0.82108116149902344
0.31081682443618774 -0.72687935829162598 0.8080141544342041
0.29889136552810669 -0.73705744743347168 0.80002593994140625
0.29497432708740234 -0.74663734436035156 0.81373190879821777
0.3005443811416626 -0.74693107604980469 0.82419395446777344
0.31674498319625854 -0.72561025619506836 0.81845259666442871
0.3056066632270813 -0.72714805603027344 0.79844212532043457
0.29047942161560059 -0.74454140663146973 0.8031165599822998
0.1730659008026123 -0.71866345405578613 0.85690426826477051
0.16265356540679932 -0.70527589321136475 0.85998177528381348
0.17762225866317749 -0.71793866157531738 0.86817502975463867
0.1846388578414917 -0.73016357421875 0.85335898399353027
0.16758400201797485 -0.71780586242675781 0.84633874893188477
0.15856045484542847 -0.70581662654876709 0.84975814819335938
0.16665893793106079 -0.70363426208496094 0.8713068962097168
0.18951809406280518 -0.73024952411651611 0.8643183708190918
0.17837905883789062 -0.72795891761779785 0.84300589561462402
0.31490051746368408 -0.68297958374023438 0.80391573905944824
0.32028019428253174 -0.67774569988250732 0.81423234939575195
0.30920839309692383 -0.66940391063690186 0.80488467216491699
0.30946099758148193 -0.68941164016723633 0.79404592514038086
0.31688821315765381 -0.69834136962890625 0.80452561378479004
0.32260990142822266 -0.69458723068237305 0.81481432914733887
0.3141668438911438 -0.66293942928314209 0.81499505043029785
0.30403673648834229 -0.67763185501098633 0.79506015777587891
0.31134974956512451 -0.70241498947143555 0.79527020454406738
0.14322364330291748 -0.65917432308197021 0.86120080947875977
0.14422249794006348 -0.64691829681396484 0.85900139808654785
0.14597606658935547 -0.65358841419219971 0.87236571311950684
0.14686471223831177 -0.67433643341064453 0.86229085922241211
0.14116919040679932 -0.66604435443878174 0.85027742385864258
0.14262807369232178 -0.6555635929107666 0.84817194938659668
0.14662963151931763 -0.64015340805053711 0.86983728408813477
0.14992082118988037 -0.67017257213592529 0.87355303764343262
0.14457899332046509 -0.67888998985290527 0.85187602043151855
0.26814931631088257 -0.65575933456420898 0.8183746337890625
0.27205348014831543 -0.64781975746154785 0.82824158668518066
0.24820387363433838 -0.65646946430206299 0.82526445388793945
0.26423037052154541 -0.66602134704589844 0.80888795852661133
0.28554326295852661 -0.65600275993347168 0.81230282783508301
0.2897416353225708 -0.6482093334197998 0.82211828231811523
0.2518189549446106 -0.64854073524475098 0.83524441719055176
0.244792640209198 -0.66672217845916748 0.8156585693359375
0.28116631507873535 -0.66605806350708008 0.80285549163818359
0.18278592824935913 -0.64447760581970215 0.84554409980773926
0.2041391134262085 -0.65066123008728027 0.83924460411071777
0.18530720472335815 -0.63640785217285156 0.85572004318237305
0.16441655158996582 -0.6398918628692627 0.85108566284179688
0.18111532926559448 -0.65496623516082764 0.83550071716308594
0.20191168785095215 -0.66103410720825195 0.82934904098510742
0.2070387601852417 -0.6426689624786377 0.84937906265258789
0.16667336225509644 -0.63191020488739014 0.86135530471801758
0.16311728954315186 -0.65027070045471191 0.84085679054260254
0.25603902339935303 -0.71530759334564209 0.79784226417541504
0.24087196588516235 -0.71579420566558838 0.80347776412963867
0.25565177202224731 -0.7329254150390625 0.80098819732666016
0.26953589916229248 -0.71430349349975586 0.79256987571716309
0.25782245397567749 -0.69663774967193604 0.79791426658630371
0.24084031581878662 -0.69723689556121826 0.80405378341674805
0.24225223064422607 -0.73326611518859863 0.80613255500793457
0.26787513494491577 -0.73164486885070801 0.79603672027587891
0.27273118495941162 -0.69601070880889893 0.79228568077087402
0.19156897068023682 -0.70634031295776367 0.81943273544311523
0.19905620813369751 -0.7248382568359375 0.82045221328735352
0.20785045623779297 -0.71120643615722656 0.81452250480651855
0.18539214134216309 -0.68676900863647461 0.82166361808776855
0.17675638198852539 -0.70136642456054688 0.82370853424072266
0.1854856014251709 -0.71986544132232666 0.82438540458679199
0.21345359086990356 -0.72915244102478027 0.81603455543518066
0.20359760522842407 -0.69217419624328613 0.8162386417388916
0.16922807693481445 -0.68185698986053467 0.82634854316711426
0.29416394233703613 -0.71572208404541016 0.78379130363464355
0.28916370868682861 -0.7147519588470459 0.78441667556762695
0.29444026947021484 -0.72451615333557129 0.78533482551574707
0.29854327440261841 -0.7075347900390625 0.78307008743286133
0.29338228702545166 -0.70085036754608154 0.78414821624755859
0.28726506233215332 -0.7282484769821167 0.78767299652099609
0.3004610538482666 -0.71662282943725586 0.78534770011901855
0.15155649185180664 -0.69557309150695801 0.83227419853210449
0.15507656335830688 -0.7045905590057373 0.83328628540039062
0.15548479557037354 -0.69594860076904297 0.8296668529510498
0.14545762538909912 -0.68606257438659668 0.83473706245422363
0.14847457408905029 -0.69502949714660645 0.83730578422546387
0.16329807043075562 -0.71049273014068604 0.8303985595703125
0.14830398559570312 -0.68072128295898438 0.83259296417236328
0.096886694431304932 0.26932764053344727 0.58194780349731445
0.085690855979919434 0.26302146911621094 0.57873344421386719
0.10876601934432983 0.25357413291931152 0.58655571937561035
0.10454630851745605 0.2740943431854248 0.58440899848937988
0.085828483104705811 0.2862699031829834 0.57708978652954102
0.073676645755767822 0.28141593933105469 0.57361292839050293
0.098566532135009766 0.24587774276733398 0.58371067047119141
0.11555516719818115 0.25910329818725586 0.58889460563659668
0.094422399997711182 0.29020190238952637 0.57971882820129395
-0.22711944580078125 0.25908493995666504 0.55806851387023926
-0.22772729396820068 0.24387598037719727 0.56401300430297852
-0.21225631237030029 0.25375604629516602 0.55713653564453125
-0.22818112373352051 0.27538752555847168 0.55166864395141602
-0.23756873607635498 0.26308941841125488 0.55875062942504883
-0.23780548572540283 0.2487030029296875 0.5646977424621582
-0.21290206909179688 0.23709869384765625 0.56331062316894531
-0.21334362030029297 0.27158784866333008 0.5506587028503418
-0.23900794982910156 0.27849340438842773 0.55235815048217773
0.05867302417755127 0.34337234497070312 0.55969548225402832
0.043532788753509521 0.34292387962341309 0.55602216720581055
0.066542923450469971 0.32339787483215332 0.5659632682800293
0.070119261741638184 0.34442782402038574 0.56278657913208008
0.052336752414703369 0.36409878730773926 0.55318713188171387
0.036397099494934082 0.36508488655090332 0.5495905876159668
0.052383780479431152 0.32149291038513184 0.56226706504821777
0.077072858810424805 0.32548332214355469 0.56891465187072754
0.064590156078338623 0.36402702331542969 0.55641722679138184
-0.24213600158691406 0.32979559898376465 0.52781033515930176
-0.2355879545211792 0.31088614463806152 0.53662014007568359
-0.22741377353668213 0.33071184158325195 0.52733635902404785
-0.25076389312744141 0.34922957420349121 0.5182185173034668
-0.25379562377929688 0.32978105545043945 0.52839255332946777
-0.24706828594207764 0.31198263168334961 0.53725218772888184
-0.22079157829284668 0.31024050712585449 0.53587794303894043
-0.23629677295684814 0.35165977478027344 0.51801085472106934
-0.26241433620452881 0.34802937507629395 0.51879262924194336
0.045263171195983887 0.42885065078735352 0.53389334678649902
0.028999209403991699 0.43397879600524902 0.53058457374572754
0.045339345932006836 0.40727686882019043 0.54013967514038086
0.058741867542266846 0.42474150657653809 0.53763461112976074
0.047896206378936768 0.44942331314086914 0.52798318862915039
0.032096922397613525 0.45597052574157715 0.52464938163757324
0.028829634189605713 0.41103601455688477 0.53676486015319824
0.05864417552947998 0.40459513664245605 0.54368138313293457
0.061296641826629639 0.44391179084777832 0.53197383880615234
-0.29010045528411865 0.40829277038574219 0.48537111282348633
-0.27481245994567871 0.38894414901733398 0.49690914154052734
-0.27838325500488281 0.41478109359741211 0.48526597023010254
-0.30721080303192139 0.42631268501281738 0.47340750694274902
-0.30002188682556152 0.40309786796569824 0.48656654357910156
-0.28560054302215576 0.3851170539855957 0.49775934219360352
-0.26182901859283447 0.39415144920349121 0.49694108963012695
-0.29700970649719238 0.43407225608825684 0.47292590141296387
-0.31604719161987305 0.41982483863830566 0.47510957717895508
0.1503150463104248 0.21337223052978516 0.59983110427856445
0.14379638433456421 0.20217132568359375 0.59857654571533203
0.17024499177932739 0.20061683654785156 0.60289454460144043
0.1549915075302124 0.22083353996276855 0.6022951602935791
0.13462626934051514 0.22594285011291504 0.59570550918579102
0.12673139572143555 0.21578025817871094 0.59391617774963379
0.16526710987091064 0.18849325180053711 0.60196590423583984
0.17413359880447388 0.20874762535095215 0.60554742813110352
0.13996744155883789 0.23278975486755371 0.5980372428894043
-0.24041342735290527 0.20499658584594727 0.58055233955383301
-0.25154447555541992 0.19264435768127441 0.58464980125427246
-0.22662770748138428 0.19467306137084961 0.58136534690856934
-0.23369133472442627 0.21715545654296875 0.57540273666381836
-0.24958300590515137 0.21181440353393555 0.58149886131286621
-0.26028788089752197 0.20009684562683105 0.58570694923400879
-0.23864960670471191 0.18144631385803223 0.58590126037597656
-0.21933960914611816 0.20786142349243164 0.57564401626586914
-0.24316251277923584 0.22336292266845703 0.57622742652893066
0.26840227842330933 0.15639472007751465 0.60081863403320312
0.26907843351364136 0.14229273796081543 0.59836387634277344
0.30804288387298584 0.14377474784851074 0.59650921821594238
0.2682604193687439 0.16727495193481445 0.60424041748046875
0.23003220558166504 0.17146563529968262 0.60352659225463867
0.22868484258651733 0.1578676700592041 0.60199117660522461
0.31077593564987183 0.12939596176147461 0.59294962882995605
0.30621051788330078 0.15552854537963867 0.6002652645111084
0.23150098323822021 0.1813509464263916 0.60666084289550781
-0.32222163677215576 0.14966440200805664 0.58588695526123047
-0.35476398468017578 0.13706135749816895 0.58176589012145996
-0.31451892852783203 0.13679671287536621 0.58636593818664551
-0.2927781343460083 0.16440105438232422 0.587646484375
-0.32816421985626221 0.15953207015991211 0.58689713478088379
-0.35934114456176758 0.14766740798950195 0.58278298377990723
-0.3493964672088623 0.12401366233825684 0.58138799667358398
-0.28295028209686279 0.15191769599914551 0.58875274658203125
-0.29991757869720459 0.17341136932373047 0.58871316909790039
0.40609955787658691 0.13880348205566406 0.57684493064880371
0.41448003053665161 0.12537884712219238 0.57038712501525879
0.43114578723907471 0.14879560470581055 0.56857705116271973
0.399924635887146 0.15106725692749023 0.58192896842956543
0.37797641754150391 0.13423538208007812 0.58432149887084961
0.38461422920227051 0.12016630172729492 0.57865333557128906
0.44108700752258301 0.13634014129638672 0.56156492233276367
0.42378997802734375 0.16042017936706543 0.57403159141540527
0.37308156490325928 0.14674830436706543 0.5889437198638916
-0.45275652408599854 0.12848234176635742 0.55383753776550293
-0.48489272594451904 0.13563895225524902 0.53889107704162598
-0.45444202423095703 0.1163487434387207 0.5504906177520752
-0.42076742649078369 0.12586808204650879 0.56587862968444824
-0.45288169384002686 0.13948512077331543 0.55590033531188965
-0.48343038558959961 0.14610576629638672 0.54155921936035156
-0.48875629901885986 0.12431025505065918 0.53460144996643066
-0.42017364501953125 0.11317753791809082 0.56351971626281738
-0.42241179943084717 0.13709211349487305 0.56741690635681152
0.49639546871185303 0.20493483543395996 0.54052591323852539
0.50970721244812012 0.19723272323608398 0.53354096412658691
0.51261168718338013 0.22945451736450195 0.53164243698120117
0.48574995994567871 0.21260952949523926 0.54587268829345703
0.4764561653137207 0.18266010284423828 0.55005884170532227
0.48887550830841064 0.17311668395996094 0.54280996322631836
0.52658665180206299 0.22371983528137207 0.52505135536193848
0.50105875730514526 0.23544406890869141 0.53669357299804688
0.46685552597045898 0.19191789627075195 0.55563616752624512
-0.58575344085693359 0.17741274833679199 0.47680926322937012
-0.61678636074066162 0.19587111473083496 0.45351195335388184
-0.59530675411224365 0.16984987258911133 0.47020506858825684
-0.55208885669708252 0.1607818603515625 0.49974370002746582
-0.57902336120605469 0.18471908569335938 0.48124122619628906
-0.60837352275848389 0.20187139511108398 0.45855426788330078
-0.62787187099456787 0.1898190975189209 0.44621872901916504
-0.55990898609161377 0.15178179740905762 0.4938347339630127
-0.54715383052825928 0.16933655738830566 0.50360703468322754
0.5271146297454834 0.30704736709594727 0.51410794258117676
0.54171490669250488 0.30697941780090332 0.50861501693725586
0.521720290184021 0.3319094181060791 0.51103782653808594
0.51427745819091797 0.30843949317932129 0.51874089241027832
0.52813345193862915 0.2812952995300293 0.51831316947937012
0.54275542497634888 0.27945256233215332 0.51248788833618164
0.53605961799621582 0.33343744277954102 0.50591015815734863
0.5090022087097168 0.33203268051147461 0.51564478874206543
0.51545166969299316 0.28408479690551758 0.52298927307128906
-0.67686283588409424 0.25583028793334961 0.39395618438720703
-0.6859128475189209 0.2756202220916748 0.37877130508422852
-0.69110846519470215 0.25399589538574219 0.38429689407348633
-0.66290783882141113 0.23563694953918457 0.4114229679107666
-0.66510605812072754 0.25842475891113281 0.40141868591308594
-0.67369413375854492 0.27728867530822754 0.38702797889709473
-0.70064723491668701 0.27496910095214844 0.36848187446594238
-0.67636668682098389 0.23249936103820801 0.40256142616271973
-0.65193021297454834 0.2392430305480957 0.41801238059997559
0.48780447244644165 0.39639377593994141 0.50557422637939453
0.49979168176651001 0.40125679969787598 0.50200366973876953
0.46823906898498535 0.41501665115356445 0.5054161548614502
0.4770883321762085 0.39339780807495117 0.50976252555847168
0.50225025415420532 0.37664222717285156 0.50679111480712891
0.51530915498733521 0.3806145191192627 0.50269293785095215
0.47881555557250977 0.42065978050231934 0.50212550163269043
0.45873934030532837 0.41121315956115723 0.5096287727355957
0.49059271812438965 0.37457156181335449 0.51113438606262207
-0.69047451019287109 0.32908415794372559 0.34688711166381836
-0.68293392658233643 0.34593558311462402 0.34244251251220703
-0.7046513557434082 0.33116459846496582 0.33671331405639648
-0.69279801845550537 0.31216192245483398 0.35490870475769043
-0.67867410182952881 0.32826495170593262 0.35624170303344727
-0.6718829870223999 0.34437179565429688 0.35196614265441895
-0.69622385501861572 0.34879922866821289 0.3325493335723877
-0.70750999450683594 0.31344485282897949 0.34441637992858887
-0.68055820465087891 0.31213545799255371 0.36409521102905273
0.3687436580657959 0.46768355369567871 0.51320075988769531
0.37281608581542969 0.47583460807800293 0.50789260864257812
0.32811278104782104 0.48325920104980469 0.5162050724029541
0.3644416332244873 0.46213650703430176 0.51956677436828613
0.40781813859939575 0.45072746276855469 0.50963401794433594
0.41436982154846191 0.45795989036560059 0.50540375709533691
0.3296278715133667 0.49245190620422363 0.50985455513000488
0.32579600811004639 0.47714948654174805 0.52348542213439941
0.40158277750015259 0.44569158554077148 0.5149993896484375
-0.62226665019989014 0.40076398849487305 0.35508584976196289
-0.59430861473083496 0.41882920265197754 0.36391496658325195
-0.63101315498352051 0.40646457672119141 0.34394335746765137
-0.64806449413299561 0.38194680213928223 0.34720134735107422
-0.61524462699890137 0.39721465110778809 0.36621356010437012
-0.58880901336669922 0.41455745697021484 0.37557125091552734
-0.60138046741485596 0.4257357120513916 0.35211658477783203
-0.65853917598724365 0.38657903671264648 0.33679389953613281
-0.63948976993560791 0.37904858589172363 0.35764837265014648
0.22558623552322388 0.516510009765625 0.51268434524536133
0.22050201892852783 0.52959299087524414 0.50613737106323242
0.19956135749816895 0.52268338203430176 0.50883102416992188
0.22851711511611938 0.5077822208404541 0.51996016502380371
0.25523751974105835 0.50793313980102539 0.51595497131347656
0.25209742784500122 0.51965975761413574 0.50894761085510254
0.1927649974822998 0.53696107864379883 0.50292372703552246
0.20391166210174561 0.51302003860473633 0.515472412109375
0.25659000873565674 0.50020551681518555 0.52370858192443848
-0.51997232437133789 0.45996618270874023 0.37892007827758789
-0.49964666366577148 0.46868014335632324 0.38106846809387207
-0.52399909496307373 0.47127175331115723 0.36812949180603027
-0.54215443134307861 0.44884371757507324 0.37620830535888672
-0.51736569404602051 0.45259833335876465 0.38945293426513672
-0.49757611751556396 0.46022677421569824 0.39060044288635254
-0.50313127040863037 0.48137474060058594 0.37136077880859375
-0.54684913158416748 0.45862317085266113 0.36455512046813965
-0.53888654708862305 0.4426274299621582 0.38757014274597168
0.13685524463653564 0.52731466293334961 0.5037839412689209
0.12610363960266113 0.54282665252685547 0.49869084358215332
0.11955106258392334 0.52404618263244629 0.5048680305480957
0.14460873603820801 0.51650476455688477 0.50958538055419922
0.15571451187133789 0.52810406684875488 0.50392842292785645
0.14610433578491211 0.54366898536682129 0.49880671501159668
0.10780823230743408 0.53907442092895508 0.49975681304931641
0.12827014923095703 0.51343894004821777 0.51068592071533203
0.16244912147521973 0.51735258102416992 0.50977635383605957
-0.44437074661254883 0.48158168792724609 0.39556646347045898
-0.42615783214569092 0.48137021064758301 0.40389657020568848
-0.44548428058624268 0.49625587463378906 0.38845062255859375
-0.46236562728881836 0.47946906089782715 0.38884758949279785
-0.44436633586883545 0.47140812873840332 0.40290307998657227
-0.4271395206451416 0.47116804122924805 0.41069769859313965
-0.42606425285339355 0.49586820602416992 0.39748907089233398
-0.46447575092315674 0.49391627311706543 0.38102912902832031
-0.46152698993682861 0.46956706047058105 0.39673662185668945
0.074320197105407715 0.49840569496154785 0.5133976936340332
0.060289621353149414 0.5097498893737793 0.50908279418945312
0.0625801682472229 0.48459672927856445 0.51765203475952148
0.085929691791534424 0.48955440521240234 0.51854753494262695
0.088149487972259521 0.50961756706237793 0.50981664657592773
0.074791431427001953 0.52248644828796387 0.50507354736328125
0.047938525676727295 0.49429821968078613 0.51378655433654785
0.075012743473052979 0.47667837142944336 0.52237629890441895
0.098815023899078369 0.50001120567321777 0.5153355598449707
-0.36646103858947754 0.46583652496337891 0.4363706111907959
-0.34583449363708496 0.45542073249816895 0.44867467880249023
-0.36155915260314941 0.47762608528137207 0.4330894947052002
-0.38713574409484863 0.47358560562133789 0.42457389831542969
-0.37126731872558594 0.4566192626953125 0.44067072868347168
-0.35205233097076416 0.44689273834228516 0.45197415351867676
-0.33911526203155518 0.46586465835571289 0.44655418395996094
-0.3839949369430542 0.48657584190368652 0.42009377479553223
-0.39055359363555908 0.46387457847595215 0.42986249923706055
0.11110544204711914 0.469329833984375 0.52545928955078125
0.10389423370361328 0.47556614875793457 0.52507448196411133
0.1024632453918457 0.45776057243347168 0.52757143974304199
0.11760902404785156 0.46339631080627441 0.52469205856323242
0.12123191356658936 0.47894859313964844 0.52375340461730957
0.11484301090240479 0.48541116714477539 0.52277350425720215
0.094592869281768799 0.46364068984985352 0.52785325050354004
0.10956656932830811 0.45213437080383301 0.52608036994934082
0.12696999311447144 0.47282028198242188 0.52364063262939453
-0.38109505176544189 0.4357597827911377 0.44612765312194824
-0.36482560634613037 0.42680525779724121 0.45444703102111816
-0.37869119644165039 0.44214057922363281 0.44606781005859375
-0.39734399318695068 0.44274997711181641 0.43819522857666016
-0.38297641277313232 0.42972683906555176 0.44513440132141113
-0.36747407913208008 0.42093181610107422 0.45238733291625977
-0.36157393455505371 0.43298840522766113 0.45542526245117188
-0.39583981037139893 0.44918513298034668 0.43713188171386719
-0.39839065074920654 0.43667888641357422 0.43822908401489258
0.15936368703842163 0.49433755874633789 0.51950860023498535
0.15523290634155273 0.5010979175567627 0.51787710189819336
0.1453481912612915 0.49141764640808105 0.52062797546386719
0.16302049160003662 0.48795413970947266 0.52013373374938965
0.17491453886032104 0.49543333053588867 0.51940202713012695
0.17143154144287109 0.50212812423706055 0.5179598331451416
0.14054775238037109 0.4981381893157959 0.51899409294128418
0.14961397647857666 0.48507022857666016 0.52125358581542969
0.17799472808837891 0.48910641670227051 0.51978349685668945
-0.44359934329986572 0.45072650909423828 0.41640639305114746
-0.42853319644927979 0.4501793384552002 0.42313385009765625
-0.44432878494262695 0.45701408386230469 0.41363525390625
-0.45889806747436523 0.44952988624572754 0.41087460517883301
-0.44258558750152588 0.44480466842651367 0.4181358814239502
-0.42809569835662842 0.44417905807495117 0.42459702491760254
-0.42863237857818604 0.45655369758605957 0.42066574096679688
-0.46017110347747803 0.45564866065979004 0.408050537109375
-0.45738840103149414 0.44375205039978027 0.4125669002532959
0.23296910524368286 0.48988103866577148 0.52850151062011719
0.2317044734954834 0.49550414085388184 0.52847409248352051
0.21132642030715942 0.49334502220153809 0.52437448501586914
0.23410177230834961 0.48446464538574219 0.52683711051940918
0.25771450996398926 0.48405146598815918 0.53172945976257324
0.25739002227783203 0.48923468589782715 0.53226327896118164
0.20923972129821777 0.4994351863861084 0.52378344535827637
0.21318179368972778 0.48753237724304199 0.52354121208190918
0.25800997018814087 0.47899007797241211 0.52926993370056152
-0.51027393341064453 0.43739151954650879 0.4044334888458252
-0.49195301532745361 0.44300961494445801 0.40538978576660156
-0.51291203498840332 0.44226574897766113 0.40262126922607422
-0.52995538711547852 0.42943429946899414 0.4026648998260498
-0.50747025012969971 0.43263006210327148 0.40433478355407715
-0.48959970474243164 0.43783187866210938 0.40606975555419922
-0.49412798881530762 0.44839954376220703 0.40311622619628906
-0.53318119049072266 0.43381023406982422 0.40127158164978027
-0.52657997608184814 0.42507362365722656 0.40187597274780273
0.35324245691299438 0.44825625419616699 0.52424716949462891
0.35657334327697754 0.45310521125793457 0.52582216262817383
0.31897163391113281 0.46300721168518066 0.52952742576599121
0.35015350580215454 0.44327402114868164 0.52078795433044434
0.38614779710769653 0.43205571174621582 0.51836395263671875
0.39074170589447021 0.43695902824401855 0.52007246017456055
0.32098603248596191 0.46780681610107422 0.53088474273681641
0.31711292266845703 0.45815515518188477 0.52614808082580566
0.38188332319259644 0.42693948745727539 0.51495766639709473
-0.59642481803894043 0.38769006729125977 0.38124871253967285
-0.57390344142913818 0.40422964096069336 0.39070320129394531
-0.60276544094085693 0.39127945899963379 0.37983083724975586
-0.61681115627288818 0.37023282051086426 0.37246108055114746
-0.59004342555999756 0.38385224342346191 0.38051033020019531
-0.56869387626647949 0.4003298282623291 0.38959050178527832
-0.57902193069458008 0.4079594612121582 0.38950729370117188
-0.62433314323425293 0.37370491027832031 0.37077593803405762
-0.60931360721588135 0.3664402961730957 0.37219762802124023
0.45241093635559082 0.38345193862915039 0.51123619079589844
0.45954596996307373 0.38750267028808594 0.51310038566589355
0.43646860122680664 0.39939522743225098 0.51134490966796875
0.44593137502670288 0.37896037101745605 0.50795888900756836
0.46404296159744263 0.36706686019897461 0.51257586479187012
0.4716528058052063 0.37038326263427734 0.51443576812744141
0.44298821687698364 0.40395760536193848 0.51318001747131348
0.43049377202987671 0.39446544647216797 0.50806117057800293
0.45717591047286987 0.3632659912109375 0.50930976867675781
-0.64922285079956055 0.32321953773498535 0.3693232536315918
-0.64370405673980713 0.33768606185913086 0.36584734916687012
-0.65857255458831787 0.32578015327453613 0.36765813827514648
-0.65063929557800293 0.30908751487731934 0.37607431411743164
-0.64015340805053711 0.32013297080993652 0.36937141418457031
-0.63481414318084717 0.33422064781188965 0.36604571342468262
-0.65278244018554688 0.34068775177001953 0.36398959159851074
-0.66000747680664062 0.31105446815490723 0.37475037574768066
-0.64163494110107422 0.3065485954284668 0.37579679489135742
0.48450630903244019 0.3109734058380127 0.52023029327392578
0.49323570728302002 0.31084060668945312 0.52191567420959473
0.47987174987792969 0.33089971542358398 0.51714539527893066
0.4764939546585083 0.31068181991577148 0.51723599433898926
0.48570740222930908 0.29032611846923828 0.52446961402893066
0.49456459283828735 0.28894162178039551 0.52610015869140625
0.48829054832458496 0.33205699920654297 0.51890468597412109
0.47222745418548584 0.32927584648132324 0.51403021812438965
0.47748410701751709 0.29129815101623535 0.52156853675842285
-0.63746345043182373 0.26310062408447266 0.40791225433349609
-0.6447141170501709 0.27918696403503418 0.39565420150756836
-0.64591324329376221 0.2623755931854248 0.40821623802185059
-0.62629508972167969 0.24670004844665527 0.42228984832763672
-0.62947213649749756 0.26332235336303711 0.40612435340881348
-0.63627910614013672 0.27836370468139648 0.39441943168640137
-0.65360891819000244 0.27946639060974121 0.39534831047058105
-0.6341397762298584 0.24501371383666992 0.4232327938079834
-0.61887109279632568 0.2479095458984375 0.41992783546447754
0.46132886409759521 0.22833132743835449 0.54753398895263672
0.4687800407409668 0.2245173454284668 0.54931759834289551
0.47405952215194702 0.248382568359375 0.53829193115234375
0.45429348945617676 0.2312920093536377 0.54434633255004883
0.44540441036224365 0.21006155014038086 0.55724668502807617
0.45194435119628906 0.20581793785095215 0.55918526649475098
0.48227006196975708 0.24512910842895508 0.5399627685546875
0.46632230281829834 0.25100207328796387 0.53529691696166992
0.43923389911651611 0.21322011947631836 0.55382609367370605
-0.56374049186706543 0.19922971725463867 0.47992134094238281
-0.58902585506439209 0.2143101692199707 0.45886707305908203
-0.56870293617248535 0.19577121734619141 0.48258781433105469
-0.5361706018447876 0.18567061424255371 0.50081253051757812
-0.55885756015777588 0.20186138153076172 0.47591876983642578
-0.58316540718078613 0.21673417091369629 0.45538234710693359
-0.59510600566864014 0.21123933792114258 0.46100521087646484
-0.53993070125579834 0.18192410469055176 0.50396275520324707
-0.53234958648681641 0.18839669227600098 0.49633193016052246
0.3871006965637207 0.174163818359375 0.58209729194641113
0.39090347290039062 0.16880917549133301 0.58459639549255371
0.40820252895355225 0.18235659599304199 0.57487869262695312
0.38357925415039062 0.1781153678894043 0.57806229591369629
0.36315929889678955 0.17024517059326172 0.5883944034576416
0.36604517698287964 0.16470575332641602 0.59109783172607422
0.41288936138153076 0.17733645439147949 0.57718110084533691
0.4038206934928894 0.18599796295166016 0.57102298736572266
0.36052632331848145 0.17440915107727051 0.58418059349060059
-0.45367753505706787 0.15975713729858398 0.54929423332214355
-0.48061418533325195 0.16541385650634766 0.53608942031860352
-0.45386326313018799 0.15516471862792969 0.55362844467163086
-0.42654252052307129 0.15770697593688965 0.55996990203857422
-0.45322215557098389 0.16305065155029297 0.54368185997009277
-0.47903811931610107 0.16845917701721191 0.53080034255981445
-0.48195183277130127 0.16109776496887207 0.54007959365844727
-0.42563331127166748 0.15296244621276855 0.56457662582397461
-0.42717278003692627 0.16117596626281738 0.55408620834350586
0.26913219690322876 0.18602728843688965 0.6023402214050293
0.26874458789825439 0.18155384063720703 0.60564279556274414
0.30324393510818481 0.1767122745513916 0.59868025779724121
0.26957875490188599 0.18943166732788086 0.59743666648864746
0.23591268062591553 0.19745945930480957 0.6044309139251709
0.23447734117507935 0.19365477561950684 0.6079261302947998
0.30400121212005615 0.17163801193237305 0.60178589820861816
0.30262458324432373 0.18059587478637695 0.59402823448181152
0.23732644319534302 0.20032787322998047 0.59928488731384277
-0.34078025817871094 0.17599034309387207 0.5795435905456543
-0.369423508644104 0.16626667976379395 0.57503151893615723
-0.33707904815673828 0.17219853401184082 0.58446955680847168
-0.31462788581848145 0.18753504753112793 0.58177280426025391
-0.34417831897735596 0.17876219749450684 0.57313251495361328
-0.3720085620880127 0.16946887969970703 0.5687556266784668
-0.36654770374298096 0.1619412899017334 0.57992410659790039
-0.3102492094039917 0.18433833122253418 0.58671307563781738
-0.31869125366210938 0.18982458114624023 0.57525491714477539
0.16502797603607178 0.23189997673034668 0.59808254241943359
0.16192281246185303 0.22933149337768555 0.60211753845214844
0.1831098198890686 0.2209007740020752 0.60215926170349121
0.16798973083496094 0.233795166015625 0.59247040748596191
0.15083193778991699 0.24299240112304688 0.59300470352172852
0.14747154712677002 0.24064540863037109 0.59720206260681152
0.18032342195510864 0.21807527542114258 0.60601997375488281
0.18577218055725098 0.22299361228942871 0.59665918350219727
0.1540336012840271 0.24471116065979004 0.5872960090637207
-0.26723682880401611 0.22135734558105469 0.57370471954345703
-0.27744174003601074 0.21067333221435547 0.57859063148498535
-0.26192593574523926 0.2192835807800293 0.57890582084655762
-0.26117908954620361 0.23203873634338379 0.56758880615234375
-0.27220356464385986 0.22276210784912109 0.5669395923614502
-0.28226840496063232 0.21226215362548828 0.57190871238708496
-0.27228116989135742 0.20835494995117188 0.58365702629089355
-0.25577497482299805 0.23018789291381836 0.57295966148376465
-0.2662205696105957 0.23326206207275391 0.56072282791137695
0.086847364902496338 0.41369056701660156 0.53826475143432617
0.07907634973526001 0.41742205619812012 0.54025840759277344
0.085387825965881348 0.39686179161071777 0.54307126998901367
0.093658387660980225 0.40993070602416992 0.53494691848754883
0.090225934982299805 0.42966651916503906 0.5339508056640625
0.082086861133575439 0.43426871299743652 0.53544831275939941
0.07811272144317627 0.39969372749328613 0.54552555084228516
0.091680467128753662 0.39387989044189453 0.53926467895507812
0.097462654113769531 0.42514944076538086 0.53116011619567871
-0.3190152645111084 0.38996410369873047 0.48230218887329102
-0.3057781457901001 0.37520933151245117 0.49203729629516602
-0.31426870822906494 0.39424252510070801 0.4855809211730957
-0.33347535133361816 0.40367531776428223 0.47261762619018555
-0.32281064987182617 0.3857426643371582 0.4779055118560791
-0.30971360206604004 0.37175154685974121 0.48712038993835449
-0.3007972240447998 0.37860846519470215 0.49582529067993164
-0.32904493808746338 0.40878534317016602 0.47529864311218262
-0.33707761764526367 0.39873147010803223 0.46882772445678711
0.092811644077301025 0.34445571899414062 0.55864429473876953
0.086445033550262451 0.34524035453796387 0.56248617172241211
0.09843134880065918 0.32733964920043945 0.56379985809326172
0.098457813262939453 0.34319019317626953 0.55332827568054199
0.088519692420959473 0.36193752288818359 0.5534062385559082
0.081974387168884277 0.36327314376831055 0.5567934513092041
0.092249691486358643 0.32763838768005371 0.5680243968963623
0.10404872894287109 0.32649040222167969 0.55806159973144531
0.094204306602478027 0.36021804809570312 0.54859137535095215
-0.27605509757995605 0.32766032218933105 0.51919841766357422
-0.26946008205413818 0.31175518035888672 0.52724504470825195
-0.27022814750671387 0.32904195785522461 0.52444100379943848
-0.28421318531036377 0.3437492847442627 0.51062965393066406
-0.28092455863952637 0.32587385177612305 0.51265072822570801
-0.27470505237579346 0.3103644847869873 0.52022838592529297
-0.26338410377502441 0.31265544891357422 0.5328822135925293
-0.27869606018066406 0.3456723690032959 0.5153968334197998
-0.28867995738983154 0.34152793884277344 0.50463533401489258
0.12015438079833984 0.28083086013793945 0.57805204391479492
0.1153596043586731 0.27961325645446777 0.58264470100402832
0.12911856174468994 0.26724505424499512 0.5827186107635498
0.12470442056655884 0.2814328670501709 0.57197332382202148
0.11218440532684326 0.2953801155090332 0.57346105575561523
0.10678893327713013 0.29468202590942383 0.57806777954101562
0.12492811679840088 0.26555180549621582 0.58721399307250977
0.13310843706130981 0.26832771301269531 0.57676100730895996
0.1172640323638916 0.29546284675598145 0.56734299659729004
-0.25797224044799805 0.26804828643798828 0.54821348190307617
-0.25717473030090332 0.25517106056213379 0.5545802116394043
-0.25201797485351562 0.26738858222961426 0.55412006378173828
-0.26040160655975342 0.28178143501281738 0.54166722297668457
-0.26341629028320312 0.2681114673614502 0.54086852073669434
-0.26245558261871338 0.25573420524597168 0.54739665985107422
-0.25145316123962402 0.25400996208190918 0.5603339672088623
-0.25426411628723145 0.28166317939758301 0.54763936996459961
-0.26594126224517822 0.28131556510925293 0.53425121307373047
-0.096114635467529297 0.47858309745788574 0.38269710540771484
-0.10550951957702637 0.49047422409057617 0.40986061096191406
-0.079881429672241211 0.49895882606506348 0.38005447387695312
-0.086455464363098145 0.46788239479064941 0.35682296752929688
-0.11390018463134766 0.46614265441894531 0.38230752944946289
