# XYZ point cloud file
-0.26324367523193359 0.42671489715576172 -0.72836804389953613
-0.2895665168762207 0.4689483642578125 -0.66730523109436035
0.20529890060424805 0.074224948883056641 -0.89869999885559082
0.21120858192443848 0.18411874771118164 -0.87221670150756836
0.20702862739562988 0.2878270149230957 -0.82977676391601562
0.55912494659423828 0.30935859680175781 -0.62810111045837402
0.5630267858505249 0.19797134399414062 -0.67482089996337891
0.55613851547241211 0.080601215362548828 -0.70989799499511719
-0.22965812683105469 0.0079393386840820312 -0.88135218620300293
-0.2237398624420166 0.11234712600708008 -0.87724733352661133
-0.22211050987243652 0.21217012405395508 -0.85817193984985352
0.5759958028793335 0.39779424667358398 0.22417974472045898
0.57585883140563965 0.40573740005493164 0.26955580711364746
0.57650363445281982 0.42168378829956055 0.31139111518859863
0.71033430099487305 0.33027505874633789 0.30457687377929688
0.70678281784057617 0.31798505783081055 0.26563835144042969
0.70618414878845215 0.31089210510253906 0.22464323043823242
0.67873787879943848 0.34408283233642578 0.18878340721130371
0.64813733100891113 0.36666059494018555 0.18586301803588867
0.61532378196716309 0.38410139083862305 0.1792912483215332
-0.68062305450439453 0.27579641342163086 -0.075793743133544922
-0.70846080780029297 0.2576289176940918 -0.070803403854370117
-0.73371267318725586 0.23614120483398438 -0.065124988555908203
-0.76543354988098145 0.21019077301025391 -0.011771202087402344
-0.77900791168212891 0.21858358383178711 0.032356500625610352
-0.79541325569152832 0.23028945922851562 0.069946527481079102
-0.70507264137268066 0.3186497688293457 0.068846940994262695
-0.68572783470153809 0.30395603179931641 0.029955387115478516
-0.66731095314025879 0.29525184631347656 -0.017312526702880859
0.59801244735717773 0.47770118713378906 0.0095913410186767578
0.58861064910888672 0.44874954223632812 0.066927909851074219
0.58189654350280762 0.42101001739501953 0.12244272232055664
0.71846187114715576 0.32094812393188477 0.13793826103210449
0.7309032678604126 0.33581256866455078 0.092529058456420898
0.74541902542114258 0.35125494003295898 0.045664310455322266
0.72830235958099365 0.40610265731811523 -0.0075664520263671875
0.69348859786987305 0.44020795822143555 -0.021220922470092773
0.65459525585174561 0.47009181976318359 -0.037098407745361328
-0.63721919059753418 0.32498264312744141 -0.38019824028015137
-0.6751713752746582 0.29465770721435547 -0.3651738166809082
-0.71067428588867188 0.26253461837768555 -0.34656190872192383
-0.74612903594970703 0.22120952606201172 -0.26082110404968262
-0.74853682518005371 0.21519041061401367 -0.19145607948303223
-0.75091385841369629 0.20930337905883789 -0.12466955184936523
-0.63737082481384277 0.30731439590454102 -0.14577174186706543
-0.62532711029052734 0.32540035247802734 -0.22437882423400879
-0.61316227912902832 0.34411144256591797 -0.30620193481445312
0.66171002388000488 0.49585390090942383 -0.22208094596862793
0.64279842376708984 0.50846385955810547 -0.16464805603027344
0.62539935111999512 0.51050615310668945 -0.10676431655883789
0.77431178092956543 0.36599493026733398 -0.052671432495117188
0.78738677501678467 0.36083698272705078 -0.10387039184570312
0.79993438720703125 0.34735918045043945 -0.15597629547119141
0.78807163238525391 0.37163448333740234 -0.22113466262817383
0.75824975967407227 0.40816497802734375 -0.2404639720916748
0.72271585464477539 0.44050264358520508 -0.26145029067993164
-0.56786203384399414 0.28191518783569336 -0.63682651519775391
-0.61212944984436035 0.24905824661254883 -0.61684131622314453
-0.65283989906311035 0.21491241455078125 -0.5915992259979248
-0.70275449752807617 0.19670534133911133 -0.51175618171691895
-0.7180182933807373 0.21207523345947266 -0.4551081657409668
-0.73134565353393555 0.22123384475708008 -0.39432525634765625
-0.58226203918457031 0.36110115051269531 -0.46039986610412598
-0.56309723854064941 0.35482978820800781 -0.52842569351196289
-0.54295611381530762 0.34007883071899414 -0.59098148345947266
0.73366653919219971 0.3519134521484375 -0.43853521347045898
0.71920180320739746 0.40404367446899414 -0.38856267929077148
0.70117378234863281 0.44403886795043945 -0.33486151695251465
0.8246150016784668 0.29555273056030273 -0.26159954071044922
0.83401882648468018 0.26059770584106445 -0.311676025390625
0.83743965625762939 0.22409725189208984 -0.35578608512878418
0.82611417770385742 0.21032857894897461 -0.40702509880065918
0.80652129650115967 0.23153114318847656 -0.43326497077941895
0.77780914306640625 0.25627899169921875 -0.45966744422912598
-0.51992917060852051 0.11891317367553711 -0.78432321548461914
-0.5664219856262207 0.093989372253417969 -0.75809335708618164
-0.60484910011291504 0.074281692504882812 -0.72810912132263184
-0.64283370971679688 0.084990024566650391 -0.68402671813964844
-0.65803432464599609 0.11598587036132812 -0.65304780006408691
-0.6724703311920166 0.14708423614501953 -0.61216592788696289
-0.50424480438232422 0.28925800323486328 -0.7013852596282959
-0.48818874359130859 0.25269556045532227 -0.74690628051757812
-0.47619080543518066 0.20666265487670898 -0.78229665756225586
0.84070348739624023 0.14719629287719727 -0.39802670478820801
0.84169149398803711 0.079745292663574219 -0.41176199913024902
0.83696389198303223 0.0046038627624511719 -0.4243004322052002
0.79334759712219238 -0.092694759368896484 -0.47628068923950195
0.76142370700836182 -0.09566497802734375 -0.51421546936035156
0.72982990741729736 -0.092061042785644531 -0.5502314567565918
0.72337901592254639 0.012501239776611328 -0.57319355010986328
0.73847460746765137 0.10995769500732422 -0.55178737640380859
0.74464643001556396 0.20295095443725586 -0.52144622802734375
-0.46994614601135254 0.080092906951904297 -0.81163644790649414
-0.47403955459594727 0.0028696060180664062 -0.80428218841552734
-0.47887539863586426 -0.07720947265625 -0.7841799259185791
-0.52975344657897949 -0.16414785385131836 -0.71888375282287598
-0.5772550106048584 -0.16832447052001953 -0.68399786949157715
-0.62372064590454102 -0.16671514511108398 -0.6490790843963623
-0.66119718551635742 -0.090894222259521484 -0.64821267127990723
-0.65140461921691895 -0.031742095947265625 -0.67392396926879883
-0.64013147354125977 0.022211074829101562 -0.69250345230102539
0.66731131076812744 -0.071608543395996094 -0.61723613739013672
0.63248157501220703 -0.058328628540039062 -0.65078186988830566
0.59019184112548828 -0.045602798461914062 -0.68751668930053711
0.6079399585723877 0.38638877868652344 -0.54104065895080566
0.65987002849578857 0.355712890625 -0.51878666877746582
0.704123854637146 0.32041692733764648 -0.50128364562988281
-0.41984677314758301 0.18679618835449219 -0.81749916076660156
-0.36592197418212891 0.22675895690917969 -0.82411670684814453
-0.30326724052429199 0.26595067977905273 -0.82632780075073242
-0.31476020812988281 -0.11160993576049805 -0.8427126407623291
-0.37830138206481934 -0.12810134887695312 -0.8146820068359375
-0.43238401412963867 -0.14298677444458008 -0.78470396995544434
0.51684296131134033 0.59208536148071289 -0.3010714054107666
0.57986676692962646 0.55491256713867188 -0.29307818412780762
0.63425660133361816 0.51381206512451172 -0.28754997253417969
-0.48036408424377441 0.36136484146118164 -0.64878559112548828
-0.43527746200561523 0.40872573852539062 -0.63964176177978516
-0.38290262222290039 0.45634078979492188 -0.62297892570495605
0.43022513389587402 0.6097722053527832 -0.039784908294677734
0.49948215484619141 0.57468509674072266 -0.044427633285522461
0.55900835990905762 0.53693199157714844 -0.049221277236938477
-0.5639951229095459 0.39769315719604492 -0.37881326675415039
-0.52630019187927246 0.44154834747314453 -0.35971713066101074
-0.48131322860717773 0.48655891418457031 -0.33167886734008789
0.33969831466674805 0.60576105117797852 0.028068780899047852
0.334908127784729 0.56556463241577148 0.094325065612792969
0.33384394645690918 0.52599143981933594 0.15569114685058594
0.41328918933868408 0.47441196441650391 0.20041441917419434
0.47861635684967041 0.44972467422485352 0.18917655944824219
0.53279626369476318 0.4244842529296875 0.17961788177490234
-0.6197974681854248 0.32118082046508789 -0.063946962356567383
-0.58362317085266113 0.3511052131652832 -0.043443441390991211
-0.53849005699157715 0.38316917419433594 -0.014918088912963867
-0.46804356575012207 0.44027233123779297 -0.04683995246887207
-0.45556282997131348 0.47253131866455078 -0.12571811676025391
-0.44146847724914551 0.50481271743774414 -0.21094369888305664
0.33656275272369385 0.48299026489257812 0.25467181205749512
0.33723294734954834 0.48618412017822266 0.2915797233581543
0.33538436889648438 0.50326061248779297 0.32216262817382812
-0.52692198753356934 0.42257499694824219 0.13183379173278809
-0.51032805442810059 0.4077763557434082 0.10665130615234375
-0.49476313591003418 0.4049229621887207 0.070501804351806641
-0.075756072998046875 0.62074518203735352 -0.051069259643554688
-0.087295770645141602 0.58361244201660156 0.038170576095581055
-0.095626592636108398 0.54249191284179688 0.12795066833496094
0.024880409240722656 0.5155024528503418 0.21781063079833984
0.13704228401184082 0.51743745803833008 0.21592378616333008
0.24161672592163086 0.51038217544555664 0.2141716480255127
-0.40598201751708984 0.44553899765014648 0.061082363128662109
-0.31792664527893066 0.47149419784545898 0.10742592811584473
-0.21954154968261719 0.4908294677734375 0.15953850746154785
0.24391508102416992 0.52681732177734375 0.33801507949829102
0.16618895530700684 0.51314783096313477 0.33548283576965332
0.09154963493347168 0.49692821502685547 0.33943319320678711
-0.30679535865783691 0.45840883255004883 0.24850988388061523
-0.38239741325378418 0.45941162109375 0.20865511894226074
-0.46109390258789062 0.45769309997558594 0.17485237121582031
-0.031717538833618164 0.48295783996582031 0.27598309516906738
0.0024127960205078125 0.47283077239990234 0.30652427673339844
0.019654989242553711 0.46884298324584961 0.33093047142028809
-0.22341394424438477 0.4466710090637207 0.2786409854888916
-0.20461463928222656 0.45402908325195312 0.26217412948608398
-0.17176365852355957 0.47005319595336914 0.24553370475769043
-0.10106849670410156 0.46723031997680664 0.2791297435760498
-0.097652196884155273 0.44537019729614258 0.30792927742004395
-0.094917535781860352 0.42917299270629883 0.33179640769958496
0.80039548873901367 0.13479757308959961 0.095376253128051758
0.77544248104095459 0.20251655578613281 0.12799477577209473
0.74356842041015625 0.26263189315795898 0.15927338600158691
-0.77384138107299805 0.16425275802612305 -0.071454048156738281
-0.78622102737426758 0.11294937133789062 -0.081519365310668945
-0.79100823402404785 0.056548595428466797 -0.087009191513061523
0.82466363906860352 0.064868450164794922 0.025206327438354492
0.83361673355102539 0.069592475891113281 -0.012991428375244141
0.84173071384429932 0.073619842529296875 -0.050238132476806641
0.83975529670715332 0.1601405143737793 -0.062572002410888672
0.81844472885131836 0.23681545257568359 -0.034681081771850586
0.79123210906982422 0.30537223815917969 -0.013238668441772461
-0.76430845260620117 0.17546939849853516 -0.31923222541809082
-0.77994275093078613 0.11863470077514648 -0.31252384185791016
-0.78814339637756348 0.056224346160888672 -0.30621957778930664
-0.79022073745727539 -0.0078878402709960938 -0.24031281471252441
-0.79120063781738281 -0.0064339637756347656 -0.18997526168823242
-0.79003286361694336 -0.0053133964538574219 -0.13783168792724609
0.85787665843963623 0.095972061157226562 -0.1291496753692627
0.86201024055480957 0.10040569305419922 -0.16289782524108887
0.86622810363769531 0.092845439910888672 -0.19898009300231934
0.85848498344421387 0.13103914260864258 -0.22847127914428711
0.84565794467926025 0.19719648361206055 -0.21612882614135742
0.83084356784820557 0.26474761962890625 -0.20826101303100586
-0.71187448501586914 0.12511587142944336 -0.53754472732543945
-0.72975778579711914 0.070927143096923828 -0.51337671279907227
-0.7432091236114502 0.018331527709960938 -0.49323391914367676
-0.76508259773254395 -0.0086741447448730469 -0.4368901252746582
-0.7742457389831543 0.00053358078002929688 -0.39685344696044922
-0.78242015838623047 0.00041532516479492188 -0.35277581214904785
0.87163019180297852 0.060118198394775391 -0.28776144981384277
0.86683535575866699 0.030110836029052734 -0.33489704132080078
0.85536694526672363 -0.01351165771484375 -0.38272309303283691
-0.70224452018737793 -0.10420703887939453 -0.59500455856323242
-0.72284245491027832 -0.068058967590332031 -0.56492495536804199
-0.73999762535095215 -0.041732311248779297 -0.52654027938842773
0.39188170433044434 -0.39940595626831055 0.1504664421081543
0.34934449195861816 -0.44314050674438477 0.15825700759887695
0.30793380737304688 -0.48037099838256836 0.17886662483215332
0.32055115699768066 -0.56669044494628906 -0.18230342864990234
0.36813759803771973 -0.53448724746704102 -0.18488883972167969
0.41219329833984375 -0.50232982635498047 -0.18727827072143555
0.45262610912322998 -0.4553227424621582 -0.10693860054016113
0.45245981216430664 -0.42691755294799805 -0.024565935134887695
0.4515995979309082 -0.38996553421020508 0.059871912002563477
-0.38804340362548828 -0.36681938171386719 0.11767172813415527
-0.40316414833068848 -0.40278816223144531 0.035666227340698242
-0.41459894180297852 -0.43129205703735352 -0.046915769577026367
-0.38663363456726074 -0.47869682312011719 -0.12839937210083008
-0.34962749481201172 -0.5099329948425293 -0.12404894828796387
-0.30996179580688477 -0.54221630096435547 -0.12190866470336914
-0.21322488784790039 -0.45530509948730469 0.24030232429504395
-0.2612767219543457 -0.41822624206542969 0.21963644027709961
-0.30788755416870117 -0.37562990188598633 0.20937991142272949
0.64491724967956543 -0.36826372146606445 -0.12427759170532227
0.66165530681610107 -0.33243465423583984 -0.073347568511962891
0.68597817420959473 -0.28665637969970703 -0.021067142486572266
0.64844202995300293 -0.25971841812133789 0.066405296325683594
0.58275175094604492 -0.2876434326171875 0.091280221939086914
0.51588535308837891 -0.3141474723815918 0.11860275268554688
0.5006868839263916 -0.44704675674438477 -0.18789124488830566
0.54680871963500977 -0.42612409591674805 -0.18564558029174805
0.59278392791748047 -0.40967845916748047 -0.18226218223571777
-0.55265331268310547 -0.38984441757202148 -0.13146686553955078
-0.50837254524230957 -0.40586614608764648 -0.13408255577087402
-0.46509003639221191 -0.42590999603271484 -0.13451433181762695
-0.44577932357788086 -0.29521036148071289 0.16672158241271973
-0.51923441886901855 -0.27206134796142578 0.13177657127380371
-0.5896155834197998 -0.24908685684204102 0.095499038696289062
-0.63327884674072266 -0.27645397186279297 0.0072371959686279297
-0.61314916610717773 -0.31738948822021484 -0.033611536026000977
-0.60056233406066895 -0.35017871856689453 -0.077377796173095703
0.4694523811340332 -0.1988520622253418 0.34495508670806885
0.4693983793258667 -0.23792839050292969 0.28803300857543945
0.46246492862701416 -0.28455018997192383 0.22680497169494629
-0.3748929500579834 -0.26605033874511719 0.27351045608520508
-0.37766814231872559 -0.22174358367919922 0.32923603057861328
-0.37408089637756348 -0.18445873260498047 0.38187515735626221
0.41180109977722168 -0.19635438919067383 0.40713942050933838
0.37273621559143066 -0.21832895278930664 0.42128622531890869
0.33973073959350586 -0.23575115203857422 0.43994796276092529
0.33614754676818848 -0.34100723266601562 0.35751330852508545
0.36445784568786621 -0.33700895309448242 0.30211997032165527
0.39867877960205078 -0.33818483352661133 0.23824739456176758
-0.29781484603881836 -0.3167881965637207 0.29146289825439453
-0.24567341804504395 -0.31566905975341797 0.3549187183380127
-0.19994211196899414 -0.31950235366821289 0.41048479080200195
-0.20610952377319336 -0.22000503540039062 0.4792182445526123
-0.2505495548248291 -0.20313739776611328 0.45946967601776123
-0.30074071884155273 -0.18190193176269531 0.44383072853088379
0.79127252101898193 -0.1685175895690918 -0.44824409484863281
0.75293588638305664 -0.2457728385925293 -0.44553089141845703
0.71574628353118896 -0.31290483474731445 -0.42882680892944336
0.64743125438690186 -0.365509033203125 -0.42232060432434082
0.60944819450378418 -0.37044525146484375 -0.44847226142883301
0.56785821914672852 -0.38124656677246094 -0.47687935829162598
0.5717388391494751 -0.32848215103149414 -0.5505683422088623
0.61969447135925293 -0.2537074089050293 -0.57332968711853027
0.66293644905090332 -0.17213344573974609 -0.58460092544555664
-0.47856974601745605 -0.22662878036499023 -0.71151947975158691
-0.47123956680297852 -0.29158830642700195 -0.66069912910461426
-0.46027922630310059 -0.3506622314453125 -0.60056829452514648
-0.4922182559967041 -0.3893427848815918 -0.4931178092956543
-0.53529095649719238 -0.37855386734008789 -0.4644777774810791
-0.57672309875488281 -0.37255287170410156 -0.43556427955627441
-0.62885499000549316 -0.33289289474487305 -0.47261214256286621
-0.64191174507141113 -0.28333282470703125 -0.53120303153991699
-0.65593862533569336 -0.22511100769042969 -0.57926845550537109
0.49379730224609375 -0.3910222053527832 -0.56433820724487305
0.46554183959960938 -0.38682365417480469 -0.60200071334838867
0.42651987075805664 -0.38952970504760742 -0.63294053077697754
-0.32238221168518066 -0.40210914611816406 -0.66082406044006348
-0.36858558654785156 -0.39949321746826172 -0.62984681129455566
-0.40700387954711914 -0.40192985534667969 -0.58777117729187012
0.65834307670593262 -0.39835500717163086 -0.35300087928771973
0.642234206199646 -0.41395044326782227 -0.29853963851928711
0.63547897338867188 -0.41398715972900391 -0.23941349983215332
0.46433091163635254 -0.47554922103881836 -0.2708125114440918
0.47807693481445312 -0.46532964706420898 -0.35202383995056152
0.49555277824401855 -0.44248008728027344 -0.43059539794921875
-0.44591593742370605 -0.43797397613525391 -0.4170525074005127
-0.44108867645263672 -0.4528651237487793 -0.3195044994354248
-0.43336844444274902 -0.45712757110595703 -0.22411584854125977
-0.5948183536529541 -0.39545297622680664 -0.19147872924804688
-0.59802532196044922 -0.40004539489746094 -0.2616569995880127
-0.60596442222595215 -0.39217901229858398 -0.33454036712646484
0.36017978191375732 -0.52784156799316406 -0.48588109016418457
0.41006827354431152 -0.49526405334472656 -0.48765826225280762
0.45804619789123535 -0.45526266098022461 -0.49679970741271973
-0.40933990478515625 -0.45335865020751953 -0.48967432975769043
-0.3800208568572998 -0.48821401596069336 -0.46846699714660645
-0.34479069709777832 -0.51796340942382812 -0.46016430854797363
1.0963654518127441 0.12607145309448242 -0.2980804443359375
1.0989811420440674 0.14042806625366211 -0.30044031143188477
1.1028287410736084 0.14844512939453125 -0.30940937995910645
1.0634959936141968 0.13912010192871094 -0.31371808052062988
1.0240515470504761 0.12763166427612305 -0.30227279663085938
0.98915505409240723 0.11378669738769531 -0.2921900749206543
0.9619673490524292 0.099760532379150391 -0.26726841926574707
0.96625900268554688 0.094521999359130859 -0.25805807113647461
0.97143673896789551 0.083514690399169922 -0.25553321838378906
1.0019180774688721 0.081496238708496094 -0.26662182807922363
1.0292215347290039 0.092366218566894531 -0.27676987648010254
1.060077428817749 0.10095739364624023 -0.28858518600463867
-0.90368795394897461 -0.036593914031982422 -0.61168670654296875
-0.88215255737304688 -0.037306785583496094 -0.58118581771850586
-0.8633270263671875 -0.040460109710693359 -0.55271673202514648
-0.83864068984985352 -0.034124374389648438 -0.53146815299987793
-0.83028388023376465 -0.025839805603027344 -0.54054617881774902
-0.82114005088806152 -0.022441387176513672 -0.55419564247131348
-0.83207011222839355 -0.018438816070556641 -0.60296940803527832
-0.85622382164001465 -0.014428138732910156 -0.63640618324279785
-0.88402628898620605 -0.013164520263671875 -0.67209959030151367
-0.91991925239562988 -0.012090206146240234 -0.68727707862854004
-0.9232642650604248 -0.016090869903564453 -0.66871094703674316
-0.92617559432983398 -0.025290966033935547 -0.65403079986572266
1.2562823295593262 0.15067195892333984 -0.35930204391479492
1.2073500156402588 0.15670013427734375 -0.34924888610839844
1.1567091941833496 0.15500068664550781 -0.33787059783935547
1.1354316473007202 0.11116218566894531 -0.31502389907836914
1.1775109767913818 0.11066102981567383 -0.32837200164794922
1.2183084487915039 0.10365056991577148 -0.34082198143005371
1.2644705772399902 0.10747671127319336 -0.34792637825012207
1.2760000228881836 0.12287378311157227 -0.34887957572937012
1.2882435321807861 0.13240289688110352 -0.35515761375427246
-1.0723803043365479 -0.054461002349853516 -0.79497337341308594
-1.0680325031280518 -0.058140754699707031 -0.77478122711181641
-1.0635297298431396 -0.066370010375976562 -0.75673961639404297
-1.0255622863769531 -0.061899662017822266 -0.7300264835357666
-0.99139547348022461 -0.050358295440673828 -0.70696616172790527
-0.95863914489746094 -0.042753219604492188 -0.67685127258300781
-0.95237326622009277 -0.018729209899902344 -0.74704432487487793
-0.99205589294433594 -0.026457309722900391 -0.78067564964294434
-1.0336651802062988 -0.038700103759765625 -0.8053433895111084
1.378307580947876 0.013141155242919922 -0.3819432258605957
1.3621618747711182 0.063788414001464844 -0.37733054161071777
1.3358153104782104 0.1047062873840332 -0.37296080589294434
1.2833750247955322 0.061804771423339844 -0.36007308959960938
1.3039823770523071 0.026404857635498047 -0.36696958541870117
1.315976619720459 -0.016638755798339844 -0.37314295768737793
1.3340778350830078 -0.055714607238769531 -0.37584280967712402
1.351030707359314 -0.048339366912841797 -0.3757929801940918
1.3680087327957153 -0.044623374938964844 -0.37975502014160156
-1.2019977569580078 -0.17905187606811523 -0.6935572624206543
-1.1886715888977051 -0.17909431457519531 -0.68092584609985352
-1.1750407218933105 -0.18199300765991211 -0.67035889625549316
-1.1448366641998291 -0.15491962432861328 -0.69650411605834961
-1.1207201480865479 -0.12537431716918945 -0.72272133827209473
-1.0917773246765137 -0.099480628967285156 -0.73869466781616211
-1.1174163818359375 -0.080506801605224609 -0.80855011940002441
-1.1558163166046143 -0.11010837554931641 -0.7856442928314209
-1.1886537075042725 -0.14433574676513672 -0.75087141990661621
1.32769775390625 -0.2426609992980957 -0.41414570808410645
1.357501745223999 -0.1776275634765625 -0.40707659721374512
1.3762035369873047 -0.11050939559936523 -0.39749932289123535
1.312114953994751 -0.11965131759643555 -0.38660860061645508
1.2963032722473145 -0.17465019226074219 -0.39271044731140137
1.2719490528106689 -0.22738218307495117 -0.39569854736328125
1.2504384517669678 -0.27871894836425781 -0.39280009269714355
1.2628042697906494 -0.28490304946899414 -0.39606666564941406
1.2754859924316406 -0.29257917404174805 -0.40366578102111816
-1.1899333000183105 -0.33092355728149414 -0.48804187774658203
-1.1762924194335938 -0.32433605194091797 -0.48313140869140625
-1.1626269817352295 -0.31933927536010742 -0.48277568817138672
-1.1668202877044678 -0.28819799423217773 -0.53389525413513184
-1.1740798950195312 -0.25600910186767578 -0.57994771003723145
-1.1725187301635742 -0.22168731689453125 -0.62324810028076172
-1.2279002666473389 -0.22317409515380859 -0.65915489196777344
-1.2312402725219727 -0.2644963264465332 -0.6070868968963623
-1.222893238067627 -0.30385351181030273 -0.55290770530700684
1.1163666248321533 -0.41444158554077148 -0.37371015548706055
1.1788712739944458 -0.38725042343139648 -0.39550662040710449
1.2367579936981201 -0.34957265853881836 -0.40965032577514648
1.1997754573822021 -0.31224584579467773 -0.38425779342651367
1.1543562412261963 -0.34116458892822266 -0.36824941635131836
1.1052007675170898 -0.36138105392456055 -0.34597492218017578
1.0526816844940186 -0.38557195663452148 -0.31541919708251953
1.0519257783889771 -0.40018510818481445 -0.31845450401306152
1.0517551898956299 -0.41577529907226562 -0.32784914970397949
-1.0117349624633789 -0.39749479293823242 -0.27797484397888184
-1.0085229873657227 -0.38550758361816406 -0.27721476554870605
-1.0058505535125732 -0.3750300407409668 -0.2840731143951416
-1.0490951538085938 -0.36298370361328125 -0.34339642524719238
-1.0896461009979248 -0.3533935546875 -0.39083552360534668
-1.1239585876464844 -0.3378453254699707 -0.43857002258300781
-1.1685943603515625 -0.36703968048095703 -0.44428753852844238
-1.1245276927947998 -0.38837146759033203 -0.39136433601379395
-1.0725240707397461 -0.40280771255493164 -0.33938837051391602
0.86881732940673828 -0.42991971969604492 -0.23500227928161621
0.92707955837249756 -0.43602609634399414 -0.26971888542175293
0.98852348327636719 -0.43739223480224609 -0.30801558494567871
1.0031481981277466 -0.37661647796630859 -0.28437018394470215
0.95354855060577393 -0.37414407730102539 -0.25003385543823242
0.90681707859039307 -0.36794805526733398 -0.21941399574279785
0.84946775436401367 -0.37329864501953125 -0.18856096267700195
0.83540821075439453 -0.38889169692993164 -0.18631744384765625
0.82346391677856445 -0.40559530258178711 -0.19249176979064941
-0.7840888500213623 -0.37838602066040039 -0.12266731262207031
-0.79342937469482422 -0.36500883102416992 -0.12437987327575684
-0.80515742301940918 -0.35331916809082031 -0.13586735725402832
-0.86124992370605469 -0.35174274444580078 -0.17542529106140137
-0.90804886817932129 -0.35923957824707031 -0.2088778018951416
-0.95636916160583496 -0.36487150192260742 -0.25046372413635254
-0.95481109619140625 -0.41066789627075195 -0.23833513259887695
-0.89378976821899414 -0.40631723403930664 -0.19327497482299805
-0.83423924446105957 -0.39950370788574219 -0.15720009803771973
1.0565743446350098 -0.36401653289794922 -0.32492184638977051
1.059552788734436 -0.35799121856689453 -0.33531308174133301
1.0627996921539307 -0.35478544235229492 -0.34777331352233887
1.0237520933151245 -0.35577249526977539 -0.33200716972351074
0.98324942588806152 -0.35278224945068359 -0.30218219757080078
0.94579625129699707 -0.34762239456176758 -0.27599120140075684
0.90384101867675781 -0.34317970275878906 -0.24152588844299316
0.89233243465423584 -0.34583377838134766 -0.22497820854187012
0.87893366813659668 -0.35133790969848633 -0.2096860408782959
-0.83098411560058594 -0.33883094787597656 -0.17466902732849121
-0.84308671951293945 -0.33633232116699219 -0.19709539413452148
-0.85360288619995117 -0.33615970611572266 -0.21952176094055176
-0.89443349838256836 -0.34322547912597656 -0.26001858711242676
-0.93073582649230957 -0.35010671615600586 -0.29010891914367676
-0.96888971328735352 -0.35618019104003906 -0.32705926895141602
-1.0053811073303223 -0.35801935195922852 -0.34935450553894043
-1.0041201114654541 -0.35860157012939453 -0.33063459396362305
-1.0035955905914307 -0.36140251159667969 -0.31253194808959961
1.2314883470535278 -0.27231073379516602 -0.39799642562866211
1.226015567779541 -0.27218914031982422 -0.40519380569458008
1.2230885028839111 -0.27376365661621094 -0.41421294212341309
1.1886522769927979 -0.30658578872680664 -0.41636061668395996
1.150113582611084 -0.32946252822875977 -0.4032292366027832
1.1086739301681519 -0.34532499313354492 -0.38477396965026855
-1.0436694622039795 -0.35728168487548828 -0.40696406364440918
-1.0769624710083008 -0.3502197265625 -0.44624996185302734
-1.1054286956787109 -0.33817052841186523 -0.48505115509033203
-1.129157543182373 -0.31788206100463867 -0.51272034645080566
-1.1335163116455078 -0.31574678421020508 -0.50233602523803711
-1.1405608654022217 -0.31507492065429688 -0.49320292472839355
1.3070600032806396 -0.077738761901855469 -0.38603448867797852
1.2986582517623901 -0.090509414672851562 -0.39488029479980469
1.293602466583252 -0.10318756103515625 -0.40512871742248535
1.2853748798370361 -0.15644359588623047 -0.42092037200927734
1.271392822265625 -0.1990509033203125 -0.42492055892944336
1.2503325939178467 -0.24003267288208008 -0.42647838592529297
-1.1416091918945312 -0.29928779602050781 -0.56107091903686523
-1.148129940032959 -0.27414941787719727 -0.59733796119689941
-1.147435188293457 -0.24740266799926758 -0.63123846054077148
-1.1415848731994629 -0.21198415756225586 -0.65806412696838379
-1.1459128856658936 -0.20302677154541016 -0.65669798851013184
-1.1529138088226318 -0.19455385208129883 -0.65807628631591797
1.2475342750549316 0.066447734832763672 -0.35932254791259766
1.2429875135421753 0.044214725494384766 -0.36983203887939453
1.2408649921417236 0.022952079772949219 -0.38197612762451172
1.2647607326507568 -0.016282558441162109 -0.40150642395019531
1.2813103199005127 -0.043682575225830078 -0.40693116188049316
1.290421724319458 -0.076894760131835938 -0.41152572631835938
-1.1259174346923828 -0.19562721252441406 -0.68827271461486816
-1.1064906120300293 -0.17279958724975586 -0.70858216285705566
-1.0826373100280762 -0.15275478363037109 -0.72086596488952637
-1.054722785949707 -0.12228631973266602 -0.72244834899902344
-1.0551748275756836 -0.10721683502197266 -0.72511839866638184
-1.056774377822876 -0.09206390380859375 -0.73151755332946777
1.0958266258239746 0.085794925689697266 -0.30993199348449707
1.0978434085845947 0.063398361206054688 -0.32183670997619629
1.1009676456451416 0.041718006134033203 -0.33573436737060547
1.1394200325012207 0.024256229400634766 -0.36273884773254395
1.1755127906799316 0.022899627685546875 -0.37468838691711426
1.2103227376937866 0.016756534576416016 -0.3854668140411377
-1.0257580280303955 -0.12328577041625977 -0.7136833667755127
-0.99544334411621094 -0.1138763427734375 -0.69529938697814941
-0.96614980697631836 -0.10731315612792969 -0.67106461524963379
-0.93693923950195312 -0.087704181671142578 -0.63917732238769531
-0.93426823616027832 -0.0709381103515625 -0.63704466819763184
-0.93157529830932617 -0.054049491882324219 -0.63831925392150879
0.98414039611816406 0.050748825073242188 -0.26652956008911133
0.99113106727600098 0.032031536102294922 -0.27771449089050293
0.99793434143066406 0.01361083984375 -0.2909247875213623
1.0250005722045898 0.0064039230346679688 -0.31410026550292969
1.0483300685882568 0.013700485229492188 -0.32517051696777344
1.074741005897522 0.018960475921630859 -0.33739900588989258
-0.91742730140686035 -0.10044717788696289 -0.61703014373779297
-0.8988487720489502 -0.099776744842529297 -0.59073066711425781
-0.88298487663269043 -0.10113430023193359 -0.5655817985534668
-0.86484384536743164 -0.090645790100097656 -0.53471279144287109
-0.85956835746765137 -0.075418472290039062 -0.52918148040771484
-0.85332608222961426 -0.060149192810058594 -0.52627420425415039
0.76647543907165527 -0.21456289291381836 -0.085311651229858398
0.76009202003479004 -0.21714591979980469 -0.054968118667602539
0.74615883827209473 -0.22048139572143555 -0.017459630966186523
0.68045401573181152 -0.37242221832275391 -0.15851855278015137
0.70986282825469971 -0.35178089141845703 -0.15807747840881348
0.73429346084594727 -0.33388376235961914 -0.1676480770111084
0.74326920509338379 -0.30330705642700195 -0.16428971290588379
0.74337637424468994 -0.28347015380859375 -0.14312911033630371
0.75222444534301758 -0.2546539306640625 -0.12518405914306641
-0.69696807861328125 -0.25883913040161133 -0.13090729713439941
-0.68986105918884277 -0.28231430053710938 -0.13611865043640137
-0.69102907180786133 -0.29946327209472656 -0.1508328914642334
-0.68572139739990234 -0.3237762451171875 -0.13925695419311523
-0.66385316848754883 -0.33752346038818359 -0.11990547180175781
-0.63701796531677246 -0.35463190078735352 -0.11210370063781738
-0.69174504280090332 -0.22377729415893555 -0.021087646484375
-0.70524454116821289 -0.22454071044921875 -0.068316221237182617
-0.71058559417724609 -0.22529935836791992 -0.10659456253051758
0.68231415748596191 -0.40301752090454102 -0.19136452674865723
0.72255277633666992 -0.40868711471557617 -0.19416284561157227
0.76643705368041992 -0.41493034362792969 -0.19788575172424316
0.82770264148712158 -0.35346746444702148 -0.18755459785461426
0.79722392559051514 -0.34569406509399414 -0.1860349178314209
0.77343344688415527 -0.33521890640258789 -0.18767547607421875
-0.72419500350952148 -0.32577705383300781 -0.16064858436584473
-0.74925327301025391 -0.33318376541137695 -0.1515355110168457
-0.78064680099487305 -0.33871603012084961 -0.14751672744750977
-0.7283015251159668 -0.3875579833984375 -0.12799930572509766
-0.6831815242767334 -0.38396263122558594 -0.1308588981628418
-0.6420753002166748 -0.38094568252563477 -0.13466596603393555
0.789925217628479 -0.15798521041870117 -0.10365962982177734
0.81352615356445312 -0.090647220611572266 -0.099359512329101562
0.83535420894622803 -0.015391826629638672 -0.096838235855102539
-0.771759033203125 -0.079375743865966797 -0.24506497383117676
-0.75142788887023926 -0.13514184951782227 -0.20111346244812012
-0.73007607460021973 -0.18511724472045898 -0.16405892372131348
0.93232321739196777 0.079041957855224609 -0.27891278266906738
0.90978622436523438 0.063986301422119141 -0.27309918403625488
0.8906019926071167 0.058228015899658203 -0.26339316368103027
0.88211679458618164 0.052340030670166016 -0.2322087287902832
0.88850688934326172 0.034329891204833984 -0.23219561576843262
0.89414346218109131 0.017140865325927734 -0.23702454566955566
0.91645514965057373 0.018342494964599609 -0.24766445159912109
0.93465304374694824 0.036152362823486328 -0.25016617774963379
0.95498919486999512 0.053050041198730469 -0.2535243034362793
-0.83011698722839355 -0.053847789764404297 -0.50384378433227539
-0.81518292427062988 -0.063449382781982422 -0.48314595222473145
-0.80187225341796875 -0.074226856231689453 -0.46391487121582031
-0.78435969352722168 -0.071743488311767578 -0.4445655345916748
-0.77810335159301758 -0.057925701141357422 -0.44784975051879883
-0.77003693580627441 -0.043774127960205078 -0.4571526050567627
-0.76527667045593262 -0.043367862701416016 -0.50143051147460938
-0.77760839462280273 -0.042483806610107422 -0.52268862724304199
-0.79292774200439453 -0.034842491149902344 -0.54613089561462402
0.88527178764343262 -0.34071207046508789 -0.25234580039978027
0.86376535892486572 -0.34002876281738281 -0.25544214248657227
0.84844422340393066 -0.33931493759155273 -0.2632899284362793
0.82500481605529785 -0.33127212524414062 -0.25393152236938477
0.80582571029663086 -0.32567977905273438 -0.23378491401672363
0.78312993049621582 -0.32128524780273438 -0.21225404739379883
-0.73115944862365723 -0.31741619110107422 -0.1985011100769043
-0.75349760055541992 -0.32275104522705078 -0.22215628623962402
-0.77256417274475098 -0.32897233963012695 -0.24369192123413086
-0.79693913459777832 -0.33587646484375 -0.2501678466796875
-0.81278800964355469 -0.33548974990844727 -0.23958897590637207
-0.83446288108825684 -0.33558940887451172 -0.23498058319091797
0.83741366863250732 -0.33210611343383789 -0.27765154838562012
0.83970499038696289 -0.32447052001953125 -0.2812037467956543
0.84418392181396484 -0.31451988220214844 -0.28359317779541016
0.83087801933288574 -0.29364204406738281 -0.2712562084197998
0.81035137176513672 -0.28219461441040039 -0.25543069839477539
0.79060029983520508 -0.26726770401000977 -0.23844051361083984
0.76885092258453369 -0.26915168762207031 -0.2101140022277832
0.76443290710449219 -0.28723907470703125 -0.20459842681884766
0.76075339317321777 -0.30200290679931641 -0.19721055030822754
-0.7068171501159668 -0.30130863189697266 -0.19118547439575195
-0.70793032646179199 -0.29066801071166992 -0.2084190845489502
-0.70922040939331055 -0.27746915817260742 -0.2256157398223877
-0.72787737846374512 -0.27897405624389648 -0.26191830635070801
-0.74862003326416016 -0.29213094711303711 -0.27456092834472656
-0.76972389221191406 -0.30259323120117188 -0.28790688514709473
-0.78618812561035156 -0.31969451904296875 -0.29109764099121094
-0.78405261039733887 -0.32685327529907227 -0.28205513954162598
-0.78360891342163086 -0.33214902877807617 -0.27291655540466309
0.83708000183105469 -0.25280046463012695 -0.29724979400634766
0.82620644569396973 -0.24537324905395508 -0.29441165924072266
0.81731104850769043 -0.23679256439208984 -0.29245734214782715
0.80777096748352051 -0.22642326354980469 -0.27711987495422363
0.79948568344116211 -0.22988986968994141 -0.26086640357971191
0.78940868377685547 -0.23520469665527344 -0.24206781387329102
0.85066580772399902 -0.28876924514770508 -0.28862643241882324
0.85056543350219727 -0.27550029754638672 -0.29216885566711426
0.84845626354217529 -0.26496791839599609 -0.29633831977844238
-0.77770185470581055 -0.28407049179077148 -0.33715176582336426
-0.7828071117401123 -0.29152441024780273 -0.32560849189758301
-0.78637123107910156 -0.30105018615722656 -0.31309247016906738
-0.72021842002868652 -0.25523900985717773 -0.28549647331237793
-0.72644400596618652 -0.25324535369873047 -0.3121953010559082
-0.73147964477539062 -0.25241804122924805 -0.33471536636352539
-0.7407677173614502 -0.26187515258789062 -0.34780335426330566
-0.75127172470092773 -0.26870107650756836 -0.34549331665039062
-0.76339840888977051 -0.27481269836425781 -0.34511280059814453
0.82122969627380371 -0.20834493637084961 -0.29119753837585449
0.83505833148956299 -0.18805170059204102 -0.29148054122924805
0.85289645195007324 -0.16573047637939453 -0.29182839393615723
0.86403214931488037 -0.13400125503540039 -0.27893304824829102
0.85578441619873047 -0.12239646911621094 -0.26441860198974609
0.84872519969940186 -0.10707950592041016 -0.24744820594787598
0.82555019855499268 -0.12187337875366211 -0.22233128547668457
0.80591893196105957 -0.16101694107055664 -0.21847248077392578
0.78831005096435547 -0.20159196853637695 -0.21646261215209961
-0.71784830093383789 -0.22773170471191406 -0.2745063304901123
-0.72937893867492676 -0.19802951812744141 -0.30242705345153809
-0.74280142784118652 -0.16973114013671875 -0.33210039138793945
-0.75740790367126465 -0.16190385818481445 -0.37375617027282715
-0.76250600814819336 -0.17535257339477539 -0.3862159252166748
-0.76911354064941406 -0.18591594696044922 -0.39819025993347168
-0.76126837730407715 -0.21038198471069336 -0.3937835693359375
-0.74820852279663086 -0.22621774673461914 -0.37804484367370605
-0.73874354362487793 -0.24077701568603516 -0.36410951614379883
0.92721343040466309 -0.048863887786865234 -0.27722644805908203
0.9180837869644165 -0.033432960510253906 -0.26556086540222168
0.90878438949584961 -0.016830921173095703 -0.25471162796020508
0.88662958145141602 -0.017457008361816406 -0.24142932891845703
0.87363886833190918 -0.036662101745605469 -0.23703789710998535
0.86006355285644531 -0.059210777282714844 -0.23219108581542969
0.88890290260314941 -0.12119722366333008 -0.29108190536499023
0.9047389030456543 -0.1005101203918457 -0.29008102416992188
0.91992545127868652 -0.080919742584228516 -0.28932881355285645
-0.81050634384155273 -0.15142154693603516 -0.4527745246887207
-0.79955649375915527 -0.16475772857666016 -0.43863749504089355
-0.78799223899841309 -0.17908811569213867 -0.42452692985534668
-0.76553058624267578 -0.12529468536376953 -0.38535475730895996
-0.77373600006103516 -0.10980653762817383 -0.40704822540283203
-0.78163290023803711 -0.097026824951171875 -0.42673182487487793
-0.79846024513244629 -0.099918365478515625 -0.44830751419067383
-0.80695128440856934 -0.11402797698974609 -0.45315098762512207
-0.81492996215820312 -0.12731742858886719 -0.45965576171875
0.95074403285980225 -0.045090675354003906 -0.29057455062866211
0.96726870536804199 -0.029203414916992188 -0.29337215423583984
0.98495161533355713 -0.015104770660400391 -0.29802489280700684
-0.8560025691986084 -0.11052989959716797 -0.5207514762878418
-0.84385085105895996 -0.11842203140258789 -0.50135946273803711
-0.83234214782714844 -0.12806177139282227 -0.48370480537414551
0.85098934173583984 0.013460159301757812 -0.13994288444519043
0.8475574254989624 -0.028055667877197266 -0.17386984825134277
0.84475445747375488 -0.061099052429199219 -0.20280861854553223
-0.75913381576538086 -0.12335968017578125 -0.34692025184631348
-0.76641297340393066 -0.096285343170166016 -0.33223795890808105
-0.77611041069030762 -0.062364101409912109 -0.31644201278686523
0.76838517189025879 -0.21602821350097656 -0.13710808753967285
0.76842987537384033 -0.2215580940246582 -0.16259074211120605
0.76996350288391113 -0.23082494735717773 -0.18894839286804199
-0.70717382431030273 -0.24672508239746094 -0.22257614135742188
-0.70735716819763184 -0.2373652458190918 -0.19602251052856445
-0.70919108390808105 -0.23096895217895508 -0.16846609115600586
1.0197664499282837 -0.039919376373291016 -0.34133791923522949
1.0140522718429565 -0.028639793395996094 -0.33040189743041992
1.0091464519500732 -0.016795158386230469 -0.31811213493347168
0.94051074981689453 -0.073469161987304688 -0.30146026611328125
0.94499540328979492 -0.083307743072509766 -0.31318020820617676
0.94994425773620605 -0.093308925628662109 -0.32401919364929199
0.97287392616271973 -0.089598178863525391 -0.33578181266784668
0.98980259895324707 -0.075502395629882812 -0.3392183780670166
1.0078384876251221 -0.062842369079589844 -0.34407234191894531
-0.87292695045471191 -0.15160036087036133 -0.55072474479675293
-0.86063671112060547 -0.15848159790039062 -0.53214287757873535
-0.84909534454345703 -0.1667790412902832 -0.51493191719055176
-0.83146286010742188 -0.16642522811889648 -0.49358272552490234
-0.82768869400024414 -0.15767049789428711 -0.48575520515441895
-0.8249204158782959 -0.14893150329589844 -0.4766838550567627
-0.87182164192199707 -0.11632251739501953 -0.5505225658416748
-0.87471771240234375 -0.12653923034667969 -0.55888175964355469
-0.87904119491577148 -0.13624048233032227 -0.56602215766906738
0.87750649452209473 -0.15026998519897461 -0.30394864082336426
0.8821941614151001 -0.15705347061157227 -0.3148806095123291
0.88698065280914307 -0.16434383392333984 -0.32421708106994629
0.90995669364929199 -0.15519237518310547 -0.33151006698608398
0.92588973045349121 -0.13772106170654297 -0.33165240287780762
0.94132208824157715 -0.12090158462524414 -0.33223915100097656
-0.82746624946594238 -0.18659496307373047 -0.48409175872802734
-0.81672191619873047 -0.19774913787841797 -0.47001767158508301
-0.80541491508483887 -0.20956134796142578 -0.45642685890197754
-0.78684067726135254 -0.21433258056640625 -0.43878340721130371
-0.78278207778930664 -0.20774316787719727 -0.43113875389099121
-0.77944588661193848 -0.20133590698242188 -0.42112421989440918
0.8192601203918457 -0.22623682022094727 -0.30422592163085938
0.82424569129943848 -0.22819757461547852 -0.3149261474609375
0.83100771903991699 -0.229400634765625 -0.32277536392211914
0.84465122222900391 -0.22162008285522461 -0.32929325103759766
0.85727834701538086 -0.20850753784179688 -0.33091497421264648
0.87440121173858643 -0.19168376922607422 -0.33150935173034668
-0.77926397323608398 -0.23468828201293945 -0.42943096160888672
-0.76656723022460938 -0.24635076522827148 -0.41657257080078125
-0.75759983062744141 -0.25538778305053711 -0.40527987480163574
-0.74729108810424805 -0.25995779037475586 -0.39115571975708008
-0.74181580543518066 -0.25800800323486328 -0.38154172897338867
-0.73835921287536621 -0.25528287887573242 -0.36906003952026367
0.84965682029724121 -0.25924205780029297 -0.30597114562988281
0.85458588600158691 -0.26080513000488281 -0.31401681900024414
0.86039829254150391 -0.26253604888916016 -0.32229137420654297
0.85793626308441162 -0.25260210037231445 -0.3300166130065918
0.84766697883605957 -0.24434328079223633 -0.32998108863830566
0.84075188636779785 -0.23624134063720703 -0.32889604568481445
-0.75743865966796875 -0.266021728515625 -0.3953557014465332
-0.76614665985107422 -0.27236604690551758 -0.39218997955322266
-0.77846860885620117 -0.27881956100463867 -0.38782215118408203
-0.78486251831054688 -0.28537988662719727 -0.37200689315795898
-0.78008627891540527 -0.28302288055419922 -0.36226248741149902
-0.7761082649230957 -0.28086137771606445 -0.35281062126159668
0.8599095344543457 -0.30979537963867188 -0.29876518249511719
0.86765336990356445 -0.31493425369262695 -0.31002569198608398
0.8746417760848999 -0.31743669509887695 -0.3192756175994873
0.88497829437255859 -0.30304527282714844 -0.32759404182434082
0.88262701034545898 -0.28863668441772461 -0.32848334312438965
0.87705826759338379 -0.27468156814575195 -0.32908105850219727
-0.80331659317016602 -0.29558420181274414 -0.37405180931091309
-0.81250238418579102 -0.30595016479492188 -0.36483645439147949
-0.81862425804138184 -0.31653690338134766 -0.35479450225830078
-0.81309366226196289 -0.32605123519897461 -0.33484101295471191
-0.80671143531799316 -0.32306528091430664 -0.32445812225341797
-0.79915356636047363 -0.31792593002319336 -0.31324243545532227
0.84842491149902344 -0.34239339828491211 -0.28726696968078613
0.85432815551757812 -0.34603643417358398 -0.29910898208618164
0.86004948616027832 -0.34708452224731445 -0.30687594413757324
0.86725354194641113 -0.34378814697265625 -0.31601142883300781
0.8719179630279541 -0.3380274772644043 -0.32111573219299316
0.87837100028991699 -0.3287353515625 -0.32431364059448242
-0.81893515586853027 -0.3350825309753418 -0.33443331718444824
-0.81519079208374023 -0.34151077270507812 -0.32441043853759766
-0.81249833106994629 -0.34511995315551758 -0.31417703628540039
-0.8070378303527832 -0.34644174575805664 -0.30036282539367676
-0.80178713798522949 -0.34478616714477539 -0.29117822647094727
-0.79601693153381348 -0.34079360961914062 -0.27853536605834961
0.91816306114196777 -0.3440098762512207 -0.27266335487365723
0.92179036140441895 -0.34517526626586914 -0.28602981567382812
0.92515480518341064 -0.3445281982421875 -0.29819393157958984
0.90420591831207275 -0.34161663055419922 -0.30397820472717285
0.88442277908325195 -0.34408283233642578 -0.30493402481079102
0.87155699729919434 -0.34580850601196289 -0.3081202507019043
-0.81800985336303711 -0.34569501876831055 -0.30279970169067383
-0.83063936233520508 -0.34411382675170898 -0.29988408088684082
-0.84973669052124023 -0.34226894378662109 -0.30031657218933105
-0.87187552452087402 -0.34363079071044922 -0.29070544242858887
-0.86973428726196289 -0.3426203727722168 -0.27458643913269043
-0.86674356460571289 -0.34023523330688477 -0.25830435752868652
1.1190229654312134 -0.01598358154296875 -0.38430118560791016
1.114037036895752 -0.0052695274353027344 -0.37520146369934082
1.1092801094055176 0.007137298583984375 -0.3635551929473877
1.0482866764068604 -0.042945384979248047 -0.3589322566986084
1.0712466239929199 -0.035807609558105469 -0.36864900588989258
1.0964267253875732 -0.030284881591796875 -0.37920093536376953
-0.93450403213500977 -0.14149570465087891 -0.63910388946533203
-0.91649508476257324 -0.1414790153503418 -0.6154487133026123
-0.90053033828735352 -0.14305591583251953 -0.59253668785095215
-0.94217133522033691 -0.11549091339111328 -0.65070509910583496
-0.94525146484375 -0.12584543228149414 -0.65742349624633789
-0.94935369491577148 -0.13476991653442383 -0.66218829154968262
1.2446126937866211 -0.031504631042480469 -0.42258977890014648
1.2453196048736572 -0.021925449371337891 -0.41626071929931641
1.2433137893676758 -0.010375022888183594 -0.40646648406982422
1.154604434967041 -0.023299694061279297 -0.40073275566101074
1.185377836227417 -0.023583412170410156 -0.41033244132995605
1.2139034271240234 -0.028992652893066406 -0.41801166534423828
-1.029587984085083 -0.15797519683837891 -0.71976327896118164
-1.0037047863006592 -0.15035104751586914 -0.70694756507873535
-0.97846031188964844 -0.14560651779174805 -0.68686175346374512
-1.0571367740631104 -0.14731264114379883 -0.72708010673522949
-1.0585877895355225 -0.15632009506225586 -0.73078489303588867
-1.0583539009094238 -0.16336154937744141 -0.73103713989257812
1.291752815246582 -0.13737821578979492 -0.43988561630249023
1.2945432662963867 -0.13208293914794922 -0.43512725830078125
1.2933752536773682 -0.12452363967895508 -0.42655777931213379
1.2585644721984863 -0.057840824127197266 -0.42882418632507324
1.2726726531982422 -0.081035614013671875 -0.43265056610107422
1.2804837226867676 -0.10881185531616211 -0.43592929840087891
-1.1177012920379639 -0.21856069564819336 -0.69125461578369141
-1.1002974510192871 -0.19955110549926758 -0.70900487899780273
-1.0790159702301025 -0.18274736404418945 -0.72053384780883789
-1.1408584117889404 -0.22840070724487305 -0.66774272918701172
-1.1414928436279297 -0.23449087142944336 -0.67278861999511719
-1.1388645172119141 -0.23830890655517578 -0.67404294013977051
1.2234910726547241 -0.28210163116455078 -0.44587087631225586
1.2257678508758545 -0.28355979919433594 -0.44187498092651367
