# XYZ point cloud file
0.48371410369873047 -0.7174980640411377 0.70906543731689453
0.50553774833679199 -0.77629828453063965 0.67799413204193115
0.50404465198516846 -0.74875044822692871 0.64372968673706055
0.49313032627105713 -0.70043396949768066 0.64223062992095947
0.47310793399810791 -0.67586183547973633 0.70791161060333252
0.49060094356536865 -0.75359416007995605 0.70940935611724854
0.51144051551818848 -0.79144787788391113 0.64454329013824463
-0.072484731674194336 -0.65819621086120605 0.86673295497894287
-0.041855812072753906 -0.64567136764526367 0.8821113109588623
-0.078845858573913574 -0.61802077293395996 0.85324060916900635
-0.099125385284423828 -0.66597175598144531 0.84315049648284912
-0.065846085548400879 -0.69369912147521973 0.87690556049346924
-0.035574436187744141 -0.67826199531555176 0.89083480834960938
-0.047933101654052734 -0.6085197925567627 0.87021148204803467
-0.10556983947753906 -0.62333869934082031 0.82802557945251465
-0.09236609935760498 -0.70403575897216797 0.85503625869750977
0.43398106098175049 -0.52417230606079102 0.66182029247283936
0.4118504524230957 -0.46635317802429199 0.6539306640625
0.41860306262969971 -0.51398777961730957 0.69385004043579102
0.45484077930450439 -0.58335137367248535 0.66861546039581299
0.4409785270690918 -0.53061056137084961 0.62669754028320312
0.41970705986022949 -0.47382068634033203 0.61857175827026367
0.39603912830352783 -0.45601153373718262 0.68621420860290527
0.43992829322814941 -0.57256984710693359 0.70037961006164551
0.46102619171142578 -0.58944272994995117 0.63380324840545654
-0.10120344161987305 -0.47049736976623535 0.79145264625549316
-0.070456147193908691 -0.46459794044494629 0.81313025951385498
-0.10838687419891357 -0.41952705383300781 0.76716935634613037
-0.12721657752990723 -0.47436070442199707 0.76256453990936279
-0.093311429023742676 -0.52269482612609863 0.81497025489807129
-0.062277793884277344 -0.51671457290649414 0.83515644073486328
-0.078222870826721191 -0.41300582885742188 0.7901996374130249
-0.13374221324920654 -0.42464518547058105 0.73750543594360352
-0.11976683139801025 -0.5259253978729248 0.78706705570220947
0.33495068550109863 -0.074082612991333008 0.56759035587310791
0.34871089458465576 -0.10625648498535156 0.53519463539123535
0.38698053359985352 -0.06605839729309082 0.54656994342803955
0.31910550594329834 -0.037627696990966797 0.59705746173858643
0.28923344612121582 -0.082487821578979492 0.58751475811004639
0.30541932582855225 -0.11609029769897461 0.5512843132019043
0.39916670322418213 -0.096529245376586914 0.51765203475952148
0.37340199947357178 -0.032197713851928711 0.5724719762802124
0.2677614688873291 -0.042835235595703125 0.62257003784179688
-0.252829909324646 -0.06375885009765625 0.59369111061096191
-0.31470036506652832 -0.055721521377563477 0.57297074794769287
-0.26094937324523926 -0.093787908554077148 0.56647729873657227
-0.19716989994049072 -0.072417974472045898 0.6127246618270874
-0.24594879150390625 -0.029898881912231445 0.6168975830078125
-0.31009566783905029 -0.024623870849609375 0.59222733974456787
-0.32071602344512939 -0.083862066268920898 0.54966938495635986
-0.20854294300079346 -0.10404133796691895 0.58132541179656982
-0.18422448635101318 -0.03528285026550293 0.64169609546661377
0.53670191764831543 -0.019804716110229492 0.49818110466003418
0.54624438285827637 -0.046363115310668945 0.47621583938598633
0.57916045188903809 0.0049877166748046875 0.48617470264434814
0.52369499206542969 0.0085430145263671875 0.5180286169052124
0.49039638042449951 -0.040125846862792969 0.51130867004394531
0.50052857398986816 -0.067681074142456055 0.48771512508392334
0.58874934911727905 -0.020756721496582031 0.46503806114196777
0.56543540954589844 0.031973600387573242 0.50516045093536377
0.4775397777557373 -0.010223388671875 0.53272926807403564
-0.49878740310668945 -0.015592813491821289 0.51072180271148682
-0.55518078804016113 0.0042679309844970703 0.48717653751373291
-0.50088393688201904 -0.039264440536499023 0.49568676948547363
-0.43986070156097412 -0.032524585723876953 0.53170168399810791
-0.4946601390838623 0.0095186233520507812 0.52280247211456299
-0.55045235157012939 0.028032064437866211 0.49840044975280762
-0.55689513683319092 -0.018520832061767578 0.47313344478607178
-0.4429934024810791 -0.057349205017089844 0.51467132568359375
-0.43581748008728027 -0.005748748779296875 0.54560983180999756
0.68022751808166504 0.10408377647399902 0.44683504104614258
0.6955411434173584 0.080962896347045898 0.42331171035766602
0.70134985446929932 0.14722394943237305 0.43728446960449219
0.65995967388153076 0.12721586227416992 0.46854901313781738
0.65178805589675903 0.066623926162719727 0.45990276336669922
0.66442179679870605 0.042362689971923828 0.43771839141845703
0.71935045719146729 0.12600874900817871 0.4127039909362793
0.67850428819656372 0.16800594329833984 0.46017813682556152
0.63425368070602417 0.091265678405761719 0.48008418083190918
-0.70753276348114014 0.078240394592285156 0.38835644721984863
-0.75027322769165039 0.10979056358337402 0.35125160217285156
-0.71407067775726318 0.057322263717651367 0.37015557289123535
-0.66009581089019775 0.050874233245849609 0.42537319660186768
-0.69634139537811279 0.099219799041748047 0.40483856201171875
-0.73597395420074463 0.12926006317138672 0.37090587615966797
-0.75967943668365479 0.090095758438110352 0.33036255836486816
-0.66410303115844727 0.029263019561767578 0.409568190574646
-0.65176820755004883 0.072785377502441406 0.43896591663360596
0.70842331647872925 0.31387519836425781 0.45020139217376709
0.72942960262298584 0.30551648139953613 0.42892217636108398
0.69402587413787842 0.37056255340576172 0.46395373344421387
0.68342804908752441 0.31942367553710938 0.46876609325408936
0.71545982360839844 0.25426602363586426 0.43916893005371094
0.73654848337173462 0.2406609058380127 0.41577458381652832
0.71398746967315674 0.36729335784912109 0.44480657577514648
0.67044413089752197 0.37011361122131348 0.47971725463867188
0.69003969430923462 0.26599955558776855 0.46042132377624512
-0.84034419059753418 0.23552751541137695 0.2665095329284668
-0.85471796989440918 0.27978658676147461 0.2505495548248291
-0.85627925395965576 0.22511577606201172 0.24041390419006348
-0.8175961971282959 0.1898353099822998 0.2887415885925293
-0.81869077682495117 0.24396753311157227 0.29189109802246094
-0.83229243755340576 0.2836601734161377 0.27653789520263672
-0.87117159366607666 0.27324819564819336 0.22365713119506836
-0.83203279972076416 0.17552709579467773 0.26374959945678711
-0.79774749279022217 0.20288276672363281 0.3130345344543457
0.61890304088592529 0.48028802871704102 0.49475681781768799
0.63137876987457275 0.4843447208404541 0.47591125965118408
0.58134597539901733 0.50179219245910645 0.49912095069885254
0.60402107238769531 0.47124457359313965 0.50862360000610352
0.64923125505447388 0.45418381690979004 0.4876093864440918
0.66460490226745605 0.45732688903808594 0.46979892253875732
0.59126287698745728 0.50582289695739746 0.47878360748291016
0.56955432891845703 0.49266862869262695 0.51420736312866211
0.63101726770401001 0.44623351097106934 0.50085115432739258
-0.84109663963317871 0.37239408493041992 0.24019980430603027
-0.8189626932144165 0.39430069923400879 0.24538326263427734
-0.85186994075775146 0.37203645706176758 0.21084213256835938
-0.85504579544067383 0.34839320182800293 0.23817086219787598
-0.82446038722991943 0.36896777153015137 0.26742172241210938
-0.80557334423065186 0.39044475555419922 0.27300930023193359
-0.82679915428161621 0.39419174194335938 0.21519327163696289
-0.86869192123413086 0.34705257415771484 0.20971298217773438
-0.8353431224822998 0.34614419937133789 0.26496720314025879
0.41610622406005859 0.57710719108581543 0.49797773361206055
0.42470431327819824 0.57956886291503906 0.47484111785888672
0.35115361213684082 0.60740089416503906 0.49354302883148193
0.40811073780059814 0.56857824325561523 0.51592743396759033
0.47872483730316162 0.5485987663269043 0.50050961971282959
0.48675358295440674 0.55150961875915527 0.477882981300354
0.36045157909393311 0.6098029613494873 0.47002756595611572
0.34346127510070801 0.59837746620178223 0.51210367679595947
0.47033631801605225 0.54010462760925293 0.517799973487854
-0.71462917327880859 0.47809958457946777 0.26389741897583008
-0.67490994930267334 0.51231932640075684 0.2686007022857666
-0.71892797946929932 0.47707962989807129 0.23245835304260254
-0.75381863117218018 0.44607019424438477 0.2582547664642334
-0.70600640773773193 0.47397160530090332 0.29233956336975098
-0.66649580001831055 0.50756573677062988 0.29732728004455566
-0.67938673496246338 0.51131749153137207 0.23698091506958008
-0.75830554962158203 0.44537043571472168 0.22703385353088379
-0.74458038806915283 0.44216108322143555 0.28647089004516602
0.17719495296478271 0.69594097137451172 0.47149133682250977
0.18378961086273193 0.70197916030883789 0.44573855400085449
0.12961721420288086 0.71820211410522461 0.46341371536254883
0.17480206489562988 0.68159270286560059 0.49302935600280762
0.22984492778778076 0.66854476928710938 0.47977626323699951
0.2383037805557251 0.6728358268737793 0.45499312877655029
0.13382506370544434 0.72598075866699219 0.43664693832397461
0.13026571273803711 0.70171046257019043 0.48617386817932129
0.22482657432556152 0.65646553039550781 0.50011050701141357
-0.57686269283294678 0.61340165138244629 0.27589273452758789
-0.54972290992736816 0.64055418968200684 0.2793574333190918
-0.57998847961425781 0.61644458770751953 0.24300193786621094
-0.60551846027374268 0.58166146278381348 0.27397942543029785
-0.57044744491577148 0.60272932052612305 0.30621051788330078
-0.54478490352630615 0.62736749649047852 0.31000542640686035
-0.5515061616897583 0.64563560485839844 0.24615049362182617
-0.6095956563949585 0.58275699615478516 0.24158859252929688
-0.59801042079925537 0.57352805137634277 0.30371499061584473
0.015972495079040527 0.73371386528015137 0.44870543479919434
0.013028502464294434 0.74301671981811523 0.4198753833770752
-0.011331319808959961 0.71929478645324707 0.44907331466674805
0.025104761123657227 0.71563100814819336 0.47393107414245605
0.048871040344238281 0.73826980590820312 0.45132935047149658
0.048071742057800293 0.74781608581542969 0.42294573783874512
-0.015987753868103027 0.72778916358947754 0.42005467414855957
-0.00029718875885009766 0.70242738723754883 0.47450065612792969
0.055530309677124023 0.71975040435791016 0.47602128982543945
-0.4605255126953125 0.67632389068603516 0.31259012222290039
-0.42652976512908936 0.66987514495849609 0.33188223838806152
-0.45694994926452637 0.68455839157104492 0.28119444847106934
-0.49244952201843262 0.67325234413146973 0.29713320732116699
-0.46183097362518311 0.65952873229980469 0.34092593193054199
-0.42999327182769775 0.65352940559387207 0.35859322547912598
-0.42128908634185791 0.67792630195617676 0.30177450180053711
-0.49074053764343262 0.68109416961669922 0.26467013359069824
-0.49149572849273682 0.65680575370788574 0.32680439949035645
-0.057649970054626465 0.6203453540802002 0.47104048728942871
-0.063785552978515625 0.62462925910949707 0.44308340549468994
-0.065779447555541992 0.57904863357543945 0.48152899742126465
-0.045523405075073242 0.6101076602935791 0.49492847919464111
-0.047300219535827637 0.6604454517364502 0.46090316772460938
-0.053526639938354492 0.66623401641845703 0.43236207962036133
-0.071485400199890137 0.58207273483276367 0.45423400402069092
-0.054357647895812988 0.57094335556030273 0.50453805923461914
-0.034820079803466797 0.64776873588562012 0.48559296131134033
-0.31433725357055664 0.59331083297729492 0.40698909759521484
-0.27674770355224609 0.55827689170837402 0.43236589431762695
-0.30701744556427002 0.59813094139099121 0.38030171394348145
-0.3527224063873291 0.62645959854125977 0.38035225868225098
-0.32172644138336182 0.58224630355834961 0.42894899845123291
-0.28440415859222412 0.54922890663146973 0.45315110683441162
-0.26977133750915527 0.56189417839050293 0.40646111965179443
-0.34553730487823486 0.63262343406677246 0.35269856452941895
-0.35932981967926025 0.61321425437927246 0.40374100208282471
-0.096613645553588867 0.48773694038391113 0.49885010719299316
-0.10056197643280029 0.49080300331115723 0.47296810150146484
-0.11223554611206055 0.47241067886352539 0.49907112121582031
-0.087471485137939453 0.48011183738708496 0.52059781551361084
-0.083963990211486816 0.51056003570556641 0.49614167213439941
-0.088585734367370605 0.51285004615783691 0.47000706195831299
-0.11514806747436523 0.47702383995056152 0.47304379940032959
-0.10476267337799072 0.46124863624572754 0.52187657356262207
-0.073928236961364746 0.50424814224243164 0.51781642436981201
-0.18039870262145996 0.4809262752532959 0.48276340961456299
-0.15419507026672363 0.46910762786865234 0.49126827716827393
-0.1769174337387085 0.48438906669616699 0.45780444145202637
-0.20930171012878418 0.49984312057495117 0.47080206871032715
-0.18494665622711182 0.47252559661865234 0.50268220901489258
-0.15433132648468018 0.45750904083251953 0.51304972171783447
-0.15311348438262939 0.47393536567687988 0.46574592590332031
-0.20417308807373047 0.50263571739196777 0.44585311412811279
-0.21597898006439209 0.49259424209594727 0.49027585983276367
0.013719916343688965 0.55378603935241699 0.51914417743682861
0.035803794860839844 0.53236889839172363 0.51658773422241211
0.02707982063293457 0.57823848724365234 0.51281893253326416
-0.0083460807800292969 0.57531166076660156 0.51871049404144287
0.0021128654479980469 0.52690458297729492 0.52590560913085938
0.023515224456787109 0.51022005081176758 0.52252697944641113
0.050043106079101562 0.55187821388244629 0.51120901107788086
0.0039689540863037109 0.60487508773803711 0.51135587692260742
-0.019044041633605957 0.54360198974609375 0.52637994289398193
-0.33706843852996826 0.52341198921203613 0.44731616973876953
-0.36771786212921143 0.5425872802734375 0.42848300933837891
-0.34051001071929932 0.50131654739379883 0.4431988000869751
-0.30610167980194092 0.50157642364501953 0.46605455875396729
-0.33321297168731689 0.54569172859191895 0.448630690574646
-0.36681890487670898 0.56942534446716309 0.42745292186737061
-0.36806297302246094 0.51611113548278809 0.42664623260498047
-0.31273698806762695 0.48371338844299316 0.45991790294647217
-0.29929471015930176 0.51950597763061523 0.46940886974334717
0.082009434700012207 0.62011027336120605 0.50399410724639893
0.10435307025909424 0.58454322814941406 0.50342476367950439
0.10614454746246338 0.62227225303649902 0.50464534759521484
0.059668302536010742 0.65643954277038574 0.50145399570465088
0.060906529426574707 0.61222529411315918 0.50494730472564697
0.084193110466003418 0.57844233512878418 0.50443065166473389
0.12696254253387451 0.58608198165893555 0.50377070903778076
0.085572123527526855 0.65929150581359863 0.50251221656799316
0.03745567798614502 0.64663243293762207 0.50232326984405518
-0.44860410690307617 0.56907820701599121 0.3832249641418457
-0.47189724445343018 0.56662964820861816 0.37296748161315918
-0.44151914119720459 0.53525257110595703 0.38684868812561035
-0.42378604412078857 0.56611061096191406 0.39582705497741699
-0.45537900924682617 0.6035916805267334 0.37630653381347656
-0.48057055473327637 0.60117626190185547 0.36487507820129395
-0.46314537525177002 0.53275489807128906 0.37764835357666016
-0.41878771781921387 0.533447265625 0.39802026748657227
-0.42829835414886475 0.59941387176513672 0.39049983024597168
0.19923460483551025 0.59750008583068848 0.51318454742431641
0.23938214778900146 0.58071517944335938 0.51680421829223633
0.18660259246826172 0.63016152381896973 0.51336836814880371
0.16422915458679199 0.61048650741577148 0.50962769985198975
0.21294164657592773 0.56537580490112305 0.51078951358795166
0.24983835220336914 0.55129289627075195 0.51370549201965332
0.23015010356903076 0.61050844192504883 0.51798951625823975
0.14857947826385498 0.64549946784973145 0.50891399383544922
0.18070268630981445 0.57617950439453125 0.50780832767486572
-0.538299560546875 0.53037738800048828 0.35444235801696777
-0.55020558834075928 0.55926704406738281 0.34559726715087891
-0.56313562393188477 0.51027798652648926 0.35028696060180664
-0.52694594860076904 0.50169539451599121 0.36026859283447266
-0.51578283309936523 0.54683470726013184 0.35905051231384277
-0.5269312858581543 0.57838153839111328 0.35002779960632324
-0.57580423355102539 0.53607606887817383 0.34190201759338379
-0.55110478401184082 0.48450779914855957 0.35590362548828125
-0.50502097606658936 0.5157015323638916 0.36480855941772461
0.39408206939697266 0.51497793197631836 0.52349972724914551
0.44737565517425537 0.4911651611328125 0.52347707748413086
0.39709317684173584 0.53590941429138184 0.52783596515655518
0.33863174915313721 0.53856635093688965 0.52228856086730957
0.39169120788574219 0.49439883232116699 0.51740896701812744
0.44056761264801025 0.47295522689819336 0.51672124862670898
0.45449578762054443 0.50986647605895996 0.52840471267700195
0.33736133575439453 0.56223678588867188 0.52566075325012207
0.34086549282073975 0.51515483856201172 0.51721572875976562
-0.6611860990524292 0.43455290794372559 0.33368253707885742
-0.67815172672271729 0.45092606544494629 0.32714486122131348
-0.69497716426849365 0.40810704231262207 0.32756829261779785
-0.64441359043121338 0.41817283630371094 0.33758950233459473
-0.62560617923736572 0.46136760711669922 0.33997368812561035
-0.64075732231140137 0.48067760467529297 0.33293318748474121
-0.71396362781524658 0.42200040817260742 0.32105731964111328
-0.67602097988128662 0.39433407783508301 0.3313591480255127
-0.61088144779205322 0.44196176528930664 0.34444737434387207
0.555733323097229 0.42630767822265625 0.51504528522491455
0.57517814636230469 0.40372157096862793 0.51064860820770264
0.5716930627822876 0.44276881217956543 0.51785945892333984
0.52939045429229736 0.44719195365905762 0.51903653144836426
0.54035216569900513 0.41079998016357422 0.51088047027587891
0.55830150842666626 0.38876914978027344 0.5086219310760498
0.59303593635559082 0.41957545280456543 0.51151382923126221
0.54303747415542603 0.46388697624206543 0.52325260639190674
0.51601266860961914 0.43135881423950195 0.51321840286254883
-0.75496590137481689 0.34237051010131836 0.3174433708190918
-0.7797544002532959 0.35290288925170898 0.30616259574890137
-0.75990092754364014 0.32245564460754395 0.31950116157531738
-0.73087573051452637 0.33227896690368652 0.32613420486450195
-0.7431410551071167 0.36214280128479004 0.31867098808288574
-0.76620149612426758 0.37327837944030762 0.30969119071960449
-0.78597426414489746 0.33219766616821289 0.3058326244354248
-0.73495638370513916 0.31307625770568848 0.3307034969329834
-0.7203749418258667 0.35139155387878418 0.32494544982910156
0.61036241054534912 0.31111550331115723 0.5008004903793335
0.61382609605789185 0.27415609359741211 0.50044393539428711
0.63291972875595093 0.3175349235534668 0.49385499954223633
0.60199517011642456 0.34617424011230469 0.50297224521636963
0.58972495794296265 0.30390548706054688 0.5058666467666626
0.59201109409332275 0.27086853981018066 0.50749099254608154
0.63763988018035889 0.27587032318115234 0.49109888076782227
0.62309873104095459 0.35699462890625 0.49874222278594971
0.58259952068328857 0.33535003662109375 0.50575733184814453
-0.741690993309021 0.2477412223815918 0.35248398780822754
-0.76755845546722412 0.24982929229736328 0.33528900146484375
-0.7247236967086792 0.21909070014953613 0.37195229530334473
-0.71732747554779053 0.24465799331665039 0.36730265617370605
-0.75296473503112793 0.27536463737487793 0.33687615394592285
-0.77953159809112549 0.28087615966796875 0.32006382942199707
-0.74963068962097168 0.21759128570556641 0.35504555702209473
-0.70112454891204834 0.21900081634521484 0.3865358829498291
-0.72796738147735596 0.26945948600769043 0.3513188362121582
0.5851820707321167 0.16814231872558594 0.51444840431213379
0.56337374448776245 0.13790345191955566 0.52341938018798828
0.61086022853851318 0.15989041328430176 0.50244200229644775
0.60140407085418701 0.20142936706542969 0.50727176666259766
0.56085366010665894 0.1738288402557373 0.52428627014160156
0.53920876979827881 0.14565277099609375 0.53318703174591064
0.58856296539306641 0.12763285636901855 0.51180613040924072
0.62689954042434692 0.19562649726867676 0.49535715579986572
0.57759112119674683 0.20474863052368164 0.5167393684387207
-0.63746535778045654 0.13878774642944336 0.44716262817382812
-0.66003847122192383 0.13006114959716797 0.4341437816619873
-0.59847736358642578 0.11618351936340332 0.47425961494445801
-0.61531949043273926 0.14529275894165039 0.45886361598968506
-0.67223978042602539 0.16376161575317383 0.42021942138671875
-0.69555366039276123 0.15674161911010742 0.405525803565979
-0.61982452869415283 0.10605263710021973 0.46308398246765137
-0.57733404636383057 0.1241762638092041 0.48450326919555664
-0.64964771270751953 0.16856622695922852 0.43314826488494873
0.47157013416290283 0.072733640670776367 0.55659687519073486
0.4324725866317749 0.06148982048034668 0.56995761394500732
0.49004220962524414 0.05588984489440918 0.54718911647796631
0.50626814365386963 0.089560031890869141 0.5446007251739502
0.45397102832794189 0.087035894393920898 0.56406199932098389
0.41844511032104492 0.078425168991088867 0.57545983791351318
0.44761776924133301 0.041849374771118164 0.56209945678710938
0.52776682376861572 0.075188398361206055 0.53425288200378418
0.48553133010864258 0.10148191452026367 0.55326533317565918
-0.46620070934295654 0.067064762115478516 0.54529762268066406
-0.4777529239654541 0.051757097244262695 0.53962874412536621
-0.41813170909881592 0.058738946914672852 0.56543076038360596
-0.45507252216339111 0.080183267593383789 0.54986226558685303
-0.51228535175323486 0.079810619354248047 0.5237201452255249
-0.52820420265197754 0.066567659378051758 0.51616215705871582
-0.42453300952911377 0.040968894958496094 0.56209206581115723
-0.41248965263366699 0.074120283126831055 0.56717419624328613
-0.49656128883361816 0.090973854064941406 0.53049349784851074
0.28955972194671631 0.064480781555175781 0.6188502311706543
0.23959195613861084 0.074857711791992188 0.63304948806762695
0.29539108276367188 0.033783912658691406 0.6226956844329834
0.34020078182220459 0.057825803756713867 0.60207223892211914
0.28571999073028564 0.090928554534912109 0.61203181743621826
0.23953020572662354 0.10453605651855469 0.62086105346679688
0.24122560024261475 0.038910388946533203 0.64508450031280518
0.34920394420623779 0.0314178466796875 0.6003413200378418
0.33304488658905029 0.080927371978759766 0.60031354427337646
-0.26476144790649414 0.06441807746887207 0.62003564834594727
-0.25195634365081787 0.036141633987426758 0.62965059280395508
-0.21687066555023193 0.074367284774780273 0.63297891616821289
-0.27864325046539307 0.088711977005004883 0.60807681083679199
-0.31605982780456543 0.057709693908691406 0.60337066650390625
-0.31072390079498291 0.033594369888305664 0.60712957382202148
-0.19404268264770508 0.040977954864501953 0.65106463432312012
-0.23825204372406006 0.10181260108947754 0.61549258232116699
-0.3230060338973999 0.078778505325317383 0.59674954414367676
0.12087583541870117 0.12515592575073242 0.62708878517150879
0.13497352600097656 0.15239262580871582 0.61576521396636963
0.091646790504455566 0.14579176902770996 0.61387348175048828
0.10705959796905518 0.094146013259887695 0.64007818698883057
0.15435373783111572 0.10580992698669434 0.63728451728820801
0.1632080078125 0.1358797550201416 0.62261879444122314
0.11166751384735107 0.17007851600646973 0.60647022724151611
0.069083333015441895 0.11801362037658691 0.62262856960296631
0.14658510684967041 0.069881200790405273 0.65453028678894043
-0.13019990921020508 0.12247157096862793 0.62125539779663086
-0.11751401424407959 0.14251255989074707 0.60651278495788574
-0.16448009014129639 0.14777064323425293 0.60541033744812012
-0.14892959594726562 0.10384726524353027 0.63332664966583252
-0.093727469444274902 0.093422889709472656 0.63880956172943115
-0.075357437133789062 0.1166081428527832 0.61958456039428711
-0.15481173992156982 0.16493773460388184 0.59480297565460205
-0.18056190013885498 0.13183045387268066 0.61374688148498535
-0.1145331859588623 0.070202350616455078 0.65589702129364014
-0.025738358497619629 0.44823861122131348 0.54141652584075928
-0.017684698104858398 0.47348856925964355 0.53723502159118652
-0.050732254981994629 0.4590599536895752 0.54148995876312256
-0.031763195991516113 0.42313551902770996 0.54525852203369141
-0.00076627731323242188 0.43808603286743164 0.53877031803131104
0.0049539804458618164 0.46253275871276855 0.53379607200622559
-0.03961336612701416 0.48465609550476074 0.53793048858642578
-0.062728166580200195 0.43459844589233398 0.54471874237060547
-0.0034379959106445312 0.4131779670715332 0.54358959197998047
-0.22106897830963135 0.43503761291503906 0.51031172275543213
-0.20548272132873535 0.44817066192626953 0.51582145690917969
-0.24749040603637695 0.45682501792907715 0.49792969226837158
-0.23692166805267334 0.42260551452636719 0.50231051445007324
-0.19677269458770752 0.41286373138427734 0.52108275890350342
-0.17577147483825684 0.42724370956420898 0.52739262580871582
-0.23531818389892578 0.46992683410644531 0.50317370891571045
-0.26023459434509277 0.44390249252319336 0.48987686634063721
-0.21621870994567871 0.4002985954284668 0.5132981538772583
-0.019784092903137207 0.3396756649017334 0.55842149257659912
-0.028824925422668457 0.3688969612121582 0.55361521244049072
-0.052922964096069336 0.34340929985046387 0.55739498138427734
-0.0085693597793579102 0.31042718887329102 0.56347918510437012
0.01051795482635498 0.33562898635864258 0.55901825428009033
0.0023739337921142578 0.36183476448059082 0.55364024639129639
-0.064233064651489258 0.37677454948425293 0.55257797241210938
-0.04084932804107666 0.31116962432861328 0.56225383281707764
0.021020770072937012 0.30943703651428223 0.56454789638519287
-0.14742326736450195 0.33388280868530273 0.54487133026123047
-0.11820626258850098 0.34044408798217773 0.55045676231384277
-0.15990257263183594 0.36227202415466309 0.53808343410491943
-0.17361605167388916 0.32728910446166992 0.53951454162597656
-0.13726592063903809 0.30515718460083008 0.55117368698120117
-0.10658323764801025 0.30848097801208496 0.55598032474517822
-0.13170015811920166 0.37334704399108887 0.54454267024993896
-0.18460512161254883 0.35246968269348145 0.53169155120849609
-0.1650841236114502 0.30179643630981445 0.54671645164489746
0.031142115592956543 0.22354531288146973 0.58122396469116211
0.047341823577880859 0.19521379470825195 0.5897362232208252
0.059473037719726562 0.23381614685058594 0.5818246603012085
0.016939282417297363 0.25226092338562012 0.57449376583099365
-0.0016151666641235352 0.21428060531616211 0.58074617385864258
0.014571309089660645 0.17859840393066406 0.59143650531768799
0.074768543243408203 0.21075129508972168 0.5886847972869873
0.045707106590270996 0.25820493698120117 0.57578325271606445
-0.015562295913696289 0.24750208854675293 0.57316684722900391
-0.11506259441375732 0.21916294097900391 0.5710834264755249
-0.14962410926818848 0.22746658325195312 0.56712782382965088
-0.11095702648162842 0.19111490249633789 0.58029687404632568
-0.076756954193115234 0.21204423904418945 0.57557117938995361
-0.12116575241088867 0.24760961532592773 0.56369876861572266
-0.153128981590271 0.2514801025390625 0.56016850471496582
-0.14841258525848389 0.20476675033569336 0.57489526271820068
-0.067430973052978516 0.17652201652526855 0.58664631843566895
-0.08627927303314209 0.24512362480163574 0.56765174865722656
0.32069480419158936 -0.82303953170776367 0.83722853660583496
0.31330645084381104 -0.80691885948181152 0.84746718406677246
0.29597318172454834 -0.82096457481384277 0.84779512882232666
0.32729578018188477 -0.84070801734924316 0.82517635822296143
0.3437272310256958 -0.8234713077545166 0.82710540294647217
0.33268320560455322 -0.80641698837280273 0.83954727649688721
0.29271697998046875 -0.80565071105957031 0.8557896614074707
0.29846358299255371 -0.83777284622192383 0.83811402320861816
0.35400331020355225 -0.84213948249816895 0.81265389919281006
0.21814620494842529 -0.80610036849975586 0.87796807289123535
0.24399793148040771 -0.81236004829406738 0.86847484111785889
0.22852790355682373 -0.79308700561523438 0.88073611259460449
0.19339776039123535 -0.79871821403503418 0.88664686679840088
0.20695376396179199 -0.82061505317687988 0.87349176406860352
0.23740255832672119 -0.82756280899047852 0.86265838146209717
0.24984991550445557 -0.79863810539245605 0.8726499080657959
0.20790159702301025 -0.78613901138305664 0.88832581043243408
0.17793142795562744 -0.81282711029052734 0.88317620754241943
0.39675736427307129 -0.81294751167297363 0.80333662033081055
0.37868392467498779 -0.79163837432861328 0.82046318054199219
0.38216936588287354 -0.81892895698547363 0.80994939804077148
0.41469681262969971 -0.83616733551025391 0.78332173824310303
0.40800774097442627 -0.80329418182373047 0.79800176620483398
0.38842427730560303 -0.78034472465515137 0.81594979763031006
0.36584579944610596 -0.79925131797790527 0.82591235637664795
0.39805471897125244 -0.84039497375488281 0.79142427444458008
0.42780232429504395 -0.82837152481079102 0.77684283256530762
0.13245677947998047 -0.77027797698974609 0.90600717067718506
0.15025711059570312 -0.78115463256835938 0.90083134174346924
0.15447008609771729 -0.75607466697692871 0.90604114532470703
0.11694681644439697 -0.75687766075134277 0.90970873832702637
0.10838043689727783 -0.78597331047058105 0.90409040451049805
0.12831199169158936 -0.79585909843444824 0.8985600471496582
0.17058932781219482 -0.76795625686645508 0.90121269226074219
0.14017081260681152 -0.74150252342224121 0.90942895412445068
0.091219902038574219 -0.77380776405334473 0.90813040733337402
0.42057716846466064 -0.74605202674865723 0.78925764560699463
0.39508056640625 -0.71927094459533691 0.80838656425476074
0.41975700855255127 -0.7694404125213623 0.79106855392456055
0.44669270515441895 -0.77598190307617188 0.76647615432739258
0.41869795322418213 -0.72063040733337402 0.78829276561737061
0.38966763019561768 -0.69276714324951172 0.80829918384552002
0.39677631855010986 -0.74374675750732422 0.80981290340423584
0.44357407093048096 -0.7980647087097168 0.76860976219177246
0.44717621803283691 -0.7512056827545166 0.7652055025100708
0.082641124725341797 -0.69553899765014648 0.91088616847991943
0.092120885848999023 -0.71916413307189941 0.91210389137268066
0.10964930057525635 -0.6775672435760498 0.90882062911987305
0.075130224227905273 -0.67076325416564941 0.90837216377258301
0.052884340286254883 -0.71590733528137207 0.91110539436340332
0.063733577728271484 -0.73865175247192383 0.91161501407623291
0.11742281913757324 -0.7017970085144043 0.9108126163482666
0.10504543781280518 -0.6524503231048584 0.90541398525238037
0.04374229907989502 -0.69140124320983887 0.90919995307922363
0.3456416130065918 -0.48178339004516602 0.76511132717132568
0.32305562496185303 -0.42608070373535156 0.75639736652374268
0.31775403022766113 -0.47325491905212402 0.78090476989746094
0.36703670024871826 -0.53569412231445312 0.77262628078460693
0.37257575988769531 -0.4915461540222168 0.74564230442047119
0.34982800483703613 -0.43481826782226562 0.73764491081237793
0.29559314250946045 -0.41871333122253418 0.77129364013671875
0.33873498439788818 -0.52543377876281738 0.78927505016326904
0.39414632320404053 -0.54724979400634766 0.75249111652374268
0.029464006423950195 -0.44960546493530273 0.84283268451690674
0.061383962631225586 -0.4471278190612793 0.84401071071624756
0.020111441612243652 -0.39833998680114746 0.82347166538238525
-0.0036414861679077148 -0.45332837104797363 0.83794510364532471
0.038218975067138672 -0.4991145133972168 0.860892653465271
0.07053375244140625 -0.4956512451171875 0.86114263534545898
0.051393985748291016 -0.39630842208862305 0.8254697322845459
-0.012451410293579102 -0.40172624588012695 0.81764733791351318
0.0048840045928955078 -0.5039067268371582 0.85707998275756836
0.40646779537200928 -0.64865994453430176 0.78502011299133301
0.41177213191986084 -0.67262697219848633 0.78661537170410156
0.43577444553375244 -0.67101240158081055 0.76292479038238525
0.3979572057723999 -0.61989355087280273 0.7825082540512085
0.37570405006408691 -0.62897920608520508 0.80414414405822754
0.37987196445465088 -0.6484677791595459 0.80671429634094238
0.44190108776092529 -0.69925236701965332 0.76387178897857666
0.4262923002243042 -0.63793730735778809 0.7610783576965332
0.3682408332824707 -0.60406303405761719 0.8007805347442627
0.057808041572570801 -0.60286307334899902 0.8953930139541626
0.024388909339904785 -0.61616134643554688 0.89510512351989746
0.063231468200683594 -0.62519073486328125 0.90090525150299072
0.090809106826782227 -0.59217572212219238 0.89282917976379395
0.052269697189331055 -0.57635283470153809 0.88745689392089844
0.018835306167602539 -0.58609580993652344 0.88603544235229492
0.029923439025878906 -0.64211416244506836 0.90151488780975342
0.096445560455322266 -0.6107325553894043 0.8976294994354248
0.085064053535461426 -0.56880927085876465 0.88576805591583252
0.17552924156188965 -0.27856755256652832 0.76193869113922119
0.16633772850036621 -0.24918723106384277 0.75290060043334961
0.15565061569213867 -0.27964878082275391 0.76659619808197021
0.18758106231689453 -0.31414318084716797 0.77341806888580322
0.1959991455078125 -0.2773585319519043 0.75586700439453125
0.18608677387237549 -0.24490213394165039 0.74619615077972412
0.14667439460754395 -0.25197482109069824 0.75782442092895508
0.16725540161132812 -0.31385278701782227 0.77809321880340576
0.20880067348480225 -0.31486773490905762 0.76742291450500488
0.093008041381835938 -0.27337098121643066 0.77456784248352051
0.11488866806030273 -0.27708745002746582 0.77282071113586426
0.082452535629272461 -0.24445128440856934 0.76443946361541748
0.069725394248962402 -0.26937365531921387 0.77527022361755371
0.10499846935272217 -0.30825614929199219 0.78768980503082275
0.12653744220733643 -0.3109586238861084 0.78511416912078857
0.10519552230834961 -0.24962735176086426 0.76353657245635986
0.0579376220703125 -0.23767995834350586 0.76378560066223145
0.082058906555175781 -0.30579924583435059 0.78940951824188232
0.239266037940979 -0.45656967163085938 0.81100225448608398
0.26412487030029297 -0.46071839332580566 0.8032681941986084
0.22038352489471436 -0.40523290634155273 0.79881906509399414
0.21523046493530273 -0.45338320732116699 0.81739509105682373
0.25728738307952881 -0.50570225715637207 0.82212936878204346
0.28339993953704834 -0.5104677677154541 0.81349325180053711
0.24384164810180664 -0.4084312915802002 0.79187941551208496
0.19788837432861328 -0.40281414985656738 0.804412841796875
0.23183119297027588 -0.50211429595947266 0.82940614223480225
0.14408612251281738 -0.44684100151062012 0.83448529243469238
0.13111257553100586 -0.39702033996582031 0.81869697570800781
0.11872124671936035 -0.44586706161499023 0.83911991119384766
0.1561894416809082 -0.49453616142272949 0.84907686710357666
0.16816520690917969 -0.44857168197631836 0.82901120185852051
0.15385162830352783 -0.39875936508178711 0.8142235279083252
0.1069333553314209 -0.39584755897521973 0.82233560085296631
0.12954151630401611 -0.49345278739929199 0.85455727577209473
0.18172121047973633 -0.49658060073852539 0.84275186061859131
0.28995037078857422 -0.60135555267333984 0.84467530250549316
0.29377210140228271 -0.61672377586364746 0.84861612319946289
0.31692075729370117 -0.60546302795410156 0.83363485336303711
0.28315603733062744 -0.57923412322998047 0.83911120891571045
0.26362931728363037 -0.59935784339904785 0.85409426689147949
0.26812469959259033 -0.61561059951782227 0.85827410221099854
0.32023060321807861 -0.62047147750854492 0.83742892742156982
0.31035733222961426 -0.58385848999023438 0.82867932319641113
0.25650143623352051 -0.57633566856384277 0.84799575805664062
0.18215835094451904 -0.58801984786987305 0.87682843208312988
0.1531376838684082 -0.58497953414916992 0.88300871849060059
0.18760263919830322 -0.60337138175964355 0.88079965114593506
0.21015012264251709 -0.59278559684753418 0.86994254589080811
0.17534971237182617 -0.56620693206787109 0.87053072452545166
0.14669597148895264 -0.56393027305603027 0.87672996520996094
0.15883159637451172 -0.59989714622497559 0.88702666759490967
0.21546804904937744 -0.60904717445373535 0.87410378456115723
0.20298826694488525 -0.56989908218383789 0.86352264881134033
0.20270323753356934 -0.15307497978210449 0.73386812210083008
0.20530092716217041 -0.13831233978271484 0.72996175289154053
0.20251405239105225 -0.1468815803527832 0.74216532707214355
0.19616794586181641 -0.16685867309570312 0.73759901523590088
0.20442795753479004 -0.15999889373779297 0.72539055347442627
0.20625245571136475 -0.14402151107788086 0.72110533714294434
0.20547628402709961 -0.13291525840759277 0.73873317241668701
0.19554102420806885 -0.1595456600189209 0.74521327018737793
0.19884288311004639 -0.17598938941955566 0.73003697395324707
-0.012396574020385742 -0.14410161972045898 0.75584149360656738
-0.011713385581970215 -0.13803958892822266 0.76384222507476807
-0.024773359298706055 -0.12921714782714844 0.75226151943206787
-0.014304280281066895 -0.15073323249816895 0.74808084964752197
0.0031834840774536133 -0.15842223167419434 0.75825083255767822
0.0034750699996948242 -0.15127396583557129 0.76546812057495117
-0.023904323577880859 -0.12390923500061035 0.76082241535186768
-0.026656270027160645 -0.13471746444702148 0.74391269683837891
0.0018429756164550781 -0.16715073585510254 0.75164604187011719
0.18685495853424072 -0.087130546569824219 0.71199703216552734
0.17301177978515625 -0.070888757705688477 0.70539951324462891
0.18759071826934814 -0.082900762557983398 0.72028589248657227
0.19725227355957031 -0.10474920272827148 0.71890521049499512
0.18651878833770752 -0.090639591217041016 0.7049107551574707
0.172141432762146 -0.073586463928222656 0.69912886619567871
0.17410564422607422 -0.066870689392089844 0.71320807933807373
0.19782578945159912 -0.10026741027832031 0.72763204574584961
0.19726526737213135 -0.10901403427124023 0.71090245246887207
-0.042963385581970215 -0.079892396926879883 0.72984492778778076
-0.042569637298583984 -0.075690507888793945 0.73807883262634277
-0.041304469108581543 -0.064740180969238281 0.7205955982208252
-0.043747425079345703 -0.083349943161010742 0.72287285327911377
-0.0403289794921875 -0.096581697463989258 0.73899531364440918
-0.03959810733795166 -0.092138767242431641 0.74762547016143799
-0.041478872299194336 -0.060726404190063477 0.72840070724487305
-0.041545510292053223 -0.067427158355712891 0.71434307098388672
-0.041531801223754883 -0.1007544994354248 0.73120856285095215
0.11800754070281982 -0.043514251708984375 0.69581449031829834
0.0998687744140625 -0.042947769165039062 0.6970442533493042
0.12264978885650635 -0.040235519409179688 0.70335006713867188
0.13741409778594971 -0.048357486724853516 0.6968235969543457
0.11234760284423828 -0.043662071228027344 0.68894171714782715
0.090766787528991699 -0.043277502059936523 0.68966972827911377
0.10633957386016846 -0.039631366729736328 0.70473778247833252
0.14045083522796631 -0.044864416122436523 0.70423758029937744
0.13410651683807373 -0.049154043197631836 0.69059956073760986
-0.006480097770690918 -0.040613651275634766 0.70301568508148193
-0.010143876075744629 -0.037177085876464844 0.71095967292785645
0.011650204658508301 -0.040959835052490234 0.70198321342468262
-0.003271937370300293 -0.04094696044921875 0.69567596912384033
-0.022513389587402344 -0.044443607330322266 0.70653486251831055
-0.024700403213500977 -0.040862560272216797 0.71417331695556641
0.0062031745910644531 -0.037394285202026367 0.71029841899871826
0.018209934234619141 -0.041629314422607422 0.69376552104949951
-0.021116256713867188 -0.045332670211791992 0.70007431507110596
0.07445061206817627 -0.061876058578491211 0.71254003047943115
0.071577072143554688 -0.067922830581665039 0.71758365631103516
0.078951120376586914 -0.057935953140258789 0.72013461589813232
0.078190803527832031 -0.053727626800537109 0.70627355575561523
0.069086670875549316 -0.064327716827392578 0.70700037479400635
0.068304538726806641 -0.068091869354248047 0.71251952648162842
0.074301958084106445 -0.064750194549560547 0.72524023056030273
0.084610819816589355 -0.049816370010375977 0.71396493911743164
0.069316983222961426 -0.056024312973022461 0.69973206520080566
0.053761124610900879 -0.061441183090209961 0.71362721920013428
0.050077915191650391 -0.057323694229125977 0.72166228294372559
0.062077522277832031 -0.067724704742431641 0.71807312965393066
0.058310151100158691 -0.064099311828613281 0.70756590366363525
0.042925357818603516 -0.052966594696044922 0.70816493034362793
0.037307858467102051 -0.048792839050292969 0.71650588512420654
0.060665249824523926 -0.064466714859008789 0.72595369815826416
0.063433170318603516 -0.067993879318237305 0.71276986598968506
0.050565361976623535 -0.055619716644287109 0.70073807239532471
0.15487778186798096 -0.19885587692260742 0.75235521793365479
0.15645122528076172 -0.21016383171081543 0.74826920032501221
0.1718447208404541 -0.19028210639953613 0.7469642162322998
0.15440809726715088 -0.19040894508361816 0.75823593139648438
0.1356198787689209 -0.20431423187255859 0.75708591938018799
0.13707113265991211 -0.21526837348937988 0.75326061248779297
0.17429900169372559 -0.20186948776245117 0.74190890789031982
0.17112457752227783 -0.18174052238464355 0.75324583053588867
0.13514840602874756 -0.196044921875 0.76286232471466064
0.067443490028381348 -0.19471597671508789 0.76246523857116699
0.043847322463989258 -0.18431186676025391 0.76154923439025879
0.069715142250061035 -0.20591020584106445 0.75865650177001953
0.091273903846740723 -0.20219588279724121 0.76225662231445312
0.066427469253540039 -0.18633866310119629 0.76819634437561035
0.043134808540344238 -0.1759028434753418 0.76751935482025146
0.045019268989562988 -0.19560885429382324 0.75718820095062256
0.093538999557495117 -0.21311736106872559 0.7585141658782959
0.090361714363098145 -0.19395112991333008 0.76797473430633545
0.14968264102935791 -0.16672539710998535 0.77357220649719238
0.15218520164489746 -0.17527270317077637 0.76952886581420898
0.16547369956970215 -0.15916824340820312 0.76936614513397217
0.14679038524627686 -0.15734457969665527 0.77667510509490967
0.13135600090026855 -0.17189335823059082 0.77772104740142822
0.13338589668273926 -0.18083858489990234 0.77392470836639404
0.1685340404510498 -0.16692256927490234 0.76496279239654541
0.16177093982696533 -0.15151047706604004 0.77291774749755859
0.12883234024047852 -0.16162538528442383 0.78049051761627197
0.065847396850585938 -0.1630406379699707 0.78259027004241943
0.044244289398193359 -0.15389180183410645 0.7822723388671875
0.066101908683776855 -0.17141485214233398 0.77896976470947266
0.088534235954284668 -0.17000293731689453 0.78235304355621338
0.064957261085510254 -0.15383005142211914 0.78528273105621338
0.045287728309631348 -0.14653849601745605 0.78509128093719482
0.043399453163146973 -0.16138005256652832 0.7785181999206543
0.089546084403991699 -0.17885804176330566 0.77876651287078857
0.086662650108337402 -0.15980958938598633 0.78494167327880859
0.09078669548034668 -0.053179264068603516 0.74590027332305908
0.082892298698425293 -0.060110807418823242 0.75183475017547607
0.096761226654052734 -0.0554046630859375 0.75342845916748047
0.098217248916625977 -0.045391082763671875 0.73917496204376221
0.08648383617401123 -0.052765369415283203 0.73753738403320312
0.079395055770874023 -0.059414148330688477 0.74304330348968506
0.088106155395507812 -0.063534975051879883 0.76050770282745361
0.1035916805267334 -0.04769587516784668 0.74636971950531006
0.093775629997253418 -0.044812917709350586 0.7309577465057373
0.046157479286193848 -0.05214381217956543 0.74849748611450195
0.044694185256958008 -0.054094314575195312 0.7566826343536377
0.060554862022399902 -0.059591531753540039 0.75313854217529297
0.046718478202819824 -0.051884651184082031 0.73973560333251953
0.031386494636535645 -0.043838262557983398 0.74304449558258057
0.030382990837097168 -0.045897483825683594 0.75084900856018066
0.06109321117401123 -0.062848806381225586 0.76221656799316406
0.05991363525390625 -0.058986902236938477 0.74411690235137939
0.032114028930664062 -0.043437719345092773 0.73438715934753418
0.13128459453582764 -0.036538600921630859 0.72866702079772949
0.11813724040985107 -0.035954475402832031 0.72983729839324951
0.13301920890808105 -0.040121555328369141 0.73728477954864502
0.14529681205749512 -0.040735244750976562 0.72959315776824951
0.12913715839385986 -0.035361766815185547 0.71996510028839111
0.11488211154937744 -0.034808158874511719 0.72130358219146729
0.12112045288085938 -0.039406776428222656 0.73800313472747803
0.14549517631530762 -0.043858051300048828 0.73777461051940918
0.14447903633117676 -0.039823770523071289 0.72101747989654541
-0.010947823524475098 -0.033123016357421875 0.73716247081756592
-0.0070555210113525391 -0.036613225936889648 0.74600851535797119
0.0021915435791015625 -0.033234596252441406 0.73660743236541748
-0.01296234130859375 -0.032053232192993164 0.72821140289306641
-0.021894335746765137 -0.036555051803588867 0.7399822473526001
-0.016913056373596191 -0.039644479751586914 0.74823606014251709
0.0045839548110961914 -0.036550045013427734 0.74510514736175537
0.0013602972030639648 -0.032227993011474609 0.72773230075836182
-0.025045871734619141 -0.035691499710083008 0.73129928112030029
0.18365383148193359 -0.07485198974609375 0.74582827091217041
0.17232584953308105 -0.06050562858581543 0.73871707916259766
0.1778336763381958 -0.073618888854980469 0.7527928352355957
0.19246602058410645 -0.090362787246704102 0.75286471843719482
0.186767578125 -0.07648468017578125 0.73777437210083008
0.17428433895111084 -0.061090230941772461 0.73051512241363525
0.16850149631500244 -0.060951948165893555 0.74587011337280273
0.18534600734710693 -0.087914943695068359 0.75956046581268311
0.1963803768157959 -0.09297633171081543 0.74506568908691406
-0.032509922981262207 -0.068023681640625 0.76266849040985107
-0.024544715881347656 -0.067181825637817383 0.76866507530212402
-0.032909274101257324 -0.05456852912902832 0.75339865684509277
-0.03804624080657959 -0.069432735443115234 0.75517845153808594
-0.02899169921875 -0.082777976989746094 0.77153885364532471
-0.020506739616394043 -0.080852746963500977 0.77695190906524658
-0.025887250900268555 -0.055243492126464844 0.75999224185943604
-0.037896871566772461 -0.055027246475219727 0.74551653861999512
-0.03473508358001709 -0.085073232650756836 0.76451098918914795
0.1953117847442627 -0.13019061088562012 0.76323413848876953
0.19854879379272461 -0.11861824989318848 0.76166892051696777
0.18775880336761475 -0.12577342987060547 0.76865673065185547
0.18853938579559326 -0.14059281349182129 0.76430463790893555
0.19993388652801514 -0.13542342185974121 0.75700795650482178
0.20321559906005859 -0.12302470207214355 0.75479984283447266
0.19054639339447021 -0.11470198631286621 0.7676088809967041
0.18220317363739014 -0.13563394546508789 0.76907992362976074
0.19276750087738037 -0.14660477638244629 0.75877141952514648
-0.0041657686233520508 -0.12214016914367676 0.78297221660614014
0.0032236576080322266 -0.11838102340698242 0.7867807149887085
-0.014674663543701172 -0.11036419868469238 0.78192925453186035
-0.0086343288421630859 -0.12693881988525391 0.77780508995056152
0.0088760852813720703 -0.1331021785736084 0.78266322612762451
0.01450812816619873 -0.12871980667114258 0.78603136539459229
-0.0063693523406982422 -0.10711359977722168 0.78623807430267334
-0.019883394241333008 -0.11434578895568848 0.7760922908782959
0.0054970979690551758 -0.13870453834533691 0.7781226634979248
0.13791751861572266 -0.065535306930541992 0.76251697540283203
0.13876450061798096 -0.077996730804443359 0.76986038684844971
0.15442180633544922 -0.069054603576660156 0.76130485534667969
0.1363987922668457 -0.054795265197753906 0.75438559055328369
0.12087917327880859 -0.062030315399169922 0.76196384429931641
0.11703133583068848 -0.07333683967590332 0.76989614963531494
0.15825450420379639 -0.081952810287475586 0.76819336414337158
0.15003836154937744 -0.0580902099609375 0.75371122360229492
0.12288355827331543 -0.052562236785888672 0.75398635864257812
0.013993978500366211 -0.061718225479125977 0.77195119857788086
-0.00063908100128173828 -0.064162492752075195 0.77338254451751709
0.023819804191589355 -0.074159383773803711 0.77932465076446533
