# XYZ point cloud file
0.42316079139709473 0.047986030578613281 0.5812220573425293
0.47100543975830078 0.035892009735107422 0.55119085311889648
0.49353933334350586 0.075081348419189453 0.56187582015991211
0.48025107383728027 0.096526145935058594 0.58215808868408203
0.41529679298400879 0.071183204650878906 0.60007548332214355
0.43037033081054688 0.025594234466552734 0.56096160411834717
0.50601458549499512 0.054258823394775391 0.54031836986541748
-0.40935254096984863 0.049206256866455078 0.55454111099243164
-0.36484193801879883 0.042284488677978516 0.57013940811157227
-0.40778851509094238 0.070126056671142578 0.57007813453674316
-0.45265626907348633 0.062466144561767578 0.53482186794281006
-0.41115069389343262 0.028889656066894531 0.53735005855560303
-0.36366033554077148 0.021494865417480469 0.55373024940490723
-0.36642885208129883 0.063721656799316406 0.58478868007659912
-0.44813752174377441 0.082442760467529297 0.55152463912963867
-0.45722532272338867 0.043014049530029297 0.51660168170928955
0.41167974472045898 0.15366172790527344 0.63652336597442627
0.39970064163208008 0.17534780502319336 0.64694809913635254
0.38603019714355469 0.14690876007080078 0.64230585098266602
0.42506933212280273 0.12917804718017578 0.6240544319152832
0.43356823921203613 0.16547012329101562 0.62980854511260986
0.41925454139709473 0.18576478958129883 0.64109957218170166
0.37677097320556641 0.16938447952270508 0.65195858478546143
0.39631247520446777 0.12155961990356445 0.63074374198913574
0.44962835311889648 0.14254951477050781 0.61634838581085205
-0.40547299385070801 0.13735294342041016 0.60020935535430908
-0.37496781349182129 0.13292741775512695 0.6113741397857666
-0.4053797721862793 0.15713119506835938 0.60604977607727051
-0.43540811538696289 0.14610433578491211 0.58635425567626953
-0.40584206581115723 0.11499309539794922 0.59287345409393311
-0.37163424491882324 0.10987138748168945 0.60530209541320801
-0.37814569473266602 0.15334272384643555 0.61610352993011475
-0.43213438987731934 0.16476154327392578 0.59367895126342773
-0.43935823440551758 0.12500286102294922 0.57733535766601562
0.2968757152557373 0.15928363800048828 0.65033853054046631
0.29749727249145508 0.18019723892211914 0.6588890552520752
0.26673674583435059 0.1732783317565918 0.64899885654449463
0.29599213600158691 0.13571691513061523 0.64010465145111084
0.32755374908447266 0.14984512329101562 0.64952182769775391
0.32469987869262695 0.17190837860107422 0.65818977355957031
0.27080345153808594 0.19251823425292969 0.65771818161010742
0.26198816299438477 0.15160179138183594 0.63860630989074707
0.33057737350463867 0.12498092651367188 0.63913345336914062
-0.29299068450927734 0.148040771484375 0.62539541721343994
-0.27216315269470215 0.16181612014770508 0.6233828067779541
-0.30550456047058105 0.16697072982788086 0.62924861907958984
-0.31763148307800293 0.13833475112915039 0.62411773204803467
-0.27907729148864746 0.1266636848449707 0.62035703659057617
-0.25535941123962402 0.1422114372253418 0.61786305904388428
-0.28722429275512695 0.17917871475219727 0.62767624855041504
-0.32722663879394531 0.15832948684692383 0.62786006927490234
-0.3070225715637207 0.11576318740844727 0.6191859245300293
0.29182672500610352 0.067049026489257812 0.59487330913543701
0.29343485832214355 0.088757991790771484 0.61230373382568359
0.2475886344909668 0.087923049926757812 0.59337544441223145
0.29008769989013672 0.046045303344726562 0.57603049278259277
0.33700013160705566 0.052867889404296875 0.59313452243804932
0.33543014526367188 0.075593948364257812 0.61086678504943848
0.25221896171569824 0.10816717147827148 0.61071395874023438
0.24305820465087891 0.068272590637207031 0.57467734813690186
0.3382267951965332 0.030925750732421875 0.57395839691162109
-0.24230861663818359 0.063457965850830078 0.5880424976348877
-0.2102963924407959 0.083626747131347656 0.58460330963134766
-0.25317645072937012 0.083626270294189453 0.60183358192443848
-0.2796783447265625 0.049450397491455078 0.58698201179504395
-0.23227310180664062 0.043831825256347656 0.5724409818649292
-0.19777536392211914 0.065232753753662109 0.56885910034179688
-0.22375392913818359 0.10244941711425781 0.59860408306121826
-0.28761696815490723 0.070520877838134766 0.60078024864196777
-0.27244782447814941 0.029002189636230469 0.57134878635406494
0.13727641105651855 0.18186521530151367 0.56758284568786621
0.14883518218994141 0.19559383392333984 0.58614349365234375
0.1121828556060791 0.22003316879272461 0.5538712739944458
0.12653732299804688 0.16821622848510742 0.54796087741851807
0.16891026496887207 0.14633560180664062 0.57939255237579346
0.1786034107208252 0.16252326965332031 0.59729588031768799
0.1251072883605957 0.23114299774169922 0.57331061363220215
0.10026884078979492 0.20882844924926758 0.53347659111022949
0.15980696678161621 0.13043022155761719 0.56032025814056396
-0.15921330451965332 0.17436790466308594 0.55065369606018066
-0.15885114669799805 0.21094799041748047 0.53305530548095703
-0.17721438407897949 0.18677282333374023 0.56612515449523926
-0.1679844856262207 0.14005756378173828 0.56548035144805908
-0.14229440689086914 0.16192197799682617 0.53381133079528809
-0.14157915115356445 0.20098066329956055 0.51552474498748779
-0.17717385292053223 0.22070407867431641 0.54935741424560547
-0.18506860733032227 0.15492105484008789 0.58032000064849854
-0.15196704864501953 0.12531805038452148 0.54912471771240234
0.19040226936340332 0.23684310913085938 0.63082361221313477
0.20311880111694336 0.24863624572753906 0.64184761047363281
0.17250895500183105 0.26290512084960938 0.62154960632324219
0.17601490020751953 0.22349071502685547 0.61796057224273682
0.21256542205810547 0.21271181106567383 0.63898515701293945
0.2228083610534668 0.22730541229248047 0.64897477626800537
0.18715715408325195 0.27175426483154297 0.63373756408691406
0.1559898853302002 0.25285816192626953 0.60740089416503906
0.20092535018920898 0.19624614715576172 0.62723469734191895
-0.24025917053222656 0.22284030914306641 0.5987861156463623
-0.24089384078979492 0.24738836288452148 0.58581912517547607
-0.25953984260559082 0.23298406600952148 0.60594117641448975
-0.24532651901245117 0.19985008239746094 0.60975146293640137
-0.21860003471374512 0.21134281158447266 0.59019994735717773
-0.21906518936157227 0.23912525177001953 0.57581412792205811
-0.260284423828125 0.25463390350341797 0.59429454803466797
-0.2638401985168457 0.21272850036621094 0.61574351787567139
-0.22456836700439453 0.18527603149414062 0.60241007804870605
0.15113496780395508 0.3447723388671875 0.59389829635620117
0.16746759414672852 0.34489917755126953 0.60949158668518066
0.1555640697479248 0.36980438232421875 0.58601295948028564
0.13282942771911621 0.34453678131103516 0.57585299015045166
0.15249538421630859 0.31783151626586914 0.60260117053985596
0.16898679733276367 0.32075929641723633 0.61714744567871094
0.17106485366821289 0.36732864379882812 0.6025092601776123
0.13822340965270996 0.37250089645385742 0.56689333915710449
0.13398241996765137 0.31443691253662109 0.58578276634216309
-0.27700066566467285 0.32179546356201172 0.54036736488342285
-0.29850268363952637 0.34333944320678711 0.52423620223999023
-0.29280257225036621 0.32076740264892578 0.55330729484558105
-0.25965213775634766 0.29785537719726562 0.55618751049041748
-0.25911808013916016 0.32287836074829102 0.52534770965576172
-0.28319525718688965 0.34701919555664062 0.50735306739807129
-0.31198811531066895 0.34001350402832031 0.53879165649414062
-0.27726554870605469 0.29941034317016602 0.56757712364196777
-0.23975515365600586 0.29600191116333008 0.54294180870056152
0.085539340972900391 0.33848237991333008 0.5108720064163208
0.099229097366333008 0.34150838851928711 0.53393936157226562
0.093796491622924805 0.37453413009643555 0.49835371971130371
0.073094844818115234 0.33484125137329102 0.48696136474609375
0.085813760757446289 0.29969406127929688 0.52471005916595459
0.099827289581298828 0.30536127090454102 0.54648125171661377
0.10657262802124023 0.37511110305786133 0.52262270450592041
0.082238197326660156 0.37320947647094727 0.47323501110076904
0.073027610778808594 0.29357576370239258 0.50209200382232666
-0.2080230712890625 0.32058334350585938 0.46904516220092773
-0.23851990699768066 0.35199213027954102 0.44554257392883301
-0.22394037246704102 0.32244205474853516 0.48940324783325195
-0.18378901481628418 0.28553295135498047 0.49175643920898438
-0.19277834892272949 0.31807041168212891 0.44772768020629883
-0.22486972808837891 0.35158586502075195 0.42253232002258301
-0.25263428688049316 0.35162639617919922 0.4676508903503418
-0.20104098320007324 0.28990697860717773 0.51051592826843262
-0.16738629341125488 0.28064107894897461 0.47197723388671875
0.16788339614868164 0.45181751251220703 0.47424817085266113
0.17445945739746094 0.44704389572143555 0.5004040002822876
0.20572853088378906 0.46413612365722656 0.47108924388885498
0.16226649284362793 0.45546531677246094 0.44724941253662109
0.13568568229675293 0.43231439590454102 0.47977948188781738
0.14484953880310059 0.42892313003540039 0.50563430786132812
0.20937514305114746 0.45845413208007812 0.49728357791900635
0.20291948318481445 0.46860647201538086 0.44406342506408691
0.12759971618652344 0.43469095230102539 0.45306897163391113
-0.35538434982299805 0.40978479385375977 0.37541854381561279
-0.39799070358276367 0.41487646102905273 0.35526740550994873
-0.36189913749694824 0.40555238723754883 0.40291333198547363
-0.31356930732727051 0.39747905731201172 0.39794468879699707
-0.34865975379943848 0.41293859481811523 0.34721994400024414
-0.39401721954345703 0.41823339462280273 0.32554912567138672
-0.40155291557312012 0.41039705276489258 0.38434243202209473
-0.3229072093963623 0.39401388168334961 0.42369568347930908
-0.30424666404724121 0.39996051788330078 0.37141168117523193
0.20286870002746582 0.42247819900512695 0.5693429708480835
0.21228337287902832 0.41411352157592773 0.58733808994293213
0.22797203063964844 0.43052530288696289 0.56651425361633301
0.19244933128356934 0.43184995651245117 0.54845857620239258
0.18185544013977051 0.40943193435668945 0.57358396053314209
0.19382381439208984 0.40262794494628906 0.59129559993743896
0.23446226119995117 0.42112016677856445 0.58460712432861328
0.22086262702941895 0.44106340408325195 0.54551494121551514
0.16853976249694824 0.41702651977539062 0.55303311347961426
-0.37907981872558594 0.38312721252441406 0.47713685035705566
-0.40811777114868164 0.38672304153442383 0.46384501457214355
-0.38352870941162109 0.37543678283691406 0.4968106746673584
-0.35046958923339844 0.37462902069091797 0.49212312698364258
-0.37388229370117188 0.39172267913818359 0.45437073707580566
-0.40659713745117188 0.3957982063293457 0.43930482864379883
-0.40929961204528809 0.3786168098449707 0.48506855964660645
-0.35816431045532227 0.36790847778320312 0.51009750366210938
-0.34164285659790039 0.38213968276977539 0.47130143642425537
0.31860852241516113 0.42162179946899414 0.56690657138824463
0.31524991989135742 0.41303157806396484 0.58441376686096191
0.34993386268615723 0.40797615051269531 0.56956541538238525
0.32266855239868164 0.43122625350952148 0.54656028747558594
0.28694534301757812 0.43013525009155273 0.5653688907623291
0.28693771362304688 0.4206080436706543 0.58318769931793213
0.34329104423522949 0.40091180801391602 0.5866999626159668
0.35769963264465332 0.41586160659790039 0.5496370792388916
0.28720641136169434 0.44080877304077148 0.54467177391052246
-0.48800492286682129 0.3678736686706543 0.44102370738983154
-0.50897383689880371 0.35283279418945312 0.4405219554901123
-0.48056530952453613 0.36198568344116211 0.46496248245239258
-0.46356010437011719 0.37888288497924805 0.44527316093444824
-0.49624466896057129 0.3743743896484375 0.41329789161682129
-0.5197751522064209 0.35736703872680664 0.41265380382537842
-0.49928808212280273 0.34867334365844727 0.46456313133239746
-0.45870041847229004 0.37170314788818359 0.46869134902954102
-0.46886372566223145 0.38688278198242188 0.41817700862884521
0.33884453773498535 0.4521784782409668 0.47455859184265137
0.33287477493286133 0.44704008102416992 0.4998708963394165
0.38400483131408691 0.43235158920288086 0.47904539108276367
0.34516096115112305 0.45621919631958008 0.44845986366271973
0.29283523559570312 0.46441841125488281 0.47148227691650391
0.29008102416992188 0.45852994918823242 0.49721086025238037
0.37497878074645996 0.42850017547607422 0.50387358665466309
0.39318513870239258 0.435211181640625 0.4534372091293335
0.29611539840698242 0.46910190582275391 0.444954514503479
-0.51530838012695312 0.3862757682800293 0.31975674629211426
-0.54643487930297852 0.36397933959960938 0.31861114501953125
-0.51029825210571289 0.38399076461791992 0.35185456275939941
-0.47935724258422852 0.40278005599975586 0.32660293579101562
-0.51951050758361816 0.38755941390991211 0.28710591793060303
-0.55299782752990723 0.3637995719909668 0.28578448295593262
-0.5390017032623291 0.36325979232788086 0.3508836030960083
-0.47705245018005371 0.39929866790771484 0.35806083679199219
-0.48094701766967773 0.40515995025634766 0.29458224773406982
0.49647402763366699 0.3334660530090332 0.49754750728607178
0.48042416572570801 0.33657646179199219 0.52089774608612061
0.52176547050476074 0.29203987121582031 0.50500941276550293
0.51207733154296875 0.32977676391601562 0.4734199047088623
0.4643242359161377 0.37185525894165039 0.49073350429534912
0.45016717910766602 0.37220859527587891 0.51455581188201904
0.50434136390686035 0.29814767837524414 0.52792263031005859
0.53856635093688965 0.28550100326538086 0.48130261898040771
0.4782259464263916 0.37079095840454102 0.46613800525665283
-0.59926033020019531 0.27151012420654297 0.35302209854125977
-0.60133171081542969 0.23613977432250977 0.37503314018249512
-0.58711433410644531 0.27720069885253906 0.3824620246887207
-0.58919882774353027 0.30548858642578125 0.33553791046142578
-0.61043000221252441 0.26531839370727539 0.32300305366516113
-0.61307549476623535 0.22766304016113281 0.34676587581634521
-0.58863210678100586 0.24426174163818359 0.40267515182495117
-0.57813644409179688 0.308837890625 0.36644577980041504
-0.59930729866027832 0.30152082443237305 0.30406296253204346
0.4290318489074707 0.34028768539428711 0.58228921890258789
0.41403651237487793 0.34051799774169922 0.59822964668273926
0.44725894927978516 0.31204938888549805 0.5878303050994873
0.44607663154602051 0.33987855911254883 0.56373250484466553
0.40620994567871094 0.36652612686157227 0.57737910747528076
0.39363503456115723 0.36394691467285156 0.59371888637542725
0.43036746978759766 0.31532526016235352 0.60333371162414551
0.46637606620788574 0.30818510055541992 0.56977307796478271
0.42059564590454102 0.36931324005126953 0.55835771560668945
-0.54224705696105957 0.28928232192993164 0.46351146697998047
-0.54231643676757812 0.26479053497314453 0.47807490825653076
-0.52822494506835938 0.29194211959838867 0.48516607284545898
-0.53661704063415527 0.3127741813659668 0.45195233821868896
-0.55794668197631836 0.28610420227050781 0.43841731548309326
-0.55845236778259277 0.25871086120605469 0.45483613014221191
-0.52790355682373047 0.27001476287841797 0.49812495708465576
-0.52357363700866699 0.3129734992980957 0.47483909130096436
-0.55121612548828125 0.31238126754760742 0.42541766166687012
0.39228320121765137 0.34385919570922852 0.6267552375793457
0.39610910415649414 0.34240484237670898 0.62011969089508057
0.37525534629821777 0.36354160308837891 0.62284636497497559
0.38872146606445312 0.34471845626831055 0.63214015960693359
0.40582823753356934 0.32277441024780273 0.63130617141723633
0.41018891334533691 0.3206791877746582 0.62474274635314941
0.37856221199035645 0.36269044876098633 0.61606645584106445
0.37214231491088867 0.3636631965637207 0.62848329544067383
0.40153908729553223 0.32432651519775391 0.63662898540496826
-0.50972771644592285 0.29857158660888672 0.52143430709838867
-0.50663995742797852 0.31630754470825195 0.5127866268157959
-0.51244735717773438 0.29660940170288086 0.51360154151916504
-0.50854945182800293 0.28013706207275391 0.53233945369720459
-0.50674772262573242 0.2999119758605957 0.52793657779693604
-0.50367307662963867 0.31699895858764648 0.51977384090423584
-0.50910139083862305 0.31486940383911133 0.50463581085205078
-0.5115361213684082 0.27761030197143555 0.52477407455444336
-0.50523710250854492 0.28210926055908203 0.53864598274230957
0.30919265747070312 0.4055171012878418 0.61563229560852051
0.31064510345458984 0.40538215637207031 0.60838043689727783
0.28530669212341309 0.41206121444702148 0.61513662338256836
0.30802583694458008 0.40505266189575195 0.62163782119750977
0.33288884162902832 0.39501476287841797 0.61718106269836426
0.33501410484313965 0.39480781555175781 0.61009347438812256
0.28608393669128418 0.41204309463500977 0.60765719413757324
0.28492593765258789 0.41131448745727539 0.62141156196594238
0.33091020584106445 0.39453601837158203 0.6231234073638916
-0.47207927703857422 0.35799598693847656 0.50456738471984863
-0.45383119583129883 0.36620044708251953 0.50789010524749756
-0.47291421890258789 0.35735702514648438 0.49611806869506836
-0.48746418952941895 0.34662771224975586 0.50418269634246826
-0.47078871726989746 0.35800886154174805 0.51170885562896729
-0.45312213897705078 0.36589336395263672 0.51522183418273926
-0.45406675338745117 0.36574602127075195 0.49937832355499268
-0.48896980285644531 0.34584283828735352 0.4957282543182373
-0.48533201217651367 0.34671783447265625 0.51147317886352539
0.22333765029907227 0.40720510482788086 0.61996042728424072
0.22221779823303223 0.406890869140625 0.6122819185256958
0.20850419998168945 0.39752435684204102 0.62360513210296631
0.22466683387756348 0.40685367584228516 0.62621569633483887
0.24149966239929199 0.41291475296020508 0.61731398105621338
0.24099636077880859 0.41279745101928711 0.60960817337036133
0.20673155784606934 0.39706945419311523 0.61594569683074951
0.21059703826904297 0.39718389511108398 0.62986016273498535
0.24230098724365234 0.41222286224365234 0.62372612953186035
-0.39122390747070312 0.36936473846435547 0.53148388862609863
-0.3701174259185791 0.36287307739257812 0.54264211654663086
-0.3895423412322998 0.36893558502197266 0.52352571487426758
-0.41261816024780273 0.37204504013061523 0.52173268795013428
-0.3923957347869873 0.36919116973876953 0.53818595409393311
-0.37197637557983398 0.36263704299926758 0.54914534091949463
-0.3678126335144043 0.36241292953491211 0.53494572639465332
-0.41160154342651367 0.37169933319091797 0.51346445083618164
-0.41307711601257324 0.37165451049804688 0.5288691520690918
0.18773508071899414 0.34870767593383789 0.63899970054626465
0.18529224395751953 0.34700965881347656 0.63179993629455566
0.18943405151367188 0.32833576202392578 0.64527225494384766
0.19009637832641602 0.3497157096862793 0.64471697807312012
0.19043207168579102 0.36764049530029297 0.63324558734893799
0.18800258636474609 0.36651229858398438 0.62582802772521973
0.18694067001342773 0.32604694366455078 0.63827610015869141
0.19195556640625 0.32998847961425781 0.65082526206970215
0.19301199913024902 0.36791610717773438 0.63924288749694824
-0.31473755836486816 0.3230748176574707 0.57935452461242676
-0.30145859718322754 0.30520534515380859 0.59158217906951904
-0.31129741668701172 0.32157135009765625 0.5726006031036377
-0.3311622142791748 0.33921146392822266 0.56696808338165283
-0.31759071350097656 0.32396936416625977 0.58482789993286133
-0.30483555793762207 0.30666208267211914 0.5966789722442627
-0.29769253730773926 0.30315589904785156 0.5851442813873291
-0.32799887657165527 0.33822488784790039 0.55986714363098145
-0.33378267288208008 0.33945417404174805 0.57289814949035645
0.21880197525024414 0.26824951171875 0.66523218154907227
0.2169501781463623 0.26413869857788086 0.65893018245697021
0.2354896068572998 0.25073623657226562 0.67098116874694824
0.2204592227935791 0.27162837982177734 0.67018389701843262
0.2052772045135498 0.28734731674194336 0.65871143341064453
0.20307683944702148 0.28385305404663086 0.65216934680938721
0.23395538330078125 0.24600744247436523 0.66486966609954834
0.23689723014831543 0.25484180450439453 0.67574918270111084
0.20746779441833496 0.29013872146606445 0.6638948917388916
-0.28588414192199707 0.25039434432983398 0.62419247627258301
-0.28939390182495117 0.23386955261230469 0.63236021995544434
-0.28188371658325195 0.2465977668762207 0.61863303184509277
-0.28672671318054199 0.26812934875488281 0.61437225341796875
-0.2893824577331543 0.25345182418823242 0.6283804178237915
-0.29308390617370605 0.23758125305175781 0.63620674610137939
-0.28539371490478516 0.22948598861694336 0.62707257270812988
-0.28268218040466309 0.26493120193481445 0.60852932929992676
-0.29040765762329102 0.27061939239501953 0.61885786056518555
0.29787230491638184 0.21163749694824219 0.67921030521392822
0.29794120788574219 0.20593357086181641 0.67321872711181641
0.32044196128845215 0.20478582382202148 0.6786731481552124
0.29774761199951172 0.21643972396850586 0.68393754959106445
0.27571225166320801 0.22195768356323242 0.67816781997680664
0.27511763572692871 0.21644163131713867 0.67220675945281982
0.32121396064758301 0.19886112213134766 0.67265415191650391
0.31956005096435547 0.20997238159179688 0.68340718746185303
0.27631115913391113 0.22672414779663086 0.68284916877746582
-0.32294082641601562 0.19578170776367188 0.64333844184875488
-0.34065675735473633 0.18847036361694336 0.64184904098510742
-0.32019805908203125 0.19045829772949219 0.63823616504669189
-0.30825662612915039 0.20611143112182617 0.642181396484375
-0.32540750503540039 0.20020771026611328 0.64717507362365723
-0.3426060676574707 0.19327592849731445 0.64567208290100098
-0.3385322093963623 0.18293142318725586 0.63674867153167725
-0.30487513542175293 0.20096397399902344 0.63711047172546387
-0.31146645545959473 0.21045875549316406 0.64587998390197754
0.3831336498260498 0.2074885368347168 0.66899895668029785
0.38577580451965332 0.20179128646850586 0.66300785541534424
0.39930963516235352 0.21617698669433594 0.66391396522521973
0.38050389289855957 0.21226358413696289 0.67367088794708252
0.36393189430236816 0.20262765884399414 0.67335474491119385
0.36598324775695801 0.19670391082763672 0.66733598709106445
0.40260958671569824 0.21065521240234375 0.65793848037719727
0.39582395553588867 0.22092580795288086 0.66857624053955078
0.36186122894287109 0.20778989791870117 0.67804801464080811
-0.40575146675109863 0.18676090240478516 0.62204658985137939
-0.42820382118225098 0.19298839569091797 0.61121129989624023
-0.40562725067138672 0.18140029907226562 0.61686825752258301
-0.38291645050048828 0.18387222290039062 0.63100957870483398
-0.40572404861450195 0.19129419326782227 0.62612724304199219
-0.42736506462097168 0.19754743576049805 0.61540484428405762
-0.42877197265625 0.18776226043701172 0.60595083236694336
-0.38209652900695801 0.17832851409912109 0.6258852481842041
-0.38367915153503418 0.18872261047363281 0.63492894172668457
0.4227604866027832 0.26093673706054688 0.64710581302642822
0.42717790603637695 0.25689363479614258 0.64093923568725586
0.42135524749755859 0.28047657012939453 0.64160311222076416
0.41847896575927734 0.26425790786743164 0.65191853046417236
0.41952610015869141 0.24336671829223633 0.65274918079376221
0.42372679710388184 0.23865985870361328 0.6466984748840332
0.4260098934173584 0.27707099914550781 0.63526976108551025
0.41672658920288086 0.28320407867431641 0.64665496349334717
0.41523003578186035 0.24743461608886719 0.65745377540588379
-0.48282670974731445 0.22824287414550781 0.57188928127288818
-0.49486470222473145 0.24431276321411133 0.55813133716583252
-0.48508715629577637 0.22416162490844727 0.56566965579986572
-0.46747565269470215 0.21408939361572266 0.58566141128540039
-0.48045992851257324 0.23166084289550781 0.57691442966461182
-0.4918367862701416 0.24727869033813477 0.56372809410095215
-0.49762272834777832 0.24072790145874023 0.55137944221496582
-0.46923565864562988 0.20949268341064453 0.57989311218261719
-0.46552443504333496 0.21812677383422852 0.59027266502380371
0.38393616676330566 0.28111839294433594 0.66359424591064453
0.37574887275695801 0.27540922164916992 0.66788172721862793
0.39780998229980469 0.27484703063964844 0.66047430038452148
0.37637567520141602 0.29379892349243164 0.6622852087020874
0.35569930076599121 0.29343557357788086 0.6684342622756958
0.39381074905395508 0.26211643218994141 0.66521167755126953
0.3948063850402832 0.29058551788330078 0.65656757354736328
-0.45740532875061035 0.24930095672607422 0.59027719497680664
-0.46689391136169434 0.24274587631225586 0.58656227588653564
-0.44524168968200684 0.24543333053588867 0.59890782833099365
-0.45871925354003906 0.26042318344116211 0.58523678779602051
-0.47486329078674316 0.25587558746337891 0.57642006874084473
-0.45400142669677734 0.23266744613647461 0.5975804328918457
-0.43791317939758301 0.26219272613525391 0.59634184837341309
0.35724401473999023 0.24364376068115234 0.67972588539123535
0.36669301986694336 0.23132514953613281 0.67917025089263916
0.36049342155456543 0.25397348403930664 0.67715048789978027
0.34326553344726562 0.24718666076660156 0.68229579925537109
0.35092902183532715 0.2290959358215332 0.6828310489654541
0.37769651412963867 0.23960590362548828 0.67491722106933594
0.33798408508300781 0.26844882965087891 0.67919564247131348
-0.4039618968963623 0.2201838493347168 0.62615370750427246
-0.41466832160949707 0.22878074645996094 0.61947226524353027
-0.40474367141723633 0.20893764495849609 0.62819647789001465
-0.3923344612121582 0.2242121696472168 0.62980103492736816
-0.40234732627868652 0.24278116226196289 0.62025761604309082
-0.42182135581970215 0.21517276763916016 0.61915469169616699
-0.38716387748718262 0.20810079574584961 0.63508689403533936
0.29801106452941895 0.24677324295043945 0.68739974498748779
0.28702974319458008 0.25774955749511719 0.68642270565032959
0.2977745532989502 0.23498821258544922 0.68815195560455322
0.3093411922454834 0.24901914596557617 0.68677878379821777
0.29861831665039062 0.27048301696777344 0.68418526649475098
0.28066396713256836 0.24454069137573242 0.68705487251281738
0.31519770622253418 0.23103618621826172 0.68758559226989746
-0.3465275764465332 0.22671175003051758 0.64155888557434082
-0.33789300918579102 0.21650362014770508 0.64605510234832764
-0.34347939491271973 0.23689365386962891 0.63863062858581543
-0.35943150520324707 0.22795677185058594 0.63862919807434082
-0.35249018669128418 0.21202421188354492 0.64433622360229492
-0.32778191566467285 0.22585010528564453 0.64435124397277832
-0.36420369148254395 0.24713802337646484 0.63054370880126953
0.24196624755859375 0.28668308258056641 0.67737913131713867
0.23962187767028809 0.29872608184814453 0.67454063892364502
0.23273897171020508 0.28129100799560547 0.67644143104553223
0.25494909286499023 0.28057050704956055 0.68061709403991699
0.26122283935546875 0.29714298248291016 0.67761361598968506
0.22331404685974121 0.29658126831054688 0.67147111892700195
0.24701142311096191 0.26847600936889648 0.68091011047363281
-0.32055449485778809 0.26522159576416016 0.62789106369018555
-0.30771899223327637 0.26118135452270508 0.63011062145233154
-0.32715654373168945 0.2759246826171875 0.62185513973236084
-0.32860970497131348 0.25891399383544922 0.63073933124542236
-0.31215906143188477 0.24893951416015625 0.63601589202880859
-0.30990815162658691 0.27526950836181641 0.62224078178405762
-0.34689807891845703 0.27286005020141602 0.62154471874237061
0.22006344795227051 0.34261655807495117 0.65913331508636475
0.22774553298950195 0.35012340545654297 0.6581045389175415
0.20729303359985352 0.34629726409912109 0.65517115592956543
0.2270810604095459 0.33071184158325195 0.66405677795410156
0.24663305282592773 0.33441686630249023 0.66554737091064453
0.21113467216491699 0.36032438278198242 0.65118622779846191
0.21013450622558594 0.33021688461303711 0.66039848327636719
-0.34090995788574219 0.31572628021240234 0.59666085243225098
-0.33137917518615723 0.31992578506469727 0.59386658668518066
-0.35386133193969727 0.32159900665283203 0.59179186820983887
-0.33882284164428711 0.30483675003051758 0.60402798652648926
-0.32217669486999512 0.3057098388671875 0.6035301685333252
-0.34545516967773438 0.33171701431274414 0.58459722995758057
-0.36043977737426758 0.30646038055419922 0.60067069530487061
0.2450258731842041 0.38384580612182617 0.6458277702331543
0.25822162628173828 0.38168716430664062 0.6473623514175415
0.2362370491027832 0.39428138732910156 0.63977575302124023
0.24199891090393066 0.37379121780395508 0.65053713321685791
0.26333236694335938 0.36174678802490234 0.65659976005554199
0.25121140480041504 0.39745378494262695 0.63837051391601562
0.2260744571685791 0.38526153564453125 0.64327526092529297
-0.39511728286743164 0.34834051132202148 0.56303238868713379
-0.39433526992797852 0.35790586471557617 0.55485570430755615
-0.40613627433776855 0.34511756896972656 0.56209647655487061
-0.38492131233215332 0.34034013748168945 0.57257997989654541
-0.37807393074035645 0.35147762298583984 0.56444525718688965
-0.41090297698974609 0.35883855819702148 0.54821717739105225
-0.39654803276062012 0.32805395126342773 0.57818841934204102
0.30471920967102051 0.38241291046142578 0.64220345020294189
0.31599926948547363 0.37199211120605469 0.64596998691558838
0.30570340156555176 0.39264535903930664 0.63563013076782227
0.29242110252380371 0.38086700439453125 0.64528775215148926
0.30298328399658203 0.36077213287353516 0.65413248538970947
0.32380437850952148 0.38292169570922852 0.63734710216522217
0.28723764419555664 0.39661121368408203 0.63623714447021484
-0.45115828514099121 0.34020853042602539 0.54377007484436035
-0.45952630043029785 0.34841203689575195 0.53238654136657715
-0.45448637008666992 0.33035659790039062 0.54894423484802246
-0.43821048736572266 0.34042167663574219 0.55097472667694092
-0.44467353820800781 0.35387945175170898 0.53646516799926758
-0.46997809410095215 0.33832836151123047 0.53333151340484619
-0.43381929397583008 0.32269048690795898 0.56550443172454834
0.36249399185180664 0.3387446403503418 0.64939391613006592
0.36411118507385254 0.32678747177124023 0.65420687198638916
0.37291049957275391 0.34187126159667969 0.64403450489044189
0.34907913208007812 0.3469395637512207 0.65006792545318604
0.34139919281005859 0.33176803588867188 0.65888833999633789
0.38192176818847656 0.32531976699829102 0.64812135696411133
0.35863494873046875 0.35656595230102539 0.64169347286224365
-0.47636675834655762 0.29819822311401367 0.55520081520080566
-0.4888923168182373 0.29956579208374023 0.54572045803070068
-0.46955394744873047 0.28838348388671875 0.56512248516082764
-0.46886897087097168 0.30625247955322266 0.5554889440536499
-0.48516106605529785 0.31297159194946289 0.54024660587310791
-0.48623037338256836 0.28527069091796875 0.55521202087402344
-0.45058202743530273 0.29478168487548828 0.57306861877441406
0.36143374443054199 -0.92058515548706055 0.82178938388824463
0.39538216590881348 -0.92441606521606445 0.80304121971130371
0.36290407180786133 -0.90451240539550781 0.83572864532470703
0.32512235641479492 -0.91568517684936523 0.84017610549926758
0.35698294639587402 -0.93501806259155273 0.80634140968322754
0.39189934730529785 -0.93922567367553711 0.78616166114807129
0.3952326774597168 -0.90772390365600586 0.81875705718994141
0.32809185981750488 -0.90010166168212891 0.85270702838897705
0.31992101669311523 -0.92984151840209961 0.82575774192810059
0.20806598663330078 -0.89428615570068359 0.88516592979431152
0.21634125709533691 -0.87961244583129883 0.89575159549713135
0.16957402229309082 -0.88578653335571289 0.89616703987121582
0.20001363754272461 -0.90791130065917969 0.87167131900787354
0.24758815765380859 -0.90238475799560547 0.87225556373596191
0.25384330749511719 -0.88747692108154297 0.88314938545227051
0.1802365779876709 -0.87127351760864258 0.90664267539978027
0.15982627868652344 -0.89924192428588867 0.88253247737884521
0.24075794219970703 -0.91615772247314453 0.85875070095062256
0.47793865203857422 -0.92923069000244141 0.75321173667907715
0.49806618690490723 -0.92622804641723633 0.7405550479888916
0.47111630439758301 -0.90971899032592773 0.77604031562805176
0.45399689674377441 -0.92922544479370117 0.76810204982757568
0.48005938529968262 -0.94589138031005859 0.72971189022064209
0.50231671333312988 -0.94367361068725586 0.71458947658538818
0.48881983757019043 -0.9054265022277832 0.76582825183868408
0.44965720176696777 -0.91083383560180664 0.78838217258453369
0.45388054847717285 -0.94515800476074219 0.74709367752075195
0.07089686393737793 -0.86046791076660156 0.91896939277648926
0.09130406379699707 -0.84610509872436523 0.92939209938049316
0.045207023620605469 -0.85037040710449219 0.923423171043396
0.052364826202392578 -0.87322902679443359 0.90487241744995117
0.10031747817993164 -0.86912631988525391 0.9129786491394043
0.11719441413879395 -0.8548121452331543 0.92341172695159912
0.068912744522094727 -0.83571386337280273 0.93388485908508301
0.023462057113647461 -0.86301088333129883 0.90901803970336914
0.085166215896606445 -0.88212060928344727 0.89903974533081055
0.53405594825744629 -0.88963556289672852 0.71897006034851074
0.53806281089782715 -0.86687183380126953 0.71634578704833984
0.5200350284576416 -0.86429166793823242 0.74904561042785645
0.52614474296569824 -0.90702533721923828 0.72351372241973877
0.54101824760437012 -0.90890407562255859 0.68775558471679688
0.54481720924377441 -0.88582611083984375 0.6841503381729126
0.52338075637817383 -0.84094762802124023 0.74715042114257812
0.51321244239807129 -0.88306331634521484 0.75247597694396973
0.53289318084716797 -0.92594814300537109 0.69361591339111328
-0.0084269046783447266 -0.80306482315063477 0.92770099639892578
0.020659446716308594 -0.78555774688720703 0.93890070915222168
-0.019773960113525391 -0.7801661491394043 0.92545461654663086
-0.034791707992553711 -0.81647777557373047 0.91059064865112305
0.0057649612426757812 -0.8222346305847168 0.92791354656219482
0.033871650695800781 -0.8058161735534668 0.93872034549713135
0.0098226070404052734 -0.76212692260742188 0.93727004528045654
-0.046269893646240234 -0.79346227645874023 0.90690112113952637
-0.019977569580078125 -0.8353424072265625 0.9120175838470459
0.52784109115600586 -0.76509618759155273 0.71425926685333252
0.51705574989318848 -0.71976184844970703 0.71309316158294678
0.51307415962219238 -0.7458806037902832 0.74574315547943115
0.53490233421325684 -0.80469274520874023 0.71466350555419922
0.53340911865234375 -0.77713632583618164 0.68040227890014648
0.52249383926391602 -0.72880172729492188 0.6789095401763916
0.50246429443359375 -0.70422935485839844 0.74459314346313477
0.51996231079101562 -0.78198814392089844 0.74608874320983887
0.54081392288208008 -0.81984138488769531 0.68120956420898438
-0.043129444122314453 -0.68673849105834961 0.90350067615509033
-0.012504816055297852 -0.67420005798339844 0.91887664794921875
-0.049488544464111328 -0.64654684066772461 0.89001286029815674
-0.069765090942382812 -0.69451808929443359 0.87992215156555176
-0.036487579345703125 -0.72223901748657227 0.91367793083190918
-0.0062193870544433594 -0.7068028450012207 0.92759871482849121
-0.01857757568359375 -0.63703727722167969 0.90698099136352539
-0.076209306716918945 -0.65188074111938477 0.8647998571395874
-0.063004732131958008 -0.73258066177368164 0.89180934429168701
0.46331954002380371 -0.55250835418701172 0.69851100444793701
0.44118356704711914 -0.49467754364013672 0.69062089920043945
0.44794058799743652 -0.54233074188232422 0.73054277896881104
0.48418927192687988 -0.61169815063476562 0.70530211925506592
0.47031998634338379 -0.55894756317138672 0.66338443756103516
0.44904112815856934 -0.50215387344360352 0.65525996685028076
0.42537021636962891 -0.4843449592590332 0.72291028499603271
0.46927690505981445 -0.60092878341674805 0.73706746101379395
0.49037933349609375 -0.61779403686523438 0.67048192024230957
-0.071860313415527344 -0.49898719787597656 0.82821750640869141
-0.041117668151855469 -0.49308300018310547 0.84988892078399658
-0.079051017761230469 -0.44800567626953125 0.80393600463867188
-0.097870349884033203 -0.50286960601806641 0.79932725429534912
-0.063965320587158203 -0.55120420455932617 0.85173559188842773
-0.032934427261352539 -0.54520463943481445 0.87192142009735107
-0.048889875411987305 -0.44147920608520508 0.82696425914764404
-0.10440325736999512 -0.45313644409179688 0.77427363395690918
-0.090418815612792969 -0.55444526672363281 0.82383561134338379
0.3642427921295166 -0.10233497619628906 0.60429620742797852
0.37801074981689453 -0.13451290130615234 0.57189714908599854
0.41627120971679688 -0.094287872314453125 0.58326578140258789
0.34839200973510742 -0.065876960754394531 0.63376498222351074
0.3185269832611084 -0.11074542999267578 0.62422740459442139
0.33472108840942383 -0.14435386657714844 0.58799111843109131
0.4284670352935791 -0.12476968765258789 0.55434298515319824
0.40268754959106445 -0.060426235198974609 0.60917627811431885
0.29704809188842773 -0.071093559265136719 0.65928912162780762
-0.22352099418640137 -0.092189311981201172 0.63047933578491211
-0.28538918495178223 -0.084173202514648438 0.60976600646972656
-0.23163390159606934 -0.12223386764526367 0.60326600074768066
-0.16786289215087891 -0.10083198547363281 0.64950704574584961
-0.21664690971374512 -0.058312892913818359 0.6536867618560791
-0.28079080581665039 -0.053058624267578125 0.62902200222015381
-0.29139947891235352 -0.1123199462890625 0.58645975589752197
-0.1792299747467041 -0.13247156143188477 0.61810815334320068
-0.15492153167724609 -0.063680648803710938 0.67847633361816406
0.56599211692810059 -0.047964572906494141 0.53485369682312012
0.57553577423095703 -0.074528694152832031 0.51288795471191406
0.60844254493713379 -0.0231475830078125 0.52284550666809082
0.55298233032226562 -0.019610881805419922 0.55470359325408936
0.51968741416931152 -0.068308353424072266 0.54799056053161621
0.52982378005981445 -0.095864772796630859 0.52439427375793457
0.61803460121154785 -0.048901081085205078 0.50170552730560303
0.59471535682678223 0.00384521484375 0.54183101654052734
0.50682377815246582 -0.038392543792724609 0.56941592693328857
-0.4694674015045166 -0.044076442718505859 0.547538161277771
-0.52585721015930176 -0.024228572845458984 0.52399373054504395
-0.47156023979187012 -0.06775665283203125 0.5325009822845459
-0.41054129600524902 -0.060995101928710938 0.56851375102996826
-0.46534538269042969 -0.018950939178466797 0.55961942672729492
-0.52113604545593262 -0.00046443939208984375 0.53521633148193359
-0.52756905555725098 -0.047023773193359375 0.5099492073059082
-0.41367149353027344 -0.085827827453613281 0.55148231983184814
-0.40650153160095215 -0.034211158752441406 0.58241832256317139
0.70949363708496094 0.075994968414306641 0.483489990234375
0.72481489181518555 0.052877426147460938 0.45996403694152832
0.73061215877532959 0.11915779113769531 0.4739377498626709
0.68922281265258789 0.099130630493164062 0.50520849227905273
0.6810612678527832 0.038514614105224609 0.49656820297241211
0.69369983673095703 0.014250278472900391 0.47437930107116699
0.74861812591552734 0.097942829132080078 0.44935035705566406
0.70776200294494629 0.1399383544921875 0.49683105945587158
0.66352319717407227 0.063161849975585938 0.51675498485565186
-0.67821717262268066 0.049730300903320312 0.42519712448120117
-0.72095632553100586 0.081276893615722656 0.3880995512008667
-0.68475174903869629 0.028807640075683594 0.40699517726898193
-0.63077664375305176 0.022358894348144531 0.46220612525939941
-0.66702580451965332 0.07071685791015625 0.44168174266815186
-0.70666193962097168 0.10075664520263672 0.40775132179260254
-0.73035979270935059 0.061563968658447266 0.36720609664916992
-0.63478279113769531 0.0007419586181640625 0.44639897346496582
-0.6224520206451416 0.044281959533691406 0.47580015659332275
0.7376633882522583 0.28587007522583008 0.48684775829315186
0.75866985321044922 0.27751874923706055 0.46556448936462402
0.72325682640075684 0.3425750732421875 0.50060606002807617
0.71266436576843262 0.29141044616699219 0.50541996955871582
0.74470829963684082 0.22624349594116211 0.47581374645233154
0.7658003568649292 0.21264362335205078 0.45241212844848633
0.74322056770324707 0.33931589126586914 0.48145675659179688
0.6996757984161377 0.34210777282714844 0.51637494564056396
0.71928596496582031 0.23796606063842773 0.49707651138305664
-0.81103777885437012 0.20700407028198242 0.3033679723739624
-0.82541465759277344 0.25127506256103516 0.28740715980529785
-0.82697033882141113 0.19658851623535156 0.27726912498474121
-0.78828811645507812 0.16131210327148438 0.32559370994567871
-0.78938889503479004 0.21546554565429688 0.32874882221221924
-0.8029944896697998 0.25515031814575195 0.3133920431137085
-0.84186720848083496 0.24472856521606445 0.26051771640777588
-0.8027186393737793 0.14700031280517578 0.30060219764709473
-0.76844167709350586 0.17437076568603516 0.34988808631896973
0.64812326431274414 0.45230865478515625 0.53142964839935303
0.6605992317199707 0.45636844635009766 0.51257920265197754
0.61056613922119141 0.47380924224853516 0.53580176830291748
0.63324236869812012 0.44325923919677734 0.54529643058776855
0.67845535278320312 0.42620515823364258 0.52427411079406738
0.69383001327514648 0.42935466766357422 0.50646066665649414
0.62048172950744629 0.47783660888671875 0.51546144485473633
0.59877324104309082 0.46468210220336914 0.55089056491851807
0.66024112701416016 0.41825580596923828 0.53751873970031738
-0.81180357933044434 0.34391117095947266 0.27705800533294678
-0.78967475891113281 0.36583948135375977 0.28224551677703857
-0.82257461547851562 0.34354734420776367 0.24769496917724609
-0.82575058937072754 0.31989908218383789 0.27502906322479248
-0.79517602920532227 0.34049129486083984 0.30428230762481689
-0.77628922462463379 0.36199045181274414 0.30986690521240234
-0.79750680923461914 0.36572980880737305 0.2520449161529541
-0.83939409255981445 0.31855154037475586 0.24656963348388672
-0.80605435371398926 0.317657470703125 0.30182278156280518
0.44532084465026855 0.54908943176269531 0.53468430042266846
0.45392036437988281 0.55155324935913086 0.51154673099517822
0.38036346435546875 0.57936859130859375 0.53026652336120605
0.43732500076293945 0.54055643081665039 0.55263197422027588
0.50794172286987305 0.52058601379394531 0.53720378875732422
0.51597142219543457 0.52350139617919922 0.51457405090332031
0.3896641731262207 0.58177280426025391 0.50674521923065186
0.37267136573791504 0.57034063339233398 0.54882752895355225
0.49955368041992188 0.5120854377746582 0.55449533462524414
-0.68535256385803223 0.4497075080871582 0.30074548721313477
-0.64563989639282227 0.48395252227783203 0.30544495582580566
-0.68964648246765137 0.44868183135986328 0.26930427551269531
-0.72453498840332031 0.41766071319580078 0.29510903358459473
-0.67673110961914062 0.44558811187744141 0.32918894290924072
-0.63722681999206543 0.47919607162475586 0.33417034149169922
-0.65011239051818848 0.48294496536254883 0.27382361888885498
-0.7290196418762207 0.41695928573608398 0.26388108730316162
-0.71529912948608398 0.41375446319580078 0.32332539558410645
0.20640444755554199 0.66789913177490234 0.50824213027954102
0.21299600601196289 0.67394065856933594 0.48248982429504395
0.15882039070129395 0.69014549255371094 0.50017499923706055
0.2040097713470459 0.65355062484741211 0.52977895736694336
0.25905299186706543 0.64051437377929688 0.51651740074157715
0.26751255989074707 0.64480304718017578 0.4917299747467041
0.16302800178527832 0.69793033599853516 0.47340691089630127
0.1594698429107666 0.67364692687988281 0.52293646335601807
0.25403165817260742 0.62842845916748047 0.53685343265533447
-0.54760026931762695 0.58509159088134766 0.31272733211517334
-0.52046704292297363 0.61226463317871094 0.31619024276733398
-0.55072426795959473 0.58813953399658203 0.27983224391937256
-0.57625055313110352 0.55333948135375977 0.31081223487854004
-0.54118776321411133 0.57442760467529297 0.34304308891296387
-0.51553177833557129 0.59907674789428711 0.34683620929718018
-0.5222480297088623 0.61735200881958008 0.28298044204711914
-0.58032631874084473 0.55443334579467773 0.27842557430267334
-0.56874585151672363 0.54520511627197266 0.3405526876449585
0.045183181762695312 0.70562171936035156 0.48547506332397461
0.042243003845214844 0.71492099761962891 0.45664501190185547
0.017884016036987305 0.69119024276733398 0.48584175109863281
0.054313421249389648 0.68752861022949219 0.51069772243499756
0.078081130981445312 0.7101902961730957 0.48809444904327393
0.07728266716003418 0.71973609924316406 0.45971441268920898
0.013227939605712891 0.69969415664672852 0.45682692527770996
0.028917551040649414 0.67431068420410156 0.51126718521118164
0.084740161895751953 0.69166660308837891 0.51278257369995117
-0.43127894401550293 0.6480712890625 0.34941208362579346
-0.39728832244873047 0.64163064956665039 0.3686985969543457
-0.4277033805847168 0.65630626678466797 0.31801939010620117
-0.46320104598999023 0.64498281478881836 0.33396077156066895
-0.4325861930847168 0.63126659393310547 0.37774789333343506
-0.40075302124023438 0.62527751922607422 0.39540970325469971
-0.39204645156860352 0.64969253540039062 0.3385922908782959
-0.46149039268493652 0.65283012390136719 0.30149579048156738
-0.4622492790222168 0.62853717803955078 0.3636314868927002
-0.028425693511962891 0.5921931266784668 0.50781691074371338
-0.034555912017822266 0.59647512435913086 0.47985672950744629
-0.036550521850585938 0.55087566375732422 0.51830291748046875
-0.016301155090332031 0.58195638656616211 0.53170228004455566
-0.018079280853271484 0.63230514526367188 0.49767851829528809
-0.024302959442138672 0.63808774948120117 0.46913802623748779
-0.042254924774169922 0.55389976501464844 0.49101006984710693
-0.025128364562988281 0.54277276992797852 0.54131126403808594
-0.0056014060974121094 0.61963033676147461 0.52236831188201904
-0.28509235382080078 0.56506919860839844 0.44379234313964844
-0.24750304222106934 0.5300445556640625 0.46916651725769043
-0.2777714729309082 0.56990528106689453 0.41710102558135986
-0.32348275184631348 0.5982203483581543 0.41716194152832031
-0.29248142242431641 0.55399322509765625 0.46575307846069336
-0.25516057014465332 0.52098846435546875 0.4899519681930542
-0.2405240535736084 0.5336613655090332 0.44325542449951172
-0.31629562377929688 0.604400634765625 0.38950610160827637
-0.33008909225463867 0.5849604606628418 0.4405515193939209
-0.067372322082519531 0.45953226089477539 0.53562498092651367
-0.071320772171020508 0.46261072158813477 0.50974404811859131
-0.082992076873779297 0.44420146942138672 0.53584647178649902
-0.05823516845703125 0.45190286636352539 0.55737590789794922
-0.05472564697265625 0.48236942291259766 0.53292012214660645
-0.059346914291381836 0.48465681076049805 0.50678384304046631
-0.085902214050292969 0.44881677627563477 0.5098196268081665
-0.075522184371948242 0.43302726745605469 0.55865478515625
-0.044690608978271484 0.47606134414672852 0.55459296703338623
-0.1511533260345459 0.45270252227783203 0.51955246925354004
-0.12494802474975586 0.44088077545166016 0.52805006504058838
-0.14766621589660645 0.45616912841796875 0.49459326267242432
-0.1800541877746582 0.47162532806396484 0.50759708881378174
-0.1557004451751709 0.44429302215576172 0.53946876525878906
-0.12508654594421387 0.42928218841552734 0.54983639717102051
-0.12386560440063477 0.44571113586425781 0.50252616405487061
-0.1749262809753418 0.47440671920776367 0.48264527320861816
-0.18673205375671387 0.46436405181884766 0.52707231044769287
0.042950153350830078 0.52563381195068359 0.55591082572937012
0.065034866333007812 0.50421714782714844 0.55334663391113281
0.056307315826416016 0.55010461807250977 0.54958140850067139
0.020880222320556641 0.54716396331787109 0.55547869205474854
0.031344175338745117 0.49874258041381836 0.56266987323760986
0.052744865417480469 0.48206090927124023 0.55928504467010498
0.079272747039794922 0.52374267578125 0.54796743392944336
0.033191204071044922 0.57673549652099609 0.54812169075012207
0.010187625885009766 0.51544046401977539 0.56315135955810547
-0.30781769752502441 0.4951329231262207 0.48412168025970459
-0.33846402168273926 0.51430511474609375 0.46529364585876465
-0.31125569343566895 0.47303867340087891 0.48000574111938477
-0.27685260772705078 0.47331380844116211 0.50285995006561279
-0.30396461486816406 0.51742696762084961 0.48543751239776611
-0.33757209777832031 0.54115009307861328 0.46426427364349365
-0.33880710601806641 0.48782110214233398 0.4634559154510498
