# XYZ point cloud file
0.35080920904861657 -0.52775109464827441 0.8601281930934972
-0.87289737747134843 -0.14575428149454117 -0.28559376758044452
0.84341783021645611 0.039273779907306849 -0.27596785419394498
0.22630948804524476 -0.53815050485281102 0.89413525397405991
-0.16085726112090559 0.47013762595502229 0.50511429234447203
0.93038453133891452 -0.053439845064184421 -0.24233403913290008
-0.32218174061946225 0.41681640177253554 0.6486529875438567
-0.51066038847190964 0.7391818816771778 0.32175393246625017
-0.030035002917393028 0.86100906150632417 0.52572169037421901
0.22033560792425777 0.32542228937232398 0.60924487250292403
-0.56641588194398795 0.48162621293361108 0.42589959348850615
1.0670482684153286 0.2744394501307168 -0.33580226735850127
-0.30614895717339685 0.47681929289216241 0.63455454862967597
-0.56265824671161635 0.56868366214894772 0.35278225595845569
1.0952634425385108 -0.041202097326513698 -0.30466228856766353
0.079877934633450609 0.64045115071500858 0.52573691834450553
-0.69397377228725299 -0.052864355885686276 -0.38380655427291765
-0.9925474137721737 -0.1117976608454061 -0.45737601351109936
-0.33310901519452041 0.46332127900153663 0.6362801216675571
0.395892262868486 -0.55111107716327368 0.61313281724219149
-0.043077054118656699 0.087053017640163599 0.74036896775981109
0.075123212474530243 -0.57658516002973581 0.87568835486329855
-0.8307001427411751 0.21636513785866462 -0.34410619799587039
0.48439456068862219 0.4388959624289801 0.50070483349048622
-0.33747481574913318 0.26315779047388288 0.56002815796572003
0.075734262228457361 0.47777444907585531 0.62611431307375076
-0.76329022193596074 -0.063389364638674284 -0.3057336287346617
0.39575748932867927 0.59658971362652569 0.46236866053297199
-0.84835241037235387 0.18384262735322432 -0.33879067908389482
-0.086539861485632308 0.059486693812157654 0.69049712626370274
-0.35441893777368638 -0.083050769568967286 -0.71457567642485831
0.73243287447375027 0.008821499932131438 -0.068352449095540724
0.41454468885338369 0.72561772634183308 0.50061825605265042
-0.090271938979639144 0.80591171689205643 0.4872646076026359
0.0020280487708732586 0.82588097149115747 0.55949154319153571
-0.26569490458892342 0.43611887090720636 0.6290778022342125
-0.14589796748867268 -0.23340672412743757 0.19380976818090501
-0.51852295401381632 0.34918738080832501 0.47224550435372814
-0.50205591777555214 0.5816711679234019 0.48906092579034199
-0.2712212150090727 0.44021681065415619 0.63433901492293465
-0.55450159106141417 0.59239930706004973 0.46818994367927846
0.30613028229953598 -0.48746473296696458 0.57979135516849434
0.10489415333083452 0.1515593762138856 0.78296670753673192
-0.022993881087575607 0.12405164064694851 0.78504818911726781
-0.039327911626611645 0.29861270397217021 0.66621424204519952
0.71694957746805144 0.40159573420951222 -0.13099315159696312
-0.87481639087891683 0.15244361461185729 -0.36709479549643209
0.4257806702037803 0.30517096499919072 0.54602314334705238
0.078318700563595245 -0.46890072552920925 0.88951104259886149
0.35635275593919435 -0.19613748229814387 0.69769054767368344
0.14485978009288991 -0.46150787408224803 0.89320943999432534
-0.28803714659116286 0.4922270479008235 0.62624825405469497
0.48536030444551481 0.68442248001587291 0.55709217591722382
0.12534507597966771 0.45307199961617028 0.63047045859626305
-0.33186809424516328 0.40310487035260412 0.64639087218091706
-0.70817120807146838 0.4111980110509772 0.41017505225879347
0.13179831811066944 0.044973776494571904 0.77938272772481154
0.070348679213400711 0.69173469501523766 0.5635883112502178
-0.40819964186173552 -0.078827124879361499 -0.6804512981339883
-0.82537634893530365 0.12759810848156672 -0.33425936292646163
0.68313133251697433 -0.11275935301036544 -0.34079189570029866
0.16208039635691152 -0.4934144363508417 0.89364231525790849
-0.12946246433835995 -0.15721918709781857 0.64303528024268219
0.10088566190638515 0.70178612242954763 0.55968578857467177
0.0075183468508699391 0.50657920414278568 0.6100531331986998
0.1306840124771651 0.20414015672848551 0.72058256461468773
-0.015522514094557627 0.17586152955418299 0.75276218258286898
0.33405041013424119 0.73027170168914912 0.57163631351045341
0.9078195664957176 -0.0081286284120700714 -0.27325641330526063
-0.017203214069456907 0.17808623419652436 0.7451782451165605
0.4881913241225857 0.37814527101692708 0.58291474779102126
0.28293520090422519 -0.48299402190072938 0.87695274170076609
-0.19491874188136582 0.40282220062430651 0.6244074188583264
0.0061451206652605173 0.20272746360260774 0.70266991207257545
0.87479907422291414 -0.065386806185636637 -0.12196115040098832
0.27947233917902192 -0.3619781067704011 0.86651107435257591
0.95336092125173533 -0.1112364381639166 -0.31637500087697301
0.22630480190000068 -0.60276931411369761 0.65054837625244355
0.16377122322896787 -0.27095156833024259 0.85815724038250041
-0.47694316341645404 0.56231058950593749 0.50318459994006348
0.61339288056232477 0.38337912933675433 -0.41864256312503478
0.095726196969019961 0.54166228861177013 0.60989627681252978
0.23190818833669669 0.1190652636371099 0.62040085894058006
-0.54252097209627603 0.58072119763087038 0.46909347267265034
0.35577448276991674 0.3163844356803871 0.62897610557535177
0.071183288934882238 0.25055557671424911 0.69563273874218989
-0.23641983823437074 0.68866441054712935 0.49320425693901804
-0.19338233317941311 0.090969874620519864 0.56059570805453607
0.12394018645392824 -0.64326090582512396 0.83628259440673292
-0.26578431555606952 0.16289034362326538 0.60189125587836489
0.37390537460557272 -0.42917182351707517 0.58336402423417644
0.0098694962382923634 -0.51435802190650026 0.85698790598757713
0.2839417836491176 0.65812330875257485 0.56944215075008575
0.88714529622968663 0.31516621124302313 -0.27808111725218243
0.01336262621792339 0.75262260095723876 0.56821616629278804
0.2078044095628071 -0.34412382477135051 -0.42504915888454109
0.35329308141786653 0.07924955265066691 0.46572393289099168
-1.1569929055940307 0.092169052449820654 -0.64956165466882654
-0.45662193475111001 0.49240451565200338 0.57314341323089169
-0.041968334975121424 0.14593475111143484 0.72829255617249444
-0.092898458877500811 0.62055892592007078 0.59392553016298644
-0.59892542983976171 0.58122202578286464 0.18501102610462317
-0.67911651278022767 -0.0097841201146757761 -0.47431083693192333
-0.39327433050202232 0.78589572404392349 0.46035741052667012
-0.81162066612026451 0.44196838744924349 -0.48489812426473344
0.10371670748627526 0.79528015687812115 0.56568644984571792
-0.9636635364243904 0.031156975275698162 -0.47746834740898159
1.1621669593519555 0.0034295559476031912 -0.31061336550329743
0.11267467585356528 0.16938561369105676 0.76905726255617379
0.22183193802881718 -0.41181876398532546 0.88445658012314388
0.53941226199011005 0.58528428038857117 0.12587902980427845
-0.93716523752720859 -0.02508245743274351 -0.44628809327171703
-0.77647558006718875 0.24486282149546135 -0.025154646915735768
0.15943951004155132 0.11412036733289321 0.7718511059052533
-0.72698988602460513 0.54546796326656066 0.30736214929747874
0.62506795897622802 0.58278534643823265 0.4992447385372949
0.27648752651662667 0.75158125417853894 0.57050955586338148
0.32800862681797116 -0.29552321450024399 0.55087502303392677
0.060799232593982344 0.1629433427821505 0.75084920107713504
0.2233376757824137 -0.65234459879647799 0.71689156874544135
-0.53882180724710516 0.38657098378063459 0.51387169704228075
0.19305818674414299 -0.43177760616403527 0.54569490132666632
1.156057472820208 0.0022390916363268509 -0.33051295695274518
-0.5493634452545697 0.38239301687024208 0.50721321029869637
0.048246527647058057 0.59864074635651532 0.59331596868380299
0.82511899739976147 0.053389637883704655 -0.26568852720330138
-0.65894873807266885 0.10778249334988743 0.074919135307887963
1.0313870818741775 0.34942436587809222 -0.34144126036153866
0.29281775733903226 -0.48648244476347013 0.88500484935445245
-0.084643133990137231 0.01943058373084483 0.69800294588158573
-0.81526237458059159 0.34706590829902684 -0.56060522933783075
0.37574335795542768 -0.24704204343657699 0.71010483582413997
0.15656095973552753 -0.49225111432239821 0.8649362391909361
0.079187190515992434 0.15627836405133166 0.77786707116184362
-0.071484699990252309 -0.45178472735882469 0.66425766294210264
1.0850169565109047 0.1049113584364525 -0.33955826682771884
0.27676645137445788 -0.04331657896648311 0.68390548152364694
0.23712705829784109 -0.41169119911122154 0.87656337806948725
0.74920293811293925 0.16761160942522979 0.07287835802570708
-0.17396244382942805 0.41016179760596572 0.56565282054764365
0.29704887752799869 -0.091033611881162102 0.56425930372297906
0.46636018554209979 0.70705834097693332 0.50110504835496172
-0.35456190844234858 0.58802543459739143 0.53086841597707002
-0.43224058854402192 0.23166258970642595 -0.81882412048415398
0.83630486258286862 -0.065316019119341373 -0.19354853995568622
0.17588965959123293 0.018426729859438051 0.75711751175088571
0.32948207152040632 -0.45249182844154179 0.8666098251433203
-0.0010173311137096075 0.86614178492129978 0.52582214426964757
0.3547729952216776 0.57225476329668812 0.57433758536849
-0.36761960332577837 0.35527093787447361 0.60761559474171545
0.21547849389463258 -0.53338316406069897 0.89242179958386192
0.079089255002698478 0.58748631311036892 0.58989088079224805
-0.09415871196740544 0.77178923977944214 0.4948775159625427
0.41247391436001868 -0.41207852960599478 0.63453886321430897
-0.16332472150747779 0.027486499420444233 0.52010040338732599
-0.48929452754874747 0.39122328050743516 0.53191279891900534
-0.21948218314197199 0.066867963226482363 0.49740296379081927
-0.10112867593408637 -0.21077369294431891 0.73052263733989031
0.15334929683511422 -0.48872025497099036 0.8575751663171205
0.54030937677544078 0.59740890616835918 0.070500670144343136
0.11100138485174282 0.58465316749683449 0.60952926290357068
0.39630615310956374 -0.58448870643619211 0.81558060721420556
-1.0703638638417334 0.013448906139578831 -0.58686003592235281
-0.16297037692608929 0.43787441140747241 0.53713122942297309
-0.49434874544200191 0.52983385758360058 0.50444333141667252
-0.56357459840456881 0.2148975428477149 0.42738820568654878
-0.065551987100723519 0.16234208866460564 0.72309906182558947
0.042200051589983856 0.15325611420963137 0.7703595710659954
-0.78919498566207835 0.2960233079935195 -0.016548819123776148
0.85009363996237219 -0.044291502207990163 -0.22456333479939561
0.16247341590607522 0.06274972601803519 -0.81225644236424888
0.1825516397620639 0.41553158692545544 0.64724811319649156
0.46006681536537508 -0.57519278963562215 0.75558532830742209
0.15777433381005568 0.39780747647417947 0.628731853462555
0.86501713716452033 0.30665447308897464 -0.24544995785168888
0.051210041410350682 -0.3734780842378278 0.87369833879547354
-0.29384594047615464 0.64401816271813273 0.54448858521857169
0.67183750188697378 0.39271369339351114 0.43451355540956227
0.17772880487789333 0.32598903142133651 0.59057540145161047
1.0590248656519401 -0.048455286948136944 -0.3196730875364695
0.053825931116304293 0.15310748082626358 0.74753119165139914
-0.33606097677481062 0.41418111790517287 0.64548778327495393
-0.19044843164150471 -0.021455143351874817 0.45274560598971636
0.67008034007298045 0.35631911531396732 -0.36741852527506769
-0.73061001737688103 0.55204876701749805 0.33278399359867095
1.1119137081827832 0.096005457407637884 -0.35124369839896907
-0.050432145068296963 -0.53843688552823465 0.69227581007260186
-0.73033837670159119 0.104631775537948 -0.17673253385048682
-0.82556907591922268 0.38387091343076074 -0.51746503243665209
-0.83281412510852748 0.17750189236068703 -0.32386001210590232
-0.22552430091556874 0.47473919084825456 0.59507363644947331
-0.12314171781850169 -0.12761580788101323 0.51945965644372816
-0.35429266860347108 0.55625182568984499 0.57898607840886163
-0.72660165380986363 0.011844170514350605 -0.29322893813923523
0.16058340426239281 -0.4973336570524407 0.85541846572946056
0.74056299173127971 0.032803106995051845 -0.089221243360479985
0.57426479759322513 0.31946821590945174 0.53193534919043683
0.31536364189950361 -0.40567403327162932 0.86381478223242736
-0.72038594714922199 0.53713235984904806 0.28054308090693025
0.30142649074786521 0.65095958524166342 0.47343061777221118
-0.51416970790186234 0.10243545191278169 0.26656919334057116
-0.79175142645557761 0.49334001709291053 -0.096612831060846727
-0.43399250714588833 0.58857069664730588 0.51172479498104728
0.006774866399305024 0.1739469291413509 0.75550001038169778
0.64335355836209618 0.53030069799907187 0.48875939551353342
0.69569395491171582 -0.0026908243368750639 0.032096270695561202
-0.28290674471847166 0.49222922461221597 0.6232559548102623
-0.82843478576600593 -0.075400770690499996 -0.32214660842651721
-0.60445299421731979 0.45396502354070334 0.46606302394466592
0.14461329209371065 -0.013308222435887807 0.77628366182862152
1.1776334118666572 0.027915863963617227 -0.35392892128248343
0.15813264356607104 0.10306620612375061 0.78206495595332326
-0.88603242855425846 0.055685400528195927 -0.42767610556796054
-1.1759994187827481 0.043383805310263757 -0.61904824326410868
-1.1263679117908028 0.074697795861038419 -0.67640591483763979
-0.65801991233203494 0.57406999857868612 0.056279641061468766
0.24140808321431995 0.034609683874855079 0.55372092197775569
1.1402438104790682 0.20415592215044542 -0.3903311752517542
0.42107022759119728 -0.61808427701475743 0.7538464916882428
-0.77075931240575901 0.18929303415310894 -0.10354985108769732
1.0414455044347577 0.092713921891153017 -0.32666570784014004
-0.088277464597470434 0.53101437402296625 -0.66360672523929498
-0.54376688888267855 0.37938392116441877 0.45189065712180776
-0.60064530644390146 0.41781299495288815 0.47437758886950654
-0.22810660495726087 0.41838138231767097 0.60690899723060854
-0.31351923884246591 0.29038796362822739 0.61568030438576837
-0.30446032894745012 0.52328935996780146 0.60774865341780648
0.43874522416621553 -0.22556471190770466 -0.12407544650169688
-0.41070356583144685 0.610086640149893 0.45594462215646336
0.92357604188411679 0.0026709771184267872 -0.27772312199381455
-1.0237269504370794 0.13129925584018665 -0.51385124343252908
0.19287812556629147 0.6223309558836041 0.63138487943113342
-1.1644631104602667 -0.045269717451251523 -0.66958624815176027
0.95001885229027194 -0.15026032482233731 -0.24119560441449517
0.23442158659532319 0.37814444302315842 0.65455685010673648
0.66647077842368718 0.41925697428227471 -0.29025571053395627
0.28375324655279122 0.087079108508813174 0.52681475358393914
0.19427276079973055 0.675224651474295 0.57444465230484765
-0.4317895117032744 0.5891722686631633 0.49172618742911745
-0.096110662319851992 0.73675270226977396 0.50285258236504937
-0.64032868432931256 0.41912849360959603 0.45543345279436753
0.57338729585229342 0.54828659861003759 0.23214454320594946
0.0073537771220877346 0.5690688335555687 0.59701292840348064
-0.54826233935770396 0.27168149489754256 0.49713484681716347
-0.75871492625919301 0.14430293494294766 -0.57180256566970122
0.16538228691016044 -0.40739868256661227 0.89323099178353305
0.34215238776128998 0.38618203634009918 0.6395315639799799
1.0776460271898403 0.12436776034112729 -0.33817798679731847
-0.52357852302359542 0.36465883067988392 0.52263647746457398
-1.1019388636243133 0.09049783923609489 -0.57075814573684003
-0.82872576170082546 -0.12534593755839563 -0.23038886791100444
1.0891575980733503 0.21039843586950724 -0.38628046251270032
0.207817448790663 -0.37798906494534279 0.52581191370956049
-0.13537446822296095 -0.069236566054643234 0.57438911716811614
-0.99826340054449325 0.084585568660101362 -0.60590764143809217
-0.36605966102778265 -0.193605113873907 -0.51531707088497081
0.27482116278967439 -0.10393258475404377 0.42452072310915367
0.83112813551357512 -0.060089416203972235 -0.13610150957457856
0.14733415660280258 0.43362244991755894 0.64027166566521654
-0.37376066941098163 0.34438009271604964 0.59611628540344652
0.57741792849112561 0.10468084647459763 0.28595522856742006
0.82612490338511657 0.27919455561377715 -0.22456714967722835
0.44164578723041203 -0.10972496473136273 0.13422892409654708
-0.57630150789477996 0.72703699862214854 -0.22634355691762797
-0.86300172208049797 -0.014431073286630625 -0.38856167057005919
-0.86632501280122898 0.11008800728097112 -0.38746846589378903
0.060986716012613629 0.61938604864899327 0.53276004173297054
0.10508563529149328 0.6564227753845433 0.52035098912458233
0.38834534498058759 -0.40778143562250779 0.81663903237666391
0.028932296035429905 0.032530468400254975 0.77694323423243494
0.022477254675752567 0.5860426708172386 0.59323182135340957
1.2605043366966184 0.18335968148692094 -0.34800882817389489
0.16088615294939501 -0.49316576585055083 0.8844295217217315
-0.96438618605913473 -0.11940011808881845 -0.43929076166451919
1.0228426561495785 0.12550128032133756 -0.32600680421630912
0.78686793447412007 0.033726446697351697 -0.22769135277741315
0.14129136660914865 0.51093444613364758 0.65277205562399887
0.77175087194960112 0.037435753088138402 -0.19383861506668554
-0.088815488315843183 0.70169601860296771 0.55663114804328329
0.089505562488291002 0.61155728702582524 0.57241117652632933
-1.02312437539792 0.18462700747588823 -0.5315013620593021
0.10859700533579164 0.56494989359576442 0.61561115219412166
-0.0062716425647821872 -0.62301080784476293 0.72986042941543716
0.24515361154222037 0.031237910408901115 0.60114023740055389
0.28141719478596028 0.090427255870030976 0.54010844885489906
0.25653548939538862 -0.5333387008814463 0.88974084172103152
-0.80782043229353362 0.1645883045365899 -0.28966424622372289
0.11108597597002356 0.063266699688423245 0.79691126105908605
0.11265174539656564 -0.61561993206742605 0.86424863442365929
-0.21686404957267702 0.42591313434409761 0.61381206612366901
-0.80511335088408198 0.13443752361235806 -0.47338873065177767
-0.69158142725545702 -0.10261369016584121 -0.11750669421620064
-0.69867419297231992 0.65370003530661958 -0.26912016807699812
0.047594017323876914 0.14906167036644424 0.73636056836011132
0.0924149808038357 -0.4232864501589253 0.89105896911077265
0.23972680806164415 -0.30980238033686236 0.86048382338979823
-0.79850090973086152 0.0031726554318542988 -0.36283965314640998
0.56396010633956872 0.23463613194537869 0.48637307653900219
1.2217694294955788 0.17064969282402265 -0.33259479274906001
0.17670257597306427 0.11294385288659381 0.72239003709371197
-0.44594324005093577 0.46254723712801527 0.58709903685821407
0.20851804762601933 0.60441171705816554 -0.47776341680523471
-0.6151906667900966 0.23031488118332488 0.34077787747304056
0.7919304894105974 0.13150458153697686 -0.35753828543190203
-0.72274319299994705 0.55683304654141264 0.383551215686047
1.026028112838969 0.16380768541357371 -0.34159369705325915
-0.27049602348191115 0.56329902985687053 0.56395608939105202
0.91023599324157156 0.059930450233979027 -0.28755158382681989
-0.24093369960788347 0.48710660541065698 0.57770146213792462
-0.90586570892169394 -0.025165708731818892 -0.51278122027785766
0.38909516069733474 0.7093785068385845 0.57142701195803447
0.24631605410364465 0.062209995657299011 0.53633794541603041
0.29317352763453175 0.26887461825952741 0.65027121022307233
-0.71229212962699662 0.52782916797831048 0.25126699820554554
0.51381782640101337 0.49596561611199652 0.56152593930896799
-0.7047908018926119 -0.05004612590471913 -0.18152696282652414
-0.35165157122372093 0.7460258765050205 0.51603654716727965
-0.14635715072845623 0.0050452818261819132 0.53776680227343032
0.76280134443596026 0.22850649151858216 0.035633270783149928
0.34950531484713787 -0.56321326020509854 0.85199215118124361
0.24091291634296885 -0.62993215439681016 0.68075746887184962
-0.74929259634085765 -0.066811265050250146 -0.23407181000438015
0.1910231670819651 0.68265525674408156 0.56822446032364038
-0.24645308882380901 0.57890940345315833 0.56209466407563147
0.4416758782846173 0.55458283144158393 0.56918460399738313
0.36830508960389774 -0.62224464547445946 0.79592684284730231
1.1457460237734494 0.29544009390575132 -0.42424738100090664
0.097066420126121988 0.47038211001226182 0.63293916508485726
-0.95422721116678688 0.016434690841208077 -0.46618960981309732
-0.21075731306772072 -0.26341363577559518 -0.54477981820511889
1.1018565099969801 0.25046679808825223 -0.35522934960627683
0.028169084242436471 0.0517981015730542 0.79103216638914242
-0.53748515535745156 0.28822443412238163 0.50979689403734385
0.73212603005502497 0.048405977812703949 -0.40923338519885988
-1.1440283753804015 0.10836070443519885 -0.60751877643359009
-0.27653110839539163 0.61805824481257154 0.54802751905918123
0.35787272776057599 0.74680698676444024 0.49942268421517788
-0.41746717375726217 0.37319103817112831 0.58570070753262193
0.78981412600344414 0.084690432595829535 -0.20162248894810419
-0.092453772844933502 -0.21966025358418273 0.52684880179745441
-0.73885286885743118 0.027512870435737913 -0.31724555930598131
0.1725873133711564 -0.17195833713711828 0.82840562521005245
-1.0823661481821154 -0.062100602066082811 -0.56601193813655915
-0.27449460053838548 0.47485422764433194 0.62660106121853554
0.40832964648332815 -0.59756625595886792 0.79675789866348845
0.83897434952193017 -0.098044425057079998 -0.096035600506491736
0.80328225138179965 0.0041697741007036271 -0.23856719853441621
0.3224173623473463 -0.14886670693296145 0.57934769880710268
0.99301963216540412 0.22159554201308662 -0.33118926018309036
0.16584198630266123 0.68078529733312321 0.46773153768754838
-0.39396991864088005 0.7879281449018487 0.43482399664083538
-0.26540946182411274 0.80162365667087743 -0.0059481546467852198
0.21792769329602124 0.67638814736396702 0.57038629023518883
0.64255942334177485 0.48322275444554919 0.25237873433820734
-0.074004210368529 -0.22243618348021199 -0.70631498304985874
-0.072263366486444269 -0.38865333931409607 0.61683226029872307
-0.7688452595389117 0.55013246906842239 -0.17911334852130079
-0.80067813511110408 0.30448608585286596 -0.59265919174870829
-0.33464924227979553 0.54909684489658828 0.58061223955665042
-0.24194088765971289 0.67320293255436026 0.44183492390149137
-0.74301222418963198 0.023372910754051901 -0.32992287031903489
-0.52044968274861825 0.53950611476276178 0.49282386899140329
0.77656831409442173 0.17378266099045314 -0.34146248375856025
-0.41290858386725504 -0.12394200791336907 -0.60672057722642059
0.1970936149444098 0.26724748238365903 0.68489935445813055
-0.12567166610911973 -0.20998706896612607 0.29363452807867274
0.27491893598538519 -0.11048609786643171 0.49281423334490482
-0.23040470752083642 0.5124420326334489 0.555126432810368
1.0247471409414131 0.10431773275637601 -0.32345525734183278
-0.1431134329291408 -0.031305901506179179 0.53194991479599141
0.50942323863688754 0.58751445265421998 0.55460167273781646
-0.24083013207232673 0.51794927364859689 0.58243822641260623
-0.45745113807056703 0.72726131813961992 0.49451722434228529
0.66028398202288074 0.24568358320262806 0.30309079168613007
0.25310662822991592 0.6140764092463975 0.62071392931979208
-0.33187984996920705 0.34939295829923855 0.60556799762541891
-0.79749239907498004 -0.032909700434880396 -0.34297996682589416
0.32888946824853371 -0.2202157461034453 0.56152322053467296
0.12169072380796098 0.5830835318797023 0.62093891076043217
-0.38340037387324277 0.28048497213098056 0.58925898194192605
-0.73131580531025042 0.14373186261588788 -0.61023911573939982
1.0934277718857546 -0.044390623207807511 -0.26701986107186881
0.91734685518500658 0.32561792799513611 -0.29378050116867049
-0.39698683870866702 0.327235153007428 0.59326099228443718
0.43120171541073837 -0.50713944491301177 0.80084648834142502
-0.55553591213694475 0.25354163740745683 0.48292638478268302
-0.55136032180613936 0.48429994164350365 0.45022391881436574
-0.49588909012691906 0.37079784024194229 0.51182245658155479
-0.1650734255084092 0.38467084785763417 0.62697563599651263
-0.27178842747524068 0.71487425388980608 0.48035146278916319
0.46310910238690561 0.4700080358395744 0.58382458692063288
0.2987342742469925 0.58862954347896279 0.61195890867245017
0.68473854350679031 0.42465368926359748 0.18149319458678104
-0.61393495637923023 0.63824761071609259 0.44558059880109724
-0.36494845287959077 0.42182430898860712 0.63535068666159988
-0.59005583962690178 0.54078556971708958 0.45669504012287643
0.15753983873100519 0.11670561571243221 0.77861058728370347
0.0069201185916796248 0.1759324105522122 0.7482298897306725
0.56082838445276306 0.58001226971848174 0.54214261534539476
0.49528434540320831 0.69195310926621589 0.54271348426160326
-0.82504852712330767 -0.13741208324775922 -0.23488349138821718
0.83233536433402699 0.076900837210647222 -0.25736300703699477
-0.064215015387584229 0.70686686865432957 0.29638113443234149
-0.52879100780969468 0.76440021844876505 0.34355474201766745
0.066015122626627898 -0.30180377737969177 0.46786710737235992
-0.85857661320772571 -0.0025146539718425842 -0.39067263987202949
0.14422293644094641 -0.46305601117934359 0.88430404331847456
-1.0050102774795295 0.050000075051264581 -0.52896499417796727
-0.28649174891839357 0.31212682982886086 0.62369489918372256
0.91525662157758481 -0.067735861896820015 -0.14190952740864304
-0.011176264734128916 0.32827187330490792 0.64953702501421429
-0.78973571940101439 0.13489469413792454 -0.28610034685933039
-0.040269390915935732 -0.27596808897135183 0.51231045491107352
0.036216638289691794 0.59403811000937079 0.52033251733904118
0.68268241823671527 -0.044100926858682055 -0.0081120183756131503
0.73510418994603022 0.0061148444468930307 -0.089805533474210275
0.13447197324099336 0.53111799103893231 0.65223944684981738
0.029304716043165424 -0.13334550908591281 0.81304162522782386
0.66820415136435662 0.46177158010443664 0.45904007755761178
0.2439417889147546 -0.57511505620902481 0.88196099611728918
-0.60883472141114781 0.10225145965061211 -0.70027233950894585
-0.75130738752179482 0.19520382428153216 -0.016829279108413697
0.90801012908464962 -0.059298601387464345 -0.1735396381712162
0.14530296714331037 0.62660654163154605 0.59567064022694005
-0.4650187579646643 0.32298113387029614 -0.7880187297979302
-0.05352457277635958 0.037103252909477913 0.73288950077309511
-0.74012039356608583 -0.0020091612226305067 -0.29521250870676896
0.97093884262033869 0.18367173399717318 -0.33043442777364884
0.21466755276858929 -0.50156374439268836 0.84505431951670174
-0.46109177879072738 0.53781295366812154 0.53566568405440185
0.28926749945917685 -0.44272562091281875 0.56219573133262823
-0.47490189789270265 0.50785771820709247 0.54080020472718093
-0.21150984679888696 0.43581050773618646 0.61377131868117019
-0.85392774222670931 0.15929104819980822 -0.34690312364495535
0.95448286875622812 0.24598796952440471 -0.28921768028190087
-0.55642245193842466 0.61679598168633731 0.27005247624024165
0.10366314441901192 0.6294493711381719 0.57954561834863627
-0.063385326041022649 -0.26284194956004603 0.52497408328042861
-0.76576579515076637 -0.016049597469981247 -0.33418105349845773
-0.52963059411413149 -0.010327555645184727 0.072940036782818574
-0.036587304138881116 -0.5090623600840769 0.81040393578279502
0.80018508803111676 0.24675929225731164 -0.26532078470782761
-0.42381766927375408 0.3359544250585289 0.58036684372798586
0.34156248516972787 0.62101792028555325 0.57282618500837623
0.24110453691921774 0.64603292518967237 0.55808063200811819
0.11377745802659445 -0.27344114089633731 -0.64706822091978555
0.011699762335715347 0.06123953823054773 0.78897585349799337
0.099547122065094751 -0.3056432648847931 0.46582689577160652
0.3712789396484808 -0.21433581919622835 0.061180632525067669
0.14045346149156734 -0.12579141079951306 0.81625999341055655
0.30027645540508896 -0.52543817373219825 0.88252900706758797
-0.15500443290064991 0.3563762605877776 0.54641231392037204
-0.44928602059015188 0.57006670374549362 -0.62149089673242308
0.24118470118936086 -0.51961427518024639 0.8545156963501932
0.12957826158389896 0.42127795523877598 0.62105111691080994
-0.93037934283907875 0.15967157696725787 -0.41703625796886534
-0.31620663339010591 0.43977509820214378 0.64589931158443692
0.35188311730716104 -0.36374871147681542 0.82978085163398374
1.0008311555626945 0.18118962558827434 -0.34495652029473378
0.20381081965757009 -0.42002027373405548 0.88158338523836455
0.24903946167662339 0.61017233938036775 0.63134954608083405
0.17659740485797748 0.59938403717848887 0.64652750821178229
-0.93257658955122569 0.066594765891764052 -0.46818936788562082
1.0518148273260886 0.14436873253644578 -0.33672943649775977
0.54111904146302581 0.67834988187560441 0.52110020192160311
0.38545546730239466 0.40199577255837848 0.62564165166060404
-0.81415614651055601 -0.039354732285880711 -0.34614562830709916
-1.1185258835540497 0.016821362926632943 -0.56185239585924052
-0.24000489586304896 0.46474916554845924 0.60075968518476675
0.00058494067661718496 0.075651616941469157 0.79173746184502836
0.20626683016922387 0.40354441675493691 0.65284624002526481
0.26402285957022387 -0.12885189469433245 0.78071385613862399
0.25524347538152692 -0.45575778154260727 0.83599466023689617
0.31425764873150408 0.72105768284860394 -0.12548402841686102
0.0725788903568092 0.71749149855435901 -0.35570514060548852
-0.50189606807189202 0.38015815650151641 0.53602901066184794
1.1326007381930454 -0.026931205464236996 -0.3478639069441094
1.0899979016435255 0.070692221839125935 -0.42784647280327981
-0.18791065998455991 0.41845816839383598 0.57958317515371771
0.84521886919052536 -0.065149686864276912 -0.18326447275456026
-0.2842353748073585 -0.0021657639671346374 0.35316754707328357
0.28405305385009494 0.77190920311342381 0.54321034660887202
-0.61262919184062281 0.43690872140010084 0.4653034876877129
-0.41181356912338396 0.38688413508657504 0.59463232957685275
0.15809334169133971 0.61898889488334152 0.62925883717763886
0.016516954344337309 -0.49179328058501515 0.61581003389062516
-0.49722946549761771 0.3843341532683362 0.53620427329511866
0.086853800453527308 0.71977320028923319 0.55844810698728553
0.32002806713037191 0.38103799084007361 0.64493632416833657
0.56182646965037342 0.24728314221612147 0.50835009231704387
0.31464203341505881 0.70283113544889497 0.39267991090263799
0.17776086189423457 0.66743697147101955 0.5781595680063587
-0.79171165776575214 0.056117459874977627 -0.35464677922877419
-0.09997668550991623 0.68012413447838593 0.35107714275573754
0.19705759357794528 -0.60616052551313437 0.65570291019898308
0.28814183022002449 0.58867618313699621 0.63107014350886148
-0.074988605182816803 -0.23121829081225487 0.50538467171187706
-0.7248174469998141 -0.10696934351748721 -0.31591860573514197
0.89094601923763195 0.097727380400538078 -0.28539761935991859
-1.1337644329855259 0.10940650299755506 -0.59193515097348559
0.41894168609327687 0.48148027068047883 0.58528087998274136
-0.26954681529592572 0.34421369252289269 0.63036252705595786
-0.90892026234395584 0.18700476523551224 -0.38597641503387337
-0.13102533745603306 0.019797588581006664 0.58379280568306191
0.16889900084199394 0.38067566234907702 0.65149400762585863
-0.062229746299097277 -0.26614987425061543 -0.64971346578419276
0.16063074744395767 0.69896796888478807 0.56093065318916802
0.31852531073859436 0.10352633236384978 0.53074795723512747
0.15227656971524217 0.6213122894150227 0.6081514912340853
0.19363363557031454 -0.52935872958497976 0.89931162034539902
0.093842045084205017 -0.28957127361526291 0.44499058552638937
0.34381861231841526 0.44927334904644045 0.64215255109506453
-0.43179397397893826 0.58484850124541765 0.51089079142337335
0.15884857245323269 -0.49312145674939689 0.87421993531488829
0.47459723774463169 -0.030598070675762923 -0.62227945825788167
0.45269363365190785 0.6443062993587847 0.56351608145537035
-0.37416386468912166 0.3477428180595652 0.59119866154237322
-0.72852817601847031 0.50996188465713965 0.41512160202329973
-0.26196099301426212 0.48872529166038259 0.59964041381276978
-1.0973696496651522 0.12183996766288363 -0.64102323745870349
-0.67804393853886658 -0.030573893164156818 -0.17898087132448914
-0.93536382020603104 0.10020704069808817 -0.47123432034794632
0.24773798192132657 -0.6523431265189652 0.81440217439389717
0.13042678441714783 0.47092583719513526 0.63497917467186937
0.1884576131746214 -0.51159856098276979 0.85310381136381297
0.42132357669181753 -0.56373875676467833 0.80649624706729917
0.80762436446899843 0.19842346288650781 -0.19052412810920494
0.95304191602650534 0.026570153371212157 -0.28987772167642589
-0.0015869601154452351 0.12907554740041105 0.790050371799214
0.25373702805416176 -0.64892324836573501 0.71041226285026804
0.27393631888792958 0.63222201721379445 0.57484636811883538
-1.0754608697836903 -0.15128870301106767 -0.54446299725738401
-0.045372108931309052 -0.3260635222005086 -0.51589396957070477
-0.13241178926333896 -0.12169741756218144 0.6292761598696428
0.44070909580601003 0.39310618108853301 0.56284026131713416
0.83966263427656629 -0.14308000810193944 -0.23428499574727413
0.22276946126379782 -0.52141029576975795 0.59013169113489727
0.030046704458960738 0.022434886778945895 0.77338544785653118
-0.70405715815976611 -0.13038176933056356 -0.25853406288541336
-0.073287751665834122 0.58818729804855741 0.6005522143384745
-0.52573508048509354 -0.022097322934351293 -0.64630298247125983
0.16279188494160834 0.42451321905297945 0.64439290930810644
0.087752928029440902 0.59737384391649595 0.58345985266523526
0.73930753520677239 0.040010187638530148 -0.062713487899213938
-0.31124512954974271 0.74168522047514474 0.49036398701346062
-0.65363521731442487 0.27555353114752812 0.39054233219062695
-0.75718596419488438 -0.0010728596622753273 -0.42341391061222522
0.22076454032570325 0.77225902381260925 0.56851168026163768
-0.56857193985106003 0.037267250282855713 -0.67905909531053865
0.1964969472933431 -0.31123754396176428 0.86702783007979956
0.78758585359177036 0.22965143215062511 -0.15148762151514417
0.23256394085599297 -0.52217450823173417 0.85613719291703605
0.10525902456301672 0.13889365926958375 0.78945384561910803
0.096195506841275646 0.83722983067666989 0.43418348937536733
0.12274935366740514 0.098646296213644291 0.79782103890449418
-0.92502802536735396 -0.17334083298855019 -0.37290848526226616
-0.78433082106632179 0.46152570837615547 0.34290153009993984
0.27995152660963618 0.64068151266878326 0.54062773399654285
0.13264036161375592 0.33565591952624274 0.56801838518463121
0.86995606746559528 -0.059587993020058683 -0.15110420259513901
-0.54958795468479438 0.51262819672256121 0.44084601147928826
0.17881705378637824 -0.51316654264185901 0.87203318629471327
-0.066081649249027929 0.38446339446940714 0.62766495546490031
0.39391965302571852 -0.61600477798963649 0.78578989381612896
-0.58029749857634894 -0.10666751459884383 -0.31336229996539311
-0.50793680209083214 -0.10654163050235388 -0.46506713123470744
0.45697206416246261 0.4562812178627409 -0.48663842144142277
0.3278322902584041 -0.60637726277138615 0.65402808392000766
0.28021365174710344 0.445992690447504 0.67446825981778646
0.88199445977950641 0.18788483687228252 -0.24673945942991127
0.26746782254984569 -0.11801544233089523 0.4439161249593413
-0.49215217814244161 0.57594649335530601 0.45865836560361117
1.0932118003698215 0.1324975940879054 -0.34615212253394523
-0.23087002192273731 0.47450470996863459 0.58904921192025128
0.016135476284944383 -0.63141963960983416 0.80489811592940885
-0.57560698577578084 0.68289556542273955 -0.38415751324065894
-0.93498597242368331 0.025213429564210799 -0.45564731038373729
0.96880094017872365 0.21726580618392255 -0.31620576597414018
0.16338476096801324 0.10005124924628506 0.74312110577418888
-1.0644229192121615 0.062797941651874911 -0.58069950429778139
-1.0460405371664057 -0.14537193706006768 -0.55268457563669404
-1.0529032204484139 0.11153341148951723 -0.63254829558923475
0.028762654429790091 0.058405715500729816 0.79418474719714061
1.1740220502995007 0.18433839374662986 -0.37095901706219525
1.1382729905742746 0.094234018959697519 -0.43813592882064389
-0.67358616695756179 0.33361156603293463 0.41098179495830234
0.067497066928552618 0.51219221042846241 0.61914614441775573
-0.087254443186843611 0.15682317904326792 -0.87587590780617397
0.058607820604104077 -0.49317349928174981 0.88272378190191625
-0.065202415081626164 -0.21988979979092305 0.41066830588608694
-0.48692700406052292 0.57001542632708491 0.50754847697008687
0.22485131893926336 0.75291352914357201 0.57089378149252212
-1.0921433059810752 -0.11209798547754035 -0.50453907959918576
0.037129299464633725 0.58321366765074822 0.5956035003089033
1.2840718289033497 0.12516807729143897 -0.37919565514777664
0.21428041419070598 0.14700939821800363 0.65293164584240238
-1.1739331485437086 0.063683829920140766 -0.64869953066640473
-0.69156995100885488 -0.098560662653653708 -0.31480356773385898
-0.64627155235628075 0.64283253983391164 0.37294699990539515
1.0924463177736197 -0.036260989098540808 -0.34001933186122457
0.31372320370012985 0.63759750773118018 0.57678428558035133
-0.093638359149747608 0.7373063545873948 0.52766708906778481
0.15640074523219272 0.14089984826769131 0.72907405023519578
-0.765284305461857 -0.034176940215936202 -0.31486912921300103
-0.76635100938541068 0.049915728712833562 -0.46520259655503926
-0.60932130394070172 -0.10800817167025301 -0.28834844391787895
-1.1303855400252421 0.048886894224833721 -0.5736838607552972
-0.90121196207844489 0.20536263565536039 -0.42345975593640217
-0.34456417990196297 0.31089968516173228 0.61112077697620792
0.21340432384502317 0.0060183662276438454 0.7394926191662714
-0.28356668689968756 0.55277852170454267 0.55602661140940768
-0.68890106875467105 0.54480082245710726 0.03648484636577809
0.087147951478236951 0.44220605881809005 0.63182271865086603
0.86004711855855787 -0.063131328982143131 -0.1737317448578799
0.8426749069728332 0.26930645589743296 -0.2103761167641367
0.95163420566759971 0.33133281435370421 -0.28005490904586239
0.29646660843425443 -0.00053971186368428903 0.46080562343483455
1.1989303231758988 0.30035668713830921 -0.37418372378173315
0.84614509705323582 0.092808052704311361 -0.35214981119036892
-0.31414830274527938 0.60328194101335253 0.5411082921325967
0.42550146890502671 0.53299294160371025 0.52318294340501348
0.70037463729609217 -0.071144571942400869 -0.37844161530751785
0.79803729545075819 -0.0052651483749124317 -0.20318199336033027
-0.89474771832748035 0.14326554650644896 -0.39121711295000861
0.24981291276683049 -0.54160758109409102 0.89148098096049644
-0.66859705847048367 0.051119297441688527 -0.053728168693716327
0.45926219369757337 -0.58276273969951609 0.67183989121854415
-0.041563938711366433 0.60266647429777631 0.59706458259909612
-0.057283998776967548 0.7120737339398282 0.43175918737367214
1.2382509833475364 0.25912659537347515 -0.38541885949016885
0.13850057302072516 -0.44244652340666901 0.89720186117352929
-0.16683690204943047 0.24720324326829157 0.67605541472593211
0.51175571381086127 0.37054042307195756 0.57378209329825669
-0.74202780938810231 0.049439900584610452 -0.2936953669274649
-0.1134433984371237 0.44713163853816473 0.60974490923050917
0.43941872597965581 0.53580943180249063 0.57507033044250599
-0.096880691214991543 -0.31326249109585236 0.73269527428052816
-1.0626191065259083 0.02822466320935213 -0.587300620274124
-0.18966763372409812 0.65937519808326606 0.36080334887972043
0.43332421785628905 0.45580929580710183 0.59796412012103017
0.24369144834577527 0.097640858477727743 0.5903364486844449
-0.97613381336159666 0.028365328787236965 -0.58598177310669719
-0.93062477617200789 0.14505870639510121 -0.42711176902522663
-0.37153352403274975 -0.14188961712455184 -0.025629715626238614
0.31066634258296255 0.63351014844904174 0.57801703359261936
0.38107729813987601 0.33366011819393071 -0.61890102050755891
-0.57074384041692472 0.4568657478993936 0.4849062183006918
0.88516279929275288 -0.11494767942424211 -0.12608271311369368
0.20833698085767427 0.66876545202633952 0.5147582752049602
0.15543897902517712 0.6196422673780595 0.61713793250782212
0.66473023633171135 -0.013160323891428405 0.060421840618284151
0.14845812329150121 -0.56620857909149747 0.89275696883653533
0.17065449209106398 -0.36805985504197603 0.88593716984643756
-0.21728967765778662 0.52238804094997393 0.58400202528263234
-0.21681762863921916 0.5123561365967424 0.53995311682725333
-0.25411077520424596 0.33504929833975439 0.61474289685558814
0.1746390317958324 -0.50993487195499565 0.86230264487792252
1.2515434986418503 0.17498425007805629 -0.43452075895441622
0.25243338562088913 0.58123732326791222 0.64898599328325135
0.8141895369346297 -0.0051558312130728368 -0.21995376534798883
0.14262164570552782 -0.46812131924566458 0.86505869945290215
-0.12590565412392229 0.65003511812957493 0.51772190631829362
-0.017752906142487923 0.26461581200117701 0.67970550961827669
-0.22273458636951293 0.40460608458652381 0.62326587552907409
-0.25140357782411704 0.36329757048995415 0.63365531904609496
-0.37314629026413826 0.55972715122965733 0.57709242506883562
-0.4052208281232148 0.40319351298826245 0.60804020038019013
0.042489183208033854 0.84896547037879211 0.5468533085853573
0.031979747956869531 0.40495522825821118 0.62999287402126747
0.18102965100731638 -0.10223399880189099 -0.76201202867949913
0.37846135445712381 -0.5916104143957317 0.8216665038894595
0.73310351398889617 0.36449720542794317 0.067854436284728425
1.0371515422088877 0.34075056746124233 -0.36581134061434639
-0.29827840610628376 0.54900294777642333 0.55876125340615035
-0.16088913301862751 0.40165275090098129 0.55054385354395086
0.085626504243689228 0.64373845421365106 0.58185126864570114
0.92540903548879783 -0.060525467882899697 -0.22998407678595267
-0.24459706025869776 0.66393195254491166 0.56489510995546821
0.30327823145297916 -0.07867797934503562 0.66320762010806389
0.29439217771938098 -0.058824814963217342 0.6225826287439542
-1.0548496775389906 0.17437132178993764 -0.54109425086258911
0.39246183217725794 0.5732861080633147 0.56311823759209956
1.202551966605536 0.15281902484960952 -0.34050177072564747
0.22129551182318297 -0.53048983759535639 0.87730685549176579
0.28073749820008276 -0.63884710313541104 0.82438292915923839
-0.87101865595648187 0.19100695733915218 -0.43098762124193435
0.43087644114820467 -0.51980209814948619 0.62721674832086016
1.015389287815915 0.13399648262818342 -0.41757334113110556
-1.0647024037518091 -0.081889487304747988 -0.55253842376088391
0.050276751585835777 0.46803423330467053 0.6203060551371955
0.43809699421476012 -0.5778171168720605 0.78457978276773854
-0.81674396043784037 -0.084265683157210614 -0.29120763517160508
0.17999983338769043 -0.48465387527435366 0.56889083044283151
0.41556266854165202 -0.26042222378752511 -0.21729638340626867
0.16110920139954188 0.09171349116298888 0.76143233707205749
-0.018931696532685338 -0.50056517355592955 0.83462333510250097
0.16868167317799254 0.60817560274048565 0.64120997554873815
0.33897541173924783 0.39081430913155746 0.63696089375209031
-0.31837870609287688 0.53720316816691893 0.59497474435222886
0.015320567263614526 -0.18799541690681698 0.82311898710435893
0.14490437514062604 0.39250310595478588 0.64920111185920959
-1.0128831484873295 0.12583056967793738 -0.60300749695880951
0.64862984463969608 0.24962064753064039 -0.46924625607028991
1.1108412465281534 0.22340673414734979 -0.37755353814370629
-0.9303396278885594 0.17412874606283157 -0.40964107258875782
-0.76506256043782317 0.46741874761932856 0.24318083745499264
0.39169824702657152 0.54245487138641435 0.56301317349022195
0.25524671950238154 0.0081645112827799515 0.63504693875024243
0.96555411598590557 0.14716980765323973 -0.3178472932921399
0.6008447647614894 0.06187929951591542 0.21671236051385678
0.18211309212962479 -0.57203470707124238 0.62533709213430244
-0.9585132353576642 -0.11496303406097175 -0.38550591424308633
0.42181699048627497 0.49903414659045309 0.5792150300825516
0.20426767387920663 -0.26906787228881912 0.85405383199638685
-0.56401952409274392 0.6370216985406203 0.11129099300129885
-0.42247689154702983 0.34301071461013555 0.58195155610630422
-0.18830731700712056 0.64246326566139356 0.38326076999788361
-1.1163341818794843 0.039685221633222412 -0.67910363833107956
0.091054521535276933 0.15371645799073574 0.78129877725573227
1.0642194099926685 0.34174879449182738 -0.32666670564509737
-0.37269012783322442 0.55611275598477805 0.58265576684035469
-0.68551916604535323 0.466049013171558 0.4348351522261229
-1.165322888802732 0.0018071372508852157 -0.68683865201844174
0.52992764594747799 0.67538959400936038 0.53884058574015103
0.17558820708303768 0.13643086661290571 0.71111055858855687
0.28299049160084588 -0.37746937515521006 0.87013701132505128
0.27310491399920234 -0.3408388030681877 0.86172492192419936
0.0046998644355953356 -0.32390746530956926 0.085546241771798925
-0.70284504137276382 0.58270385971067018 0.3629750330517898
0.08235210746262811 -0.27468197966779062 0.37352436939974254
1.2154197793790016 0.14299539218064083 -0.44397851425321289
0.88857009114419894 0.12255894096423026 -0.28242003481376665
1.0367381127452715 0.051323981566582688 -0.32349116791508825
-0.32997488484249926 0.39710604989147491 0.6447115473231495
0.15499713232766354 0.49713773399181882 0.66433071524521159
-0.42517555083778236 -0.13604976394899371 -0.11448285375129519
-0.46036603226110206 0.5990263757684402 0.50192123538003663
0.68889376542557379 -0.13954400374246578 -0.15429358564760109
0.81382060176741056 0.064562762636590332 -0.24487841607338057
-0.77630719438196416 0.13907271764108398 -0.24921293955404566
-0.040067222774164302 0.11126898190228385 0.74553919138422797
0.14251418917744307 0.062494268810652898 0.78190788765019636
-0.31496359000225604 0.57174060717611264 0.53250507812195114
1.2440918914384083 0.24495387483801689 -0.40226662293683013
0.18342252502044842 0.65290439047715854 0.57630595503455773
0.086049821089952738 0.61305589750958323 0.58405511948319466
-0.22439366356058565 -0.28694621562443867 -0.21191103981833681
0.54695235869127501 0.43228186237341282 0.55552208277824144
0.097806597679109375 -0.35344784765675152 0.88066283148743585
0.20027522059656699 -0.39582977763622695 0.89060330159252143
0.17132439065094962 0.79137826938850342 0.56616752017375171
0.93374658624705575 0.25443280807545321 -0.37633877259024162
1.0100255893522685 0.15531175486070969 -0.33348487459880083
0.19101027738598919 -0.043104927125822368 0.77675949236004493
-1.1596413031962602 0.080025317697006937 -0.61001869759198124
0.19862973142271234 0.080472552284148513 0.70751594212382196
-0.44272056680192451 0.36632560179615803 0.56109867463711494
0.54253735108642953 0.035641684375335547 0.2395546893614493
-0.7625265931464027 0.4958919277981102 0.27325750994518572
0.011059713856355291 0.049872832048498239 0.7792704946416471
1.132765973733544 -0.09124060566370451 -0.36691373810631411
1.043096884954523 0.17185217117335716 -0.35131952964309843
1.1357424530045208 0.14400377108666174 -0.37168092930616092
0.37100400212309514 0.32424490328291178 0.59257721500732208
-0.10301212125835879 0.093068982149709711 0.66224306399791599
-0.9338176327428731 0.03940373442089351 -0.55195732545124265
0.23643444423443216 -0.30214704321659092 0.075995240803283348
-0.2851247844432192 -0.08879784899861054 -0.75107852653073159
0.46024749932654729 0.71042371877532107 0.52467643018814458
-0.4567223263933724 0.5941084137682231 0.50805702307795375
-0.15401734376993126 0.21271512957638761 0.68077324670709238
0.95523751025824555 -0.059135826373066802 -0.24570749134508585
0.88240065142801427 -0.068886641468804299 -0.22707238620733028
0.88957918579212825 0.3180403867393311 -0.25944521970385104
-0.78366964689151875 -0.045459245054688679 -0.32797800444743253
0.34331953169310014 0.51228951696194391 0.63235360669605978
0.5269383837805055 0.079560751222917947 0.30618430268680541
-0.33890680587351452 -0.22069595318832658 -0.2997211205466126
-0.99164859318135856 -0.10921403005672792 -0.44463968553848643
0.15521323678057652 0.12745593659684662 0.75816643478035672
-0.48308221558587716 0.47015746594707197 0.54078631479674
0.24708161928341665 0.41758893951823417 0.66167275966269923
0.033643165998960889 -0.3090299607890179 -0.59503838101784234
1.0814663469997137 0.14263076064395497 -0.34494569856214596
0.13271573938587977 0.037692992209819032 0.77429915483531619
