# XYZ point cloud file
-0.044247627258300781 -0.52468299865722656 0.42752456665039062
-0.058519363403320312 -0.50731277465820312 0.40189552307128906
0.017482757568359375 -0.53502082824707031 0.3906097412109375
0.036511421203613281 -0.57328033447265625 0.43658447265625
-0.030277252197265625 -0.54852294921875 0.45351600646972656
0.16053295135498047 -0.6889801025390625 0.48390769958496094
0.12835216522216797 -0.69305038452148438 0.49083900451660156
0.15117645263671875 -0.64415359497070312 0.46161651611328125
0.19284629821777344 -0.68177986145019531 0.4777069091796875
0.17203807830810547 -0.73593902587890625 0.5070037841796875
0.13950157165527344 -0.73956680297851562 0.5155487060546875
0.11899280548095703 -0.64850616455078125 0.46753883361816406
0.18334007263183594 -0.63656425476074219 0.45678520202636719
0.20473766326904297 -0.72927284240722656 0.49881935119628906
0.033238410949707031 -0.67513465881347656 0.51921272277832031
0.023900032043457031 -0.63159370422363281 0.49384689331054688
0.06475830078125 -0.686126708984375 0.50856781005859375
0.042582511901855469 -0.72054481506347656 0.54604339599609375
0.0016679763793945312 -0.66115951538085938 0.53039741516113281
-0.0072774887084960938 -0.61793136596679688 0.50472640991210938
0.055319786071777344 -0.64215278625488281 0.48372077941894531
0.074860572814941406 -0.73185539245605469 0.53509712219238281
0.010066986083984375 -0.70628929138183594 0.55715560913085938
0.21729564666748047 -0.85922813415527344 0.58867454528808594
0.18331050872802734 -0.85970497131347656 0.60364532470703125
0.20083904266357422 -0.82340812683105469 0.55945205688476562
0.25085735321044922 -0.85651779174804688 0.57275962829589844
0.23418521881103516 -0.88772010803222656 0.61837387084960938
0.19976043701171875 -0.88677406311035156 0.63542747497558594
0.16732120513916016 -0.82521820068359375 0.57221603393554688
0.23419189453125 -0.81902122497558594 0.54622459411621094
0.26794719696044922 -0.8868408203125 0.6000213623046875
0.076901435852050781 -0.83844947814941406 0.640625
0.064326286315917969 -0.80448532104492188 0.60705184936523438
0.11319160461425781 -0.84926795959472656 0.62969779968261719
0.089903831481933594 -0.86533546447753906 0.67445182800292969
0.039875984191894531 -0.82552337646484375 0.65041732788085938
0.028929710388183594 -0.79072761535644531 0.61737632751464844
0.099165916442871094 -0.81571388244628906 0.59609031677246094
0.12765693664550781 -0.87558174133300781 0.66352462768554688
0.051316261291503906 -0.85335159301757812 0.68375968933105469
0.281097412109375 -0.91759300231933594 0.70031547546386719
0.29362773895263672 -0.9121246337890625 0.7233428955078125
0.24481296539306641 -0.91342735290527344 0.72055625915527344
0.26670265197753906 -0.916717529296875 0.67495155334472656
0.31594467163085938 -0.92076683044433594 0.67835807800292969
0.32874965667724609 -0.91591835021972656 0.70153617858886719
0.25686550140380859 -0.90739059448242188 0.7436981201171875
0.23103618621826172 -0.91334342956542969 0.69466590881347656
0.30111885070800781 -0.918853759765625 0.65346336364746094
0.12662410736083984 -0.89167976379394531 0.764862060546875
0.16735267639160156 -0.90043067932128906 0.753021240234375
0.13721942901611328 -0.8857269287109375 0.78911781311035156
0.085239410400390625 -0.88216209411621094 0.77445030212402344
0.11510562896728516 -0.89163398742675781 0.73744010925292969
0.15514183044433594 -0.90075111389160156 0.72603797912597656
0.17830467224121094 -0.89414405822753906 0.77679824829101562
0.095816612243652344 -0.87671089172363281 0.799163818359375
0.074239730834960938 -0.88144493103027344 0.74664115905761719
0.41122817993164062 -0.92580604553222656 0.61106109619140625
0.42290401458740234 -0.92251014709472656 0.63579940795898438
0.38190174102783203 -0.92564201354980469 0.63269805908203125
0.39666938781738281 -0.92128372192382812 0.58757781982421875
0.43547534942626953 -0.92182540893554688 0.59199905395507812
0.44723606109619141 -0.91962051391601562 0.61681175231933594
0.39408588409423828 -0.92176437377929688 0.65687751770019531
0.36730194091796875 -0.92191505432128906 0.60829544067382812
0.42009162902832031 -0.91632270812988281 0.57113456726074219
-0.035161972045898438 -0.85261344909667969 0.79337310791015625
0.0029439926147460938 -0.86295700073242188 0.78881454467773438
-0.022530555725097656 -0.84884262084960938 0.81925773620605469
-0.068238258361816406 -0.8402099609375 0.7953338623046875
-0.045530319213867188 -0.84990310668945312 0.76536750793457031
-0.008056640625 -0.86079978942871094 0.76053237915039062
0.014801025390625 -0.85850334167480469 0.81433296203613281
-0.055651664733886719 -0.83733749389648438 0.82173347473144531
-0.075846672058105469 -0.83723831176757812 0.76830101013183594
0.46290111541748047 -0.86787223815917969 0.55187606811523438
0.48156261444091797 -0.87438011169433594 0.58005714416503906
0.46136283874511719 -0.89366722106933594 0.56238365173339844
0.43860054016113281 -0.85790634155273438 0.53000450134277344
0.45925617218017578 -0.83462333679199219 0.54392433166503906
0.4813690185546875 -0.84568595886230469 0.57380485534667969
0.476715087890625 -0.89633941650390625 0.58881950378417969
0.44082450866699219 -0.88584136962890625 0.54276466369628906
0.43120384216308594 -0.82072067260742188 0.51993179321289062
-0.12763404846191406 -0.77907752990722656 0.77414894104003906
-0.11435890197753906 -0.80423927307128906 0.78578376770019531
-0.11725807189941406 -0.78245353698730469 0.80976486206054688
-0.13637542724609375 -0.74867057800292969 0.75957870483398438
-0.12939643859863281 -0.7744140625 0.73923110961914062
-0.11715602874755859 -0.80079460144042969 0.75549125671386719
-0.10303401947021484 -0.80481529235839844 0.81702804565429688
-0.12723922729492188 -0.75544357299804688 0.79976272583007812
-0.13699436187744141 -0.74115180969238281 0.7199554443359375
0.431854248046875 -0.70104789733886719 0.52791976928710938
0.46114540100097656 -0.72089958190917969 0.56312370300292969
0.44276046752929688 -0.74991416931152344 0.53260040283203125
0.39670753479003906 -0.67960357666015625 0.49770927429199219
0.41955089569091797 -0.6497955322265625 0.52320671081542969
0.44948482513427734 -0.66968345642089844 0.55986404418945312
0.47048282623291016 -0.76821327209472656 0.56604385375976562
0.40909099578857422 -0.72947502136230469 0.50441932678222656
0.38388442993164062 -0.62885093688964844 0.49112892150878906
-0.15191078186035156 -0.63059616088867188 0.70662117004394531
-0.14743709564208984 -0.67368507385253906 0.72533226013183594
-0.14636898040771484 -0.64434623718261719 0.7569580078125
-0.15620040893554688 -0.58548736572265625 0.68692779541015625
-0.14937973022460938 -0.61692619323730469 0.65712356567382812
-0.14582157135009766 -0.66088485717773438 0.67814826965332031
-0.14082431793212891 -0.68607711791992188 0.77316856384277344
-0.15162467956542969 -0.59931564331054688 0.7387542724609375
-0.15286827087402344 -0.57216262817382812 0.63604354858398438
0.29050064086914062 -0.65746307373046875 0.46253204345703125
0.30400371551513672 -0.70703506469726562 0.47649955749511719
0.25763416290283203 -0.66397666931152344 0.46582984924316406
0.27880573272705078 -0.60974502563476562 0.44841194152832031
0.32430744171142578 -0.65610504150390625 0.46484947204589844
0.33806037902832031 -0.70627212524414062 0.47631072998046875
0.27061080932617188 -0.71280288696289062 0.48228836059570312
0.24685859680175781 -0.61732292175292969 0.44902801513671875
0.31180000305175781 -0.60730934143066406 0.45344924926757812
-0.092594146728515625 -0.61719322204589844 0.56548309326171875
-0.062303543090820312 -0.63023185729980469 0.55207633972167969
-0.088041305541992188 -0.66208648681640625 0.59095382690429688
-0.11872100830078125 -0.60906219482421875 0.58515357971191406
-0.097880363464355469 -0.57380867004394531 0.54100227355957031
-0.069098472595214844 -0.58709716796875 0.52686500549316406
-0.056407928466796875 -0.67514419555664062 0.57817459106445312
-0.11518955230712891 -0.65382766723632812 0.60966300964355469
-0.12272262573242188 -0.56525230407714844 0.56165885925292969
0.35017204284667969 -0.84670066833496094 0.5248565673828125
0.38119602203369141 -0.84597206115722656 0.51656723022460938
0.3655548095703125 -0.88165283203125 0.54429817199707031
0.31758403778076172 -0.84929847717285156 0.53912734985351562
0.33443069458007812 -0.80408859252929688 0.5071868896484375
0.36741352081298828 -0.8038787841796875 0.50162506103515625
0.39265918731689453 -0.8787689208984375 0.53383827209472656
0.33445262908935547 -0.88360786437988281 0.56106185913085938
0.30104541778564453 -0.80780601501464844 0.51853752136230469
-0.07152557373046875 -0.78632164001464844 0.67645645141601562
-0.063498497009277344 -0.81690406799316406 0.70633697509765625
-0.10075092315673828 -0.77706718444824219 0.68961524963378906
-0.078067779541015625 -0.74874305725097656 0.64668846130371094
-0.036080360412597656 -0.79828834533691406 0.66707229614257812
-0.027562141418457031 -0.82854843139648438 0.69885826110839844
-0.0915679931640625 -0.80620193481445312 0.71555519104003906
-0.10704517364501953 -0.74006462097167969 0.66246223449707031
-0.043727874755859375 -0.76126670837402344 0.63580703735351562
0.25809192657470703 -0.49611091613769531 0.39826011657714844
0.28527355194091797 -0.48463630676269531 0.41488075256347656
0.26268959045410156 -0.52821159362792969 0.41619110107421875
0.23103427886962891 -0.51133155822753906 0.38809394836425781
0.25499153137207031 -0.46967124938964844 0.38040733337402344
0.27948665618896484 -0.4536285400390625 0.4016876220703125
0.29226398468017578 -0.52066230773925781 0.42835807800292969
0.23370838165283203 -0.54004287719726562 0.41011619567871094
0.22992897033691406 -0.48874855041503906 0.36585426330566406
-0.12434005737304688 -0.46876716613769531 0.47031593322753906
-0.11391735076904297 -0.49867439270019531 0.4933319091796875
-0.14228153228759766 -0.45377349853515625 0.49615097045898438
-0.13503074645996094 -0.444000244140625 0.44870185852050781
-0.1021270751953125 -0.48731803894042969 0.4512786865234375
-0.089159965515136719 -0.5146636962890625 0.47647476196289062
-0.13462162017822266 -0.48673057556152344 0.51699638366699219
-0.14997768402099609 -0.42531776428222656 0.47698974609375
-0.11548805236816406 -0.46567916870117188 0.42705917358398438
0.377197265625 -0.49574470520019531 0.50424957275390625
0.40330410003662109 -0.50712776184082031 0.54254150390625
0.39191818237304688 -0.54561996459960938 0.51136016845703125
0.34606838226318359 -0.48517608642578125 0.46875953674316406
0.36232376098632812 -0.44945716857910156 0.49709510803222656
0.38578510284423828 -0.45636177062988281 0.53499031066894531
0.42016983032226562 -0.5611572265625 0.54963493347167969
0.35836029052734375 -0.53036689758300781 0.47658920288085938
0.33419513702392578 -0.44395065307617188 0.46121025085449219
-0.17059326171875 -0.45005035400390625 0.62321662902832031
-0.16566658020019531 -0.4939422607421875 0.64472389221191406
-0.16869354248046875 -0.45690727233886719 0.67275047302246094
-0.17476272583007812 -0.40932846069335938 0.60261154174804688
-0.16598796844482422 -0.44490432739257812 0.57416534423828125
-0.16125774383544922 -0.48505592346191406 0.59421157836914062
-0.16295337677001953 -0.50413703918457031 0.69601249694824219
-0.17345333099365234 -0.41244316101074219 0.64980506896972656
-0.17017459869384766 -0.40827751159667969 0.55559349060058594
0.283905029296875 -0.25811195373535156 0.47400093078613281
0.29086208343505859 -0.27700042724609375 0.47284889221191406
0.28281497955322266 -0.25951576232910156 0.4444122314453125
0.27715015411376953 -0.24078178405761719 0.47556304931640625
0.28811073303222656 -0.25326156616210938 0.50268173217773438
0.29730796813964844 -0.27144432067871094 0.50418281555175781
0.28596782684326172 -0.28133773803710938 0.43850898742675781
0.27820014953613281 -0.24057388305664062 0.45006370544433594
0.27976226806640625 -0.23623085021972656 0.501953125
-0.17407321929931641 -0.24020767211914062 0.52524566650390625
-0.18384456634521484 -0.24254608154296875 0.49366950988769531
-0.17479228973388672 -0.25730514526367188 0.52847480773925781
-0.16850852966308594 -0.23474502563476562 0.55538177490234375
-0.17300701141357422 -0.22445487976074219 0.52297401428222656
-0.18354034423828125 -0.22508049011230469 0.4957427978515625
-0.18244171142578125 -0.26271629333496094 0.49170684814453125
-0.17002582550048828 -0.25095748901367188 0.56169700622558594
-0.16707992553710938 -0.21941566467285156 0.55051803588867188
0.32046985626220703 -0.34473991394042969 0.47990798950195312
0.33357143402099609 -0.37378883361816406 0.48471832275390625
0.30231285095214844 -0.35134506225585938 0.44390106201171875
0.30883026123046875 -0.31970596313476562 0.47574424743652344
0.33533573150634766 -0.34096336364746094 0.515167236328125
0.35129833221435547 -0.37273788452148438 0.52097129821777344
0.31187534332275391 -0.37746047973632812 0.44896316528320312
0.29483604431152344 -0.32742118835449219 0.43832778930664062
0.32077598571777344 -0.31427955627441406 0.5103759765625
-0.17749595642089844 -0.31738662719726562 0.55428123474121094
-0.17539596557617188 -0.32596206665039062 0.51312065124511719
-0.17809677124023438 -0.34292030334472656 0.56788825988769531
-0.17611789703369141 -0.31192207336425781 0.5939483642578125
-0.176513671875 -0.29535675048828125 0.54273605346679688
-0.17751026153564453 -0.30464363098144531 0.50137138366699219
-0.17444515228271484 -0.34915924072265625 0.5252838134765625
-0.17718410491943359 -0.33956527709960938 0.60985183715820312
-0.17409038543701172 -0.28868293762207031 0.58068275451660156
0.2590179443359375 -0.19207954406738281 0.4790802001953125
0.2578125 -0.18544197082519531 0.501556396484375
0.26280784606933594 -0.20792961120605469 0.47871780395507812
0.26255321502685547 -0.19298934936523438 0.46100616455078125
0.26302337646484375 -0.1769866943359375 0.47747039794921875
0.26053237915039062 -0.16934013366699219 0.49914169311523438
0.26286888122558594 -0.20238113403320312 0.50204849243164062
0.26563835144042969 -0.20779800415039062 0.4588165283203125
0.26774024963378906 -0.1791229248046875 0.46100044250488281
-0.17183589935302734 -0.17981338500976562 0.51645088195800781
-0.16978740692138672 -0.19445991516113281 0.51909828186035156
-0.16563034057617188 -0.17305374145507812 0.53914833068847656
-0.18195915222167969 -0.16571998596191406 0.51270294189453125
-0.181121826171875 -0.18117141723632812 0.49762153625488281
-0.17963314056396484 -0.19488143920898438 0.49808883666992188
-0.16367244720458984 -0.18863105773925781 0.54298210144042969
-0.17554569244384766 -0.1580657958984375 0.53435516357421875
-0.19117450714111328 -0.16814041137695312 0.49591445922851562
0.348388671875 -0.138153076171875 0.4519805908203125
0.3079986572265625 -0.1502838134765625 0.46394538879394531
0.34556007385253906 -0.14283370971679688 0.43678092956542969
0.39538192749023438 -0.12553215026855469 0.43784141540527344
0.34779930114746094 -0.13060188293457031 0.47180366516113281
0.30590152740478516 -0.14230155944824219 0.48409080505371094
0.30920696258544922 -0.1541595458984375 0.4494781494140625
0.39032363891601562 -0.1318206787109375 0.41943168640136719
0.39600276947021484 -0.11823844909667969 0.4582977294921875
-0.28864860534667969 -0.12801551818847656 0.4882659912109375
-0.288543701171875 -0.1330718994140625 0.47206306457519531
-0.24054431915283203 -0.14001846313476562 0.498992919921875
-0.28559398651123047 -0.12029838562011719 0.50845718383789062
-0.34406852722167969 -0.11581802368164062 0.47489166259765625
-0.34191799163818359 -0.12250900268554688 0.45536422729492188
-0.24466705322265625 -0.14416122436523438 0.4840087890625
-0.23581218719482422 -0.13195037841796875 0.51918411254882812
-0.34217262268066406 -0.10822486877441406 0.49598121643066406
0.15190410614013672 -0.5013885498046875 -0.6573028564453125
0.17388153076171875 -0.45057296752929688 -0.70738601684570312
0.22678279876708984 -0.48635673522949219 -0.63523292541503906
0.13584804534912109 -0.540802001953125 -0.60122489929199219
0.070212364196777344 -0.51222991943359375 -0.67434501647949219
0.092322349548339844 -0.45994377136230469 -0.7287139892578125
0.24820899963378906 -0.43822288513183594 -0.67987823486328125
0.21220207214355469 -0.52303123474121094 -0.58408355712890625
0.053530693054199219 -0.55287361145019531 -0.61430549621582031
-0.17849254608154297 -0.50149726867675781 -0.65140724182128906
-0.25060558319091797 -0.48693656921386719 -0.62743759155273438
-0.16154289245605469 -0.45433807373046875 -0.7100677490234375
-0.098629951477050781 -0.51217269897460938 -0.67114830017089844
-0.19209384918212891 -0.53797149658203125 -0.58842277526855469
-0.26231861114501953 -0.51968002319335938 -0.56692123413085938
-0.23719310760498047 -0.44392585754394531 -0.68398666381835938
-0.078935623168945312 -0.46185493469238281 -0.72999763488769531
-0.11392498016357422 -0.55130958557128906 -0.60748672485351562
0.10707855224609375 -0.60924911499023438 -0.38731193542480469
0.11415481567382812 -0.59400749206542969 -0.46680641174316406
0.18236446380615234 -0.58814430236816406 -0.38120079040527344
0.10311031341552734 -0.61583137512207031 -0.29962348937988281
0.027781486511230469 -0.6224822998046875 -0.3907318115234375
0.032668113708496094 -0.60735511779785156 -0.47314262390136719
0.19121551513671875 -0.57307243347167969 -0.45749092102050781
0.17550373077392578 -0.59517669677734375 -0.2967071533203125
0.027045249938964844 -0.62861824035644531 -0.30018424987792969
-0.20183849334716797 -0.60000419616699219 -0.35935211181640625
-0.26706504821777344 -0.57558822631835938 -0.3426513671875
-0.20443058013916016 -0.5866546630859375 -0.44314765930175781
-0.12946987152099609 -0.61763572692871094 -0.37609481811523438
-0.19326210021972656 -0.60507583618164062 -0.26830291748046875
-0.25639533996582031 -0.58034133911132812 -0.25307083129882812
-0.27160930633544922 -0.56330680847167969 -0.42528533935546875
-0.12962436676025391 -0.60343170166015625 -0.46066665649414062
-0.1236724853515625 -0.62303352355957031 -0.28381919860839844
0.11254310607910156 -0.58028793334960938 0.005886077880859375
0.10634517669677734 -0.59979057312011719 -0.099399566650390625
0.17213535308837891 -0.56148338317871094 -0.0016632080078125
0.1197357177734375 -0.55843544006347656 0.10461235046386719
0.050593376159667969 -0.59070205688476562 0.014148712158203125
0.039272308349609375 -0.6110382080078125 -0.093767166137695312
0.17052745819091797 -0.58076286315917969 -0.10405349731445312
0.1751861572265625 -0.53893661499023438 0.097406387329101562
0.062764167785644531 -0.56853675842285156 0.11423683166503906
-0.13393306732177734 -0.5677947998046875 0.04034423828125
-0.19081687927246094 -0.54401397705078125 0.047040939331054688
-0.15798187255859375 -0.58740425109863281 -0.064863204956054688
-0.0739898681640625 -0.58423042297363281 0.031980514526367188
-0.10927581787109375 -0.54597663879394531 0.13848304748535156
-0.1635894775390625 -0.52144432067871094 0.14553070068359375
-0.21700382232666016 -0.56344413757324219 -0.055431365966796875
-0.094685554504394531 -0.60455513000488281 -0.07584381103515625
-0.052723884582519531 -0.56205558776855469 0.13172340393066406
0.13162326812744141 -0.52032470703125 0.28833580017089844
0.12966156005859375 -0.52651405334472656 0.24709892272949219
0.17209529876708984 -0.50512504577636719 0.28134346008300781
0.13313198089599609 -0.5196075439453125 0.31794548034667969
0.087154388427734375 -0.528106689453125 0.29971504211425781
0.081614494323730469 -0.53528976440429688 0.25808143615722656
0.17501449584960938 -0.50881004333496094 0.24086952209472656
0.17109394073486328 -0.5059967041015625 0.310516357421875
0.091131210327148438 -0.52684783935546875 0.32914924621582031
-0.055211067199707031 -0.50868606567382812 0.31940841674804688
-0.097356796264648438 -0.48865318298339844 0.32541465759277344
-0.06908416748046875 -0.51458358764648438 0.27907943725585938
-0.0084209442138671875 -0.52207565307617188 0.31574058532714844
-0.044057846069335938 -0.50819015502929688 0.34826278686523438
-0.08399200439453125 -0.48982810974121094 0.35363578796386719
-0.11543464660644531 -0.49187278747558594 0.28639793395996094
-0.019272804260253906 -0.52913093566894531 0.27454948425292969
0.0003948211669921875 -0.52096748352050781 0.34477615356445312
0.25052452087402344 -0.42039680480957031 0.3338165283203125
0.25065135955810547 -0.43276786804199219 0.34893989562988281
0.23119926452636719 -0.45288848876953125 0.30379295349121094
0.25413894653320312 -0.40958213806152344 0.315826416015625
0.26716804504394531 -0.38950920104980469 0.36929130554199219
0.26992607116699219 -0.40712738037109375 0.37948417663574219
0.22932243347167969 -0.460479736328125 0.32525253295898438
0.23737907409667969 -0.44774436950683594 0.27601051330566406
0.26775169372558594 -0.37264442443847656 0.35725212097167969
-0.16204357147216797 -0.39776229858398438 0.39522361755371094
-0.15088462829589844 -0.43108177185058594 0.36278724670410156
-0.15305519104003906 -0.40938377380371094 0.41210174560546875
-0.16808128356933594 -0.366485595703125 0.4321136474609375
-0.17454624176025391 -0.3876190185546875 0.37598037719726562
-0.16825962066650391 -0.4259796142578125 0.33544731140136719
-0.13867855072021484 -0.43839263916015625 0.38449859619140625
-0.16211032867431641 -0.38263702392578125 0.44575309753417969
-0.17710208892822266 -0.35097122192382812 0.41701889038085938
0.71665668487548828 -0.007404327392578125 0.14644050598144531
0.69802761077880859 0.014499664306640625 0.2090606689453125
0.68462371826171875 -0.059673309326171875 0.1541290283203125
0.73703289031982422 -0.02915191650390625 0.08229827880859375
0.73812675476074219 0.050201416015625 0.14502334594726562
0.72155475616455078 0.06693267822265625 0.20480728149414062
0.66551780700683594 -0.031467437744140625 0.21929931640625
0.70571994781494141 -0.090879440307617188 0.084819793701171875
0.75655746459960938 0.035076141357421875 0.084476470947265625
-0.74022388458251953 -0.043941497802734375 0.088171005249023438
-0.69894981384277344 -0.08235931396484375 0.12726783752441406
-0.72572898864746094 -0.02017974853515625 0.15445899963378906
-0.77349376678466797 -0.0010433197021484375 0.05291748046875
-0.75594329833984375 -0.067867279052734375 0.01963043212890625
-0.71760082244873047 -0.11378669738769531 0.058277130126953125
-0.68194770812988281 -0.053628921508789062 0.19280624389648438
-0.76301670074462891 0.018480300903320312 0.11878013610839844
-0.78527545928955078 -0.0196380615234375 -0.015233993530273438
0.28282451629638672 -0.21384620666503906 -0.8272247314453125
0.32194805145263672 -0.11099815368652344 -0.84839630126953125
0.36074352264404297 -0.21123504638671875 -0.7842864990234375
0.24138545989990234 -0.30645942687988281 -0.79389762878417969
0.19525432586669922 -0.21804618835449219 -0.86256980895996094
0.23140907287597656 -0.11409759521484375 -0.8882293701171875
0.40173435211181641 -0.11087799072265625 -0.80119895935058594
0.31748580932617188 -0.30055618286132812 -0.75572967529296875
0.15678024291992188 -0.31234931945800781 -0.82448196411132812
-0.10010814666748047 -0.235107421875 -0.87030982971191406
-0.194976806640625 -0.24152946472167969 -0.84534645080566406
-0.080554008483886719 -0.13969802856445312 -0.908721923828125
4.9591064453125e-05 -0.22896957397460938 -0.88479042053222656
-0.12114715576171875 -0.32089614868164062 -0.82111930847167969
-0.20873165130615234 -0.32120895385742188 -0.79433059692382812
-0.18212413787841797 -0.15171241760253906 -0.88688278198242188
0.026221275329589844 -0.12894248962402344 -0.91943740844726562
-0.0280303955078125 -0.31970405578613281 -0.83852005004882812
0.17042064666748047 0.701934814453125 -0.25541114807128906
0.14422893524169922 0.70253753662109375 -0.17785453796386719
0.26758480072021484 0.69783210754394531 -0.22510528564453125
0.20092201232910156 0.68795013427734375 -0.33255577087402344
0.068028450012207031 0.69618034362792969 -0.29196357727050781
0.04015350341796875 0.69791412353515625 -0.21087265014648438
0.24336624145507812 0.6973876953125 -0.15173530578613281
0.29594516754150391 0.68508338928222656 -0.29818344116210938
0.10022830963134766 0.68098640441894531 -0.37238883972167969
-0.23761463165283203 0.63360786437988281 -0.40949058532714844
-0.32671737670898438 0.59999847412109375 -0.44589614868164062
-0.26603603363037109 0.63623809814453125 -0.32711601257324219
-0.1395263671875 0.66107559204101562 -0.3710479736328125
-0.20587158203125 0.61852264404296875 -0.48943328857421875
-0.29665660858154297 0.5856170654296875 -0.52286529541015625
-0.35396385192871094 0.60239791870117188 -0.36565589904785156
-0.16856193542480469 0.66388702392578125 -0.2874603271484375
-0.10668277740478516 0.6453399658203125 -0.45295143127441406
0.302459716796875 0.57708930969238281 -0.56115150451660156
0.26893424987792969 0.62568473815917969 -0.4862823486328125
0.38987350463867188 0.5803680419921875 -0.51348686218261719
0.33235549926757812 0.51428794860839844 -0.63232612609863281
0.20721054077148438 0.56517791748046875 -0.61096382141113281
0.17187786102294922 0.61555290222167969 -0.53277778625488281
0.35892486572265625 0.62672996520996094 -0.44310188293457031
0.41752338409423828 0.51929283142089844 -0.58079338073730469
0.23852825164794922 0.50132560729980469 -0.68453788757324219
-0.10521125793457031 0.50846481323242188 -0.71617317199707031
-0.20391654968261719 0.48218917846679688 -0.73518562316894531
-0.13765621185302734 0.55606651306152344 -0.64374923706054688
-0.00014495849609375 0.52998733520507812 -0.69059371948242188
-0.077496528625488281 0.44787025451660156 -0.78212547302246094
-0.17930507659912109 0.42428779602050781 -0.79493522644042969
-0.23337078094482422 0.52701950073242188 -0.66846084594726562
-0.034922599792480469 0.57976722717285156 -0.61374664306640625
0.030038833618164062 0.46721076965332031 -0.76156234741210938
0.37671470642089844 0.230194091796875 -0.80352592468261719
0.37133598327636719 0.33886528015136719 -0.75605964660644531
0.45903491973876953 0.23230361938476562 -0.74860572814941406
0.37108612060546875 0.11512947082519531 -0.83695793151855469
0.2832794189453125 0.22209358215332031 -0.85455322265625
0.27822971343994141 0.32803535461425781 -0.80903053283691406
0.45401859283447266 0.34312057495117188 -0.70077705383300781
0.45308589935302734 0.11523818969726562 -0.78362083435058594
0.27756595611572266 0.1098785400390625 -0.88498306274414062
-0.045882225036621094 0.17891311645507812 -0.91721916198730469
-0.15476131439208984 0.15909957885742188 -0.91071510314941406
-0.047163963317871094 0.28120994567871094 -0.88504219055175781
0.067938804626464844 0.1957244873046875 -0.91312408447265625
-0.051966667175292969 0.071134567260742188 -0.93346023559570312
-0.16080093383789062 0.05239105224609375 -0.921051025390625
-0.15449428558349609 0.26068115234375 -0.88479995727539062
0.065152168273925781 0.29834556579589844 -0.87540245056152344
0.061896324157714844 0.087171554565429688 -0.934722900390625
0.61297416687011719 0.40347671508789062 0.24718856811523438
0.61685752868652344 0.41803932189941406 0.28678703308105469
0.64286327362060547 0.38159942626953125 0.2465667724609375
0.61119556427001953 0.39557647705078125 0.20479583740234375
0.57962703704833984 0.41989326477050781 0.24463844299316406
0.58204936981201172 0.43534278869628906 0.28567886352539062
0.64731216430664062 0.39508628845214844 0.28502464294433594
0.64102840423583984 0.3740081787109375 0.20569610595703125
0.57867813110351562 0.41180992126464844 0.200408935546875
-0.76612949371337891 0.28981590270996094 0.0041255950927734375
-0.78755664825439453 0.26887321472167969 0.0067348480224609375
-0.78605079650878906 0.30286407470703125 0.040651321411132812
-0.74035453796386719 0.30737686157226562 0.0031280517578125
-0.74817943572998047 0.28130912780761719 -0.040090560913085938
-0.77121829986572266 0.26056480407714844 -0.036291122436523438
-0.80638599395751953 0.28107070922851562 0.04262542724609375
-0.76027870178222656 0.32129859924316406 0.041105270385742188
-0.72182178497314453 0.29868316650390625 -0.042919158935546875
0.63001346588134766 0.43189430236816406 0.059871673583984375
0.61953830718994141 0.41120719909667969 0.110870361328125
0.66280555725097656 0.40418243408203125 0.068073272705078125
0.64321136474609375 0.4535064697265625 0.0070247650146484375
0.59448146820068359 0.45491981506347656 0.048608779907226562
0.58578872680664062 0.43085098266601562 0.10202789306640625
0.65101146697998047 0.38657760620117188 0.11626815795898438
0.67716503143310547 0.42253875732421875 0.018026351928710938
0.60591030120849609 0.480072021484375 -0.0066356658935546875
-0.71632003784179688 0.29700660705566406 -0.23428535461425781
-0.74660968780517578 0.27036285400390625 -0.22232437133789062
-0.72372531890869141 0.28597068786621094 -0.16040229797363281
-0.68391513824462891 0.32106781005859375 -0.24453544616699219
-0.70923233032226562 0.308349609375 -0.3114166259765625
-0.74215126037597656 0.27867507934570312 -0.29596138000488281
-0.75129413604736328 0.2622222900390625 -0.15181732177734375
-0.69393444061279297 0.30673408508300781 -0.16796684265136719
-0.67407608032226562 0.33586883544921875 -0.324249267578125
0.68971061706542969 0.47304916381835938 -0.15624618530273438
0.67367267608642578 0.47664260864257812 -0.10150146484375
0.72272491455078125 0.43694496154785156 -0.13904571533203125
0.70606136322021484 0.46005821228027344 -0.21099853515625
0.65169620513916016 0.50495147705078125 -0.17511558532714844
0.63496208190917969 0.50785255432128906 -0.11897850036621094
0.70780372619628906 0.4412841796875 -0.085903167724609375
0.73746871948242188 0.42380714416503906 -0.19260978698730469
0.66930866241455078 0.49213409423828125 -0.23098945617675781
-0.671600341796875 0.30740165710449219 -0.52322196960449219
-0.71009063720703125 0.27311515808105469 -0.5004730224609375
-0.68729496002197266 0.31543540954589844 -0.45802116394042969
-0.63021087646484375 0.34029960632324219 -0.54117774963378906
-0.65456676483154297 0.29220008850097656 -0.58322525024414062
-0.69413280487060547 0.2577972412109375 -0.559112548828125
-0.724395751953125 0.28178596496582031 -0.4370269775390625
-0.64752960205078125 0.34758949279785156 -0.47469902038574219
-0.61180973052978516 0.32528877258300781 -0.60218238830566406
0.75382709503173828 0.369598388671875 -0.37065505981445312
0.73917007446289062 0.40838432312011719 -0.319366455078125
0.77916336059570312 0.33515739440917969 -0.3499908447265625
0.76459026336669922 0.32139968872070312 -0.41735458374023438
0.72180461883544922 0.40082740783691406 -0.39314651489257812
0.70547103881835938 0.44040870666503906 -0.34092140197753906
0.76690578460693359 0.37210845947265625 -0.29961204528808594
0.78638267517089844 0.29255867004394531 -0.394683837890625
0.73459529876708984 0.35007667541503906 -0.44132804870605469
-0.60825824737548828 0.20708274841308594 -0.73032569885253906
-0.64942073822021484 0.17481231689453125 -0.70312881469726562
-0.621795654296875 0.24194145202636719 -0.68819808959960938
-0.56218624114990234 0.23898887634277344 -0.75275230407714844
-0.59773540496826172 0.16541671752929688 -0.76157379150390625
-0.63711643218994141 0.13840484619140625 -0.73325347900390625
-0.66307449340820312 0.20784378051757812 -0.66199111938476562
-0.57656097412109375 0.27483367919921875 -0.70929145812988281
-0.55156993865966797 0.19463729858398438 -0.78565216064453125
0.763946533203125 0.10791587829589844 -0.51276016235351562
0.74929332733154297 0.021581649780273438 -0.52913856506347656
0.735076904296875 0.12073707580566406 -0.54576301574707031
0.77066516876220703 0.18935775756835938 -0.48906135559082031
0.78791236877441406 0.10315513610839844 -0.47648048400878906
0.77751445770263672 0.02207183837890625 -0.49087905883789062
0.71922492980957031 0.029108047485351562 -0.56428146362304688
0.74245262145996094 0.2082672119140625 -0.51875495910644531
0.79123783111572266 0.17697334289550781 -0.45764350891113281
-0.59799575805664062 -0.0094852447509765625 -0.76519584655761719
-0.55049037933349609 0.0045528411865234375 -0.79695510864257812
-0.60237693786621094 -0.078115463256835938 -0.73971176147460938
-0.64083385467529297 -0.015542984008789062 -0.73074722290039062
-0.59341239929199219 0.056116104125976562 -0.77917671203613281
-0.54660987854003906 0.075862884521484375 -0.80815315246582031
-0.55462265014648438 -0.069387435913085938 -0.77348136901855469
-0.64764690399169922 -0.079526901245117188 -0.70450210571289062
-0.63331413269042969 0.043628692626953125 -0.74684333801269531
0.63114833831787109 0.18858528137207031 -0.62805938720703125
0.58535671234130859 0.2106781005859375 -0.65884208679199219
0.63231372833251953 0.29296493530273438 -0.58900070190429688
0.66933345794677734 0.16379547119140625 -0.60157966613769531
0.62010288238525391 0.078929901123046875 -0.65716934204101562
0.57660675048828125 0.096250534057617188 -0.69147682189941406
0.58378028869628906 0.31945228576660156 -0.61548233032226562
0.67327404022216797 0.26258087158203125 -0.56711387634277344
0.65605258941650391 0.06011962890625 -0.62659835815429688
-0.39504146575927734 0.079256057739257812 -0.86769866943359375
-0.3914642333984375 0.169097900390625 -0.86311149597167969
-0.33046054840087891 0.10834693908691406 -0.88403511047363281
-0.40072059631347656 -0.014202117919921875 -0.85853767395019531
-0.4501953125 0.0507354736328125 -0.84827423095703125
-0.44617271423339844 0.1341705322265625 -0.85022354125976562
-0.32766342163085938 0.20383262634277344 -0.87232208251953125
-0.33632564544677734 0.008800506591796875 -0.88144111633300781
-0.45558261871337891 -0.035900115966796875 -0.83314895629882812
0.5919647216796875 0.51214599609375 -0.43586349487304688
0.53467845916748047 0.54702186584472656 -0.45040702819824219
0.56957721710205078 0.55340194702148438 -0.377716064453125
0.64119148254394531 0.47252273559570312 -0.42524909973144531
0.61108016967773438 0.45688438415527344 -0.49114418029785156
0.55666351318359375 0.48987770080566406 -0.5092315673828125
0.50956439971923828 0.58942985534667969 -0.38887214660644531
0.62123012542724609 0.5129852294921875 -0.36977767944335938
0.65772724151611328 0.4189910888671875 -0.47742843627929688
-0.41836166381835938 0.36286544799804688 -0.77080726623535156
-0.43872261047363281 0.40134048461914062 -0.71932029724121094
-0.36092758178710938 0.40827751159667969 -0.76235580444335938
-0.40251922607421875 0.31287574768066406 -0.81345176696777344
-0.46799087524414062 0.31694602966308594 -0.77329635620117188
-0.48591041564941406 0.35425758361816406 -0.72526931762695312
-0.38398933410644531 0.44831085205078125 -0.70660018920898438
-0.34249496459960938 0.35586929321289062 -0.80990409851074219
-0.45432186126708984 0.26912879943847656 -0.81181144714355469
0.50014781951904297 0.61700439453125 -0.19449615478515625
0.43339633941650391 0.65375709533691406 -0.19587326049804688
0.48093700408935547 0.61693572998046875 -0.1321868896484375
0.55791664123535156 0.57673263549804688 -0.19435501098632812
0.52215576171875 0.60527992248535156 -0.25640487670898438
0.45731449127197266 0.64224052429199219 -0.26100540161132812
0.412811279296875 0.65293693542480469 -0.13048934936523438
0.53976821899414062 0.57770919799804688 -0.134613037109375
0.57819271087646484 0.56459236145019531 -0.25363540649414062
-0.50979804992675781 0.46671295166015625 -0.5316925048828125
-0.53235435485839844 0.47074317932128906 -0.45965957641601562
-0.46230125427246094 0.51470756530761719 -0.50858497619628906
-0.48589420318603516 0.45282363891601562 -0.59876823425292969
-0.55033206939697266 0.41949272155761719 -0.54633522033691406
-0.57118988037109375 0.42466163635253906 -0.47665977478027344
-0.48650074005126953 0.51782608032226562 -0.43390846252441406
-0.43631458282470703 0.50104331970214844 -0.57876968383789062
-0.52844333648681641 0.40519523620605469 -0.6107025146484375
0.44960308074951172 0.53853797912597656 0.052743911743164062
0.38216304779052734 0.56838607788085938 0.062524795532226562
0.44632911682128906 0.50401115417480469 0.11009407043457031
0.50628662109375 0.50743865966796875 0.043962478637695312
0.45566082000732422 0.57445144653320312 -0.0077190399169921875
0.38725185394287109 0.60684013366699219 -0.0002040863037109375
0.38018894195556641 0.53100967407226562 0.12125778198242188
0.50138473510742188 0.476226806640625 0.10039901733398438
0.51383018493652344 0.53997039794921875 -0.014791488647460938
-0.58284759521484375 0.41701698303222656 -0.21582412719726562
-0.59600925445556641 0.3914947509765625 -0.13671302795410156
-0.53888893127441406 0.45621109008789062 -0.18587112426757812
-0.56876277923583984 0.44318199157714844 -0.29935073852539062
-0.61869144439697266 0.37990570068359375 -0.23701667785644531
-0.63168144226074219 0.35814476013183594 -0.15797042846679688
-0.55180168151855469 0.42722702026367188 -0.10705757141113281
-0.52469158172607422 0.48571395874023438 -0.27004814147949219
-0.60517597198486328 0.40237617492675781 -0.31978034973144531
0.44198894500732422 0.47869110107421875 0.25176239013671875
0.43996906280517578 0.49534416198730469 0.28940200805664062
0.49572086334228516 0.45646858215332031 0.24584388732910156
0.44338607788085938 0.4719696044921875 0.20989036560058594
0.37855052947998047 0.49945449829101562 0.25880241394042969
0.37584781646728516 0.51725006103515625 0.29303932189941406
0.49482536315917969 0.47272872924804688 0.28617668151855469
0.4967498779296875 0.44893836975097656 0.20170211791992188
0.37958049774169922 0.49380111694335938 0.2196044921875
-0.64173316955566406 0.37687110900878906 0.031108856201171875
-0.67926216125488281 0.34981918334960938 0.015411376953125
-0.65892696380615234 0.39197921752929688 0.065473556518554688
-0.59545135498046875 0.40494346618652344 0.05326080322265625
-0.62509250640869141 0.36960601806640625 -0.012178421020507812
-0.66169166564941406 0.34164810180664062 -0.03057861328125
-0.69741725921630859 0.36465835571289062 0.052873611450195312
-0.61225414276123047 0.42078781127929688 0.083189010620117188
-0.57950592041015625 0.39916419982910156 0.013589859008789062
0.10366725921630859 0.61892890930175781 0.056230545043945312
0.10173130035400391 0.57842254638671875 0.12811279296875
0.20792770385742188 0.61052513122558594 0.066316604614257812
0.11063957214355469 0.65806388854980469 -0.020660400390625
-0.006317138671875 0.61834907531738281 0.039157867431640625
-0.011273384094238281 0.57729721069335938 0.12141227722167969
0.20703792572021484 0.57036018371582031 0.13150215148925781
0.21342754364013672 0.65046882629394531 -0.0045299530029296875
0.0029888153076171875 0.65642738342285156 -0.044679641723632812
-0.32124233245849609 0.56410408020019531 -0.065782546997070312
-0.408782958984375 0.53182601928710938 -0.10856437683105469
-0.33297538757324219 0.52741432189941406 0.015277862548828125
-0.22285842895507812 0.59018516540527344 -0.023439407348632812
-0.30750274658203125 0.59884834289550781 -0.15307998657226562
-0.39471054077148438 0.56550979614257812 -0.19447517395019531
-0.42103767395019531 0.49731636047363281 -0.029703140258789062
-0.23340034484863281 0.55111122131347656 0.063421249389648438
-0.20988750457763672 0.62603378295898438 -0.11262130737304688
0.10918426513671875 0.60141372680664062 0.3095550537109375
0.059708595275878906 0.59028816223144531 0.31223487854003906
0.090653419494628906 0.63563346862792969 0.30695152282714844
0.15562248229980469 0.61633491516113281 0.31335067749023438
0.12489223480224609 0.56815528869628906 0.3119964599609375
0.062220573425292969 0.55340003967285156 0.31543731689453125
0.052312850952148438 0.62584877014160156 0.309417724609375
0.12670135498046875 0.64694023132324219 0.31104087829589844
0.18711662292480469 0.58421134948730469 0.31548118591308594
-0.42491436004638672 0.54012298583984375 0.17440223693847656
-0.42995357513427734 0.57306098937988281 0.16860771179199219
-0.37571334838867188 0.54043197631835938 0.20245361328125
-0.41872787475585938 0.50855064392089844 0.18115615844726562
-0.47590255737304688 0.54352188110351562 0.15285873413085938
-0.46950435638427734 0.57516288757324219 0.15238571166992188
-0.39160633087158203 0.57263755798339844 0.19178390502929688
-0.35533046722412109 0.507965087890625 0.21569633483886719
-0.48464012145996094 0.51037406921386719 0.15331649780273438
0.12785911560058594 0.5188140869140625 0.27130889892578125
0.13471603393554688 0.5241851806640625 0.29540443420410156
0.21807575225830078 0.52063941955566406 0.26866912841796875
0.11625957489013672 0.525115966796875 0.23695182800292969
0.041608810424804688 0.51136016845703125 0.27492332458496094
0.054849624633789062 0.51125335693359375 0.29923820495605469
0.21965789794921875 0.53261375427246094 0.29523658752441406
0.21391868591308594 0.52201271057128906 0.23343658447265625
0.016693115234375 0.52076339721679688 0.24118614196777344
-0.38157463073730469 0.46703529357910156 0.15821456909179688
-0.46292209625244141 0.45165634155273438 0.11810684204101562
-0.39738368988037109 0.46959304809570312 0.17620468139648438
-0.30124759674072266 0.47686004638671875 0.19956779479980469
-0.3632659912109375 0.47559547424316406 0.12862777709960938
-0.44755649566650391 0.4540863037109375 0.084917068481445312
-0.4786529541015625 0.46108818054199219 0.13903427124023438
-0.31923961639404297 0.47340011596679688 0.216522216796875
-0.27424812316894531 0.49092674255371094 0.17597770690917969
-0.085356712341308594 0.47308349609375 0.29710769653320312
-0.082268714904785156 0.46496009826660156 0.31244659423828125
-0.0685577392578125 0.48436927795410156 0.28885078430175781
-0.10504722595214844 0.4720916748046875 0.28903579711914062
-0.10482311248779297 0.45800399780273438 0.31012725830078125
-0.053853034973144531 0.47883224487304688 0.30986404418945312
-0.096645355224609375 0.49110031127929688 0.26751708984375
-0.16985797882080078 0.46528816223144531 0.28021812438964844
-0.19021129608154297 0.47288322448730469 0.26395988464355469
-0.17072486877441406 0.45691299438476562 0.29504203796386719
-0.14969825744628906 0.46803474426269531 0.28028297424316406
-0.16382026672363281 0.48475837707519531 0.25379371643066406
-0.20454692840576172 0.46458816528320312 0.27892494201660156
-0.14544296264648438 0.45444679260253906 0.30238914489746094
0.72372055053710938 0.24265289306640625 0.1954345703125
0.71988582611083984 0.25338363647460938 0.24159431457519531
0.74085521697998047 0.17806625366210938 0.17107200622558594
0.73038387298583984 0.23553085327148438 0.14787673950195312
0.69922351837158203 0.30128669738769531 0.21986961364746094
0.69969654083251953 0.31263542175292969 0.26154708862304688
0.73219203948974609 0.189239501953125 0.2223968505859375
0.75203514099121094 0.16975593566894531 0.11862564086914062
0.70171260833740234 0.29441452026367188 0.17649078369140625
-0.81693649291992188 0.15082168579101562 0.0074310302734375
-0.81186485290527344 0.098453521728515625 0.012264251708984375
-0.82343769073486328 0.16319084167480469 0.057374954223632812
-0.81388378143310547 0.19948387145996094 0.0075702667236328125
-0.81289863586425781 0.14066314697265625 -0.04729461669921875
-0.81342124938964844 0.086359024047851562 -0.048969268798828125
-0.81238842010498047 0.11227607727050781 0.069658279418945312
-0.82586193084716797 0.21111488342285156 0.050298690795898438
-0.80465221405029297 0.19052505493164062 -0.040853500366210938
0.76055049896240234 0.25055503845214844 0.01940155029296875
0.78481388092041016 0.17841148376464844 -0.012075424194335938
0.77176189422607422 0.26081085205078125 -0.020200729370117188
0.72916030883789062 0.31438064575195312 0.047817230224609375
0.74945354461669922 0.24037551879882812 0.059404373168945312
0.77471923828125 0.17076683044433594 0.026630401611328125
0.79466438293457031 0.18560218811035156 -0.050262451171875
0.74223804473876953 0.32726097106933594 0.0049381256103515625
0.71717548370361328 0.30193519592285156 0.090166091918945312
-0.81036853790283203 0.13654136657714844 -0.22083854675292969
-0.80885791778564453 0.139068603515625 -0.27855873107910156
-0.81786346435546875 0.07675933837890625 -0.2222442626953125
-0.81055641174316406 0.13406753540039062 -0.16269683837890625
-0.79506015777587891 0.19083213806152344 -0.21599197387695312
-0.7933502197265625 0.19495391845703125 -0.27929878234863281
-0.81669139862060547 0.077289581298828125 -0.27611923217773438
-0.81736564636230469 0.076009750366210938 -0.16742897033691406
-0.79610729217529297 0.18683242797851562 -0.15378761291503906
0.79732513427734375 0.26410675048828125 -0.14679908752441406
0.81389236450195312 0.19476699829101562 -0.16639518737792969
0.80353832244873047 0.25013160705566406 -0.19300270080566406
0.77637863159179688 0.33184051513671875 -0.13324546813964844
0.79036235809326172 0.26968765258789062 -0.10268402099609375
0.80920505523681641 0.19634628295898438 -0.12666702270507812
0.81829833984375 0.18260383605957031 -0.20855712890625
0.78563785552978516 0.31773567199707031 -0.1826934814453125
0.76633071899414062 0.33805465698242188 -0.085336685180664062
-0.78339290618896484 0.12760543823242188 -0.44008064270019531
-0.76937389373779297 0.11282157897949219 -0.48864364624023438
-0.79371261596679688 0.071809768676757812 -0.42704963684082031
-0.79552555084228516 0.13619804382324219 -0.38872337341308594
-0.76683902740478516 0.18295669555664062 -0.45677375793457031
-0.75206756591796875 0.16758346557617188 -0.50955009460449219
-0.7814483642578125 0.0587310791015625 -0.47167778015136719
-0.80457401275634766 0.076793670654296875 -0.37909317016601562
-0.77957534790039062 0.19249153137207031 -0.40074539184570312
0.81693077087402344 0.16719436645507812 -0.34195899963378906
0.81443309783935547 0.1348419189453125 -0.39071273803710938
0.80950641632080078 0.2321929931640625 -0.33533477783203125
0.81440448760986328 0.19959259033203125 -0.29153823852539062
0.82251644134521484 0.1058807373046875 -0.35145759582519531
0.81512165069580078 0.06787872314453125 -0.40125656127929688
0.81014347076416016 0.19975090026855469 -0.38138771057128906
0.80338096618652344 0.26571273803710938 -0.28517913818359375
0.82400417327880859 0.13712310791015625 -0.30170059204101562
-0.72350120544433594 0.037120819091796875 -0.62115287780761719
-0.70684528350830078 0.088918685913085938 -0.646392822265625
-0.70333576202392578 0.0095195770263671875 -0.65900993347167969
-0.73614883422851562 -0.01128387451171875 -0.59966659545898438
-0.73990154266357422 0.065700531005859375 -0.57944869995117188
-0.72220897674560547 0.11857795715332031 -0.60517311096191406
-0.68893527984619141 0.061290740966796875 -0.68123626708984375
-0.71492195129394531 -0.043155670166015625 -0.63548660278320312
-0.75333499908447266 0.016218185424804688 -0.5584716796875
0.32370090484619141 -0.46818161010742188 -0.031116485595703125
0.27724266052246094 -0.503753662109375 -0.020318984985351562
0.32796573638916016 -0.49060440063476562 -0.12014961242675781
0.36969947814941406 -0.43115615844726562 -0.040422439575195312
0.32016277313232422 -0.44064521789550781 0.054849624633789062
0.274810791015625 -0.47870445251464844 0.071493148803710938
0.28110122680664062 -0.52426338195800781 -0.11419296264648438
0.37282180786132812 -0.45662498474121094 -0.1261749267578125
0.36641025543212891 -0.39874839782714844 0.04477691650390625
-0.33773708343505859 -0.44596481323242188 0.034631729125976562
-0.35923004150390625 -0.46883392333984375 -0.054906845092773438
-0.29205703735351562 -0.48136520385742188 0.044086456298828125
-0.31444454193115234 -0.41882514953613281 0.1191558837890625
-0.38304615020751953 -0.41025352478027344 0.023969650268554688
-0.40016937255859375 -0.43610191345214844 -0.062295913696289062
-0.31694316864013672 -0.50227546691894531 -0.0502166748046875
-0.26566410064697266 -0.45644760131835938 0.13496208190917969
-0.36299324035644531 -0.37841987609863281 0.10719680786132812
0.52753734588623047 -0.34157562255859375 -0.072620391845703125
0.53922176361083984 -0.30123329162597656 -0.004131317138671875
0.47211551666259766 -0.36672401428222656 -0.060705184936523438
0.5172576904296875 -0.37383651733398438 -0.14076805114746094
0.58046817779541016 -0.31959915161132812 -0.084871292114257812
0.59980201721191406 -0.27568435668945312 -0.024114608764648438
0.47664642333984375 -0.32781600952148438 0.01668548583984375
0.4673309326171875 -0.39718055725097656 -0.136505126953125
0.56576251983642578 -0.35446929931640625 -0.14502906799316406
-0.54120254516601562 -0.32789802551269531 -0.019168853759765625
