# XYZ point cloud file
0.36085543825001143 0.19144424427444484 -0.021301600614838739
0.10454365258436271 0.18639345090223891 -0.019336423569162431
-0.71424013778206941 -0.47525000799902717 -0.22215328492051883
0.40504759359640402 0.41307535544951257 0.015842251049241363
0.13027333241156824 0.42595842762158931 0.035227341062744222
0.25269060066530569 0.59818019339541539 0.035167134527181315
0.12172391528740967 0.19611937950069613 -0.019347154731273214
0.52464214681437882 0.32403787241069359 0.0073905281415124202
0.41537730657313243 0.43103062658323932 0.021917971339174752
0.51690254414846926 0.3619396450524448 0.010199324414062905
-0.35941760287082669 -0.4081864929435719 -0.18476887507199874
0.013277969782178989 0.065861395924835087 -0.062517362829344253
0.49389875720172194 0.44750491662267144 0.024368547669490315
0.43687768467988192 0.35290723849479999 0.0062708155969479762
0.14855652915331352 0.16142083303073207 -0.028451926268898947
0.035433004699261472 0.086419823984708266 -0.048285968950054881
0.081862951434574338 0.37423424749349099 0.025522522744916759
0.10824913155514271 0.39479933226392472 0.029034112271278278
0.20804199799233425 0.52660097507905235 0.033311811005243053
0.43925986812898937 0.44048098065479468 0.022316086103910754
0.055812057870008314 0.09603162474881799 -0.045689478070976758
-0.74875994223345443 -0.51630087155889726 -0.24915305640623781
0.08936368620031665 0.11768841936850727 -0.039622917092615839
0.11121484909777246 0.13071883844964205 -0.036714254524539525
0.29269166179925366 0.23235066434207674 -0.0093999837475473025
0.49439497733826332 0.35527117781388817 0.0070792094886219514
0.35915259130400157 0.17425428282878919 -0.024076230390697617
0.39082961812129036 0.34088833585409972 0.0035114157077318908
-0.21431612898329588 -0.347677296900887 -0.13394356982192776
0.18868673271147535 0.23765564129490624 -0.0098326763660901151
-0.039056174796282872 0.12180917152943493 -0.035722707402688375
0.13677252552076902 0.14576264311929599 -0.032559118783524493
0.16461279126174488 0.16181134182795276 -0.029094101044865678
-0.84751008415024476 -0.55860462542762068 -0.28373063017173317
-0.88289342828314465 -0.57006855734901052 -0.29882074296313688
0.16650868156691057 0.22618637608926129 -0.013202560126682944
0.20866077870641281 0.27291676858983482 -0.00057432112375221944
0.068270544284139811 0.36172291547215263 0.018697212345940684
0.07785983988067946 0.36434422906743258 0.020632516355402808
0.093231123304813424 0.37266334658804912 0.023140032899891444
0.090365095554905572 0.36338326758805994 0.020229448078628282
0.40085946317705407 0.19726564485152931 -0.017969364811494776
0.44847586985279997 0.32189320925485099 0.00090372426784443571
0.43494835418932232 0.31240823416869024 -0.00066826935104588592
-0.062158481283598466 0.090814644992151194 -0.048257731954732819
0.55368287256271742 0.011314481742573435 0.023060520541417856
-0.20342477153441596 -0.04504290243125908 -0.098890613314421033
-0.36744265364058371 -0.36280743980466035 -0.18557695390331763
-0.33256634143654296 -0.35122443066669273 -0.17395324086769343
0.29938357901884433 0.31103231370972129 -0.001233009193979423
0.39042248373371224 0.3296683897776429 0.0027015595702163664
0.44994789466299823 0.27840285330017522 -0.0049484466095400803
0.13189671225208555 0.20868655307762651 -0.015056596463920935
-0.29923290451619344 -0.37282417094112219 -0.16308485497685746
0.23124609325707107 0.19136001090119681 -0.022365272848215573
0.33254896977764875 0.23520682132680282 -0.011855498991860169
0.18452175559804584 0.18083772915095686 -0.022241568408260831
0.25537123920316218 0.20032039184521988 -0.019567008089347915
-0.46408160064771642 -0.40442293252184491 -0.21434215763739856
-0.40955298388273154 -0.37771698474509297 -0.19825816530464352
-0.4529609292954534 -0.36577309439580841 -0.14989642511829918
0.061407194437566481 0.16117077060083318 -0.027141757781162873
0.48267087687229687 0.33881603697815699 0.0036757761407616441
0.2244069700836358 0.26774047117920308 -0.0035372356085955348
0.27957280400461509 0.20923276414459657 -0.017245165222572967
0.37004204617344005 0.3520496985677557 0.0051218292396922049
-0.076052375327998356 0.094245746389845841 -0.041999189188032499
0.075525568281729738 0.334873964461055 0.013599752755456135
0.096877955824512307 0.34704477603084083 0.01693943384313068
0.47758528590276283 0.22789718521902991 -0.0089847381763301926
0.063550947678238101 0.08021958525966344 -0.07149846804288193
0.4057875138142194 0.28352056469958864 -0.006802009282439847
-0.34180644726007947 -0.32760493411328273 -0.16085762825700695
-0.51220886179374425 -0.40661186636055202 -0.038764802462454159
0.26148036611226438 0.33195895589362312 0.022735708906401392
0.29880498477129258 0.21670697395541794 -0.015230764518789963
0.44973059957308825 0.36509547386066377 0.0080438683635143393
0.46070378292211023 0.40067852272271143 0.012335038111691898
0.51917583893680508 0.3910849350859209 0.01462345136234372
-0.092634940793732468 -0.31016069656955203 -0.096419972273028925
0.062726827410994779 0.33486498115934182 0.01056107003133705
0.14166830181244017 0.1697089113317638 -0.027884959215626587
0.30710226652830191 0.36767382018801964 0.018585314853627466
-0.055732623561064898 0.079896750579962372 -0.051650451267073461
-0.15363795023336868 0.027616960657606882 -0.069630871196886435
-0.30726713876084277 -0.33730339779014873 -0.16400241689030737
0.34942813612062718 0.35995404760511018 0.0067463544358122851
0.39953334702497306 0.42308705658032242 0.021692511431735312
-0.70623233497484694 -0.47760840146083083 -0.2244234908415001
0.040749676133550849 0.12920853547011291 -0.037910784290439786
-0.77367626221889441 -0.51493993614745381 -0.25415329426972444
0.40192581952676559 0.38923765968244695 0.010278383486966219
0.23565904825271505 0.31122712451922308 0.02026433127121316
0.056853408067008115 0.31795535365015315 0.006655486265378735
0.5802080272649246 0.007001845305115495 0.020324780014437244
0.14582773903758106 0.2225594262156747 -0.010015216713302078
0.48372811054801845 0.26600123619722904 -0.001775994873534914
0.23912739705429698 0.30241330338077699 0.008525383185900709
-0.81176167380738429 -0.52434760142944636 -0.26584868992259997
0.28321691809124544 0.20446289769763748 -0.021171811467851659
0.046372082764618905 0.087338009260752081 -0.054226661409876198
-0.74635988297356193 -0.49452235768491182 -0.23906309786757052
-0.89285815974453575 -0.57432538627814544 -0.29553891213883798
0.44761005724639918 0.24264709996795641 -0.0093670963888143888
0.064370583941076753 0.30956042646684789 0.0086846789156904691
0.48703004149656837 0.21718049899373781 -0.008585529544712478
0.46309302696428972 0.24263117778412813 -0.0084557922623372805
-0.70924083761917767 -0.48263958785784222 -0.22827573424873049
0.47704911451381576 0.24509464763337707 -0.0069741425431906756
-0.30082220220576283 -0.32038899748520588 -0.15538490869422544
0.20011813775215975 0.24030333450602992 -0.011695799717751421
0.34345352587358347 -0.025644529700496577 -0.037792506689718369
0.49009168973001038 0.23298702876570854 -0.0068856661074035708
0.046579898879256065 0.5927086483221311 -0.15181989412056823
0.059564444358092272 0.096334713487436829 -0.049702394975578629
0.47515223562224351 0.20473255196169315 -0.010546983309536656
-0.019606045469498623 0.1358674548922032 -0.032350226579781372
-0.68508057912581533 -0.48551006990608414 -0.22473856004770926
0.50582484328453248 -0.037623613595982874 0.018374680793286191
0.055739987854506068 0.29215500104013525 0.006062634661974986
0.06679065372679982 0.29179613393835879 0.0077633149501697141
0.52538114309777895 0.05895800822587649 0.032304550655789133
0.52682555435709433 0.34354165231036937 0.0093355122119840039
0.32548385982277073 0.34910339558248893 0.0074915245469768244
0.15832741584325283 0.17848819664521365 -0.025490921369431319
-0.078598966153448524 0.08652516784852704 -0.049087243428217353
0.056481560495792227 0.033195054040197292 -0.085167637953583425
-0.28002462776519632 -0.31244323615844394 0.036902061968581146
0.031977513204672237 0.17913612283658686 -0.017219395541470034
0.07233496319189614 0.10385062118983868 -0.051282647290935596
0.28719369347428531 0.35005384748888257 0.01741783562794702
0.2519423512959218 0.31290386237152745 0.0092908747990292639
0.38394878095124402 0.39595905713881141 0.013053213291757709
-0.83968129574587902 -0.5286494220230793 -0.27221759626253156
0.24913534041983171 0.21299854552481001 -0.014313508399614289
0.17449267186302303 -0.2484288375642203 -0.045446822122355734
0.071766084285311282 0.18937909894390881 -0.014025278865051061
0.260922167830901 0.18217016216320392 -0.031457809183650709
0.38419407189546007 0.21632851566572064 -0.015422566146629291
-0.6727332668717696 -0.50722761545699235 -0.22336634442592718
0.050360819437425985 0.27582561163587904 0.0023351356301201387
0.087075501642115638 0.29839511096608362 0.012356256963497209
0.51717379177230571 0.34740811722217746 0.007889889952840401
0.4703204977605312 0.43973715760128229 0.021449105993745748
0.056543319381037072 0.056131941893785786 -0.080194101197426815
0.064385304004638599 0.035389050254373444 -0.083178350761365899
0.0053635725552629854 0.16008850536251096 -0.021656565194933475
0.12121819018320013 0.11224682560599142 -0.058594225983551851
0.093362412754188218 0.099704363636744731 -0.063343295938674438
0.064792767934754525 0.086042577036465673 -0.068458423139696578
0.042346991970853787 0.075934680941880828 -0.070826871354321336
0.038648740051356101 0.067546139973746477 -0.076039988717060469
-0.5429345818961383 -0.46514353866476998 -0.2385892852790451
-0.45309118948428095 -0.40409926475441882 -0.21310150525683391
0.45338463777043897 0.45273987711990227 0.025857382725288064
0.36173197501407001 0.39959905426542974 0.021207518327284819
0.37977156402405132 0.41199574119816873 0.021334831395749321
0.58259216011754078 0.068471904450365884 0.040648862362730021
0.60416059025717384 0.065035744486034552 0.039774019861932686
0.047546466598712422 0.26298401846818553 -0.00012140445162872604
0.07290121868929389 0.27516143838938856 0.0083742855350135981
0.030178519845260654 0.074294705219875468 -0.068379433417358831
0.058343677510833802 0.045921779693832931 -0.083023156628160788
0.41416159831710986 0.18755675660565352 -0.017460202459574442
-0.38824553517902249 -0.34511264216858351 -0.17177897063331571
0.41792875090206405 0.12713547263505465 -0.020214121195896995
0.39367903419255867 0.12311928469451683 -0.024758508333128926
0.55561948567192265 -0.01673759137433084 0.016759064496282894
0.6099096337865253 -0.013028210604348445 0.02611193128522582
0.17345341427829786 0.11973141312762525 -0.053242474221997516
0.14968538575458823 0.14753115700721331 -0.040150593204448082
0.32612573293152264 0.16062447568169524 -0.030503498498116732
0.025854644045737785 0.25094735088835574 -0.0058990040155677825
0.058161684924554646 0.26270949392401555 0.0032150362109780728
0.063430492830670038 0.25455367750022884 0.0056998503273019141
0.024732072777383651 0.091369519177725955 -0.049038801658083331
0.047353267307752356 0.10417013762051397 -0.044951578459407338
0.092163352850182179 0.23663801871632195 0.017967533527790541
-0.26440711734453737 -0.37560414953253751 -0.1490508682287815
0.40154553456343089 0.18281269239268028 -0.01924767306678915
0.50624992456605711 -0.019730836041301103 0.022001853843571589
0.53477458405578693 -0.017303919322691819 0.018748116407757254
0.25444319447040381 0.15672580158839278 -0.03894834422019372
-0.32943337298072128 -0.36109467545143126 -0.1733363380916621
-0.049665305620257838 0.010328161100781053 -0.097141614224000222
-0.031142483207453719 0.021551016784300714 -0.093642652454722197
0.31602987932211923 0.15832388483146964 -0.032074920219043429
-0.76588279112100288 -0.53594238583772746 -0.25229551104317099
0.41125695448486593 0.31370152524279593 0.0012903830917326276
0.044971859593953556 0.24142988303413926 -0.00064339926566517325
0.062518799181248141 0.23530308981127934 0.0044926674481659545
0.07554234617873179 0.225398214271749 0.010320913636171297
0.42058177327500629 0.14865342648051971 -0.018293896008580945
-0.7270536832368506 -0.49866361853937669 -0.23901064441827735
-0.70376635456360459 -0.50393574979068045 -0.23350035180459855
-0.3265102917761854 -0.37713716876790215 -0.17229432812249396
0.34688173086170182 -0.0047952183342365728 -0.035397604996334764
0.18621966799237666 0.15199206655410169 -0.043780779404037573
0.28081626072949933 0.17719211591088424 -0.031973922265331134
0.27804003339437422 0.34125300892876798 0.017275630700188199
0.47772727935204179 -0.04362432452478604 0.019809437960740278
0.037647739152704474 0.081761100567393719 -0.052888720503202785
0.052412026817211133 0.23601543905237143 0.0011291383169790559
0.069292029398837052 0.23354779089843358 0.0070340191630843263
0.13349458512765622 0.11070177988598839 -0.059037829051385715
0.29994500271021135 0.18366735745744833 -0.029560200474660236
-0.48147040017254783 -0.44576556424474312 -0.22918309878197229
0.52758081935945844 -0.036591209427661475 0.01603399221866561
0.22730011771134112 0.18117783267067722 -0.029941488010691131
-0.18499168063347471 0.010204325312895612 -0.068752452107675777
0.014228250847122426 0.20925846332027565 -0.0099052247405667926
0.032375570155343092 0.2165025521532753 -0.0052960537761269633
0.048582728045348578 0.22578187383407755 -0.0007148834075527688
0.052486881086942105 0.21470585673752129 0.0011799619740518186
0.058952877588596353 0.2128907919413292 0.0037070795646578503
0.40930590866073835 0.15648091218535054 -0.020403768903163422
-0.17120327519592765 -0.34448911262983994 -0.1172903909011902
0.28647627502024953 0.35601826150810556 0.035887082667972442
0.30725612320380719 0.37540885192169071 0.037052888881814128
-0.5229003834698368 -0.41260748596158869 -0.054609909369018272
0.54028918422149363 0.4301009369778388 0.029862625980482005
0.035146138597929699 0.20414405182757012 -0.0046925830892235731
0.054579150281183209 0.20336542152923887 0.0015042300580818957
0.071810357755451304 0.21177208667309166 0.0038686174998833756
0.25714028125126415 0.32952317411856669 0.031889820355875703
0.26636756001870371 0.33769737673353895 0.034480071915678034
0.31893747950262658 0.38614643284471928 0.033237844748870538
0.34192618206323555 0.40641606370338312 0.035125134458355051
0.36241183533348742 0.42305709195592289 0.035832737937747078
0.37790601909571536 0.43410075898583589 0.035656664882675493
0.39656904953075722 0.44726408343251212 0.036261200922983183
0.41593248798048116 0.46045073200229769 0.036303463923288398
0.43403526907647416 0.47099534790686626 0.036430888075035583
0.45075445891065674 0.47844950017946086 0.036750618094853749
0.46361741833859305 0.47959217003292132 0.035688608946275791
0.30730555936223136 0.29837678897587772 -0.0030568048106441037
0.11540213643154962 0.22745681962172615 0.0011139951882767896
0.092293670894501911 0.2028711086474706 -0.0080041985202077282
-0.0088620420010054879 0.049688290443387295 -0.074944904999206169
0.46218637455678713 0.35175425584515452 0.0058960876228389136
0.0011601609477858155 0.18748265215357485 -0.014144818748991234
0.011143737371148155 0.18958793589463685 -0.01163389325697109
0.040273940862047941 0.1979087955010268 -0.0026141905253356801
0.28384186839677683 0.35391974323548059 0.032317329565841352
0.29754205352202445 0.36673539847082193 0.031579033315859206
0.47951092142122553 0.4835523127277721 0.036668683460668205
0.48886738057545387 0.47680673504135029 0.034336781055711613
0.34977765425663832 0.18529518446818471 -0.023476602233036076
0.50769183506705673 0.39781396068962138 0.014261585319218034
0.54663703454131496 0.34053294498290487 0.01871631584358277
0.10193239157800471 0.18050887640168511 -0.022689302000087563
0.30475665446603112 0.33529341976187155 0.0074471630518046228
0.018186111382880621 0.17833759237662683 -0.010251374650577905
0.040232626577151764 0.1910215498987613 -0.0062005938888079204
0.061295100176581019 0.20529191959642379 -0.0021187472884039438
-0.75413142984860004 -0.52774493306419323 -0.25342561789119233
-0.01386095811128718 0.039041405124536688 -0.086150850158326187
0.54353081620786592 0.062534299526182835 0.040317969796361319
0.55918505551983233 0.062184311781321 0.039382230659477879
0.24841776453852554 0.32224643714149348 0.026438092102103461
0.26782760100303293 0.3390396129476807 0.027841639134107699
0.31229693530902197 0.37969578439907803 0.028661304499687568
0.33334478457314437 0.39795514631232809 0.029687110575343845
0.34968001834928342 0.4101531598869288 0.029694322904772724
0.36836287414316049 0.42221958560866746 0.030775861953936307
0.38772137199451434 0.43446422106907523 0.031407210655094608
0.40713703922617045 0.44867010671775187 0.031568156199397235
0.42364816862001536 0.45789827966938734 0.031459240684146572
0.44068996278984518 0.46537606756318795 0.031819166886776135
0.47644838380869209 0.47579045309073464 0.033723380261317687
0.6065980575965676 0.0062999130083891686 0.025939582931418514
0.5830156243957183 0.062572819120839007 0.037296198282718879
0.38149070649345818 0.22563199441437209 -0.013960485932035166
0.076060060898536119 0.21353165864508838 -0.0012906464546246221
0.10019968409818936 0.22745960562546497 0.0041389239377753462
0.28568396582337796 0.35480797925347041 0.02562041986285396
0.44693703867413326 0.46497713659842344 0.030902178779542627
0.45282595829385697 0.46356002753879366 0.030134600438217835
-0.48906941592033293 -0.428062699284534 -0.22527395612059761
0.31135686672842322 0.20704353097285644 -0.021311084167969729
-0.80912261923140583 -0.54868151684862454 -0.27111532724296655
-0.28763601689923279 -0.30068559860547062 -0.14095634278759253
-0.023796924201265224 0.14812239237803393 -0.020708760126707221
-0.0010043843686677878 0.16057016209651653 -0.015796949093377699
0.051976706218879287 0.19808184124402839 -0.0070929723046896376
0.081695319929458665 0.21615520179343228 -0.0017001132376784911
0.095709540515798608 0.22409165412576737 0.00086209664332681513
0.17174852296670406 0.26006604058467087 0.015629588017217644
0.2047883676804072 0.28578775631081488 0.01899772852976056
0.30035225156971385 0.36791452404177072 0.024698664117489277
0.32433162712685992 0.38874875995464286 0.025291798011202626
0.34197230933965034 0.40143240375199074 0.026051943320190563
0.35797873803372826 0.41061403707341348 0.027018891284169372
0.38787571126749792 0.42981046769967524 0.02783878335474041
0.39836124674717049 0.43749068976003791 0.027745202963412124
0.41142976625352656 0.44557934244240816 0.027759252973595938
0.43741041637236622 0.45632933434785983 0.028498370526181899
0.11990004644828081 -0.27710101110291419 -0.045227382469593125
0.087606059265689484 -0.28446398366988834 -0.050633740239667407
0.057735410680967464 -0.29048188267199482 -0.057389467783694054
0.019417002275328776 -0.29653110828841367 -0.068643335193962152
-0.020055657061894772 -0.30674006100593409 -0.076427994243168818
-0.058998078567577605 -0.31680524074810279 -0.085100633739613935
-0.14244965296744561 -0.34246876068523768 -0.10500054051316617
-0.1766607685890445 -0.35526228680818317 -0.11196244929618943
-0.31245414869027532 -0.38954788120919925 -0.16602946213879122
0.2133973312089843 -0.246733392812855 -0.03404196126485437
0.14005483381741043 -0.25609416820437669 -0.051146455956329662
0.10189475501130379 -0.26097787329935329 -0.058145324515879449
0.064722310184302911 -0.26930045164813698 -0.064820523764898746
0.026476875501462771 -0.2784808708803963 -0.07159299406818051
-0.012719984332823286 -0.2885477066612312 -0.078851028141158686
-0.22816060643989666 -0.056699826958250377 -0.10533989167465098
-0.13225925112016701 -0.32227700083792588 -0.10723104978204431
-0.247404523211052 -0.3551517229470571 -0.14549748833297582
-0.57485648517091148 -0.42413608173960604 -0.065363009474405431
0.4187056428345669 0.76487717280519441 0.013372901861055303
0.39327313432031641 0.74805280710511468 0.021260163304877344
-0.25505455973992475 -0.071406351658478862 -0.11103297693415319
0.39587506115427284 0.76889817012886397 0.019871632228661368
0.35672153951071461 0.73892783812154228 0.027448584932113329
-0.27908711116489848 -0.085746528113345377 -0.11441550057289165
-0.30344393312964069 -0.1001228940781731 -0.11887684824670391
0.17911996069822222 0.44503672850561315 0.02437639410911091
-0.93128489925993208 -0.58550959248717849 -0.31172233413855654
-0.93689748715895527 -0.59036845769136193 -0.30486705648941614
0.13388425400096599 -0.24838449507297167 -0.053165863721751166
-0.14578155850353508 -0.32005875915031989 -0.11193457064516023
-0.32816810677962405 -0.11428770302409497 -0.12383284631629213
-0.34316523307184454 -0.12289739047522374 -0.12671742266595765
-0.36369329065898404 -0.13459837419612786 -0.13070171078269349
-0.39501233652089285 -0.15199336086878557 -0.13727764853488225
0.27708340247171348 0.55406912598779368 0.027245410833632439
-0.42253807270966426 -0.16717461759472485 -0.14408556434663267
-0.43209909293747994 -0.17174825829773788 -0.14484442935857203
0.41186336200164475 0.78274216703614385 0.014653999859568612
0.2286071694684606 0.53676569894832316 0.027915431512513772
0.28611176277341677 0.56752755599628824 0.027330856487360916
0.3977370074651132 0.82764185402515622 0.026705042242064159
-0.9224283253067822 -0.57293559654712922 -0.30849288034605821
-0.94728082306535999 -0.57995671503765589 -0.31257328050740907
-0.98363617061199204 -0.60332293508031132 -0.31280612606723213
0.29840277648239055 -0.24584385351135651 0.037391208442972751
0.38331484902955237 0.70846080327319072 0.024512364489734845
0.35008338328339095 0.68091949393813156 0.026230983009746439
0.21334755423949048 -0.21571743680849842 -0.040957643361372698
0.17927878459940075 -0.22178185400010886 -0.045816783536221678
0.15576774757884801 -0.22646695783588644 -0.048640510572004331
0.13812897987247941 -0.230068108433513 -0.051452084051967051
0.1082515553457708 -0.23659303671708987 -0.056492978804885963
0.071728051241378349 -0.24511146855592791 -0.063328707690584435
0.034321104265910451 -0.25444537427993641 -0.070642169663322346
-0.003960547744384979 -0.26452879138274099 -0.078581134614857023
-0.043251403911935771 -0.27539520489645852 -0.086852124863079944
-0.083321647756361417 -0.28689366898683488 -0.096049310832983389
-0.11304017610777167 -0.30055453806454935 -0.10331249002224784
-0.12612810485679343 -0.29844881051564887 -0.10776911883986606
-0.16508608544354314 -0.31102489583379 -0.12010459926907466
-0.19995652994539259 -0.32165444063506943 -0.13155314719610436
-0.2354626935488191 -0.33270437344290826 -0.14307699059263623
-0.27903407050115925 -0.34647515114661243 -0.15666913350358447
-0.59852551812705268 -0.6121482118724515 0.014564599624632218
-0.10486611541341206 0.1160685640292245 -0.041474318374228047
-0.35895830769482628 -0.08550063410301334 -0.09159075352970282
-0.84471568680644327 -0.54536325005197117 -0.28035524941810075
-0.20104248784464007 0.060022465998525121 -0.057701286774833396
-0.97351732244853628 -0.59431400772000753 -0.3087015163500747
0.39020251762913755 -0.23304513578984931 0.045103057027513743
0.39492060975816912 -0.21541404668072062 0.036416864762562839
0.3665933757258662 -0.2175246907336188 0.034212999788090115
0.33831739065783806 -0.22799242918458518 0.034843937961134774
0.32397551737705799 -0.22656100616623753 0.032355963163343188
0.39734441212283644 0.72009552757205153 0.022810053196328728
0.36940331732124909 0.70516967591125379 0.024906181794667442
-0.035906846651797775 0.21121141235628826 -0.022039716532350873
-0.806078774140909 -0.52721524093326355 -0.26601899244234495
-0.85881784575404529 -0.54208293510486349 -0.28320450136621766
-0.89408957025376123 -0.55384768761195335 -0.29510980604828485
0.35749889990406686 -0.20827762253294058 0.030484682372219213
0.34288284309747896 -0.20933252983728856 0.029397609247176548
-0.21519354373573529 0.050363933460193522 -0.058813650426860806
0.22982363552897256 -0.19413899807342894 -0.041951092841678805
0.21867610500262846 -0.1884080246335369 -0.045142159936577525
0.18635910727261149 -0.19610519304052509 -0.048326649311526054
0.15082773807900177 -0.20406645326442252 -0.051036193275888708
0.11504175319637941 -0.21256265342269565 -0.055468599866065449
0.078723676002544818 -0.22161267686443864 -0.061126769392433417
0.041797714550348752 -0.23121232626884858 -0.068105160551148652
0.0042325829904564793 -0.24159037508210535 -0.07639896874082891
-0.034527747413281462 -0.25263731884675078 -0.084396942029108801
-0.074013931697960722 -0.26441865763950911 -0.09295710915075199
-0.10058316801744815 -0.27240353856092003 -0.099514745047484254
-0.12058004956103163 -0.27842066715715941 -0.10565166818840047
-0.15435120424720505 -0.28878290941095575 -0.11624759116104073
-0.18874297183081212 -0.29953870827648821 -0.12748944884071708
-0.22378143534370132 -0.31073628130610675 -0.13846072036755483
-0.26675518836777878 -0.32477829327690344 -0.15130234710300322
0.38599080635072724 0.76356545661192587 0.022174504490987679
-0.78121329418340246 -0.51373615775857484 -0.25536670336173195
-0.28663248923377571 -0.065715075725511163 -0.094141627731127747
0.43222746294465536 -0.19205736867512169 0.030729521030879392
0.42798453591019958 -0.17909139816924924 0.027099378541912106
0.40138164457880399 -0.18312517352547264 0.027043156620821907
0.37426899752252568 -0.18517229804287538 0.026140801756459803
0.3519417512113181 -0.18251895576956123 0.023615548191264935
0.32768912166681352 -0.19321985942670583 0.023135754000549624
0.24415796428397429 -0.17921396934808609 -0.04200909873316272
-0.083102762449313805 0.10351237426255278 -0.037054503624622537
-0.31347244391555795 -0.091586869112317615 -0.10978631997439108
-0.66261672448625486 -0.46494872507318341 -0.21296101458645939
-0.20638451887270293 -0.0209721182338658 -0.088776241856402885
0.29797274868875312 0.57992951789816871 0.027768251356477813
0.25130834036815575 0.57899494938108464 0.030173474732818034
0.22058124529269296 0.529765010375435 0.02883469375972586
0.48341821806685148 -0.17837365975665964 0.035920190228131949
0.44917389205264036 -0.17603440114253832 0.027436596913622741
0.26871293070774549 -0.15695692556658525 -0.038413113670171611
0.25330060600659465 -0.15930641822450653 -0.04154368671054301
0.22671559886740125 -0.16406993108542434 -0.046152776930358547
0.19307308147151636 -0.17108001724973398 -0.050203733147567264
0.1586517798121079 -0.17903782645636479 -0.054386080306023765
0.12165523089120475 -0.19399381211885469 -0.05908828682364467
0.085882879860142036 -0.20299161566551849 -0.0655134986934649
0.061289751641621815 -0.21009324079141667 -0.069323802451134953
0.050885515425552419 -0.20513087289936927 -0.077860810112166057
0.013251470096038165 -0.2221083827903545 -0.084256438107905035
-0.024983166896350439 -0.23341161223867601 -0.092585665372595244
-0.064830217455244199 -0.245901684202944 -0.09858764524319738
-0.10518138547915679 -0.258912064112236 -0.10623002211850441
-0.1428551064662682 -0.26624084266639159 -0.11633654116418715
-0.17750668113285206 -0.27781008599332058 -0.12307220921368109
-0.21231229587849243 -0.28946403519269204 -0.1314944659481749
-0.25468445587683475 -0.3038606935325987 -0.14231637734819369
-0.24737965177174726 -0.11945869586969948 0.087949046590124619
0.0037493634768214212 0.078771690693523411 -0.052789603892281156
-0.0045748907267024741 0.075752919256068196 -0.053766940851972672
-0.023032430493393319 0.06570432677517335 -0.056310362512318385
-0.046231492277836073 0.05267601218425888 -0.060329763868591235
0.37758209340649407 0.78028266252829503 0.026806040260911324
-0.069504897556529111 0.039420458429066052 -0.064403538283650669
0.48165568351395455 -0.16494204496259357 0.029465259805218386
0.46244038416953825 -0.15277027791331754 0.02320681922566753
0.43723052648938232 -0.15562697919229418 0.022402513045618883
0.40630551082093103 -0.15945561285412957 0.022218092244902427
0.38726563160937799 -0.16028350529374702 0.021739499612540569
0.12720349670695849 -0.18036582591666139 -0.064751301423874391
0.092013942102059931 -0.18936092357336243 -0.072681926952527093
0.018645275223717617 -0.20993635461055327 -0.088213938660214986
-0.019580049736584726 -0.22157257093627702 -0.095921329398000632
-0.058974383281837073 -0.23404911704544062 -0.10252391660126677
-0.098781837879468759 -0.24676861870428723 -0.11067608934720248
-0.11205590089727147 0.16182691935887661 -0.03456802140905943
-0.71021065875494083 -0.43809342780579108 -0.14102360303271078
0.42627019781450914 0.79672164572389104 0.0077763428890316455
-0.55438528072344395 -0.41474684662803618 -0.175658098584237
-0.59786329431011642 -0.43076821050246394 -0.18871218354219493
-0.63347540222410548 -0.44490455122879879 -0.19938426002180387
-0.64886474311865838 -0.44925257035396804 -0.20257176531656262
-0.74007664440588217 -0.44014737128333969 -0.17943099778011323
0.39044998198956948 0.79003837937525034 0.022788553330208655
0.4900459342218883 -0.14742347942956524 0.02366010895755688
0.4327017476073558 -0.14383484926599355 0.019841248977767428
0.408914041661947 -0.144976335245107 0.020461349921940264
-0.25877656493440404 -0.071827453159115429 -0.10982630177590015
0.32127195880949705 -0.12287264163258627 -0.029159105044931577
0.29487944319535786 -0.13069872312171782 -0.03276508107869669
0.27206799793883168 -0.13848245209153021 -0.037832544908832699
0.26221058037295786 -0.1326085366444909 -0.042175082191260788
0.23171113063043486 -0.14527304017773623 -0.048369019209457992
0.20106543228726992 -0.14549775122340503 -0.056208399378815194
0.1670642716462665 -0.15367527644093215 -0.060350250621545309
0.13515883886456675 -0.16238147394331648 -0.067791995458248183
0.098633300715031791 -0.17106845629641754 -0.076636943827580295
0.062431429181699472 -0.18139152405623449 -0.083218027423037938
0.0252240788881124 -0.19269163049064808 -0.089544561719176463
-0.012534383805252847 -0.20444610948729292 -0.096792129814724598
-0.051134157076531905 -0.21682525555715149 -0.10448791182979582
-0.090337736141810454 -0.22961406303569998 -0.11292384378874945
-0.12400090174575329 -0.24108655124719292 -0.1190127352429893
-0.15330577820331959 -0.24897704044878122 -0.12406864641161675
-0.16816863097056822 -0.26091464547840459 -0.12509321488104624
-0.19985128539170804 -0.26766845224412972 -0.12981051506803454
-0.23502124240013389 -0.28043154915530888 -0.13388998424980011
-0.25597456491858506 -0.28829916455448057 -0.13649164411791911
0.2501468142461305 0.55523697619625345 0.026297049951729212
0.32950290628218271 0.71465177991940543 0.033264006177054328
0.22731653462646162 0.51408977209443396 0.025568873600176983
0.21106972220330911 0.49949604894182986 0.025626623728841003
0.30031292266929033 0.62645294417138953 0.026390138846097033
0.51842885626101987 -0.12432205138392938 0.0191996315940548
0.49595810837576088 -0.12766869011864657 0.019038775284217546
0.47091093585821864 -0.1304306111493938 0.019490873655166635
0.46607162051280993 -0.11878030311667764 0.017413412933209665
0.44044557512939175 -0.12299767599690714 0.018441756112608648
0.41221929956082404 -0.12470363250796179 0.019322851413807601
0.28512789074343203 -0.12442764160215702 -0.036799217419141078
0.23545739937583968 -0.13212857604282569 -0.052010274330070078
0.12369443646012546 -0.1587841948140607 -0.072066478866929518
-0.39422967581447999 -0.19970781903832258 0.0029198072717286083
-0.53381222716592625 -0.3952271755028276 -0.16763818504877748
-0.57489466910639153 -0.41148846632672598 -0.1794789358153393
-0.61923385226611749 -0.4284432094140147 -0.19100290313401325
-0.28299605043669163 -0.0650804399246665 -0.095402293906696814
-0.69710867166675206 -0.4429013832170936 -0.13577777309041172
-0.25667016658536457 -0.13783945898049588 0.03736805265077231
0.31434289535348947 0.63461566570349337 0.026521398430228049
0.49143887317536378 -0.11558331889420881 0.016475071267414987
0.33583411552051423 -0.10043645598800754 -0.032948095783398273
0.32461895953928122 -0.097407156429659025 -0.037670279675284885
0.30291764118760406 -0.10374995599325132 -0.041377284740542808
0.27384969374820189 -0.11345843047359505 -0.044047839656307736
0.26873134057419834 -0.10554315794036917 -0.047761406396220119
0.23941768283836279 -0.1142495765399909 -0.052504168437340459
0.20936926255480892 -0.12203117049205492 -0.058406391527035362
0.17250927653032641 -0.13552179818661347 -0.063363556714402386
0.1434011367598762 -0.14320006363829396 -0.066905202201748254
0.13769974916978001 -0.13686812078194244 -0.068758546629416051
0.10517200048854924 -0.14849086818234714 -0.07507435482657368
0.069863253947628268 -0.15889087451644901 -0.082566116889819713
0.03403536681876751 -0.16992354753242633 -0.090816320665790373
-0.0053578697270932341 -0.18741781613251263 -0.09872641273733454
-0.043509637716457716 -0.20000345494276051 -0.10703830159203578
-0.082335192345316666 -0.21292669260715957 -0.11430372525383671
-0.11581410626693056 -0.22151647738800229 -0.12191598542764912
-0.14619026517846478 -0.23080935191402485 -0.12603562413062047
-0.17676293017656441 -0.24052322964146189 -0.12906001524706001
-0.19710356704273446 -0.25090572954435686 -0.13058342954424554
-0.22824933004964765 -0.26138541324868836 -0.13307981866935625
-0.58592389239218523 -0.41219032248521437 -0.18229156193814544
-0.17964335027692024 0.043692678598252321 -0.059240122369459677
0.34532126699967103 0.6546654547729398 0.027548192882882933
0.52529061888647499 -0.10079465442614755 0.016102927668256439
0.49860965359320242 -0.094717708631979036 0.014043176641143851
0.471768534251229 -0.095368474702476114 0.015725212996585386
0.44400903821690091 -0.096670399083581771 0.017466882091787955
0.29296161228826068 -0.098121256189198647 -0.04563835150376036
0.19816952917539946 -0.1181358203762839 -0.061681949218643811
0.17573532956435661 -0.12391036642591491 -0.064732705187085376
-0.00052070007794968731 -0.17602713958234428 -0.10106101327456779
-0.038176473122417176 -0.18850166209498642 -0.10997596404252991
-0.077131089723227242 -0.20197385846174054 -0.11566538671039577
-0.1032041374396655 -0.21105581191506495 -0.12118140195303297
-0.19291111120224136 0.039106836150262225 -0.061645009538906809
-0.72798742000045435 -0.44193300495771926 -0.15432326459027987
-0.34613183529974922 -0.31357585388208342 -0.10858109497747299
-0.38752394973383708 -0.32882904571860649 -0.12122155818321324
-0.42946300264873527 -0.34373304204593857 -0.13562118355547875
-0.47151793923165286 -0.35902836133682303 -0.14959833320476701
-0.51363285610042053 -0.37532395581848021 -0.1616151889960708
-0.54850319879991905 -0.38938935661334551 -0.17064469207755539
-0.56993562140875931 -0.39779847496721121 -0.1767190688543912
-0.37389754702994349 -0.12817802304799919 -0.1198083250633472
0.36377556169204794 0.67027101460526683 0.027795518234717154
0.56386050914294494 -0.097587991436692612 0.020521143424751365
0.52045692386847819 -0.089304061630004483 0.014194556221007432
0.33733180966579823 -0.07424130752846736 -0.039567655018171971
0.30702360175658489 -0.077561872774588814 -0.047028250372396607
0.27630147966955165 -0.083722737052653429 -0.05062041496025449
0.24653530088832992 -0.091375894451608985 -0.054220825383265614
0.2131072103436718 -0.098198452373996936 -0.060259085036111243
0.18012360307259462 -0.10676059917492076 -0.065292622975725273
0.14603947740177248 -0.1164906928912508 -0.068561964365972006
0.11192514519229196 -0.1264084126463354 -0.07488808412271758
0.07907827906719872 -0.13736215317720468 -0.08158786283651237
0.051884900614682372 -0.14966813317993832 -0.088823060868450571
0.039774302762187519 -0.14781536544159923 -0.091720072008317638
0.0055911648953385629 -0.1599251080659192 -0.10009494339792679
-0.031461040518820205 -0.17241532062157994 -0.1093296157995247
-0.069466560755725437 -0.18572231339113277 -0.11683013927948352
-0.10166357045282948 -0.19716877677479872 -0.1232430479959848
-0.12951799468515013 -0.20510197859162815 -0.12707880788799253
-0.14391442065885141 -0.21694053718565254 -0.12742101538735928
-0.17429050960600123 -0.2242228503257051 -0.13021821800070155
-0.1638922199936054 -0.51262187286188521 0.15716246503206452
0.41956544600870038 0.78512081903601239 0.011299216774654175
-0.17928072143306584 0.059946917697287105 -0.05806578755718303
-0.34435033878481691 -0.074706126558610642 -0.089267077449368695
0.56930181475994257 -0.073943302128641086 0.017191867013148565
0.55094445740245335 -0.072601341296989474 0.014891806221113912
0.53423475020628641 -0.077173936392136433 0.014076637595248048
0.52506134595505938 -0.068577772442067975 0.013618879974096332
0.50108687843397259 -0.069386041283374666 0.014214382910429646
0.47427207306842012 -0.070579328634797101 0.016596550041447139
0.35007091756654618 0.73357851913833461 0.029087543603718624
0.16624747270842799 0.40486379922127469 0.023384577017999092
-0.19087722145997743 0.030814502411161904 -0.062350834945122474
0.32770973491674743 -0.068346881219870426 -0.043583922583914636
0.23573020978641926 -0.087316533847464406 -0.056657096686657193
0.06741026987440768 -0.13512591576408717 -0.085916523128385686
-0.19775958335798116 -0.22924257657456604 -0.13209968067022526
0.15430889176410789 0.42997893781945162 0.025619474786527624
0.3408848394047691 0.69956302402864345 0.026653662558770302
-0.32837781776338393 -0.29344857882317932 -0.10376267908322148
-0.36902085767484671 -0.30870271383575343 -0.1162112968252389
-0.41027941786567546 -0.32350386557860489 -0.13065737804792371
-0.45181252273683969 -0.33867129452271438 -0.14491093138488326
-0.49330857338851219 -0.35483636418506226 -0.15719600053445831
-0.5349374170986102 -0.3716205956796248 -0.16858955920748211
-0.068998819897427732 0.33917899384553962 -0.11425544568355919
0.34416028830142448 -0.048791706529434542 -0.039615218037111322
0.33011854381258565 -0.05097563082704859 -0.042448955241887271
0.31047595265343059 -0.0545545249773145 -0.0453189133097264
0.28025104402062007 -0.060766255012747017 -0.049782829683444052
0.25453471238732961 -0.066765554892462831 -0.052816966404180266
0.23876558874503181 -0.070565491865489882 -0.05519501654890463
0.21763620803295389 -0.07598176292837433 -0.058230389992907722
0.18525633072163794 -0.084810916588049068 -0.063187800659798204
0.15224602426638317 -0.09431255776134595 -0.068895556468348801
0.11713730802758854 -0.10977146954037575 -0.076697630612625023
0.094014732117247479 -0.11720881277584372 -0.080178056771239403
0.082359294761725266 -0.11497538447619959 -0.083426712498974681
0.049370281127735671 -0.12670239547563789 -0.090991463092995883
0.013585191963563281 -0.13885005254981841 -0.098197946722575008
-0.022695369031251911 -0.15138882857904878 -0.10718561652266739
-0.057746309525582129 -0.16597324674854086 -0.11665492512677099
-0.094075942642300459 -0.1783642028505481 -0.12501010520287725
-0.12312159446578097 -0.18785880911591146 -0.12867079376428031
-0.15233808735623555 -0.19771991550332757 -0.13157966936500093
-0.17130769006977031 -0.20777947397285246 -0.13260790984421367
0.57655087861696619 -0.049837379899709155 0.015833183740042556
0.55331351970558074 -0.046155556343408399 0.013788550916063541
0.52812120828474263 -0.051177890959592354 0.014201115882087056
0.50228923058400987 -0.051641017926996824 0.016281038986744018
0.46509440448979428 -0.053135661112085231 0.019475402251012686
-0.23510345272461763 0.037979610379935913 -0.061462159058735449
-0.52927393162318137 -0.40759647847886615 -0.040821938442990299
-0.10348456758007873 0.040624411193609156 -0.065950685327083203
-0.068246429225892413 0.14095128560289893 -0.032366731425499062
0.12042428871446237 -0.098964766435226892 -0.076884688331419981
-0.063441061936543086 -0.16141024336662824 -0.11989566146128398
-0.08227034837315983 -0.16832819885842021 -0.12400279855150736
-0.27709457664349635 -0.14913315433454688 0.057205448897386046
-0.31407245914443938 -0.27439385396324756 -0.10206911936164451
-0.35036810762704873 -0.28783936004204236 -0.11280707311293726
-0.39079952744210877 -0.30292524833047629 -0.12619469423300317
-0.43067926270943491 -0.31925659128287442 -0.13981781432560891
-0.47625092828575921 -0.33589125035114709 -0.15453916297282183
-0.51342257549933201 -0.35048803045078092 -0.16489929841889284
-0.54284521440543532 -0.36261837666180696 -0.17111211158746742
-0.56431180255450208 -0.37434759558474884 -0.17498603323575024
-0.19965879356776717 0.048634915787486577 -0.061552384286818723
0.42147099434870994 0.80624214310536857 0.010096640478449659
-0.12995766237094442 0.025211383521988928 -0.072147265449984288
0.31342825774002742 -0.032371696415411932 -0.042243678894840653
0.2837386104935099 -0.038835909553146308 -0.046509911198224452
0.25324947677463466 -0.046242210337379852 -0.050768573420269025
0.22212044341052753 -0.054432135540422699 -0.055553634813067437
0.19024374722950194 -0.063537794782210888 -0.060522184324810047
0.16344533472326639 -0.071239486496609494 -0.066221638786179926
0.14707978009832234 -0.075948243358865852 -0.071544965105877184
0.12510296291804773 -0.082849812131478906 -0.077005538559626913
0.09121412036667409 -0.093887568336151084 -0.083999962949357354
0.056834190048425881 -0.10543008179914004 -0.092221508577501637
0.021623408861678683 -0.11777086753157917 -0.099103170538852536
-0.012313326793579271 -0.13208574422873998 -0.1062501535002128
-0.04415519658131084 -0.14133025669634058 -0.1168087507541001
-0.074919966596646126 -0.15276335751128922 -0.12300272444439904
-0.102966275200576 -0.16195982974576406 -0.12803328701082323
-0.12137776387809374 -0.17182947292235617 -0.13035701660650997
-0.14984737689426009 -0.18175935709211455 -0.13280416630541675
-0.16178092636517238 0.058235012962033039 -0.055165563708915982
-0.29315113834906592 -0.26087994500861544 -0.099095456518733083
-0.43333671126636408 -0.31526163038841393 -0.14184990310133438
-0.45371956218954212 -0.32315428091759379 -0.14844699813005968
0.25647058935108935 0.52127768898422566 0.027203436716510043
-0.29351201913557978 -0.045518016562422048 -0.083405121450198641
-0.017820792177970946 -0.12736693315037773 -0.1094106256538674
0.41234463074785888 0.75631067773832328 0.016192304880958075
-0.31009615422584103 -0.26146964108919679 -0.10330036424443113
-0.33632516767980125 -0.27191708882947818 -0.11083174816473122
-0.36933370487420869 -0.28475247073415932 -0.12097228293597373
-0.37199648269570207 -0.28050590771225359 -0.12336514106948188
-0.41125811058303707 -0.2967947909352322 -0.13694721741303498
-0.45148799607941437 -0.31263604318954119 -0.1499206820158519
-0.48123169050036718 -0.32387106116639419 -0.15869078661873257
-0.50255107225874818 -0.33502982883496202 -0.1636609453772975
-0.52768557077941369 -0.34530961438883434 -0.16822567405889222
-0.55042173623613377 -0.35922893151896851 -0.17222087859242996
-0.22926254490907194 -0.033901869296298237 -0.092542021727136464
-0.76299074050035331 -0.43925100552878416 -0.19063047630481084
0.27074351042472333 0.6190584411012594 0.03274957829283795
-0.01765664933496025 0.16910163448568127 -0.019130793782225292
-0.15674245117080332 0.0095627303331786706 -0.078302720638981207
0.31722523535022501 -0.009867892728640193 -0.041908061756965015
0.28973829938913365 -0.017121387397359022 -0.04656047283791806
0.25784642305646599 -0.024139978369206894 -0.051416259460036917
0.22707204936188696 -0.032427142424599431 -0.056786721503368887
0.19563090931615651 -0.041782819368020974 -0.061860241654983911
0.1731118660776087 -0.053668744322902029 -0.065428698603004459
0.16180291054013757 -0.050953467862403734 -0.06945313339278536
0.1311346589385296 -0.061704828044676141 -0.076757326320742975
0.097707153818328174 -0.072987130592713889 -0.083053177531291933
0.069509660700989184 -0.082709048601805613 -0.089576659843413592
0.052371610304394189 -0.088761038468270215 -0.093504434508931311
0.029351763530215069 -0.097099319464704514 -0.098150319446072221
-0.0056435906574403005 -0.1098790734290862 -0.10662852122219924
-0.035249101966578711 -0.12082253496126594 -0.11531126267743896
-0.065315379937205487 -0.13226055570362938 -0.12210706787461229
-0.10176541222859481 -0.14655682863198205 -0.12795586685675964
-0.14286101725110667 -0.16504419518057212 -0.13264741121301366
-0.09283975076091211 0.027517771253666723 -0.068499547807053779
-0.32703492436862214 -0.26085959039002571 -0.11052593070451744
-0.5583511701186471 -0.35627939344338078 -0.17180690813658717
-0.1203666737563962 0.012455555339534463 -0.075516602785890063
-0.64587587178035133 -0.43899259897256115 -0.10513005622640249
-0.12430383266839384 0.076376450534171525 -0.047171358429382804
-0.14797163480321163 -0.0027130683330680583 -0.082491519529157911
0.0095157585371871134 0.25872807976748113 -0.011407837517047131
-0.17564609081798987 -0.018014471582973535 -0.089334493048562336
-0.18335125382187334 -0.0065204051150606901 -0.083722784738467587
-0.25605399866014933 -0.051310711098977002 -0.096815845492260022
-0.20293768838523962 -0.033694541212650364 -0.096069667101708681
0.33746623512587604 -0.00046591058594724899 -0.0382124642543899
0.27917808239106456 -0.013378594577462266 -0.048743324623356982
-0.12923342662017556 -0.15342287372083607 -0.13215345852667681
-0.22825908669114925 -0.049744150370080398 -0.1023778882254896
-0.39585280984410842 -0.36397679617325895 0.00077455743240414932
-0.2280457261394776 -0.047467576593476224 -0.099943648742244082
-0.31307460473710635 -0.2441924662699595 -0.1101130691602384
-0.35156994834225042 -0.25997688924772699 -0.12102187221967156
-0.39093424078227124 -0.27541895888486234 -0.1341260252084244
-0.43039202981823788 -0.29142526247106471 -0.14645502697855584
-0.46624870825490972 -0.30659561071184882 -0.15542821215558295
-0.48845106916815284 -0.31955207427675436 -0.16085948640107903
-0.50862926356740046 -0.32665106687122414 -0.16414088479553651
-0.53988459218691298 -0.34392111538819048 -0.17017975674382846
-0.62864831064918658 -0.39040651646312341 -0.18157776046059745
-0.65884170297467903 -0.40203975516073864 -0.19046539858509276
0.24121373902969578 0.50641705201631204 0.02624263731677412
-0.25250547593152561 -0.063743200297185609 -0.10483364164594292
-0.29044945502289055 -0.064292715152275193 -0.090235530200501665
-0.27854273245435679 -0.077898769842972726 -0.11075990015924025
-0.30752027877859101 -0.09441646052596564 -0.11759135805825142
-0.32336902868376838 -0.16244987760584451 0.055812653774003823
-0.30871588411517004 -0.055237119220050701 -0.085323792122298445
-0.22554199766842109 -0.033865105522646211 -0.093009556859242781
0.37070498662380996 0.026518328142364211 -0.028233524765363477
0.35483322058394151 0.017281798598900444 -0.034410942725084381
0.34353941907580404 0.019067412981558007 -0.038327120546664234
0.32124380902463612 0.012451834819027674 -0.042069277207239048
0.30169800764888222 0.0078626610832168708 -0.044776722788620271
0.28703401395276207 0.0042005861454006421 -0.047240004783396683
0.26207134554585265 -0.0025439770448301147 -0.050537676499003842
0.23159203762762276 -0.01123225293206076 -0.054873056940933529
0.20582320402550963 -0.01890508578411243 -0.059921225326525412
0.19017288154401191 -0.023805422743036431 -0.062721443416505707
0.169090965336122 -0.030546861431985484 -0.066849560912177197
0.13675192535847652 -0.041237804243352549 -0.073779465611041317
0.10415501494712426 -0.05262273107303006 -0.079462674255282084
0.070833705657488033 -0.064593707130306655 -0.086349855186941771
0.037008742354993684 -0.076979718937068675 -0.094075366901746088
0.0026667162729960836 -0.089757950232200123 -0.10313384763765152
-0.026361737612490943 -0.10070889266132443 -0.11217698274951347
-0.055959374687801544 -0.1119970207279577 -0.12100831473602404
-0.091522742194104167 -0.12616071405141582 -0.12811774270085671
-0.12714854800114694 -0.14083398571467143 -0.13240848769392993
-0.33739751003802754 -0.11223806419946136 -0.12213811427915086
-0.52458900278932552 -0.3286426717145261 -0.16656673678183714
-0.54512481770081966 -0.34126086637588937 -0.1685772322955606
-0.57108372986051847 -0.35056292219589658 -0.17675624881787627
-0.5934112494092586 -0.36446570340514128 -0.18055380806454938
-0.61948123336083283 -0.37555145245627664 -0.18791080937667642
-0.65726230794666363 -0.38921103255875611 -0.19981387654876376
-0.3624378791607118 -0.12746154119659181 -0.12596738314130995
-0.46719253576893338 -0.38226845624284422 -0.014040208314487407
-0.26112609153727706 0.021121061605586355 -0.065408322386973333
