# XYZ point cloud file
0.40411334759010198 -0.53284555309816362 0.13239804477291539
0.04528406550837355 0.27906452307916374 0.027858512434053129
-0.10044954120981806 -0.66078029903478674 0.24953584902745396
0.49137164882034307 1.0356715119453668 0.12048354639727643
0.52830929658122927 1.2280450795726872 0.15832860134789195
-0.21017515186626129 -0.08257102356988244 0.20051647379690074
-0.45962669020370905 0.054696692506041256 -0.1273033564344308
-1.0902655771245044 -0.54760781787626223 -0.39246234265508528
-0.37072901644629208 -0.43635302449279223 0.13844112869453085
-0.13380690896710623 0.51367612246887373 0.17117676321507336
-0.20147749864322351 0.2095136509997988 0.25514924928621241
0.087356511637958045 0.10630449465713343 -0.0075041143412288847
-0.65324994632763356 -0.36796039499630961 -0.043590447783864228
0.12815351600876124 0.28195364804498935 0.21398039673941804
-0.25957549840388716 -0.43957328235723259 0.18164817516360277
0.092103729446425392 0.15049879756178175 0.23333152618291164
-0.23307257164069733 -0.1595657642540077 0.22738113403480265
0.59254053402784324 1.2390946097292439 0.10569250626796722
-0.50293380871287652 0.038223076297428493 -0.14412201140009184
0.093575420001126314 -0.41534892778079135 0.31132453301705354
-0.53963546367916693 -0.65830073559204083 0.055878203451587005
0.20770579251188762 -0.1264316380698427 0.313458110907332
0.79334009188337329 0.064934613073695413 -0.25311135297854603
-0.44867518201931023 -0.23425762021699281 0.068776606303001309
-0.15888899715026578 0.63118094560305371 -0.011423440666307627
0.49919696100556155 -0.19770015270923591 0.32348494876999956
-1.0329147793389633 -0.46351111440243442 -0.35084092083150242
0.36944829443465582 0.5332017237700668 0.060328002776085299
-0.42730326512521338 -0.64491359140950633 0.1174721473552176
0.71108524556601205 0.11623370453580106 0.074055901414137981
0.57087296709166613 1.1542475086082575 0.086849650477309526
-0.4242996918607157 -0.71915854084535258 -0.013851231429661048
-1.04390447115365 -0.45798274668176908 -0.36884552001295656
-0.64423667384362338 -0.30475776688947798 -0.19150745115850398
-0.20287872979689953 -0.14402241787153547 0.25803603463903091
0.18811067218289343 -0.22391067377980778 0.33030358214998312
-0.5271523677447878 -0.5678422884917379 0.0613032016322963
0.5802750396149986 0.13299650546477304 0.27892351096173451
0.50257177394936148 0.22710676913289096 -0.046041657811307424
0.51904780675005613 1.1451398723961206 0.098222313128552008
-0.98540766737283625 -0.40822933771911185 -0.35595377874945688
0.54232770972557187 -0.23982839260384481 0.29350721628934329
0.45827802488703773 0.65905217825638007 0.1346218232279397
-0.56089075805028077 -0.062889464065634781 0.0087750203082719302
0.68251365685898913 -0.39055679164057688 -0.061667224483689331
0.45877465722535971 0.37875263051529484 0.25185912760407136
-0.5618244478374862 -0.74221400496142953 0.084987609068836623
-0.68156833000851258 -0.84913771820263739 0.041554545454877356
-0.0071973410071138333 0.77948406874093901 -0.14648498812920185
0.51870097760494116 -0.15095961034051575 -0.057981804972822903
0.30397593420760732 -0.67694988994467087 0.30003442835379124
-0.47908004693552969 0.082592303226552533 -0.12235605671732586
0.053687854747438091 0.80264719173159738 -0.058830146982861153
0.085105515910830876 0.77468948325966691 -0.16527255035381661
-0.39739571307066912 -0.14291403819842219 -0.11245862507810811
0.54441397161844807 0.51060498780962171 -0.028609541921891246
-0.087823706265567486 -0.18007382989487253 0.22667543832881654
0.56288789613194801 -0.36664565111533776 0.16527024552075353
0.0095448061586368427 0.8775702537294765 -0.15951069001658524
0.58730936918915244 0.10957982908827613 -0.099857317759293629
0.11558887887413918 0.54212229215035501 0.17448529327966833
-0.47864833426304187 0.20080006411129836 -0.0046827336185439883
-0.83816765281951844 -0.25859355918212634 -0.22894662960903611
-0.62051319407398808 -0.52772068493148849 -0.0028886922673083681
-0.72498328468538997 -0.071395598095718382 -0.23132806999938538
0.18281614676367525 0.25193285495426299 0.23213406377736545
-1.0317577263631805 -0.3969873706690501 -0.40022099302489567
0.60776419088458966 -0.32851023845993954 0.11558216907007202
0.28815118034918935 0.45444058809211807 0.058968776315750038
-0.44600131445336533 0.040455714102520801 -0.12938212946969641
0.30892184477112494 -0.56322699893007799 0.14655030197832986
0.39695973546172769 -0.53188492080493432 0.10176028503327794
0.031860173010394427 0.73570030391296348 -0.037706249231778566
0.11004607119523621 0.55395198665370637 0.14334382526042821
-0.19039181341411757 0.54219786599704189 0.0038238235852112723
0.29629200019159607 -0.63885588269713101 0.26435428665653671
0.048133248651943877 0.65892284288625191 0.12004496757976968
-0.11880000971423632 0.72861942565223803 -0.036646941113225306
0.6310696370514941 0.67298357746710957 -0.053033203163172615
0.39391340051230334 -0.51449021005485118 0.31710183787998325
0.78305059248799069 -0.13764927093005541 -0.14035078526700406
-0.76578892963631195 -0.16371821150905796 -0.20316398122168877
0.57039254073265211 1.1284457992405357 0.057233533928779501
0.62616854651001375 -0.38194640065468444 -0.065689808350838597
0.55646198610195918 0.06989369426159131 0.30083523373461762
0.73466004192022882 0.26250189894115539 -0.018325415616338159
-1.0935782316717431 -0.3125719982116234 -0.48404591308713707
-0.76212423759525083 -0.24005152675089858 -0.30093455585300211
-1.148722550865594 -0.70603136912804054 -0.38330838544664037
-0.58535191253424168 -0.62881258050439826 -0.13934401165745136
-0.60522805280910208 -0.50548289504336474 -0.11188894951835415
0.36843059195803346 -0.026850000611304381 -0.021294054138254914
-0.86500730937400272 -0.49435044176198029 -0.2186186112064159
-0.81038634599304593 -0.46551759758714706 -0.14485082358169121
0.028963598373450139 0.4078601552012795 0.092411432666595683
0.66627224149125652 0.5018178700177669 0.12462264306231052
-0.071484760486063753 0.8203689820309803 -0.14413340345567627
-0.48267667596085434 -0.24872843505694575 0.063914902195537415
-0.17477080310860915 -0.4371171864724217 -0.024828392209190309
-0.18014378785050222 0.51455431894347359 -0.050370080649192683
0.27860691870838017 0.19607931821795166 0.0074581893186822512
-1.2991944631615295 -0.56028539177008885 -0.60262496501151297
0.10319132512322909 0.39125683816669943 0.073331878457318478
0.49073500617139054 0.49777158543412825 -0.0027720774503863232
0.097368460365494625 0.12311900907321305 0.00038129384177087999
0.49427334304143689 -0.53899242596239183 0.20963034784097667
-0.91097020273849161 -0.57178368234036059 -0.22245610393034809
0.10558142544572194 0.80273618744441855 -0.1705170418242592
-0.41070086321200278 -0.23634930723592706 0.1143223360303729
-0.086647621148576798 0.01911873098031136 0.20191656071338659
-0.53201173377777855 -0.54630681092440825 -0.10427342204088452
0.70577914509161366 0.15879831497336006 0.086381682460402676
-0.61887602635556682 -0.66693115798283431 0.019638439810681696
0.098077602010500226 0.40526057900495527 0.16356794555468568
0.58277062309384164 -0.33580516247583092 0.15959583048153236
0.44279285368588855 1.0322843519755525 0.13624627902984954
0.68572170731173399 -0.35653877727223016 -0.11798707689426369
-0.2075052723374684 -0.057405735478057496 0.18547619858614262
0.074176150819143777 0.40683207840984892 0.2322560131248026
0.30496532097485129 -0.57118375414409384 0.14119205609386354
0.54978575087225456 0.7380064882451669 0.12474911899994101
0.47563983490683093 0.9949351118343559 0.13061959900111964
-0.10121477074335744 -0.15093209551635378 -0.063615457217554461
-0.12731416874805471 0.62432427968587234 -0.097782427687788998
-0.32822765235943352 -0.40776913857326536 -0.034700101999910249
0.67909148481990045 -0.14186613417477467 0.072830959298892939
0.099103388187395336 0.48117570782718633 0.22131700696539136
-0.083648360227974339 0.65007647481022124 -0.15725965294772348
0.26546913050482307 0.21921930985903648 0.25864627443473509
0.35121666332453222 -0.64333839061559028 0.26562955982069747
0.043219724888909156 0.099208813653286487 0.23018448610704256
-0.1140052157900161 -0.57572803647008997 0.19216644291603968
0.17116903297230801 -0.39614362844664675 0.023509763744629542
0.68063745673898157 0.47944663123116782 -0.15232734895692879
-0.52055864877685587 -0.83620059835131733 0.13513618659546678
-0.77206316930115881 -0.09988441903018952 -0.22062332320684774
0.054447774417797995 0.81898362299224048 -0.05935560674209106
-0.091845840695679859 0.14601149858358564 0.25583036442835327
0.52452545913110404 -0.48912821721766608 0.18852645384733435
-0.60603607568349027 0.06749861162333759 -0.10608539945802598
0.49122272357513119 0.14446271455780124 -0.049198883120030512
0.076253528002097615 0.34482276358249275 0.054692616177230313
-0.37395996966654188 -0.64931934453769258 0.021423626849002453
0.19967927871275007 0.6823322107789247 0.12569399971998108
-0.46465984185852438 0.20223148748752773 -0.10967510110099044
-0.45378493272444193 -0.59244364247783432 0.034115264985125293
-0.18084350446013092 -0.42641411207116309 0.2057270380118057
-0.15765437271197247 0.64846967919768339 -0.051658724620632368
0.78212147053908665 -0.2192927049005442 -0.19612303433034084
0.57093703152962083 -0.46052387013818086 0.08866052369619748
-0.096415371088502511 -0.084949314555863964 0.21665470783623553
0.17647487257438677 -0.13128438785871932 -0.015157918075772159
0.43999362433400152 1.0802205114499266 0.15726559982513111
-0.74136536137667663 -0.50141188910422285 -0.10698833536002583
-0.70620057046220697 -0.47240724462930395 -0.060966845965063854
0.009969938253123839 -0.36526801502831296 0.27066144004009418
0.72125797765679533 -0.08358381942786397 -0.20103769091163626
-0.4370597556526894 0.29708887065731338 -0.020614518624883171
-0.019193538489655299 0.65667536572399587 -0.054288871119706483
0.69504179562187163 0.80008857701396874 -0.039022540273859985
-0.95792907673577954 -0.45464592077568089 -0.30272574923651341
-0.28256111089820313 -0.091048937459619061 -0.068881260112738651
-0.056579325217069848 0.80224080105311035 -0.027720971985149889
0.72878252914848307 0.54432076017917419 -0.19763513340815342
-0.32690139060126272 -0.21032650125350139 0.16857370385386261
-0.35177174055824523 -0.79930249786306828 0.21392659231794076
0.59686338930015481 0.75920413726354519 0.017327092060946292
-0.014265182411664773 -0.55594991827169649 0.1947181596841836
-0.99582823146960342 -0.31926896050147568 -0.3550088587705984
-0.026787377704659943 0.80769331789258381 -0.0025790641603651299
-0.87528083239347598 -0.42613758182832029 -0.26804410764451125
0.64344233174207899 -0.15537972466275507 -0.11973649838899725
0.69397758351245864 0.1839623051352075 -0.19088887672140187
-0.1563940085490278 -0.58461986564577684 0.18697963641907789
0.16402024767174056 0.63447829266337896 0.13189123742087094
0.32549252635251635 -0.59219901685530696 0.11328621525414873
0.35662835798295245 1.0084042983488515 0.19661337411483659
-0.2531434687615185 -0.6096660117807311 0.07012226856936099
-0.79249941877949825 -0.88361638140290943 -0.024811707856235987
-0.060944055344585357 -0.55710362467162233 0.15847824044347147
0.17170035809112658 0.41604842651825713 0.16860297844631145
0.1232835691060887 -0.27792321532492181 0.31459525089153173
-0.66893256791304401 -0.048226318855722039 -0.22745343292483566
-0.45104949460724475 -0.26197564423410713 0.14098009519097721
-0.69439092940971536 -0.08147962427797506 -0.12542849980503057
0.60986717046250283 -0.32974622186605118 0.10099606761661883
-0.090574005472907948 0.61581855397637519 0.079939501764104026
-0.55386143115427622 -0.52698077412445166 -0.10330727975056986
-0.51674576048638321 -0.45534797342536404 0.067830411856625528
-0.19796315737319897 0.46100158678714598 -0.020671774492552419
-0.026509596167417632 0.57482012518471115 0.055404043266148228
-0.9479967972228639 -0.25937910359841831 -0.40736481187235274
-0.54621046932903616 -0.73322220924581794 0.087762961069898893
-0.62570449907051517 -0.20964161151654626 -0.22597586348647969
0.52655787372909635 0.082264609736979022 -0.06758738729895386
0.72183093139577714 0.35322500126306444 0.07005657932429088
0.30755837369801053 -0.36596340392834747 0.34777903992865955
0.3831746004655241 0.95462817343163753 0.15551154293396552
0.348934556368105 0.19459921367514599 -0.004814925638400247
0.73388373687347508 0.61786656830111575 -0.1404166081424858
-0.088778854753135739 0.13833810484508779 -0.013164639719477567
0.54692341025792124 1.0834468925418537 0.064724938959757727
-0.048649203691299214 0.19881611838394386 0.25067914160584959
0.47953876968307457 0.37058616912738951 -0.015947873180967242
0.12968389513537928 -0.54118475702415747 0.15392661810697739
0.7154466737307702 0.36010908433773525 0.085714222607516266
-1.1411739854957543 -0.75646121545420641 -0.3592056356884874
0.58557403555122478 -0.18805889201264492 -0.084326397282255883
0.1362211580108954 -0.44892654504468532 0.3267574928860375
0.57960064479641682 1.1066732880190613 0.060718795116265101
-1.0323661535124922 -0.45913373638122668 -0.35621075444009609
-0.085262367556373175 -0.41561939108732271 0.23400768772454139
0.61131404465440808 -0.34130243195054788 0.083197338379787489
0.50397282074081584 -0.40726556529159574 0.26996923685280372
-0.16074237601949831 0.5793010193597572 -0.1092344852933862
0.085321148209717063 -0.56141654137040131 0.17741350190257066
-0.7269277483357075 -0.52885752761915195 -0.071841361519583646
-0.33727022134082185 -0.026264291520945671 -0.10083275531952385
0.26896578321341363 -0.58229567110336045 0.14396569074673771
-1.3442442926640934 -0.59556691876044043 -0.63833380381190641
0.63199492245650368 -0.37251896039261156 0.065124308684097354
-0.62469475760214133 -0.5959822960091159 -0.059040916331638993
0.030447552890484675 0.17090393884272448 0.0053296937399811561
-1.2871883312101835 -0.62262897588608002 -0.55900587944320312
-0.29916121020907421 -0.26884115579080203 0.15916057036028652
-0.78306481292619834 -0.25246332117665804 -0.18214437096289959
-0.081110452081950474 -0.60796603792277715 0.22674552070845655
0.26022129652804304 0.7968332132042657 0.11184835568235973
0.72965223595893036 0.50391329176074628 -0.20545038592450249
0.24202726328067503 0.32732926134180151 0.032007260292568951
0.08142063071644895 -0.67932503330483252 0.11045356316748611
0.40171985967241602 0.59423047759121084 0.1568452356105805
-0.94093907198154958 -0.19046756297016199 -0.38397409003422278
0.1654435657609247 0.43943599875704487 0.12279497593437405
-1.1420208442068285 -0.54503179038743776 -0.47897084495689635
0.57956925882200749 1.21151713818394 0.087430701340427408
-0.1586955367583191 0.58438133904572287 0.03059149864818389
-0.46573651352385204 -0.73741615472693911 -0.062369251981231333
-0.4365039687364109 -0.23662246224519345 0.15273827565407361
-0.76492755077772268 -0.45406580470039215 -0.1099668827979543
-0.71149277887527462 -0.16736661405784037 -0.1346120399842512
-0.61368702862601654 -0.49380773344555462 0.0095314504927022092
0.72421435139979118 0.31263981306042243 -0.22025319622011352
0.029638172125695306 0.21253077720008062 0.011397054375353655
0.21552946759253555 -0.65205686505928506 0.11747967986976038
0.15309773752159034 0.14240371637641291 0.24859359119847602
0.60456586048976713 0.18101979617786568 0.24957095894602066
-0.89480441228353391 -0.3414010899745199 -0.3367209267788982
-0.043360882079879426 0.28722368063100734 0.29782440422743672
0.53833150365061577 1.1205002105303228 0.10051901966823151
-0.59483048647321402 -0.30123777010071173 -0.16434270220553948
0.74598631435411611 -0.084790632684377476 -0.23516422083131916
0.047930053228971869 -0.75287708538246012 0.32649466097391056
0.02783785819772025 0.76596976925774873 0.025083530134998089
-0.2612525246758689 0.13427513029237503 -0.063048964774423677
0.30813231049427292 -0.57471137972279351 0.133941969873693
0.25685619207587207 0.35438356296380036 0.2198610996281829
-0.1741546402243713 -0.8521795712499689 0.3024518392765394
0.026054256654615915 0.22021393885729745 0.013755785543883903
-0.0037560574820612869 -0.747471680586694 0.29866296768348377
-0.16168837733102587 0.19645345205066 0.28063294494650215
-1.1993732933558907 -0.61223664386351495 -0.49337479706228127
0.45074805205753754 -0.46355506742744934 0.031895279819983635
0.64089656397899208 0.66674057298952771 0.13913660361026325
-0.18816687466906307 -0.11551082734330453 0.25043950097274204
-0.083910192728592459 0.19797441665570403 -0.0067120377820768518
-0.53219739623574935 -0.66606352174183381 0.065718744558716402
0.67311266790963253 -0.060610287879367952 -0.1483749758966173
0.064200425431997249 0.76802631120823817 -0.17755036584985096
-0.093332220466558841 -0.84892067689021455 0.3207546235593095
0.66941382806801364 0.44998232501973368 0.14149861936260599
-0.010310295456709806 0.33427535214208226 0.28450239580503478
0.53606454101687162 -0.20442046270299907 -0.057706538000562801
0.25403002095452493 -0.41849066462202222 0.031568657639152509
-0.27226347391187133 0.47148078457101339 0.051584569545832792
-0.053358864065844419 -0.57189102789224089 0.13315996660584872
-1.0403529602993571 -0.40266419093780004 -0.37353964809934093
0.53384139550618459 0.67762868142472965 0.027426980029982229
-0.24311049223865036 -0.63494838681610954 0.19181326029376411
0.22700069976494924 0.21831239690246296 0.022099017333415905
-0.47114919837306124 -0.76281932433468169 0.14177456285848766
0.54572844865126913 -0.40724632584387943 0.17245237405957381
-0.91984639414235392 -0.72432622230487764 -0.17203965790193276
0.41530862916000677 -0.057726718338318106 -0.028525992208269901
-0.053323942411742542 -0.63269045993697293 0.073363198050142131
0.41019648651743273 -0.62105566699538728 0.24892165900068575
0.053587703271413933 0.60812153578742079 0.24592348126774111
0.56363321612279049 -0.23674455419659912 -0.066284450056461441
0.52885940500120676 -0.34455736223231814 -0.03572420885830363
-1.0039069826508265 -0.62843756435731402 -0.34790807750303943
-0.46804000201917029 -0.38619001087493021 0.087169408431593265
0.10635540084748862 0.38203505442788321 0.16400589811509914
0.66590185051181006 -0.29541324176962092 -0.11963652885167209
-0.050385568269031983 -0.74904872851716586 0.31508055497708698
-0.44894536912386029 -0.85741916539440644 0.17991370243527305
-0.03768907255408746 0.68104214412028519 -0.18006705500025477
0.6618736124563156 -0.012047890492968394 -0.15114199967175868
-0.076300217800516879 0.66887013214093338 0.057171218036751625
-1.0710087650080489 -0.38088295766557823 -0.41093837103733999
0.45809570836748331 -0.035936937430471882 0.33938374876357136
-0.50826307950380556 -0.016707642429070302 -0.16725641315475537
-0.72743388210060211 -0.069464025674742413 -0.16914326334041441
0.46430446317619611 0.094164443425724942 -0.043103161660868139
0.075912493020518529 -0.50634799293132349 0.31004319236898237
-0.72706206362586889 -0.80164276438593196 -0.0034269565940254765
-0.47083011949399056 -0.69514194723481815 0.11595171346260802
-0.8705733571410148 -0.18299092207421319 -0.29598762087440944
0.2378024153695093 0.72056349912097906 0.13114818895976077
0.73831503664725007 0.4649804637428987 -0.047950418607181522
0.10921800116922897 -0.48215555927796938 0.038039215488610001
0.70578912944095218 -0.21561995682745816 -0.0041114338607077805
-0.41957553390323371 -0.45494876789129302 -0.027020422710122283
0.22175319674609781 0.28290943428452664 0.23289741529184038
0.71828335467971249 0.15832328374706495 -0.19836463358516987
0.70886256857689078 -0.13082567473288509 -0.028967598354721513
0.20450766783850871 0.32140348340837277 0.21933050595300774
0.11003575999038928 0.41971432259209274 0.11662425288092626
0.69017860415708288 -0.12133486259916104 0.039141120189720269
0.35327456013674008 1.0296488319577344 0.14502918524702979
0.62922674301722725 -0.14306911497370289 0.17051191138094923
0.036016647695163551 -0.3249343009869492 0.28043545953266369
-0.501769978260167 -0.59497244979133168 0.03574073223290819
0.67548051471625004 0.76483840769899336 -0.059960440911117185
-0.049613758419693121 0.67670766346334243 -0.17301755721698187
0.60559550815796659 0.013296313662964687 0.27870071660755036
0.29330415700404366 0.48822218641016835 0.079021861422811757
0.15233913735086366 -0.58687821414179175 0.25522080839246497
0.36828854939491734 0.2294371022580981 0.27010371479960993
0.71267234425823722 0.0065645866029353517 -0.06154561240348011
0.041978944672861285 0.7602153133617906 -0.0062610673060659039
-1.0190245733847796 -0.81033558975011211 -0.23085507872088762
-0.13111889879401675 0.53953566461816171 -0.06893012937004217
0.60846283061176121 0.79006935799676259 0.03364761482515588
0.1430209329517147 -0.65025353192451751 0.10090926608900119
0.42954690899861869 -0.53693618872590787 0.1221951279708704
0.54411176617198254 0.64795532193763572 0.18398892535989297
0.72656139271607734 0.69724473354791772 -0.11030719702577363
0.62348904925154147 -0.21012786564689034 0.16116361749193553
-0.12618904244217791 0.75110043153983397 -0.099708595307330006
0.64656521888311669 0.048863131620317191 0.21232950095516356
0.77230863635215841 -0.22031864763440678 -0.13271984554376992
-0.38000659726150543 0.085491130470518817 -0.10111021315993174
-1.0108003359186262 -0.67400910743971088 -0.26857301789774635
0.14516366536121189 0.16581125862100365 0.016189531954779568
-0.82729361379324284 -0.49332711717593936 -0.1765045955867488
0.60274674822324725 -0.055442887873499824 -0.10566481082185764
0.51575741149643917 -0.21583946997879244 0.3101481764206202
0.042400093321586535 0.7969204452935672 -0.16754747276431625
0.10428417504579343 -0.55518450671506747 0.13953365891677061
0.25371527481849077 0.48098771821732367 0.12296918067848361
-0.74824949037905197 -0.1432338682602915 -0.18256141007454518
0.62343533553307628 0.78856772740815351 0.10158850079725656
-0.024337393885087322 0.86065877327315521 -0.091601529984607133
0.72635485030351332 0.64695264870596336 -0.14944952944549073
0.6656979787174484 -0.049944817019816012 0.11421453310610641
-0.92371867545800224 -0.25737281180968996 -0.39531762528356751
-0.14666505365480387 -0.38899833563752551 0.2131824600201373
-0.38827234835975727 0.23188273818474259 0.093257206086992284
-0.67776737852920754 -0.078687596026201123 -0.1092408749878504
0.048434945887477321 0.82016935501744981 -0.035632298233056359
0.69331576965739794 0.19640585246600528 0.1491317137265189
-0.71375811699278491 -0.25075623951788617 -0.09705065452677486
0.098502962432099633 0.38731342637299293 0.19863316617681681
0.00088872646173757119 0.073112953347097998 0.22211671013535295
-0.096707642497029483 -0.67185626440655977 0.11106616053420515
-0.75302307743474395 -0.10332001907242094 -0.18583323154425768
-0.29570106166462051 0.19685239536399823 -0.048459373609717638
0.37404194401485741 -0.58229540429612359 0.07957230628916756
-0.5208102730685682 -0.69752324506407504 0.088524404105087218
-0.67543372166454363 -0.3650166488063783 -0.18881438440107745
0.46960400983197781 0.97532231511612699 0.10914015950403444
0.77463351196694297 -0.23239791886048833 -0.22251356696505775
0.72705386307110431 0.40779386137561846 0.046946166025298552
0.72628565865804118 0.42939332698613075 0.045272063734275836
0.027994269194834248 -0.71499676028817427 0.32007877510167848
0.66621612769865801 -0.38206812579434146 0.01904630784913941
-0.29941513693200239 -0.30846096427625669 -0.047099902548981998
-0.021745766805045447 0.57039093631082349 0.067797646839278691
-0.26887365560064691 -0.58202720005101427 0.13876792602958421
0.46664681232197908 1.1659897639893273 0.17417562531376185
0.58295205488389323 0.55745535689114201 0.19659264556245271
-0.90943639416563604 -0.32707313226370049 -0.26973240640709051
-0.20200690004345742 -0.44029704479199283 0.20207914492334655
0.73754726931202397 0.28992540993191485 0.016589633383201186
-0.71100268121971988 -0.21762998985228355 -0.27397156691155899
-0.47730646820979922 -0.51358915436138375 -0.068075881773156155
0.65093870816197708 0.031389489889481981 -0.14263046718444761
-0.44493261602807288 -0.68232075199605569 -0.007944938211785324
0.54133874776365709 0.22387463694764498 0.25241710234184112
0.63407983925201217 0.81404631621548651 0.065098989984568423
-1.0450355348292966 -0.27019103561056157 -0.45928093041571394
0.13077512140487363 0.31170777417432927 0.20491400729042386
-0.63238509918554286 -0.6299743222920553 0.0095354495266657402
0.43299606231026555 1.0601560322510466 0.11195162872819986
-0.97532548691060683 -0.33675854682044026 -0.32846117349576609
-0.047757218659840395 -0.78047494282975527 0.3212946895214146
-0.97243966319422726 -0.63749069811881676 -0.26427310182612285
0.46712742989269984 -0.46131432633725422 0.050410570510427188
-0.19442095977928611 0.48317713326861189 -0.025262974392741278
0.34057819484906676 0.92394593607066255 0.10839371648198615
0.78249093114982493 -0.21970743799627312 -0.17988477325219687
0.074380276877423213 0.88171147098090596 -0.11068118759926127
0.46828167063335691 -0.10733791843304163 0.33677928550839953
0.44714915412335643 0.050085780319443218 -0.038186640575671671
0.70172391874871209 0.64294543168498253 0.050151583945289513
0.41841569705578874 1.0499435049215544 0.15906644189299257
-0.8918293785793463 -0.22986789543177144 -0.38006013792160798
0.39032691775140815 -0.5473303779338573 0.12576881060724032
0.12787885987348549 0.87657843279758563 -0.14220481231934756
-0.51341609160275381 0.092184313198132584 -0.13805732526160286
-0.72124901632277894 -0.069448477512260465 -0.24909459741831474
-0.90933712890146756 -0.51069377085248613 -0.22293185610425192
-1.076565034545889 -0.42573804004120241 -0.41085742980157614
-0.36348560353909154 -0.50867832111382916 -0.034508269334468267
-0.51739850044703195 -0.68353443049925866 0.084208785171367317
-0.109851103521452 -0.63700605756536377 0.059706005217044389
-0.30951273891815489 0.4057531167481927 0.084630690217029514
-0.21668677299990396 -0.58147928601374155 0.10922073995384007
-1.1660401430967751 -0.64813545844946796 -0.42183711339028473
0.021000284969849126 0.71557626528145124 -0.038963840007990358
-0.23812675910271244 -0.49516120304339928 0.18811117730845384
0.64695653488291471 0.7575123928706422 -0.034495616207379509
-0.67357479287466138 -0.25374052175354778 -0.2415799917980781
-0.1149910171899772 -0.46829351976357692 0.22991557849995559
-0.16045385327410228 0.16044947071521198 -0.02879406116952099
-1.1001218197757079 -0.68785044046424937 -0.34382710515394566
-0.035177973927380174 0.78474005106365685 -0.12925134697253693
0.34493597236690432 -0.081037220228271201 0.34388514258275737
-0.63997864344722322 -0.42598213838260601 -0.019704360832549561
-0.92968807279313859 -0.51407349081776821 -0.24335334824010513
0.068705188936017014 0.67096507851168585 0.16930040918003986
-0.16555329184683099 -0.093264639912376324 0.192965520113769
0.34812114267357441 -0.57217525619424925 0.11365951392093487
0.387059569666801 -0.020669143264003598 -0.024092096552248865
-0.61943987470003536 -0.64807208599242927 -0.0028901293416807583
-0.26204317431947766 0.39959885793565109 0.13436883767627572
-0.48545524643116456 -0.083515802633106873 -0.16676314807796855
0.37384973034426294 0.52786644416431705 0.18805661323027678
0.48373680254368945 -0.046889053866855379 0.33299372781898429
-0.054376689344601298 0.63513928969694722 -0.11207114283311115
0.17341847719783932 0.34964653041866822 0.043777648868092101
-0.14920938858643876 -0.67912535741032742 0.098676128287806364
0.63854765789781065 0.071762569652077834 0.22717685458501702
-0.011931451057277886 0.84166383892515739 -0.038927444029614122
0.51252528506865536 -0.38656651321372804 -0.023215146360906047
-1.0772918165460799 -0.41631080074289128 -0.41872837136175067
0.22541332796977581 0.12802695713215861 -0.0059926787373738577
0.23852848036474089 -0.56819097939781149 0.24547370930363099
-0.073886437531652166 -0.31477630866720041 0.22945715948805212
0.36992964842470827 -0.54804167542992166 0.1781704808137774
0.58545383495332803 -0.46631016675456982 0.044138507651681813
-0.22984263626830648 -0.17690843078237584 -0.071379863163322455
-0.19545049204556808 -0.2719173080488525 0.20147049648095638
-0.6923059139744171 -0.06979660652033759 -0.24760421854136005
0.29345834887393896 -0.44236252111025387 0.031695045140539779
0.62483920964718975 0.70751968056705139 -0.034155043073242908
-0.039072220061432045 -0.49189920803062459 0.015600344728883275
0.79137178658952778 -0.062583603124728215 -0.29306060315807025
0.72916847692594666 0.31183659724216595 0.052419520274818776
-1.0241573718278976 -0.63150762721156539 -0.35720837927616023
-0.26618231728614217 0.14918349157930755 -0.05926956468712552
0.78272726891258848 -0.20893151567235324 -0.1660242779503549
-0.071554925502955502 -0.79252470452738044 0.31891486045577677
0.61770993366407223 0.78597835439602215 0.015820517024108138
0.15921446643856438 0.37814748604146775 0.058691208459201061
-0.54456959046638231 -0.51025187645359471 0.039647316334387561
0.051662032067972874 0.42040568461501837 0.1080234105074136
-0.38555633016367569 -0.58779973128584662 0.087385924881193677
-0.74352212007989993 -0.090199903366863343 -0.1796413335543714
0.14967464975665568 0.104327824336365 -0.0096745846713277572
0.74177064189106712 0.39969967128036243 -0.15064127702709973
-0.11555390872534982 -0.54188383704099052 0.24396529462632621
0.56456051804034701 0.64049281552070947 -0.0095542121764062848
-0.10632917240363443 -0.073982233786709983 -0.061907332086865274
-0.85161786191951638 -0.7034536067551187 -0.12620590420617672
0.47894472506684349 0.58505494834194671 0.026082752678503685
0.61396622477453766 -0.19281636419108095 -0.097016621423644978
0.00050124099199644334 0.45165619287061087 0.29511140821797976
0.46549660530325077 -0.5276709981137 0.096056381675115432
0.68204722892430336 -0.016095257532925622 -0.16197573601166804
-0.11603074213963005 0.26904436731599435 0.0051581275172170038
-1.2454141881179317 -0.62915486540267285 -0.51334211426639187
0.58240743575561349 -0.34850597587247589 0.14657498689994197
0.68329388122687429 0.10353602700048836 -0.17409222424422177
-0.014219240265923527 0.68177208585006288 -0.097020461754998122
-0.75364417641131576 -0.084133890639925157 -0.22046600147758122
-0.45154299981234497 0.05227621426082063 -0.12634864123484668
0.42871252091600176 1.0180239397697282 0.14147645351927185
-1.0839803613595058 -0.40809250685849119 -0.42714694478827964
0.20559065756135927 0.41616880307717286 0.067146981241191561
0.73277868312287797 0.34490268248291422 -0.20381662976009052
-0.47076514037290607 -0.50223430175589412 0.083373351453767786
0.67955993413777283 -0.10060184312665155 -0.14788198743059189
-0.96780320451000634 -0.21767035023494519 -0.3851841546164656
-0.48037067253018711 -0.73773061513797367 -0.055273926909480409
-0.75194127854111315 -0.31377080556638504 -0.25936277969912425
0.51167791853921019 0.20107981493926519 -0.053109084382484184
0.01455620182753109 0.26470806876959352 0.022020718350807211
0.73492206511643643 0.48057428235237221 -0.20083689369837421
0.38210573276097692 -0.056059377903466823 0.34307225177913914
-0.008351435060176382 0.43468177545548792 0.071019607965454146
-0.002975693859217865 0.88463718174829453 -0.11594059171734883
0.55549015521036815 0.75618099554820417 0.084773511121920109
-0.79872799192861588 -0.11566858881047792 -0.2744110461602336
0.52129484058053555 0.72384472144325152 0.088741082403935412
0.50829405536584427 -0.053793429408047988 -0.057781087272548159
0.68504450387592986 0.60785055455799863 0.085995184901709987
0.74737863608361965 -0.23136574052005954 -0.21330806386270673
0.33765488531047844 -0.62624205573899583 0.25331484430274243
0.40942417062823155 0.57511112478288196 0.17955987814522123
0.076705994502919234 0.83868801548818728 -0.10016473479106969
-1.102302466049532 -0.37096121186110487 -0.46315033516746218
0.23621154244202222 -0.18369164208257627 -0.0060821788789420239
0.054499149744671294 0.40045717384264878 0.24934903161529443
0.60470121210655181 -0.34420966888144688 0.094325547781320296
-0.48122702626468494 -0.052116246302279956 -0.16035207953749842
0.74112762621910444 0.38367006310497209 -0.08375068780890027
-0.63036138109665585 -0.013443793070606502 -0.18381071067532595
0.086103154562051809 -0.038701855679856845 -0.031067077231913043
-0.62563517971542471 -0.329474887727361 0.0057351434807606516
0.50896627792981763 -0.50241696526002122 0.052750720910091253
-0.094789502389085983 -0.8477662392412646 0.3218796526586889
0.023775652036295392 0.24096842680887653 0.020044933522290975
-0.87210634391155828 -0.41695764277472713 -0.21078671986897124
-0.75941626802872675 -0.098974572227710222 -0.23995550938889254
0.30164096927739564 0.90675312504644068 0.19267583457502235
-0.021243553670425908 0.44645955957903927 0.065986406352278149
-0.054365708399370716 -0.57414009672144439 0.20803886237407587
0.72748038554212535 0.21855831726304698 -0.18152673519613449
-0.84769584318940505 -0.63470430493742147 -0.2401269105681143
0.53895670079376745 -0.12366074840505292 0.30528210296540559
0.18140552451708053 0.34483737780552048 0.20901631604632298
-0.30334194787318747 0.17488878614856329 -0.050540900769217245
0.79714120723307424 0.045148181951910393 -0.25867780079658509
0.50381078574172733 -0.47240366539145628 0.03778786949163937
0.72311953751767244 0.15050293747159871 0.018477230653594301
0.63055242791325017 -0.33685345737247552 -0.080135056795406445
-0.31315589279652878 -0.69809933737522378 0.19173939007978591
-1.0377988105538019 -0.29643568784602647 -0.40883135250498448
0.65579439401338013 0.11756814067690402 0.19352340776765464
0.7264472245052338 0.52047299252983836 0.0056507968556900323
0.72653630959852866 0.49135427129587783 -0.20674829410422113
-0.23520894649665394 0.16139629261964994 -0.049513582631772746
0.65431488991038045 -0.2307090339630169 0.090737372280029316
-0.53836701926913333 -0.50854476145341887 0.047810316712097567
0.1283474605169557 0.61981301238134234 0.11488280429966347
-0.54733717965878692 -0.71802470961589193 -0.076185343391614868
0.040614496379169834 0.64029360383308043 0.19347712913506276
-0.099849225714395279 -0.72759990371778649 0.29654837065542017
-0.81948749502630092 -0.39612674082153121 -0.25537351048217793
0.60606779950678302 -0.15714438833453359 0.23229260948320585
-0.1262854646023541 0.39952867441562079 0.019172667073997562
-0.12106356618662484 -0.1220585100578585 0.2125672560313725
0.37484004855823028 -0.45104026415277365 0.33928091600641208
-1.2813043649471085 -0.57117863255289381 -0.60141619647381073
0.095112765160880797 0.42591403877472311 0.19999999631178378
0.72419114465537437 0.72149550453782041 -0.042373185210447861
0.042034823225817086 0.60922216425321896 0.23688340035815258
0.34177338840949817 0.14241491788977134 -0.013685850610998251
0.62062096273777989 0.56392127395575198 0.16671529572986366
0.75943338911549685 -0.22892558393033191 -0.094653440166982072
-0.14730961956221422 0.58581089377820916 -0.13315719474059251
0.091389332189571931 0.65178414060152323 0.10793023437414329
-0.7670675322905216 -0.35628814216157312 -0.23736675979124966
-0.80716401174308461 -0.31814918470198839 -0.18165607758696778
-0.6457202306159362 -0.043306503686952103 -0.089526395658712676
0.4359194050728088 1.1347802061389236 0.17126885324068031
0.50217270902421662 -0.23761342119223472 -0.042599850955587826
-0.051950214048874649 -0.075098572155730903 0.23347142440129787
0.23277442034223478 -0.62862508868069222 0.093494539934111387
0.10447540547161135 -0.74755855457186549 0.31653511828537706
0.72364604871091909 0.69650082767920662 -0.11942309062990031
-0.023579222130890226 -0.639378168151991 0.29143865132542368
0.024246662088201532 0.76816200265614065 -0.16935471213739284
-0.65733729452495981 -0.62211178425423619 -0.095837616833116535
0.67711354337414242 0.29716201151419885 -0.1679821961165775
0.62309340939811253 0.46235069784478 -0.095305507670391254
-0.18855106049812831 0.44981838651102235 -0.01248128925572356
0.73420600922980706 0.5562730323225924 -0.048755077593352958
0.47150791539815584 0.65747853719808003 0.15423202153605198
0.72365017869227366 0.64284089649616338 -0.15646787548366925
-0.89084544542153599 -0.53878904475596134 -0.22049525406433723
-0.0049469167503596034 0.54781309680778478 0.079922965803106649
-0.21846575969066906 0.39108119141549591 -0.013520762564017019
0.58902756997458006 0.28533338966053412 -0.091845995317402895
-1.0521421583910648 -0.68530553621748236 -0.30007787871004155
-0.79949489057159862 -0.86462304950761359 -0.035565832877187287
0.5391026744526235 1.0537684295453129 0.08336341116596202
-1.0405095577908563 -0.54585803690080958 -0.34740327204733346
0.6201122000874123 -0.27833179795065632 0.13234950946026647
0.53443150861461119 1.1757199851389086 0.12440769255397166
-0.7965074617891994 -0.39777182258213384 -0.15099132226681133
-0.51577488002559668 -0.53260034872240436 -0.09159578231627874
0.65642310192665954 0.58133238298812229 0.12410273563988516
0.33198290016812682 0.11260048920873045 0.27862098226197851
-0.12015096268161723 0.47279924454220801 0.011226211337422853
0.36330143066602921 0.35157037568955785 0.25085817735755844
-0.026949656407153078 0.56418490025673451 0.2228807544809559
-0.064887666016886142 0.62701489639566699 -0.16116952257172601
0.62757087381817711 0.70316876053191879 0.14072507031489501
0.24165675077900439 -0.70240789797682157 0.30559697912330552
0.11759496539260234 0.89064369700046186 -0.13521600348850327
-0.019934115048288792 0.5001686428839156 0.068745926822120218
-0.20810657148187542 0.50304439714478932 -0.014927264680793417
-0.059009067368621576 -0.8076727274354355 0.32273334854597646
-0.52678894920543273 -0.063510450995215684 -0.17933591540055227
0.23353317177878263 -0.31239985769367484 0.008212359983648998
-0.10418188865426464 0.30071437106943755 0.28673210605321575
-0.13368069851262523 0.57413206699121067 0.080689184657013246
0.40671784874672096 0.17159987093007967 -0.021134672003719324
-0.028557950736018772 -0.6752818636060004 0.27492360938091576
0.083135172193577633 0.3399391832686085 0.21794399189636859
-0.23050544752062585 -0.11849147892570844 0.269897159782301
-0.6221709974649855 -0.247521407427433 -0.21000521765423708
0.77025422500893836 0.1150162595588613 -0.23451460549541281
0.10803092272938203 0.30453938262128677 0.038671863041592758
-0.45283069384335739 -0.39307629822275147 0.098120584346559792
0.20036826922350973 -0.6827764769079141 0.31556231405450408
-0.77936694814869223 -0.15662944396237843 -0.31503777754069517
0.70301574965602931 -0.025256105960750341 0.021586593943351495
0.063926203186827568 0.30640693326162283 0.233353968542787
-0.26103395284236131 0.28353393078290456 -0.036791824180470112
0.50306939705880516 -0.51452329409724207 0.097504550986135197
-0.066039322314337234 -0.83006994748281049 0.31888454530462162
0.4570534448240221 0.26753095809607608 -0.0208154504674809
-0.09234824087459953 -0.50671224072709853 0.010221910755704666
-0.36010969395852582 -0.24682103899698427 -0.062286608267416721
-0.010960861538374111 0.7072744628108214 0.055843259403050904
-0.34390108135076958 -0.58791226422889253 0.15943596902996493
0.45393639204697644 -0.15342484913139454 0.33821368114353945
-0.18584207818489276 -0.69343652991163496 0.23769883200672259
0.56224723482284988 -0.41921525351056932 0.13709520171007794
0.68554948112908543 0.35242510025008245 -0.17207778016457009
0.052099953340590366 0.82309214627622396 -0.048563306764817016
-0.031719257264758161 0.66185119403634762 -0.17484598793927075
0.070421603026287721 -0.74154583734947055 0.32621275955214957
-0.4277412604931749 -0.22669733670224224 -0.10338966797334592
-0.11456341281451421 0.010899554698407421 -0.027556419811157085
0.28400343359401126 -0.59327487639648568 0.33126429937487467
-0.59736335912146832 -0.4423595795352675 0.012380413772521859
0.23805822914723629 -0.49325027576988967 0.34355719211712055
0.77027520314944309 -0.25659924555579883 -0.17698696575480843
0.60147593542303968 -0.21011981515258737 0.20982171353956014
0.22853130073348721 0.43939180813062317 0.16916247973479193
0.17761170390751543 0.42220603097293097 0.086582250323620435
0.40663608700392717 -0.14878129768386295 -0.024175237259584037
-0.67847558586803214 -0.28556708798252506 -0.059779843549953693
0.074160481764185687 0.8264884193246318 -0.17095508168045193
-0.61397068317846337 -0.08210004401548443 -0.041002725427103037
-0.2450701213944243 -0.43462503877855552 -0.034182747741263508
-0.30660850715406707 -0.79675515055927826 0.23457860564707556
0.036887010503394324 0.73320358406379849 -0.14479622335909625
-1.1343456438238977 -0.69397948218244532 -0.37337383328841467
-0.96334214441193344 -0.49235043385340815 -0.32504210432628522
-1.0494053558699354 -0.41193584372615732 -0.40486330619872213
0.71033650556187544 0.13981844209954386 -0.19917360498066872
-0.90969165815824871 -0.64433557942691322 -0.25873008354232852
0.059527677308365279 0.22868380816219647 0.016213627799817054
-1.1941033883804766 -0.53234410346837024 -0.51870091773897586
-0.74403780163753896 -0.6396556677900006 -0.12991723468281702
-0.05083491090525355 0.61681413810974028 0.10753584148511353
0.045887451287697029 0.87157252016586395 -0.095316072541488328
0.336819010047061 0.26421055207642197 0.015835369677725808
0.4367005637672382 -0.44596557259721992 0.017392889518385246
0.32569117504616918 0.54302403046251158 0.12072767961759778
0.50922284746976787 1.1749141879535141 0.14985874482843697
0.45978786653518644 -0.52389723940992106 0.15542134072198355
0.16140544126306916 0.20164812895577455 0.021060179414537306
-0.47132305413987352 -0.22581991396456413 0.1402781573829408
0.21024959817159247 0.43114714916195607 0.17152102114360446
0.076142198759100665 -0.57144083008993385 0.31604485439927688
0.73563349418524804 0.44920454833257595 -0.010393820548575849
0.45554628271792713 -0.41049611675410835 0.32204433898656504
0.60430531387396336 0.45968433713640522 -0.079356918980970637
0.51475711978679428 0.064622239572976969 -0.062426733753515595
0.036430792563722281 0.12313174437450103 0.00575967430619162
0.3339250149879715 -0.58244738908476912 0.070853860407981362
0.44888014899764639 1.0397869131270074 0.10017158025085737
-0.11382027912136225 0.75590496053378309 -0.10908749313896271
-1.0835681526397933 -0.52887112062853814 -0.42639348944096667
-0.65828785397317791 -0.66105876272041986 0.0010589340527826785
0.54220236433817737 0.68383844677902261 0.16892284533191093
0.048514851416102345 -0.24978582303768937 0.27439894713537649
0.33523368302077028 0.52678552308720672 0.16390153202570845
-0.4653034670461878 -0.23022174923918959 -0.1202397273327116
0.73877897047294683 0.2857507750100079 -0.072364988278585951
-0.26691174662054751 0.42636063003950708 -0.013492527616018712
-0.89398919028353296 -0.38809498154125377 -0.30430107730639788
-0.12381283277468497 0.29771111377045889 0.27827394672924299
-0.88534451640732825 -0.50109745806090467 -0.21645275901496897
-1.1196775924365041 -0.35595832351636436 -0.48327103272166427
0.019954326279486456 -0.16587607035235141 -0.035983478482418008
-0.61840397559515092 -0.34053823681073758 -0.024202266052045562
0.0022322657933635526 0.18089870841899458 0.2358422940157614
-0.23178732804153346 -0.64886734173714633 0.20271048209391118
-0.67647989294624877 -0.28266212641263977 -0.023447027677398147
-0.59084554098949882 -0.81732102123130457 0.088653554214156216
0.70073341505786313 -0.054537543444017178 -0.17330346246361161
-0.16357415710679463 -0.59685479912574824 0.1955809435935163
0.71317173393148203 0.70919886972888224 0.0076182432067453121
0.16356842461439858 0.72209563165900215 0.11174986007603671
0.67510596142008938 -0.2717078437475291 0.02944383358359115
0.59709506010385449 0.303764606274876 0.21511948057175667
-0.63604352615061732 -0.13050113859076573 -0.23654640285357509
0.18042601407993289 0.4018984736833906 0.18230598846624968
-0.0060954802713340805 0.35592400499996524 0.049525801615092568
0.14722236201499045 0.66277257866817818 0.21274982566575895
-0.026970224157046085 -0.57012364855584097 0.054683322919871546
-0.45592458074065401 0.081702179127379981 0.075180051226106936
0.43131496022929633 1.0333814587327501 0.10430756285498166
0.088897874825628942 0.87035483305692063 -0.11283797472671164
0.41328048816639851 1.0115841931363128 0.14756311642920661
0.4953928165160737 0.16388652936394799 0.28370334741622427
0.13730568636365567 0.33014023321695629 0.20007101363590163
-1.0298089612154468 -0.78912252761364432 -0.24548211651442786
-1.3072906767755132 -0.60059157385567319 -0.60214146002544244
-0.42808044275837936 -0.33646563894750081 -0.060399656783792999
0.17565239831315452 -0.37974483622441901 0.33522236007376893
0.27437665850550241 -0.59015822772005566 0.13596206999593274
0.7033615248708549 0.37066747402617861 -0.19205503676023739
-0.14146476378290157 -0.31163931008715096 0.21891962890213001
-0.19334493291743693 -0.066528499385890116 -0.048987207253043952
0.66730176790281592 0.81412458742179172 0.038173088094867413
0.1473183702307998 -0.060788260308477282 -0.021378627580332488
-0.021502669846341138 0.81834714395834074 -0.010997533310168173
0.51497992531199344 -0.4801472035520995 0.035355818214739987
0.5596852825359826 1.2102727633546282 0.12079822590848766
-0.033277780660205009 0.75366397564603194 -0.13714892493427366
0.27105243339126034 -0.60099389105742484 0.30778691296056859
-0.26417062089337923 0.026436013059008445 -0.072475917692106595
0.41987897920029538 0.96235365798314776 0.15537514224815929
-0.014600143276880612 0.62920392448982287 0.11998849914287257
0.52216967258974267 1.0431929146620429 0.10517837302516408
0.7183104831534417 0.43816507336840949 0.062130722105441016
-0.67070016789545572 -0.76709584808608433 0.02395464690398752
0.45736557727732308 -0.55230568198617946 0.19910555781139161
0.79917580208452754 -0.087297702087476337 -0.2814211117532901
-0.012758544171517699 0.65564186111043288 0.06567334030116001
-0.080132231831609474 -0.81488319556294408 0.30813656216974605
0.70090737431607841 0.35856685728599169 0.12628267812982008
0.43880779170787693 0.6205764322767815 0.16366710648971683
0.33786851704073029 0.53193927084855486 0.079323588023648028
0.33555964200884192 0.90193406315485336 0.16899340309537747
-0.75382022808714622 -0.48826971406355191 -0.12918937723595558
-0.22555467556392567 0.1332173279728488 0.25785938691075172
-0.23531228996515549 0.41044623832314731 -0.017203267950589574
-0.9269066156749185 -0.49880883777433016 -0.25106967035093408
0.62765361797990415 0.65208113299443649 0.15093905578872979
0.65067746073012289 0.55799255869292752 0.1326308498321711
0.56453237637244247 1.1092316226269781 0.056517451013145648
-0.01782719915064862 0.35593445753231978 0.29871203060056839
0.43137247001160067 1.0023541118707633 0.10183088576308452
-0.35038896595742919 -0.72394268823927721 0.18498440180472819
-0.1708401472224782 0.5081438088897936 -0.055352453345440367
0.38892316119236287 -0.57037977294558817 0.20296507013448117
0.015340924298124975 0.49154457378016314 0.083897507713262875
-1.0577194347115069 -0.41465736173942169 -0.38749856449869924
-0.20947485069943544 0.019045020734780205 0.28215404015165735
-0.96873999759954965 -0.23027912843209908 -0.41995550729757247
0.088887371780942415 0.47019973212289501 0.14520340981799107
-0.044051708375400345 0.49635943242913894 0.0584910059402306
-0.092111526596961368 0.65175315974132642 -0.14129184358419811
0.16154473810079123 0.79703711861710191 0.17005046423252779
-0.064534840320307429 0.30315981492679511 0.29955296648400287
0.67398619875571675 0.71802274846326108 0.085603406193005771
0.2137044687587365 0.42803906449822127 0.0713503317353541
-0.44395903190583308 0.22051367505772779 0.041331931359346097
0.55922606949208165 0.53362792039603635 0.2110068297293517
-0.7313586339739635 -0.096386182105518303 -0.2728590510318476
0.49940515746233061 1.1069689136369587 0.12151286288224705
0.73171876156041515 0.17431103647610025 -0.13600228592980779
0.40774133793337985 -0.47515189286780557 0.31386711400645373
-0.036707104215392528 0.53970228370612783 0.058303037916872746
-0.21797102417649683 0.1098330957399809 0.26756772278074825
-0.32977266432774022 0.34103276264828941 -0.046489105102056172
0.0031274983098303899 -0.17371082461674081 0.25718571902771314
-0.1598095865036438 -0.06112954645208557 -0.047725898780080378
