# XYZ point cloud file
0.21171696802638706 0.52580678646239853 0.57042625443827433
0.43649161533205572 0.029072317431268146 -0.63383148380343357
-0.56422273584828631 0.15979691442318256 -0.26598835517394193
0.42637519046203565 0.28348053596064027 0.62933914270474567
-0.83709590894619268 -0.2124507453803961 0.025522311360179017
-0.22573566654648047 -0.18378979905405757 -0.51872337056082074
0.88805147196238465 -0.42008449814477 -0.21344633481898967
-0.70632201737808131 -0.15494099799341932 -0.27439199754699573
-0.46622060215035432 0.14745505416939686 -0.27679511011286806
0.94770821841058961 0.41233511833888237 0.40783681609004674
-1.2351251509155929 -0.10485033406506616 -0.45086947356979934
0.39003482495453667 0.94022501964250083 0.14223594482951896
0.23733797939810586 1.0771986348375915 0.33020202892023143
-0.73276364323441001 0.13406922164957003 0.10369201881161061
0.68748735935457006 0.89823274292051636 0.40164771585494208
0.32899943946825516 -0.85012579599901006 0.02523162472263607
0.12077171268442832 0.86615590891337924 -0.31674501233662156
-0.75598347541167144 -0.87868640442713986 0.27566492724114866
-0.069276167026352198 0.69576613022609912 -0.012531477054718465
0.0019069466823040671 0.91871083514612017 0.42466884736772137
0.24691837461815425 1.1162744760203029 0.26778095110717004
-0.14890049385753557 0.1461131521561061 0.56872503366131966
0.012021662106896258 -0.86655326385763587 0.12630088787717852
0.84907373525439667 -0.45413830123204146 0.051870667624403843
0.39360516066732032 0.33038147548369956 -0.64783887234548843
0.88159820148629464 -0.38303073620329897 -0.32080943583313459
-0.88777900583248126 -0.045001309725998695 -0.4495703303998333
0.079638732054810646 0.49729488894984186 0.70432446962990269
-0.72016171347591396 -0.87912782524403532 -0.25874219076943561
0.81814744911805093 0.88271619038223115 0.35112976041425981
-0.16785579565390663 0.80092023351311958 0.43073741595953052
0.35457213147092048 -0.57611158019972386 -0.31688820228990267
0.035704165478147587 0.68119084426882992 -0.20869892428694747
-0.9387405804326967 -0.66150893536135591 -0.012458129848694099
0.73490041542809337 -0.4225605150180014 -0.33103931927937413
0.077340354496392649 0.78315645229611341 0.10728728981470326
0.88132663658961974 0.48757112074362219 -0.15512751979468398
-0.46674232065712928 -0.05381901689714752 0.35791369432457643
0.68035571289135888 -0.4959889734951588 0.28921764680385564
-0.2979411524986908 0.09943821616655768 0.50859806796044893
-1.1140799711274987 -0.21770852052318901 -0.48343427178617127
-0.4216394784017865 0.79099791997506408 -0.10094818625394097
-0.77029003254217088 -0.67370972926892847 -0.24251618027867394
0.86637910629121961 0.090250594048938204 -0.012647331211700141
-0.70321805401556148 -0.45766788838472827 0.25074377773909617
0.63924630414994255 -0.48046448729934887 0.3502357993474341
-0.45202656396237373 0.52634662566569546 -0.015002394539870068
0.31801158591592227 0.90573378445678721 -0.16437022198955198
-0.20684245059644724 -0.77333250541513276 0.3004559200600756
0.68188030110739462 0.69041512012656625 -0.53934322102301202
-1.005314056499234 -0.61563325475983532 -0.042756671402651492
-1.0674696527504715 -0.41536234245749348 -0.11628887896400997
0.28736684137799529 0.26571175028164262 0.64589592404098539
0.8742762661075183 0.42564157538524405 0.52506793051767531
-0.24088108927577778 0.58734680555264518 0.49721357981917436
0.16464622653345984 0.8180381626176878 -0.41962873278657398
-0.46741129772418333 0.44438309459193093 0.32904709086815309
-0.078753640164507033 0.5828498038401797 0.44008395543783152
0.57143504569467574 1.2215079828901967 -0.15048444222932389
-0.70850479641105579 0.42678238395801138 -0.046559646388363518
-0.29517715670834832 -0.061335315099711352 0.43856144361583027
0.2170733467304764 0.17967076352778832 0.6488035860511161
-0.40569334189732587 -0.78407940451069713 0.35749216263388206
0.53384647444822164 -0.68273354698019784 0.1262010503811517
-0.1307133756281651 -0.73676353654311111 0.45594657216502554
0.91108235551130434 0.77871011848491278 0.06428555739380748
-0.60145328562536093 -0.64162388094382194 0.32418491771950997
-1.0433631058840405 -0.42579731454420156 -0.23528573191987512
0.46410253983369998 1.1982208694533547 -0.04573845189432646
-1.014511153937331 0.080384036921106627 -0.39268550832542282
0.41713919486612028 1.1844928006256694 0.068674618513945518
-0.87606369130271489 -0.69499323994822326 -0.440791686699189
-0.15237440115123135 0.34617101576117371 0.53957320961863786
-0.12892296475458309 -0.17287221735782055 0.41907077944729032
-1.2545905811796523 -0.14459683380558808 -0.50811575548924282
-0.25188886244793096 0.56533004131379094 -0.081522789642015425
0.20396526573141216 0.82124542903639863 -0.3967356589651807
0.22288575487957374 1.1073763457737318 0.17515067356827707
0.05685569404591817 0.56507151158266744 0.67722938868661231
-0.87679976859604025 -0.79243278695649977 -0.14265800313225263
0.20152254183857465 -0.44757657739380896 0.54782780918896279
0.92908973426213848 0.48139476096306488 0.41410920353893665
0.4526729968445693 0.35668127434875352 -0.66457031760234031
-0.85089689349263509 -0.5063770526117608 -0.25645163025601292
0.096343397427599342 -0.7658280483514428 0.17915985825549008
-0.72908590817126395 -0.49498528252308738 0.24164933424551016
-0.96109557591837103 0.18607237808297761 -0.063910121590851077
0.70446788138211147 1.0181191340980593 0.050021279276823094
0.68824996195655075 0.062353997110585979 0.66284403688609927
0.021500236642371107 -0.93419580716239548 -0.056784027588728136
0.2028628438573179 -0.60586455522135019 0.50438491139166963
0.46119483962600683 -0.53441764075029674 -0.082011620470529678
-0.29510602380880613 -0.049747496671253444 0.50053231374326046
0.85066305664413377 0.39161104848747108 -0.21301891775102089
-0.2730448444145317 0.15426026119091318 0.51910232033491788
-0.63160940094329376 -0.79192659872804949 0.24485660512303831
-0.99016743045682531 0.26246591210421677 -0.10920120345875617
0.0062799964858761825 0.26303674012423883 -0.5271649868289856
-0.17301662964757369 0.9320433947675113 0.11353179464541441
-1.0920011187206953 -0.63364936803900562 -0.88767111157740253
0.76616434902783226 0.053538696446217671 -0.41036942917816877
-1.0427554651309414 -0.052737866810666389 -0.50631340342468079
-0.41422371824488025 -0.78014596446171414 0.4985507910096274
-0.063897943937032409 0.90641941735088949 0.35927863450704933
-0.15639543893265895 0.59393906072070912 -0.12672049735478197
-0.59386220594222294 -0.79673984661531527 0.41728838057808559
-0.5522839137747475 0.65642761300489383 0.16588711230049213
-0.14913186367378373 0.37113645274383344 0.54958261851551171
0.59467227896095665 1.0124737608334691 -0.14752209363530611
-1.1174137812432576 -0.24386905675280879 -0.47003199115131977
-1.1172463471320988 -0.29203625295028957 -0.31700237621726046
0.33770210995185579 0.55944616004611625 0.5918514005923754
0.012716369692995499 0.97284870809616741 0.16154054857641498
-0.55008150046893434 0.61837426867391798 0.047025186265068797
0.88379174637676883 0.26371958796156925 0.49890631461118851
-0.0070403684023823132 -0.00050857620867716946 0.5495749165639392
0.27328623911869698 1.1218067865704366 0.043784394740363553
-0.030412270223919791 0.19604895251308641 -0.53663023222611983
-0.42798261507232738 0.60482844834017513 0.071666302102276092
-0.66043501902593604 -0.056219879930155869 -0.31599720051227465
0.46721339192836453 0.52642297551349593 -0.62457408468810804
-1.0046790183161249 0.18831466674947706 -0.10034316118396092
0.088104525956612889 0.056832824630278722 0.62539385882394427
0.59707480629039722 0.33856519002239516 0.60004174212552108
0.92676031292371874 0.28754850331626702 0.092315551541595653
0.76213346873809229 1.2368478559757712 -0.19077872785400274
0.59322172334031364 -0.49171994784786222 -0.18336055045554289
0.85300165000579042 -0.3803971823795953 0.10048497006997081
-1.0067528285749852 -0.78751193288691113 -0.21041713554167885
-0.74660849759222003 -0.16182565117964209 -0.30691902482515232
-0.61544465544957916 -0.81303664387595376 -0.0636628452910184
0.074643933070813517 0.69266790048537885 -0.23561294158616519
0.60875073031573734 0.88667719893868124 -0.4270345386770007
-0.58610428219817834 -0.34987773228404961 0.26325072908443303
-0.039740277712812855 0.87445751575112673 0.44309276642597339
-1.0378991636075661 -0.11406951758108796 -0.52123555789608211
-0.58391648280784381 -0.83949228927797037 0.38970345365749814
0.67117503268156753 -0.18759721597070111 -0.38693574432524258
0.66965165751343392 1.2766245787737471 0.093164071387501934
-0.31846619449888891 -0.79553778132183606 0.53471341555868435
-0.96221685940225754 0.078236738029888286 -0.029939284385397613
-0.4631453227998712 0.59509196329042346 0.053243906920789286
-0.42805462196490041 -0.22180556562185316 0.38241942126060735
-0.92249876585423252 0.30510965973036974 -0.095044474220761899
0.47596590341846934 0.40090556356377149 0.6359308170023521
-0.084287438437762319 -0.14186953851318407 0.4520231643783319
-0.39102310650265792 0.060852053463326783 0.44623575302912677
-0.070399561939979094 -0.80167959752726148 -0.14662659070620521
-0.29097644593221261 0.82860173080546851 -0.0031465817096378856
0.47426949643468674 1.1997426837750318 -0.013895177430512717
-1.1912093894568017 -0.32719503253273707 -0.37666076926503678
0.79942581058190498 0.93693409976290987 0.30504732593552397
-1.0478948408101019 -0.84617690717785887 -0.44464798894662572
-0.64861487608627755 -0.090027516151650389 0.21831075535204647
-0.46534966531552868 0.29366680332694095 -0.21639214345277757
-0.90019974766982358 -0.8287655123146207 -0.059220007186844725
-0.80699848901631555 0.22467563663448509 -0.21582657112402259
-0.42903080668635951 -0.63008997377202469 0.45908451242596193
-0.70872269489530026 -0.15105882753511857 0.052208385207240582
0.49414922810223416 1.2278294254723292 0.15998188858439377
0.93869002082044162 -0.37714848590079697 -0.19563122348714224
-0.20890529929939916 -0.28532470727559378 -0.49433535597312073
-1.0054280229397499 0.13705730348393708 -0.09800011248455931
-0.91269452121163042 -0.44166013956805728 -0.0049385890562589907
-0.58686657631293215 -0.13181570985776325 0.064493314406300684
-0.11465993785078865 0.47519401099965641 0.50038769654667092
-0.010978880649304301 -0.034838303544558968 0.60556249636114856
0.1653328792183828 -0.31903123511923326 -0.50407935116130709
0.43217498240654706 0.56096994599634797 0.60828382397667902
0.63039407604352959 0.90152918729004128 -0.40140445985952766
0.54248438326168724 1.2466965342127079 0.22700628667266365
-0.25166061448844701 -0.85009168372446631 -0.28096604323522101
0.86112345092419318 -0.076575267440116335 0.24607072263988705
0.77194369191576229 0.90760057089608459 0.37177327013665717
0.89073959366857736 0.17362524273122126 0.51242241617453033
0.86433823973770174 0.2680283719682528 0.54685872337692665
0.49322019606644574 -0.25149974083206672 0.59795320501028826
-0.60750274254777636 -0.80593987488056307 0.0069634889226151131
0.13455697811989253 0.82484315571078426 0.02782258216243072
0.40338989418798121 0.66373037593923279 -0.51703477504156758
-0.62563137625095422 0.59417750406540115 0.12352063988468664
0.7293480253334792 -0.28381739490698887 0.46995154659666483
0.9086456603343791 0.054325935960268801 -0.47421568818892013
0.5041599649768429 1.0072718213107841 -0.052802891671589691
0.82712649593620924 -0.21752693897910191 0.14273059687663814
-0.15292307514113546 0.29690164568268074 -0.41082859405532801
-0.30026549836055594 -0.40042026528836239 0.51441005466179135
0.76075447440114274 1.286627970156383 0.1234379709398965
0.21733545415898803 1.0932104296021237 0.063308047692389735
-1.071921668578355 -0.039789384256065929 -0.5146379911465182
0.76071957814177082 0.78386942579995278 -0.37970424595412311
-0.59014971927159365 0.62259706149146155 0.1456746929128343
0.79929768901741483 0.92932009946841276 -0.10527183989488886
0.62182432536092946 -0.4746025597645529 0.40836347104099602
0.4626018591880765 0.68971356697634079 -0.54686759587901612
-0.8924492825569672 -0.52952264960361362 0.10893383817490587
0.16690480896919979 -0.026629453224463973 0.64019593273210873
-0.14501547966107964 -0.96365295884143265 -0.16630958680026531
-0.23375869326747178 0.85825337527083789 0.26605102417449444
-0.43145308665862814 0.29931688041648208 -0.22287813230898479
-0.80892542192392014 -0.47734454508633384 0.18093844663759029
-0.19589423626711167 -1.0039781458391293 -0.0041977465895399746
0.28170813599321676 0.058410601065972401 -0.6102566116064061
-0.043871379892554074 -0.012788528728380655 0.60159733670859694
-0.64718521963431641 0.38061920849547448 0.20887007301799443
-0.097716058857528765 0.6291910591083365 0.45924955470876228
0.36776974113542238 0.83673044758046977 -0.3758016088234104
0.1532196208957366 0.83008404051824058 -0.097556941701370192
0.20809296420580026 1.0681520138083282 0.11375285190855955
-0.23887118939557439 -0.51206972612110491 -0.35052927763657848
0.60908465058272654 0.26155835191951127 -0.6676775168963669
-0.62293191539508186 0.42545517427481983 -0.036792203943864621
0.068739641788692296 0.74034234910325303 0.253888435099757
0.70058336781209718 1.0138243543229226 -0.040395135503281665
-0.050670685694242934 -0.732548399014048 0.55230211121192241
-0.50704174998747575 0.60840922525764718 0.039947912312841893
-0.62329626048355635 0.56622090319167384 0.022257544548702768
0.16142210612018815 -0.72352283051811561 0.51592261243680859
-1.2340259287095918 -0.0028530914681788033 -0.50933003650314745
0.44190613183390326 1.1949797676143383 0.11438860173572429
0.68567857116498487 0.45009417040569488 -0.61200860267415003
0.55336747372376038 -0.65426340533441252 0.39109225643862544
-0.54850417101729221 -0.1610833005837673 0.079404844479810777
0.97457542033471256 -0.14291883386794346 -0.093540760627075059
-1.1035530087140977 -0.65756475685481774 -0.31263701206056993
0.38830909322118501 -0.23576062941905995 -0.547296577695084
-0.94823879621302254 0.28309751109107495 -0.10151985156705123
-0.676799782417568 -0.37834614069398853 0.14195390232425353
-0.11877446514034062 0.44342449074221157 0.54123957673814793
0.91153814672390965 0.090101085949235937 0.186172137498124
-0.30687457223435644 -0.44482804471103066 0.51163345668850901
-0.98476035789682825 -0.54814493894402361 0.011425192603603307
-0.44590147352824516 0.50312740550514867 -0.068537482373816516
-0.92889883127098116 -0.80955174862615742 -0.18125781585214007
-0.14594087897508246 -1.0191888846804069 -0.14127921159132484
0.83992163645583062 0.55276705847864882 -0.2673800088749001
0.46224135504173347 -0.71355688220943581 0.40959564165733298
-0.16846309418227889 0.193030221906902 -0.48469013559246399
-1.2610831749040443 -0.099169162065228633 -0.51569811865357806
-1.1463408197851415 0.031476502309075727 -0.27663330461236235
-0.2137777161374288 -0.79932073186366637 0.1954128298281983
0.82764874831205404 -0.097876058139969579 0.30410728999167347
0.37327151168926775 -0.69496973396861517 -0.027469269772311122
-1.0656882325980135 -0.39324223623501275 -0.19287016684572045
-1.1509808365804659 -0.11700380458379378 -0.57871366058441964
-0.026706945899146461 0.49763743529764959 0.61653615600421929
0.40620115429468484 0.60167793079330067 -0.56589967467173174
0.43581696936960412 0.16727153506464099 -0.64604277979655933
0.030734723354818527 -0.85639806352540937 0.50317729755365903
0.70432190825216523 -0.55890907234094733 -0.11095152353683524
-0.69665998382347283 0.39162398558276834 0.17365627378181969
0.0072920203299240427 -0.60832986478549955 -0.37190514500023575
-1.182356965113474 -0.30527252861837795 -0.41071035967870984
-0.5485405783743964 -0.10031214513076847 0.10908938652895372
0.85474567997950857 0.057235952029877524 -0.19833588166981375
-0.37982380385270176 0.36119129809269701 -0.20722752108574483
-0.85346176361327863 -0.4042940250622582 -0.26446991460864666
-1.0709935538804736 -0.74717607790170959 -0.39512838150182894
0.23724245056277837 0.5477566287498945 -0.47085917274398525
0.31593206134379415 1.1354835196458577 0.25550334407683728
-0.092910955077062596 -0.2199242176238041 -0.54938341750444764
0.45874362937576407 1.1989560653010365 -0.061916039539564593
-0.47819569008245821 -0.63523994497282921 0.43566254930763471
0.23273762307752577 0.66494747129252296 -0.41195343534746698
0.38698817232783256 0.10320999233461592 0.67184523848442623
0.32727161926640846 1.1523680211805161 0.27425134807380047
-0.22507364260002305 -0.75776921985049839 0.54208116370797832
0.7574305635693932 -0.35411748368964613 0.36064193906242537
-0.011829600009125585 -0.81769915167574236 0.46091756892344726
-0.31826097622765914 0.88765981253312631 0.047685734443891903
0.38371305861411287 -0.7183068224335365 0.29970781696902193
-0.28670828264185388 0.51171942838220907 -0.1342981652221642
-0.21874172544514181 -0.79079509384964819 0.54219175955781651
0.47658709348294792 1.2186760905263032 0.070743129156671358
0.68453474830199212 1.2812320444038363 0.21625923891715004
-0.26008340657754658 0.036923335841905214 0.49478406165058431
-0.77367119553066388 0.29394620804889726 -0.13986917803725163
-1.154412040405802 -0.53095621203438625 -0.44372604656130221
-0.50259364777389237 -0.357653177459472 0.34943205492565177
-0.15389281956004552 0.64874799717086873 0.54721824811217878
-0.015817033574780481 0.24224047111332148 0.60609122835586859
-0.18900704742967278 0.28021018114449703 -0.39580381653587082
-0.78476011058849693 -0.2157925392140676 0.07419115979999269
-0.048052616502634038 0.46708917327450372 0.53511356699877588
-0.41900261464017419 -0.38889354807242071 0.43944957474929325
-0.057901933861096211 0.30842352549607455 0.58072141037712477
-0.18337721359251447 -0.073842882124019127 0.47754515699080002
0.75421051147056772 1.2797326020954891 0.002869344530342488
-0.81415891713130506 0.28075862168547872 -0.14169229471152178
0.088980262498626672 -0.38059686468066545 0.56386556377995412
-0.70473766449130082 -0.86810862550273171 0.31968046454280774
0.21531260248562134 -0.046261459607107369 0.64680755492441655
0.97506406856922467 0.0010213440302351273 -0.34535114654017462
-0.58850764770875585 -0.090243225746993616 0.28486808460364088
-0.35622566197867656 0.85743868835821502 0.078024373350517706
0.70301864425043448 -0.16218325142342671 0.56936348579178286
-1.1879259291808069 -0.28346864907995339 -0.38643355079025454
0.11193089050662763 0.78365769273605679 -0.14009735532073719
-0.61925290867783289 -0.81047720081804542 0.41154133753391875
0.92626249730565391 0.12098852675354266 0.28507115895682844
0.64602506289577022 1.26449568729603 -0.082516568709397831
-0.27914970351403312 -1.0224298863221186 -0.12138940760605799
-1.202977823371981 -0.30515113382673675 -0.39440706359721034
-0.79168484409352757 -0.23375447326915122 -0.28360043603889373
-0.093330110572136249 -0.078112692060994249 0.50696026920055992
0.23056734080403274 -0.15933426478240875 0.63116995318495484
-0.7059024551905182 -0.54391831090403464 0.25035366764305422
0.7924963732905681 0.19292599383238596 0.62793169336507937
0.28640528267669652 0.39816276221233871 -0.56958168582898772
0.59348297588356047 1.228307218356818 -0.035010845593902218
-1.1255310622240806 -0.30436370202698093 -0.37702584373179526
0.75401328322994488 -0.21802746029713571 0.50297779459028291
0.33318503722742321 0.88938008381576417 0.23048761020721464
-0.5821360074442623 0.087872750368381602 0.1904094076379419
0.79700965554900094 -0.51549808135685549 -0.070813826714219985
0.49292056780678806 0.5175942990720781 0.62348468405188306
-0.66653953184352233 -0.79351480968135313 0.20690744259928451
-0.72599366039278834 -0.94548678541899989 0.066811957581265347
0.015789972416957454 0.83771710343803107 -0.4367998141751066
0.39799334495884864 -0.12110127828215411 -0.59127662694218763
0.39948143397866076 -0.75684122212731975 0.43707645909164228
-0.8032914401284259 0.33742492998971052 -0.076381170686614652
-0.019035963848375914 0.92542344218016837 -0.2631806862134134
0.17098802943900004 0.77708797696261378 -0.59386608293452703
-0.61222612496621664 -0.016436659398307185 -0.29053304579914041
0.34540606129867868 0.74195422834065461 -0.44010671654498346
-0.22022475301795907 -0.074171460185326055 0.54057142241359557
0.68881818219078284 -0.41600201592031816 0.31725598404529798
0.14199770581955207 0.82786066447148343 -0.39243804763569479
0.43540123276355303 0.22595143313719568 -0.65107730004167053
-0.063365152745902265 0.76081967876088186 0.43142841418436362
-0.58422383890405527 0.39288798587154616 0.24924248597655563
-1.048194171847463 -0.027970492910181832 -0.15055597210997362
-0.78991796171747453 -0.4532418538874996 0.13989501194209986
-1.0142904263266956 0.18664071028287488 -0.16267022398371545
0.03559212859092753 0.42254040068056575 0.56839085693593994
-1.1577641354581552 -0.26909441880317075 -0.44854217537116625
0.74208740727006628 -0.38659183646243367 0.247218685811184
-0.0020306237372622604 0.70060888648730213 -0.13884617956192002
-0.74915539029388967 0.26979810165658158 -0.17798897354609977
0.24936200753894866 -0.77985330987046453 0.29501434971660956
0.35963031581607652 -0.72746062983908288 0.16724334308822542
-0.1117459710198041 0.91550283424789214 -0.21015457321677466
-0.10787899148397528 0.78818441164943209 0.32860816915213498
-0.41852806315036162 0.78482912208614763 0.13754118726155617
0.33554592944713235 -0.7600746114659902 0.47101248416124264
-0.13000208137334113 0.87716844406087979 0.30628680467234304
-0.26297224218423665 0.91749628366234504 -0.014271409368920018
0.52420509897233458 0.90473806918523181 -0.37956075882490126
0.53995284013025824 -0.52182175363849925 0.45647346588301652
0.99576010746540078 -0.22691431198663636 -0.15317095795639446
-1.0173825432861818 0.078728340504680361 -0.088877555341648318
0.6334411070683359 1.2227581689428479 -0.21650252814523796
0.65101213765323962 -0.49674799610107989 -0.20478713328808951
0.7713195518146847 0.12633758780937754 0.64006249792289793
0.93600917120848237 0.27268643536494697 0.15290305966712037
-1.2195040571459366 -0.09473972654019569 -0.5775293095592744
-0.86935557026300359 -0.099940185968504736 -0.4487039015384422
-1.1595936487905583 -0.72477061757210492 -0.52565061301656968
-0.41216674700399025 -0.82860872876129577 -0.34679675354939121
-0.66321650634526108 -0.60822526872793503 -0.15489077463908529
0.17179200010057016 0.073613342056860986 -0.59610561521245486
-1.0396033745199169 -0.48434265005191257 -0.1393900571437392
-0.93307256894743773 -0.30723330865401977 -0.11227297146793269
-0.27242781051887022 0.65551869765812221 0.18799459379041394
0.84152078069568503 0.59813693268877977 0.43793117832807305
-0.042000922256001161 0.87301995164213864 -0.31844250767663418
-0.57100027281888188 -0.11017355514408678 0.25084557155030041
-0.19598990226799629 -0.51490332936483796 -0.37358253824768894
-0.43439432818569301 0.7711307074090108 -0.07164669502740395
-0.0011279660676315473 0.38318478698084135 -0.42279395206407244
-1.2054234037533433 -0.52642296848379289 -0.83607334201606065
-0.21651008491230428 0.63875365603253975 0.037754059845124033
0.26407934878479011 0.73475449197236387 -0.38661979509384814
-0.18999074225141754 0.30246342982650276 -0.36232129320493556
0.62245046827155193 -0.62042301044162773 0.34261325883568006
-1.0569855250655387 -0.59885881638217775 -0.14684114254260905
0.22972131036586241 0.76647247164121879 -0.600276636422997
-0.46426639669812175 -0.11398873809221399 0.31798706384562259
-0.2448028703640972 0.16822536046954184 0.53360559856178114
-0.49125155610785853 -0.68692001808710401 -0.25714454964527178
0.92012279407621023 0.17392558337375608 0.31774258072020167
-0.78594433681538334 -0.83678732764147945 0.2567892385263395
-0.1354027457956839 0.62766263777975517 0.3993858599643314
0.72206143970627679 -0.37821210874447964 0.30927636524215529
0.42925377322884373 1.2001282465506371 0.1379396278933136
0.74991600232122124 -0.46556706680663762 -0.26783726695628651
-0.30172149066617848 0.076193280832004717 0.48908833764924431
-0.017082676875556757 0.58000456002669587 0.60308776755146987
0.24818524384613028 -0.7940727493051023 0.2646389136171603
0.51969348927064729 0.95177826792761167 0.26431830671587342
0.44113319151711039 1.194694485630615 0.12175784955332958
-0.2380216085052993 -0.069516407930088064 -0.52210409539029357
-0.29634963586310548 0.83561390250328849 -0.25223565667548087
-0.43118481899708883 -0.46257621580817343 -0.20599107380252768
0.85568945779995076 -0.17369087148227003 0.21200303879181615
-0.0065076659956595506 0.66630326590714084 0.57379689922854027
-0.14785032123348252 0.79583806955202085 -0.47007073885108852
0.18302497666647355 0.36631809154922124 0.61848617161652264
0.43416966669734336 -0.74746321456921905 0.43077034686129423
-0.10669176223773036 0.25106155942312469 0.57745235843947995
-0.30371309660124624 -0.76452201048534896 0.50130121190302646
0.10269385961722577 -0.46408018615460556 -0.42798323694439944
0.58998089589313807 0.66222047023856234 -0.62132407563634473
-0.57499061578521449 -0.9387180644425559 0.22389889616505876
-1.0177878995037197 0.16431856547623092 -0.11058428605546489
-0.0047038646684587349 0.92987134644117475 -0.25445018959848831
-0.057377002671813671 0.2507817079410426 0.6190502608820907
0.65344810606800152 -0.56410569177743142 0.32366236405895421
-0.80892791428510336 0.31200254106493475 0.080820943643619358
0.283955314264702 0.29236952947862882 -0.60874539829569763
-0.25409183226115317 0.58817551664297696 -0.028595935331445332
-0.35247705811783447 -0.90484944202555795 -0.013954584963704164
-0.0014491165380370319 0.92034371493074119 0.20685539661180741
-0.77095260971093182 0.4793474270028284 -0.0049464808231221014
-0.57658627253548644 -0.79914402286692621 0.17374502879686027
-0.34843693177370128 -0.38927532303481094 0.4876378005740758
-0.34472255967811094 0.86939304673695439 -0.048851911685433791
0.95426614710086355 -0.32036612553720456 -0.28840304950484974
0.66631979924625284 -0.58117507352260311 0.20650966362844159
-0.22972075999911468 0.041810070398835109 0.54046153823934873
0.010461870065480383 -0.060556231406895478 -0.56942878076054626
0.47153406992805458 1.2188820403994836 0.22295308952993054
-0.96611163480230289 -0.45313791734257514 0.042146720297731477
-0.81720299609028402 -0.33881521966521078 0.0084885231474682854
-0.08020435827982908 -0.31976259750605607 0.56032296146309157
0.75050250540462926 -0.10627082236828667 -0.47883995221564479
-0.60011006388808852 0.51752694361628038 0.22894420360045764
-0.19843413996864001 0.86425542746275852 -0.23998459091431634
0.77628695303202733 0.97805124373610575 -0.040641367263134498
-1.1323208168125767 -0.36525783651371313 -0.27338028886607901
-0.53064819236118055 0.044888354507016004 -0.26500683268465863
-0.15697021294076308 0.95319878238549904 -0.028703973137147898
0.76066994031537405 0.67561010112711273 -0.46438988459018038
-0.33847307656032655 -0.10466303155440571 0.39317530997475458
-0.3872271794483062 -0.85991547827811843 0.31547528398371583
0.50697651122523624 0.99881350864521501 -0.14812387052533182
-0.18974318626530007 -0.74907254056663497 0.47589603904643774
-1.1837005113786709 -0.071366373405385986 -0.36029263863030536
-0.13558178096674567 0.9647103221538913 0.015305196028062795
-1.0231335794424155 -0.38086823598110797 -0.25419595239461756
0.60341867172726893 -0.1724846956319892 -0.43620136441694868
0.63287052381276609 0.27644828366304353 -0.64860620311057815
-0.34986690418383759 -0.77253463774546915 0.50137623573806067
-0.04661462397591265 0.87281249161508612 0.25312014925229676
0.29527769369004631 -0.82235863355563765 0.12179182237784225
0.37517189217945202 1.1561764862937594 0.40114119186106301
-0.30449574773689037 -0.8425915909702395 0.070944727839632904
-0.78252342437537692 -0.92315921463163075 -0.13884939970231969
-0.22286429277103537 -0.76648958530737588 0.34174895812563122
-0.059584700819819147 0.63792824423142669 0.38209681121825056
0.12715972255236352 -0.21645393476967634 0.60565138942966534
-0.94830855729036756 0.19677824596739413 -0.22293083172200134
-0.33803836453417802 -0.18700447722054392 0.268706721699429
-0.8441919253771033 0.14290334666299565 0.019605138868165284
0.73606483856052307 -0.39434390335520053 0.22771287499623583
-0.26401194894890878 0.82815842525683792 0.29491370087323787
-0.5563397011771869 -0.65231990503489889 -0.21186900779134277
-0.61183911336548391 -0.35335893960398401 0.20567843304456446
-0.47393845149222358 0.72309467270930128 0.037899835874497967
-0.27271865897208869 0.81995621198536206 0.1351462837134374
-1.0571260124562905 -0.074858753654067911 -0.51880690158006537
-0.68819125797856273 -0.88970005268240637 0.31325787930696869
-0.76635977920808784 -0.080668868379333958 -0.38828494529607305
0.34717780687222444 0.20344973201061123 -0.64127551823389162
0.95712717457298879 0.38963843436049039 0.34018817951424829
0.42756444045176423 -0.33241716045598757 0.57131059899699288
0.33243143064245118 1.1440614609935462 0.23515752682014046
0.087013921581277742 0.3749778850498533 -0.489217955460445
0.85952713539981929 0.71983524840045909 -0.16621913145048861
-0.40858919386522174 0.34495520829483972 -0.20178697164026893
0.56373761434836211 1.2219330623236377 -0.18401330131977822
-0.059473734549722934 0.32427354105636219 0.62726907193917647
0.24249985009692665 0.58262993424476939 -0.44689875774435528
0.004715666536608154 -0.74622763562787675 0.26436317079960148
0.94971187135650581 0.40188346314204182 0.36875378403477121
-1.1321118971290822 -0.77458167921121301 -0.54380049308609202
0.50643258324071994 -0.19258029765946816 -0.51561450303042911
0.16828824712558088 -0.42157182782917779 0.55531075694782572
0.61385083528710638 1.2475492044131684 -0.19395998048216612
-1.1953544758085641 -0.30033795416340858 -0.37753125307078861
-0.23871299335641183 -0.38954130215103078 0.52890628559973507
0.7281086332314608 -0.41662916739263878 0.20096915098894108
0.6721776863487392 -0.41589534519976734 0.42349643025947792
-0.34543803253527017 0.804357816037653 -0.26780944473409463
-0.051635987312121046 -0.77848718106902304 0.37758625316421046
-0.86348465511655448 -0.41953578415743031 0.0018248768452906461
-0.59664295451376148 0.14951612413142534 -0.27819432885184625
0.20665694605813556 -0.8137783077380254 0.24920074371148893
-1.19532988890818 -0.59575515840969473 -0.91859123406817389
0.76804973160394141 -0.46064638497536947 0.16036800875953805
-0.70370987645485883 -0.78414117459983501 0.033813127530315512
-0.2836277333459698 0.37392439502233366 -0.25440771562497488
-1.2070384568474672 -0.63371258372005634 -0.77957791130664589
-0.41439630260242311 -0.15692204743950455 0.40936844377375436
-0.98862565721836404 -0.033957110411208191 -0.079899260490753576
-0.24184063246848453 -0.76876812568780384 0.55489753066802017
0.098548767611209342 1.0197075127535857 0.11672967088924402
0.75853653314331737 0.62594938000369815 -0.48160452193688652
-0.063371932581045343 0.55364125101560901 -0.26607554630596653
0.11165713141738109 -0.95546517494483574 -0.013098070559953712
0.25498777443271337 0.81980703986704917 0.30359621517247071
-1.1511413772523866 0.06303495671331838 -0.40906075190309288
-0.11483704267632788 0.68055937891127272 0.209472634738745
-1.0318841885788004 -0.5775257570851835 -0.64210240382953998
0.72266523485499334 1.2428271517566181 -0.077651338511415702
-0.35951040206374429 0.811982147641098 0.20024804742934066
-0.22906393829463667 -1.0383006628395801 -0.26073444539288104
-0.30488892905441034 -0.16944097841545691 0.28880072338985308
-0.88339378023932724 -0.30181894877382121 -0.058611863647662688
-0.89703628378171985 0.053802622308992909 -0.00033829597876966488
-0.71530922647366069 -0.38538932154420458 0.1077451300643375
0.72029168357888551 0.40402520092144734 -0.56979693642633933
-0.29368492325957973 0.42868815130567839 -0.21212599616754702
0.21714982404135696 -0.91343470218634604 0.039225071060302596
0.027353129874889248 0.29039365964920094 0.6024031736095985
0.81127982088690231 0.24226250230730528 0.59640298060303465
-1.0010917252411033 -0.23446476509346681 -0.41507194727731012
0.093545915547590397 0.35236372409461048 0.70705756048247181
0.58338217204611453 1.2538565580831325 -0.024735215356649576
-0.75147912895655367 -0.23783555675551682 -0.25976135316955862
0.79828954969969246 -0.11398429269546462 -0.53259622326121825
0.090571426482586759 -0.81698770970527068 0.45509705056809402
-0.12679316556957687 0.95738396988724439 0.021236212468172866
-0.58105229273872538 0.3638415165182689 -0.1637444060189015
0.25557917899016047 -0.79963431448997468 0.22869005424780475
0.11038493022805795 0.54012793190509178 0.52720045178060637
-0.1250213930343449 -0.90774260577364352 0.3411519621743988
-0.30016783385823942 0.43913504072920695 -0.19475106319336177
-0.020411950325076589 -0.86426051777711077 0.5025084610282029
0.0410060861364272 0.22290408447219612 0.63807488379817379
-1.0655505709111317 -0.70237927708146231 -0.65841762200607334
0.40922853554526029 -0.60436441816077568 -0.15745402373565653
0.7842492272969821 0.80718082552096782 0.45081611851343339
-0.11632510937835505 -0.03598180758013747 0.52097508997500164
-0.41420309356698937 0.42305354401498718 -0.15698753558084455
-0.70097193783808009 -0.86930878853524263 0.33623295294622224
0.64827518139969342 -0.059387664335652346 -0.43160660068212309
0.16214896046986382 0.76493801151788432 -0.60110104446183144
-0.039663451942168138 -0.92157876940629269 0.38196292021502032
0.86510062669879417 0.53298194208434246 0.47108282569562299
0.070174291104400766 0.42814925630547407 0.70215090582751571
0.43739910071578691 -0.20489715578542622 -0.526793206572993
0.1885314243042977 -0.50488170361216334 -0.39344012770457049
-0.41001024243109185 0.66975302154127014 0.33528154379665764
-0.17114940617019414 -0.79135404622317118 0.20558983991918467
-1.20425543908366 -0.18293835942519898 -0.41130640530264273
0.37014262916398977 0.92682512977584963 -0.204793894515646
-0.42357381961734575 -0.7957078849097563 0.51310190772314712
-0.072954743878614892 0.41679448382913087 -0.32388961208165945
-0.5610275167922012 -0.83222937739151348 0.2793220110471939
0.66601655801388659 -0.46578007409189404 0.32228050781958295
-1.0032815983592087 -0.83460052881297209 -0.12253722507684728
0.23580054751377588 0.02514281532666196 -0.59911904858554976
-0.027250857280307628 -0.86740314486161019 -0.11295727415912893
0.51857184570084414 -0.71803461631971288 0.39340898129228208
0.069819594878921976 0.73768261851666495 0.66258092978016592
0.48795635580097496 -0.25935720222975966 -0.48114800560875715
0.47555755613171868 -0.41363588137879592 -0.40586897431614943
-0.83810654919683003 -0.79597625719575049 -0.46586288488146899
-0.5670027135718172 -0.27532978053998214 0.25714908362182953
-0.13401802008516484 0.60264792336505657 0.39576480663910729
0.68627896775254982 -0.37401475108013305 -0.34882223737962814
-0.02270707514782444 -0.79159700028947722 0.43314070977704766
-0.47985478489765043 -0.95818746835635427 0.25580037962247104
-0.02814863068606499 0.77055625517882653 -0.56226231923422887
0.59961069351890472 0.025880330598029744 -0.55932608184898314
-0.24925052688301363 0.87944877457368698 0.21946449985832217
-1.2350572108733502 -0.14810277761453783 -0.46202292482769991
0.63952072231308676 0.023387297509840366 0.66771540050289957
-0.77737101521958607 0.19842015561252246 -0.25182572465578801
-0.92230000319828065 0.1792003345493498 -0.034045048232801634
0.25848419160377745 0.22951199703414282 -0.61950072090749053
0.069239236190984599 -0.49505089604168973 0.53729426811041137
-0.80651216106370427 -0.91177344723824216 0.069693318876671739
-0.63567762616772683 -0.84522192507792049 0.3777656663525164
-1.1192467157859767 0.076391340883438019 -0.23778922045305606
0.054293042271535086 0.95553474959849538 0.20550851900722833
0.93937228341408741 0.50906608810974063 0.12110255057166253
0.079247842986980288 -0.60190210528882737 -0.34891737423002489
0.87786449083486318 -0.28348464298302023 0.066342190290571423
-0.55040300344703041 -0.54068739696569068 -0.064320904163759351
0.083781733831781224 0.45520807117248197 0.56561413751088097
0.73984152888728261 0.19325126774813128 -0.43296089330017296
0.86344597070524998 -0.1861120371181606 0.042091353924381458
0.043248261276417566 0.50677323466582358 0.53311422427567479
-0.17906385067926323 0.66180340876709209 0.21906406972453141
0.85890642675175144 -0.15846758704124309 0.16252155286120828
0.34872220914891372 1.1628195109230379 0.20911999636518885
0.81049060916513227 -0.14464691884335323 0.36694159938226889
-0.033429484650625341 -0.26836441189045956 0.57362684103623174
-0.6657238551429927 -0.78574877118051312 0.24303079863635446
0.66541300346501941 0.97552427414646559 -0.24007553963713235
-0.060095145251612081 0.78132163605128824 -0.53386255364249458
0.85240809511407534 0.052232121851966795 0.57693625084002598
0.01412103998381653 0.73670689647847176 -0.041457401129928684
0.078538685687519205 -0.71615215607271843 0.5421589459191658
0.35855282135884181 0.35852292548718623 0.64057584181501781
0.84554281134147757 -0.02338269753732547 0.0022580472874693669
-0.10777796532534722 0.9448208800329283 -0.10586519617117673
-1.0177872974510116 -0.8066062926436679 -0.40675671173468686
-0.36385268087898126 0.78436221258013639 -0.19472366139913788
0.55888500345950831 1.0206250156547476 -0.042592042378169381
0.16251774531781749 -0.90030189461567556 -0.066723098693909577
0.42512940434442115 -0.72325045929464871 0.2786624947788745
0.58252132728593153 0.82501781658764273 0.47994528200172937
0.85103386945935355 0.82335442970203054 -0.11635757217183773
0.79671775755788232 -0.22549866444716216 0.3331054261094657
-0.21640328159541511 0.90350507429189442 -0.18365684138635885
0.8757805536480241 0.07890485785149437 0.48984622875531159
0.96972098469917967 -0.31860390794728133 -0.15994708744465136
-0.69550215144621319 0.31945066602680505 -0.15190446001257385
-1.0648784262989857 -0.78556428572634118 -0.25112340023614799
-0.15704478451339909 0.35553173930518334 -0.3139043261647636
-1.0394304098155303 -0.43495328182684645 -0.066573424485554256
0.49726446110243927 -0.007429887861144735 -0.59229520668947799
0.71906904474350597 -0.18577071280884283 0.54191480778419177
0.13387549536546572 0.79470927142336656 -0.52685076600803171
-0.0029547079561247358 -0.76601697812883085 0.18231129654182787
-0.0080392564491837959 0.722335317470856 0.17129802247431769
-0.97492778747439957 0.099919713626459128 -0.058826061090128334
0.68954495205343846 0.97724953826329219 0.28688419785293817
-0.020264798529236572 0.92152029519295198 -0.21277430231006988
0.80826749299027156 0.77927566658452285 -0.26575807507959759
0.84502173549180526 -0.053470184074461358 0.30603046754881547
-1.0243186134453879 -0.081505972050791797 -0.51694807848804736
-0.31376871828449282 -0.34241412812896499 0.50375553613406865
-0.36913102987088564 0.35271670249143128 0.39263665009663917
-0.81540733658740194 0.13804884324945732 0.041554960497244053
-0.035111263303960527 0.95124247244175031 -0.1757378175022648
0.93403275508773831 0.22672298816734227 0.43555648532968227
-0.81044791729660304 -0.063931622501511853 0.0011197560111497751
-0.078477074750285425 0.58907175500713649 0.50695684247976658
-0.15347408996776934 0.22414465412883899 0.56555285494095031
-0.099107570889504615 -0.9573388102872773 0.08882810013965603
-0.95534853061101543 0.14710422271506474 -0.063398792880118293
-0.6321975184928732 0.45105539257231442 -0.024948717584438285
0.36385488594282123 -0.79409725896633443 -0.024826412105170448
-0.6843946314968079 -0.8734503720726261 0.35159275468871698
-0.80198384387162491 -0.3333772010855327 -0.25695278250123188
0.41029254616155697 1.1788943860186212 0.026781695238760506
0.90829592730964848 -0.3254094786960815 -0.38482432216705043
0.95964260550315927 0.44919767420461199 0.30846495379355332
0.95727280335866283 0.47495255574890471 0.30825729957084924
0.053251206045260346 -0.76359647285394328 0.46754666184377136
0.81667820285822756 -0.48481313775646129 0.079539581355458466
-0.44901188325125219 -0.29726870233590219 -0.25330365903750973
-0.26419802215259125 0.81370096610258891 0.1740949307115276
-0.46318520063366364 -0.78117428176652837 0.40734778080343759
0.57497107092646971 1.2514897069218183 0.2847745795774852
0.69300992689559493 0.69661471569278355 0.54807901151498584
-1.0928914248256412 -0.10048684383786899 -0.23634324536912032
-0.36311199908282887 -0.40234026270501566 0.47530923669235037
0.96667883784849806 0.30407920992753645 0.23074427169585032
-0.83642499817896265 -0.074689860676723896 -0.42461423872295434
-0.50628942507292862 -0.63640464062559765 -0.17946265963303887
0.56952343049901089 0.089534203481351327 -0.57165855207713179
-0.36851160508138037 -0.961519227265625 -0.057876268899741845
0.67011785808014324 0.31186992587074513 0.61286788026284356
0.6770148680505983 1.0150295775164526 0.1640333590189762
-1.1855995715826744 -0.043733543761460325 -0.54327371071994079
-0.057967340632725239 0.50505521321793267 0.51077738609963674
-0.79733480958497793 -0.63106023062257499 0.16022486949813519
0.43600951144950173 1.1896523307470019 0.040269276100307394
-1.1564961424062403 -0.09824970298184077 -0.32741023708865313
-0.0058129983978716382 -0.83027228789947038 0.41810174175850001
-0.98795531601609099 -0.78876393362924091 -0.23769933905609264
0.42974290030451101 -0.6149328775246623 0.015154085381961835
-0.46234093386917152 0.74345055929229176 0.024588782163698752
0.24722372689678096 1.1114335513312401 0.060988768983030184
0.96685220259132976 -0.32206045668275074 -0.25058277810328278
0.1469459476316608 0.87474455348505487 -0.35940223898735368
0.65772011480344261 -0.057306996443479363 0.6331185146177063
0.24610105846178953 0.17158851158915311 -0.61408009420187426
0.89113773782339933 0.74824159662099987 0.30726305114353281
0.42979213060410615 1.2001363508518335 0.2360586576737127
-1.007476690552501 -0.044025893051230724 -0.50022208594185713
0.36248191910277683 -0.74822110354023241 0.26792960516909403
0.26679800769467477 0.80889740603471161 -0.49276389839691426
-0.83234610854456292 0.35678789058155402 -0.077100013513401677
-0.9982424399830947 0.18213462747196552 -0.22670166379994328
-1.0500894472545781 -0.35925300060656618 -0.22215008832828786
-1.2302724079347556 -0.24865998807494805 -0.45765106086516028
-0.3877261741900675 -0.63508478698311066 -0.20151484584206258
-0.68689517387140953 -0.86858513489377831 0.35612984039545026
-0.069109025711270533 -0.87256683203457452 -0.13125589788506176
-0.36068143054210822 0.55951711062039422 0.41019069969948774
-0.34536954725836111 -0.80120545918515162 0.22540363769026861
-1.1750709985406367 -0.6748437673656511 -0.53654673517057816
-0.13487062095929048 0.9047841462663353 -0.21098449562629185
-0.42059642043849266 -0.48975158478043923 0.46514418562376036
0.59289950384824408 0.98498995081632224 -0.24666251181060694
-0.79332190890534093 -0.14315917032315895 -0.39176164961045146
-0.26964970243533415 -0.46204805553261963 0.51825387570524484
-0.486883633928894 0.38396208910229923 -0.1603862260197424
-1.147067937396244 -0.68137309133248536 -0.44893022949171524
-0.044737295838091384 0.86846955477048482 -0.35574975858466473
0.46119685783281383 -0.012663730560781516 0.6761616413142022
-0.74663530110256815 -0.29249806599058559 0.081889326625143255
-1.086220217963664 -0.37573659030345752 -0.23386138573456705
-0.046529802089526839 0.86278225093015593 0.45332664277863444
-0.30061882722471367 0.039083714425915517 0.503389396292512
0.31123993258819027 -0.79205062455827591 0.15825007485788412
0.19131813236239736 0.08036799062221256 -0.59840082074981282
-0.75342895249930564 -0.86458495662638235 0.21116372670352845
-0.25965289741239417 0.52319616855392148 0.48789309610733511
-0.70454958835389547 0.090289137796213836 -0.32667200096526727
0.24579593662834753 0.73654138244185319 0.41993524811055316
0.67732802056853103 0.0077832991728890022 0.65037439690549803
-0.18418367820274284 0.81781947057989868 -0.38996019889719769
-0.14463377101476738 0.58643643304606385 -0.16324271596905859
-0.1379360741528437 -0.96869124597177692 0.070766004052757125
0.87034064315417936 0.10793074547779646 0.52142110344399484
-0.07581636537203984 0.95897224561029759 -0.096031474735120526
0.46963666240574753 -0.47454563595747778 -0.37944068074999748
-1.2256431464617208 -0.2486115495191612 -0.46681593889521977
-0.036432145232904389 0.29748525913327128 -0.48857751758145618
0.1962049657691658 -0.69353125333790278 0.51162237726840942
-0.23258556522372231 -0.25157775040764463 0.53503512065688597
0.35845793307064255 -0.71418589222630935 0.39940016671385337
0.6652754009021109 -0.60833845664221009 0.13018957606823989
-0.39391991187227049 -0.094748377839554365 -0.3936428112152548
-0.31828922528059778 -0.17397231510466504 0.47991755669629299
-0.95253060109758891 0.16810755634342556 -0.26930808067942102
0.24159919176503664 -0.54366986801605766 -0.38443437930167157
0.52602160581611912 0.94251815695997898 -0.31265971997276409
-0.044245833138951696 -0.61185064452555871 -0.35522861068362133
0.91301350963524541 -0.11903984719110294 -0.53749205875516282
0.9652555084819241 0.33650251857247859 0.30064707837207116
-0.86433927967627255 -0.79920823657846185 -0.46976999640812522
-0.59252064915104441 0.38491228527625587 -0.13372971755366692
0.97709306083233471 -0.30982700631996885 -0.21897570443410963
-0.027990870645787425 -0.84144874596332464 0.40478120018419617
0.56337134457418259 1.0179099078486011 -0.10375404620219086
-0.16004313307308848 0.62108394326997818 -0.077132928242882315
-0.73075525710345346 -0.44932111734765456 0.22318104473058398
-0.23719664522845108 0.66474843553461938 0.23060309599988749
-0.56311442414035184 -0.78755647676869334 0.31489515748710417
-0.94288477698710693 0.15976816351447809 -0.052493389588608608
-0.11239288642057588 0.27159819406972119 -0.46291158152709855
0.88206343276302945 0.4383205341392058 -0.14423718048270118
-0.23945808139783153 -0.55851110656476521 0.51151930991058059
0.40076719941220063 0.88499916686308921 -0.33224167709574282
-0.29101647628738547 0.044214744482326651 -0.47801844484347811
-0.95576465988628811 -0.69692607611201751 -0.11119954134994181
0.26331871782613447 0.83404489501186418 -0.26301576826854323
0.5572991817291495 -0.21299383242589975 -0.44960512761836213
0.12981511283234681 0.52242302903341908 0.74259900173843718
0.47237323392691621 -0.71181229464968432 0.21643500049562725
0.65638832656319579 -0.0012441746121645281 -0.46650415589186345
-0.4550655305702378 0.51613176576788256 -0.037097053735156038
-1.1798187830944293 -0.66637738127447577 -0.69228276598487426
0.71296077393222035 -0.40023818674442868 0.29147846360749341
0.62907000358448784 0.16737211728238055 -0.56836188737204552
-0.13059333444473609 0.84917891431503989 -0.36829324717350786
-1.0204043483498388 0.18130552246767451 -0.11207213525138648
-0.76302705092791356 0.28847957676840785 -0.1507335243249841
0.40808517782487996 1.1899241316822646 0.16317445937588104
-1.2328115891296179 -0.23023281084060798 -0.48009357836605204
-0.10278746935617633 0.66165021859245066 -0.06440775019685141
0.79326479689173013 0.40597994720822683 -0.38004002893885414
-0.64935382359613314 -0.4470009147938292 0.28668816813572562
0.67468645185410026 -0.11939533117875545 -0.3904965955092603
-1.1845489322156517 0.040810893721205943 -0.39292147836495062
-0.26449473183659933 -1.0457287989476098 -0.21629282867005273
-0.86705096937726367 -0.22619503206818692 -0.36107629825149701
0.30344921939645175 0.36309098667547879 -0.59251863146157646
-0.31900008697252957 0.4969514167754614 -0.13033227553436788
0.80172663091627783 0.57403658845028538 -0.38319531779763949
0.51673952423374203 0.01113399885301547 0.67859375473709704
-0.30799521347923431 0.68799209761599656 0.14499012665301159
0.060825265798724715 0.89124727021920869 -0.2776286046567531
0.48340881260877211 0.98732318432175248 0.097009635797952853
-1.070280828007288 0.14367495924110862 -0.22155070099672969
0.40938941267529216 0.96213204136987152 0.073048068310836101
0.35446064677152123 0.01824578016164935 -0.61608121600352561
0.86588094461692933 0.71549772691872349 0.372064841210479
0.82564396209150459 -0.30308292072262333 -0.46496855155834371
0.39241004567971771 -0.74534029214738418 0.44824649448559128
0.29732895705085127 0.78692250747889858 0.39402527297818146
