# XYZ point cloud file
0.4900925147724422 -0.1724980903887996 -0.52935008495943237
0.22713919980000696 -0.41066588164442663 0.51983533686785677
0.582797590485157 1.2735707736324926 -0.20835996177922311
-1.2074918056125767 -0.19890690691738655 -0.3444586458768697
-0.24382772285476051 -0.32618716474441101 0.5320668132172699
0.71371115204716773 -0.44730125046652347 0.23098824514224248
0.71278186433943347 -0.45922808126800874 0.40882543898273127
-0.33315420699943843 0.87037599397409338 -0.23520155946548016
-0.1524390325213858 -0.75837875301220947 0.45088918050004168
-0.82962930489755138 -0.33344133256679243 0.0080379375178551982
-0.62771202390561598 0.2503526631188393 -0.23138187983988701
0.12655265598253607 -0.82197475860724722 0.31493619714508725
-1.2039527945639463 -0.59332918563315928 -0.95595535418387101
0.75448791961277095 -0.5038865994221311 0.19291744063114891
-0.76273723208051081 -0.75545998771166012 0.083849361142441126
-0.34983154660251614 0.48285596910043438 -0.23143887893316162
-1.2392534201390504 -0.62458232589364826 -0.80939887881041273
-0.35732905752155375 -0.077759799136643437 0.41935318368344099
-0.95409018443801585 0.08793600227706122 -0.022174937026733232
-0.32961801288612946 -0.75145816045450431 0.61171433867870917
0.070510163027250883 1.0805922685894203 0.11462163609728293
0.76347612289367817 0.68694702589485956 -0.47324193207192877
-0.14011137869796642 0.66454721707258102 -0.25793822035053893
0.066539495087965861 -0.99623696794222383 0.015476020168506466
0.20540869788082716 0.91258764265898407 0.3122648436121267
-1.1414978147484192 0.18486166218896471 -0.3399364876763542
-0.16679728235978075 0.79380957284037379 0.22461235895266896
-1.0125624885418318 -0.55892661648985609 -0.63883695318429545
0.71679714790124649 1.2415766820930116 -0.10540180899609908
-0.33430836067476832 0.87841654926518942 0.2360398096630405
-0.19864813134807946 -1.1022964954694956 -0.25903630064038907
-0.14471169714084908 -0.13996791523268115 0.32206482442337858
-0.82796703174714992 -0.20480165447344945 -0.037130881205314381
-0.8444666413893458 0.16931136810249114 0.063439964827495032
-0.65343163393531256 -0.30490447819366295 0.1097922757269032
0.73040208746158441 0.45689694067554143 -0.57536540646995604
-0.35898326131035674 0.54170728795414647 -0.18878934987625939
0.16361009857759257 -0.94893364001232072 0.076457620777276247
0.025991903513030934 0.37449401774285462 0.61382592109947609
0.83392837805031661 0.25000547691595898 0.60057126977498854
-0.99614535300433715 -0.15327777880265359 -0.36593970017617039
0.20265736011607771 0.33953973843441076 0.74467065841079716
0.56080922421016055 1.2711298456312576 -0.041520020296488269
-0.76886763401292058 -0.15901134287563679 -0.21020398241273597
0.83019767987016735 -0.11487548537841263 -0.54790162522537855
0.11949705224060381 -0.87729055932270938 0.42073352743507542
-0.11732630480516093 1.0057798755427356 0.029459167346885806
-0.61756066927199527 0.4814221745277294 -0.11816440368143333
0.17983741840200196 -0.81047231655333718 0.29284726184229726
0.084196346751426177 0.63110941415969535 0.54020450850896395
-0.068203820201674148 -0.97232392858143868 0.26648786300013683
-0.36507903003753484 0.55351766064814711 -0.17101194200105851
-0.039981099958609434 -0.9168585452513156 0.50403023007902448
0.18637870883293317 0.19494520990539854 0.68957500922311965
-1.069037574696992 -0.70431161638857276 -0.67216315131136639
0.37228100715982748 -0.61335882006667219 -0.13946937540664806
0.76346704384087616 0.84981975006750332 0.48027576357381463
0.0034200914100210866 -0.0059595631100251012 0.53493033208138741
-0.46867387796099536 0.53991290392365698 -0.12478216664338504
-0.79971631187108017 -0.84819744149482545 0.39024750519259044
0.64946433485539501 -0.031379247323108928 -0.43872278142515597
0.1894978409917627 0.77008483166732589 -0.58916675576791988
0.0015457239584435456 -1.0002164624041399 0.3223540811952148
0.86063387023889959 0.55875549879075237 0.49564284686259441
0.15737667420313528 0.43071900549188058 0.73563722299526546
0.41101356079991547 -0.18338799765050595 -0.54074098727194553
0.14899071531337427 -0.50726170637739898 -0.39562788600282772
-0.35072201472981135 0.72308304438637805 0.39000381427831599
-0.257211731473447 -0.77199018277054421 0.26289995239386599
-1.19495987419117 -0.066847269487190886 -0.36817991260903682
0.30641467292200275 1.023481374214974 -0.20332403145647504
-0.5112212927478339 -0.77384714324938386 0.56346092770991163
-0.15095646930801365 0.52264881767076332 -0.31480411313204115
-0.56754241154814622 -0.83389529114227656 0.24978922710697304
0.66136327079999546 -0.50402230400566594 0.34393310905296914
-1.069495697729721 -0.82783299270249699 -0.12781391043985479
0.18025205208337525 0.075760161703840367 -0.61012866386620601
-0.062985326577916112 -0.89453323396033113 -0.092122004598209628
0.50509553550874386 -0.7928759426843115 0.42339299255418439
0.12476011503487427 0.74117418847301053 0.69172867472430255
0.46903829060030944 -0.24465247229826304 -0.49267384268362946
0.45557146500965473 -0.41507558070848916 -0.41228136855644948
-0.81815524901942638 -0.80790547717357697 -0.46248305611682383
-0.49736261082757949 -0.19602731614331503 0.2649676874552398
-0.16429680668426272 0.70682739665300431 0.41541802885602408
0.69142859485830854 -0.38455224556471279 -0.34855192152737402
0.024055060699396336 -0.83320283852638966 0.3818583200793455
-0.47840785713496814 -1.0034488092234497 0.20330683230034197
-0.001643790191465655 0.79083160907193673 -0.53916103961832107
0.59655581570132199 0.061911584124928254 -0.57428917695936832
-0.22612566207970985 0.93348861568129138 0.24466644388891723
-1.2280535926622491 -0.03035625538652198 -0.4152071975705951
0.69629219674719423 0.025201941771769043 0.64954891643991175
-0.79186803665557193 0.31117400288554364 -0.19250953711598129
-0.86715981398151598 0.29616095650678886 0.04270541848494247
0.19786823432100675 0.29858348828168602 -0.63068476769136339
0.11225991830751525 -0.48270859277197786 0.50726573339701986
-0.84827669464868904 -0.92595572728659192 0.041194368728554309
-0.71094671508399188 -0.83164937333734201 0.40626620267394742
-1.1070598027825298 0.20901321641767368 -0.16686784558255852
0.023373877940855436 1.0275431910513859 0.20942757398610468
0.94078518958136215 0.5333152612059493 0.1511570432483893
0.04512997066522928 -0.6125502542048693 -0.34593776068075499
0.87929310558129714 -0.31851919771297332 0.0852778686378457
-0.59874677574650548 -0.48863049284652504 -0.018772297460586174
0.066416869340088169 0.54360479106682646 0.5786288443426173
0.75137622438721507 0.23189962980980283 -0.43699475771337859
0.86460244875470949 -0.20472933184057496 0.058792019402446272
0.021416389110896716 0.59915996396232885 0.5476115166139266
-0.22577039407586597 0.77521363505734797 0.23747174482139144
0.86295090146077769 -0.17653080319701075 0.17730968867195429
0.3469236777432485 1.1731761051284835 0.1910919288583699
0.83009569719378362 -0.16141781525437437 0.36949122349935237
-0.001863526236263624 -0.21575647474159609 0.56093009704849806
-0.75584958927366586 -0.74576256918727779 0.3052895750558946
0.63159395747301517 1.0544131876578575 -0.22177562128160844
-0.034446204838928907 0.80569677890127878 -0.51051212241191735
0.8979731057593483 0.036957762601495858 0.56795485147372915
-0.055389149083836742 0.84967168787729008 -0.035142939526110695
0.017530096751158908 -0.72370687353735974 0.58903373654861468
0.35682216035904446 0.42073509295853739 0.64658179606594501
0.84685756114805599 -0.019633052737809464 0.016404044629993564
-0.10327090354898871 0.9940562648733362 -0.099373864955708768
-1.0294189131599722 -0.8026985015067396 -0.47441683894412279
-0.36618602243150633 0.86367550362051304 -0.16372664017983141
0.5106619457120587 1.1022411859515486 -0.029403604216369672
0.12005072013658946 -0.93836307880467018 -0.043715372663839958
0.35874223506331759 -0.74544180735873766 0.3486279501527747
0.55273320027903594 0.88441963228367371 0.49832995844519701
0.84551509989093177 0.87724192022650271 -0.083104795761101968
0.81313004713445025 -0.24944431864901873 0.33817569090713562
-0.17809649835908203 0.94132012352358885 -0.16342495577612937
0.90428797216063117 0.069856354396648612 0.49062859707485984
0.98179294864785049 -0.37141135067242459 -0.14811421375642908
-0.72159794084130624 0.44053726030697504 -0.097677814457469481
-1.1298397861327629 -0.77203211672092209 -0.24612138854602961
-0.2314668537178477 0.45974455167347372 -0.29947013306360759
-1.0769530365091526 -0.34427061567638617 -0.030914978085633038
0.47715569136246927 0.030702594044456077 -0.60919163497067075
0.77914717542779499 -0.20754326506431653 0.51674168454501057
0.16708675131812356 0.80195666480464212 -0.51778893074406795
-0.085968904350309572 -0.75296112172393492 0.23639249838981868
-0.066934257108798079 0.83427013480177692 0.18174733055924719
-0.93929990762208604 0.22523736341629075 0.010046459387098139
0.65542326005878238 1.0367675509950871 0.31250009893159358
0.024245552884607946 0.93890156056721708 -0.21089564067110445
0.80518232620480035 0.83962687476756059 -0.24106703810814167
0.85596302810621694 -0.061540395279308768 0.31501969617170289
-1.0005021307624418 0.0056438321081557774 -0.46212794263503554
-0.31273151655544495 -0.26945940575126315 0.50790710253684779
-0.25260397550549385 0.37916423577067349 0.46671234487199342
-0.73889063279152367 0.23967588122254568 0.11522478435762196
-0.017543036772991627 0.98445800243255377 -0.17489017497629078
0.94961638241079527 0.22442204283012757 0.44865620316849686
-0.72613738919842774 0.03473763878790237 0.056055781219086498
-0.086735047708785373 0.67456248001065688 0.52698429557459292
-0.14089659264041643 0.31192619122925436 0.58274268928377637
-0.15809354231103612 -0.97893480093127039 0.13172912174297835
-0.90552756110274402 0.26779048682639228 0.011467164535332586
-0.65788813190695805 0.57588120634481754 0.024611814291475298
0.31863337268724479 -0.82316033478691963 0.007914830321439581
-0.77121630850969325 -0.86147549352966024 0.38833600611890517
-0.8172106546817588 -0.26170115658249671 -0.20876234792272896
0.37358709145311764 1.2229285323314443 0.017643500583957916
0.93768611409963398 -0.3640232163326047 -0.3883786707239949
0.96161330317174532 0.46237503845066641 0.33660834027888598
0.95819590427379353 0.48995152738713443 0.33749628982172908
0.087019185141230082 -0.80516065963934835 0.43066274144533168
0.80405776483921443 -0.53651008391812383 0.11353051526413083
-0.48541279123313075 -0.23777619741868961 -0.21764917426173724
-0.2725561444192266 0.89670530754646904 0.19739961500084746
-0.56893908381991309 -0.74090702591232827 0.47841961970681268
0.57892192637612538 1.2371760375648861 0.26350948583981904
0.67571941891928589 0.74182716383536018 0.56892865277130511
-1.0631409078127945 0.021625617616948034 -0.18242655562053756
-0.35797906046447281 -0.33445147411761411 0.47617623772536888
0.97337261970952227 0.30873332743321669 0.25339747808151003
-0.82364322883493912 0.0062795344190149649 -0.37086722620782098
-0.52803118433112672 -0.61242645660112061 -0.14456477605986606
0.55981797216064422 0.13404135076717694 -0.58642336492958691
-0.39265649353843912 -0.98467831508779113 -0.026758359116442421
0.67930405709431341 0.34303868704017049 0.61869753175484732
0.64006094940179992 1.08080440073158 0.18836082287316458
-1.1717455431119816 0.062415178634196877 -0.48547971612083529
-0.07619029781025688 0.60048108080383855 0.52863670037268662
-0.81495606816892519 -0.57603520444479983 0.16026265447008825
0.42173028477571961 1.2066578147335463 0.018456377473142993
-1.1338914920991812 0.025369462149264166 -0.27284899743382596
0.042171406108636234 -0.88474592960567122 0.36310569015596172
-1.0384323713967802 -0.77462658739857204 -0.21622474565306504
0.38217259838489781 -0.61897322808245292 0.053696254604048477
-0.46002474428068751 0.83591071226693714 0.063812945537250698
0.22425825420424417 1.1517782672527801 0.048878264897894041
0.98499546294132756 -0.37297616916580267 -0.2440709679795674
0.18307131504980134 0.8840240908523711 -0.36522265154513889
0.71907522463371265 -0.062601131253408937 0.61012863736827683
0.18625516522195085 0.23604993490477 -0.625073782023577
0.87847341641781895 0.78422472924983566 0.34376355909527945
0.41878459506605736 1.2126099479664987 0.22206975597732992
-0.98435173904181283 0.046105989030181149 -0.44269291303089631
0.29102147584079319 -0.76398285961133894 0.33753118049071418
0.29895334298029752 0.81082615873358321 -0.49809361654658346
-0.83843674259607326 0.48584660870764651 -0.011725446864218725
-0.99860551709632261 0.31006753572035706 -0.15534855586597018
-1.0295750808435002 -0.26123302967712192 -0.20363004385107786
-1.2409936482146975 -0.14550733696938778 -0.41963596051519403
-0.41085653307219161 -0.61855118200485748 -0.17179089452056928
-0.77925245430174073 -0.85228834753488769 0.40028795757974933
-0.099129431793130607 -0.90067871374188968 -0.11157865608518591
-0.27196688169246386 0.59116478111215542 0.47489393658634071
-0.43244263439764552 -0.77443234587903476 0.28642627303341328
-1.2235330863210834 -0.65409456860512449 -0.55135945550814824
-0.13372517347760038 0.95781830562891201 -0.2003570189739321
-0.43693484062741561 -0.42641511928161435 0.47339783755654707
0.5490641839554371 1.069350422778605 -0.23419947129832508
-0.78681895008739389 -0.067395699937677023 -0.34139050755780431
-0.28024131972813393 -0.40563902515133066 0.522207766285959
-0.53456113584694265 0.50091235411167645 -0.12236763398207984
-1.1892999009028813 -0.65259101506143935 -0.47281033235219638
-0.010087840626596289 0.89183840404605519 -0.34428463995433845
0.51831452221672691 0.0047910770860610796 0.65692183634651258
-0.67969561846929594 -0.20318654545372539 0.098508277365283448
-1.0824484796902709 -0.27943056732925697 -0.21384818379004855
-0.029172880561077363 0.90468090631132014 0.47223864254607406
-0.26029132909117436 0.12220273413051785 0.52073972191854523
0.24506377597904816 -0.80831629712671571 0.21476397379871059
0.13069896450107876 0.13754055829977574 -0.60727049214823126
-0.84470453817404234 -0.84103502640051175 0.2673599565547562
-0.16113737012088336 0.53842210432659954 0.55014462890315485
-0.71736124016592839 0.18622833937565986 -0.27334377075254679
0.2049093627709766 0.82558905440517094 0.4306154600434553
0.73383091259054822 0.0053815177834124484 0.63188977748191633
-0.17652929376163229 0.86765212836629502 -0.36791503676134596
-0.21610432187635809 0.70173438344077965 -0.15033817887638179
-0.19211401985407406 -0.99191911654556719 0.11172798645742432
0.90021484593229673 0.10051281728415518 0.52177384909725788
-0.041588112670737587 0.98560113081667566 -0.09284655318815993
0.44929908858317447 -0.48309494267151365 -0.38400629155823651
-1.2376704040772353 -0.14834143594779192 -0.4272507303759312
-0.10875142972479068 0.38272651865055707 -0.48297304852924583
0.13985213837923993 -0.708329846333001 0.5602643845623021
-0.22906688684443566 -0.17500227166715376 0.53935017558305276
0.28960319880155794 -0.73689797903761445 0.46926619188944585
0.62977165537360236 -0.64820057828957545 0.18225964403626449
-0.42469889238603287 -0.031885368486790355 -0.36235434806307865
-0.27585786724641537 -0.097225435566940632 0.48319146369661325
-0.95376336241645276 0.2888221122452137 -0.20073992115339934
0.20553712699110349 -0.55331670988574899 -0.38794374320512759
0.47549761818797265 1.0324545068978637 -0.30612434467177252
-0.068593297170949086 -0.62174346686935422 -0.34823021739747162
0.95944348225314968 -0.13964733144719332 -0.5537756172823407
0.97155152615130191 0.34194308054726008 0.32384252405192626
-0.84956167759472123 -0.81077679451020401 -0.46731948411303392
-0.62786570466072078 0.50494385850603152 -0.087399650850713329
0.99355891089163606 -0.3621323791550779 -0.21096561178292461
0.023424334703975092 -0.89678025447331322 0.34529710381403333
0.51523686483271547 1.1008205882143685 -0.091104229920290436
-0.22793189314413098 0.73865821458291236 -0.06298131845673538
-0.72571846779572979 -0.36827471714126858 0.23195227250707262
-0.27469550350437544 0.77504613385053744 0.25248959169455532
-0.66092280561687744 -0.74720787383297704 0.38200164643913581
-0.89088541146739431 0.27907178020203816 0.023187499029774017
-0.18084040599509876 0.35674756285650489 -0.45203447525319973
0.89094969728263607 0.47136875004755296 -0.12493372049543439
-0.24452129112816579 -0.52148568211222823 0.50805624114966008
0.33820774136698617 0.98185284889360958 -0.33197694151709811
-0.32942509428005451 0.10791694066716673 -0.45345452081234328
-0.97151147628343892 -0.65722160289028864 -0.13156874495426507
0.19271550872086607 0.93689593916667491 -0.26402208052174103
0.54715049904577029 -0.19486473452132458 -0.45853793870135462
0.22542538914359511 0.49944798747966956 0.78232000529376933
0.41298104928723944 -0.73626295632784178 0.28160814653577404
0.65981762102414621 0.030414523112227698 -0.47565557665818403
-0.49927145265532147 0.63738877820567552 -0.0021701804522393786
-1.215171792153356 -0.65807903742472718 -0.7150298811421294
0.71056346794026126 -0.43309677454588069 0.31118166872217046
0.62858708949063669 0.21364465815163669 -0.58157731030928517
-0.12307973306320719 0.89467647053372445 -0.3520488695952011
-1.0005959607131558 0.3137118443170408 -0.03778238489935859
-0.78349046218524165 0.41171102736306153 -0.091819833961181985
0.38750112927532143 1.2150713075382598 0.15081215260322267
-1.2427904349318055 -0.12796929318771078 -0.4394863516273233
-0.17170073915411876 0.7780063051621724 -0.053320945025745914
0.80540718034767167 0.45162790674692133 -0.37438019926553068
-0.64010683671700974 -0.36968194835144175 0.29171589360953476
0.67831165828138751 -0.099448966589498866 -0.3947768495964965
-1.1764322907367557 0.16705129839063915 -0.32458138360594546
-0.24354397907110581 -1.1044620374091281 -0.2092798375021232
-0.86501996532082615 -0.14958906950146655 -0.31118385890704303
0.24325755784597902 0.44376492326664163 -0.60284974441036354
-0.38055058033749845 0.61494649615046626 -0.10560038720194598
0.81085121414939465 0.62723635360002561 -0.3708196266620547
0.57248891284677939 0.024836631473320381 0.66032228100266366
-0.34068676581877355 0.79650691421900177 0.17018659773867739
0.11008397470403963 0.90091214112226936 -0.27948518773852271
0.4324089947558889 1.0703144837809404 0.10768077140764376
-1.0655998979111558 0.27595833565477079 -0.1484894316072598
0.35403184119464015 1.0508860240731863 0.080263451909488026
0.31171793878660026 0.063994098853875414 -0.63161968728567786
0.85219335546186414 0.75175485314842661 0.40501264758111688
0.85706339411451893 -0.32686953546186714 -0.47575648260719561
0.35948583006053525 -0.8043621917706929 0.48904963613452423
0.25474147937953262 0.87317850276173203 0.40441055703145423
0.1189828210670214 0.9018074815009669 -0.37778186519194179
-1.2392120050327975 -0.075839627459593828 -0.4937884625838791
0.032829355245269198 -0.10631341173129272 -0.5602191125538809
0.053023765468893203 0.59310037101175794 0.67001014971705786
0.70833078263343907 -0.44714736620291262 0.24733999071182211
-0.7415074876597032 0.24187513529226123 -0.23581271124820091
0.92752771172852988 0.43441871389951814 0.056351785774722885
-0.94094148332818861 0.37511450868591822 -0.041456396630181302
-0.16369781375092884 0.13679843704323247 -0.54088504345882882
-0.49818353993795483 -0.12658095703093153 0.11863276279308366
0.47333701078372314 -0.69956434537036216 0.150521106654395
0.0095967200016531251 -0.99108442219348092 0.31247710493188663
-0.37178532497770789 0.58314661970714354 -0.13276635017967919
-0.98398958459794983 -0.11968590074045693 -0.14816705375996264
-1.0354649597099126 0.29382794438770077 -0.086140334093087745
0.26073205766284957 1.1046703766840054 0.40689489484167041
-0.34599045898255554 0.80676274702044992 0.1672458317885912
-0.33491624413493071 -0.72668146315275806 0.5957906564748896
0.80785364164945861 0.27904512866396658 -0.2950473110620635
-0.6954628003190777 -0.84302297869739107 -0.3152236247716047
0.80687837870229373 -0.10184655577360502 0.55097570573744292
-0.019854103672429346 0.63373095469815865 0.52482731938853533
-0.66914624266567557 0.55100201689679551 0.019437235934759656
1.0159776686984401 -0.048274339035053515 -0.35900916369446634
0.45000558176803906 -0.6450635541682459 0.060433794844769295
0.92973887328334115 0.15179889244172529 0.21229176070681888
0.63370176265850375 -0.4408232331706472 -0.25570336777676062
-0.5125183579691992 -0.82406330673383366 0.47842986566675449
-1.2183032628575461 0.087534032920636662 -0.37410685791567744
0.89931985191178399 0.15149590497505727 0.48991217808931253
0.93295661059990209 0.60957013224766143 0.26668761397323237
0.73957152389104408 0.68456125932850398 -0.52202105364699491
-0.60099167741297777 0.5154134985216885 -0.091740324454761435
0.82153120276872471 -0.30192537697391941 0.23593754099039188
-0.68002703057631209 -0.35696999479452529 0.21926596278184718
-0.12345606691168598 0.94422210799292117 0.22592686068253442
-0.34320806430476125 -1.0599165767214345 -0.18906874284371611
0.0041311760758730998 0.83773922148955648 0.5628519368843854
-0.05952134434930656 -0.79328751737799763 0.38997762784337908
-0.9609374024315116 -0.27538306919860389 -0.23415105288550819
0.85320089117867326 -0.16724813976269814 0.43863552306153508
-0.45547446819854542 0.7689648281226269 0.10767118308271506
-0.2166804906873665 0.081263164933069731 0.5396372427731535
0.59956687491941807 -0.47004046883749595 0.46444825993255279
-1.0632813396118479 -0.59786677304638403 -0.87929172350472129
-0.070826970616693075 0.70594018265949643 0.53445987899183933
0.89313862952337786 0.87741474943610598 0.13938372537094779
0.10101650907751036 0.74915927116260406 0.6748614367547674
0.021503331996342467 0.38897432122812603 -0.55048135806485732
0.7397331972768626 0.73427832120039938 0.52657941505798078
0.96784962349180148 -0.37455694575663756 -0.079452371383922582
-0.28264725656666201 0.84987970015517078 -0.32622863959379345
-0.13117434828716057 0.95796940475108272 0.23650180868705206
-0.92113814911871827 -0.21269184251244155 -0.22850678417195525
-0.94481863764002583 0.0024314255715722766 -0.053931279480536887
-0.69928745174716767 0.26623084922230333 0.15258605074029674
0.52274629495624936 1.2193552708397064 0.25906343795681153
0.37386745471111738 -0.22935727730997968 -0.54843038594162863
-0.13964313044458265 0.12618327014831721 0.57487801533777372
0.20169105892807693 -0.89922351269991907 -0.06735415086008345
0.13692425772418915 -0.91630550832766033 0.47517581058293956
0.81953300464580536 0.89136112385048705 -0.1408880987709864
-0.046432120230576857 -0.68546168814016539 0.48081717737971985
0.12229932672690325 0.80332545720369097 -0.52399268594665216
-0.68465137692487588 -0.82500076642745768 -0.03854047311168074
0.56686662610897542 0.50272546194313605 -0.67858121580432851
0.42690472371539556 0.75446189343902859 -0.5760730696412395
-0.4730653475455 0.8102564003990409 0.090554596689273126
0.92781559778703127 0.65390092431812974 0.15153187359457831
0.33770360043375547 0.95861723593242232 0.32909856072997457
0.77851268357254355 0.85015153591852766 -0.30264884158212624
-1.0990203462855845 -0.48618870493624655 -0.10477398261915027
-0.26820925988228339 0.88048140810981579 0.21900756563736934
-0.52091914397547612 0.76155425420126477 0.11040419300084636
0.36733780862189747 0.5366544308848944 -0.6422157356743412
-1.1575735548609742 -0.76306510609106937 -0.32922736576954037
-0.83103698297669837 -0.97176335513974976 -0.15898082261826119
0.4944540071095247 1.2671815431883644 -0.1013836747567467
-1.1663045169456154 -0.48245186170840526 -0.33982167806868802
0.78068166412528228 -0.34729122534608337 0.28974562502091317
0.62310787497814601 1.2681405717985612 0.0539810496362918
-0.89707682522164589 -0.11442439769305679 -0.055225735349239358
-0.5141894773765614 -0.65064521076583759 -0.19483422451838806
0.79735534268243669 0.73923428263044144 0.45986235609279902
0.32052476191314838 0.28653696983285926 0.64387004431632988
-0.41581495413713299 0.83001964790207694 0.089699943296324136
0.30495560434324887 0.57915286044634229 0.61765587034635416
0.053493825984389787 0.69154860672942675 0.66732884318135177
-0.1082220908140954 0.80638417362273884 -0.4959458102803822
0.72295764774632687 0.90600535178996466 0.46359531905777374
0.30807051489837534 -0.8708632536117662 0.46906563395661749
0.28918664235840197 0.82565708149027728 -0.45956362336859513
-0.31396736031092587 0.84856059738390854 0.18599244494146205
-0.44729382909547155 0.84359795976534002 0.12529911443084529
0.035399072707036794 -0.93029336407513341 0.34793533472546301
-0.77973865655624763 0.23623416960661814 -0.23595128664273091
0.090305292720501029 -0.32166662711428984 -0.51006603484003676
0.19849724177389305 0.31384648158584127 0.73678879430187294
-0.26517131757839252 0.83867065844822974 0.36445182837388757
0.094672918111243121 0.4228959116409996 -0.56000705717883648
-0.13721576050451745 -0.80329735696398785 0.54841869133201726
-0.056234098915567188 0.60278993983126128 0.5814222451304687
0.123802958489037 -0.084450392975732314 0.52453244064926707
-0.76104284395157151 -0.065575198113627664 -0.30711443743594202
0.93875337799903491 0.081163174284249351 -0.34006923211707374
-0.28832462990315832 0.6546093980302814 -0.12342580606110687
-0.4757118629913748 -0.20945460788620096 0.27480378349535783
0.26815681068146091 -0.81183310073478765 0.46628733523847643
-0.93831783501960331 0.14683307443902294 -0.35406226272517927
0.87902429726133846 -0.057429375153894568 0.1701412999837828
-0.026078693202123304 0.54429671197725327 0.62002192520156996
-0.60405812659611513 0.66645445483869992 0.049767061146951619
0.49056834162703922 -0.71207551379381329 0.29798160828134712
0.00049887473433329887 -0.99086039429124639 0.36795480817298198
0.14486085070433319 0.55046911961564859 -0.49951890734486426
-0.10903030395174085 -0.64566634322140715 -0.32373502359585871
-0.60871364077540591 -0.10535981704039443 -0.15259101364019045
-0.17743659454328053 0.97409353321250336 0.17014551467694616
-0.54050449934881328 -0.56800914529312507 0.41512419395208155
0.70058705269912025 -0.11358577018545901 0.59255248518766734
-0.34798914301494221 -0.82176986454540213 0.52225172754933169
0.65962270182535576 -0.53934204653523921 0.30668797620032251
0.58797411194466065 0.56828924685814286 -0.65124164571450649
0.0026203029628675267 0.97194467132960938 -0.21692637763329259
-0.017058029220606841 0.78782283375473128 -0.54925996475446226
0.13962000858963108 -0.86590321252455738 0.43155648429387838
-0.65186915949266222 -0.061258019423341636 -0.20397234172430956
-0.44825588776292591 0.26906257055311755 -0.25097921548314162
0.44067415322804493 -0.65824776402480012 0.43774644569053578
-0.63516499064374443 -0.23731943889703899 0.13687967887491936
0.39879998887653301 -0.49437599101688789 0.48573334303667082
0.95020872403209466 -0.40885253700943025 -0.2547322273106829
0.8185313053125185 -0.23463179784513954 0.39734816741454893
-0.036550524692017916 0.7658936955865272 0.37827501986322432
-0.19178771308745013 0.78582506685222597 0.05747625077252394
0.20799240806364594 -0.06823972555142177 -0.60345302492967789
-0.66259604169263753 -0.025708627775365755 0.084820237942224708
0.24212741772342383 0.78279730562029926 -0.53534994624578047
-0.58648505919738625 0.17896800403633506 0.19435625589640892
-0.30043632056199954 -0.49242709999533929 -0.30472778175288795
-0.29884159806411503 -0.87887309457119045 0.28019732889491422
0.058708056663718367 0.83014831602795169 -0.51369603627637872
-1.2045270202545026 -0.72495148058625603 -0.50848867590769942
-1.0368636640572078 -0.44268113327382963 -0.32590038522941711
-1.1947314631845245 -0.18826012250855939 -0.4078745638766037
0.71234427638825082 0.22866712188002936 -0.51774407114510268
-0.80260241944023392 -0.85430240848939576 -0.29326039511119006
-0.33039887228891018 0.55916920141192605 -0.19671123261325363
-1.1122474780650151 -0.49234947083197511 -0.68541832648308798
-0.77077596561520068 -0.85363330301694873 -0.050511395947708593
-0.19149762723696995 0.87950419341012065 0.37307693983795787
0.11455025842700195 0.916283886562546 -0.30215843816894505
-0.023958115111611278 0.56955063837214226 -0.36644468395792273
0.36250105246332964 -0.57575316180373193 -0.29513579041838511
0.032340777669730869 0.89323999393153741 0.15254314864330354
0.60833891773826565 1.2626872825395736 0.1615080956751882
0.45368108219409464 -0.70065146114102816 0.39607296071956455
-0.22166495320496438 0.50864135885360895 -0.27995538545343379
-0.13900670273694971 -0.14353754837509314 0.30100252237042469
-0.052727871089615519 0.75593044787380848 0.39300153294752249
0.1285755476192918 -0.58026138162146879 0.48242942322798399
0.95339038509006002 0.51092705544942874 0.23178068468634194
0.70913215709678923 -0.43932946898456748 0.44544651871839847
0.38844304116184958 0.75915890985412204 -0.55084930552801836
0.28356206505799264 0.24336898561818998 -0.65116857160965935
-0.33746597953097535 0.41504029980428925 -0.25185253246097261
0.29345423716912933 -0.81600991232858178 -0.12282577493766667
0.41031301204499471 1.2121353472993306 -0.036130326020568759
-0.15136699170241741 0.93231694577005442 -0.20429170645630279
-1.0237913771870808 -0.52231017349048159 -0.53010260384426999
-0.82532011653499637 -0.62606622836856474 0.12562994280285977
0.52393520660849902 0.9376928737696133 0.44348695348165279
-0.0080495280801642366 -0.1152470749797132 0.57964664237236718
0.10357412639909569 0.85054868814216178 0.33646578057734189
-0.67985969999547535 -0.060110021877292752 -0.21182664894170955
0.92286631599463931 0.31297953647887056 0.063737980408049566
-0.5097532708009993 0.77651025246243677 0.18529762220062196
-1.0394021489546645 -0.2281923223795701 -0.28169126552913326
0.18008694485759236 0.31019660018348105 0.72513549527670307
-1.1008060802205932 -0.31356360928113247 -0.11974760687452601
-1.252083997300403 -0.037466028613167168 -0.52319941807178338
-0.16011486687347087 -0.061244289312227806 -0.53774487861082321
-0.69309103929998628 -0.091230505722201372 0.14319825451670454
-0.060811932921211564 0.40119486355055045 0.62107086061642747
-0.47836253097663928 -0.78465581638549509 0.55924665489337144
-0.48845601956733731 -0.085190604229950395 0.084289234116965872
-0.69947264947204246 -0.96006146025442263 0.16673101298900406
0.72248128570880965 -0.047197546807915103 -0.42351131092868854
-0.45441085690815441 -0.7453961085555747 0.58747568391169125
0.88682772946782507 0.86266413707742373 0.25412397288683053
-0.043291499654699805 1.0162852294261313 0.18949315682111489
0.82616137316691152 -0.37797227270495881 0.13702302954845891
0.7545792011780037 0.41890083627312436 0.5793225286354442
-0.82637421405507894 0.14728245802964324 -0.30343365406568523
-0.066533459496923797 0.71690831523649479 0.44195103725590457
-0.38362004053854548 0.72532802680940023 0.064354146124614431
0.078932798799414172 0.8861504039848711 0.55734814832106849
-0.058644645813870966 -0.77045730350344854 -0.18956319444843928
-0.30086814113631988 0.23923026293162764 0.39477539203863898
0.39148641133068907 1.2040702251228552 -0.012762197459224467
0.18984571679774831 0.87709282123829269 -0.39725103142181695
0.3736077857879252 1.205816341924546 0.17992563046793464
0.63673019275988452 0.27936363590450952 0.65247939128548182
-0.079001073260300814 0.62482251420635038 0.51317743696492357
-1.0877293108607802 -0.84700048101622372 -0.4139587166514076
-1.1476920702332194 -0.63853128573982332 -0.88446097869460516
-0.6574700244751881 -0.25238830206614438 -0.082987930288126677
0.29479417518317064 -0.32614489295792026 0.54493823085793736
0.14629125997940662 -0.83744331841394626 0.26758081468237549
0.64269531731400775 0.57261885000308865 -0.63569809999980009
-0.25234262226864246 -0.15727308363275228 0.50763397136857691
-0.48666568049007708 0.15807689846185013 -0.26536250183912102
0.72807016554980919 1.0547540370270525 0.18720971108419349
-0.10140917612876876 0.097492181481548812 -0.55806301447560713
-0.089238954202471632 0.99845846500682001 -0.005481897490284382
0.47311654916592261 -0.66070624960777735 0.071324209025760865
0.68471084191268972 1.2736930162388944 0.039168540706228328
-0.022511702219844665 0.87457418284186161 -0.38857622575158501
0.35553901980068758 -0.68973322227477496 0.46936824234154528
-0.58767075619523723 0.32004708559274775 -0.20681706877412864
0.35097854266919626 1.1940411015146992 0.22243366618083371
-0.15928048543827344 0.89264834051880371 0.38006681524717578
0.47636021876611778 1.265937082448005 0.0010424948844303117
0.94433134027022447 0.50807380421118609 0.36702907559143227
-0.75309094347100825 -0.78922477070887709 0.039581780394911448
0.51463959455884378 -0.71713650471304646 0.40881634441285541
0.9933716591615962 -0.19519054311809469 -0.47538650120853276
-0.21127635648814191 0.94741232373652906 0.19580265734053626
-0.051110842100200671 -0.98051543209626857 0.40124771538279447
0.94410786605058661 0.4179433938463788 0.46248639048529583
0.2856370195504212 0.92448889635080889 0.35130501445406992
0.0088257235851045834 0.89207022736556496 -0.043405899916692192
0.2512790021386877 1.1323735737660101 0.30246501428474915
-1.0307295046861213 -0.38836931805967367 0.060151673707565578
0.13786276358537464 0.13260091797769036 0.63286603195471969
-0.51797396820556685 0.77548606504108619 0.12649365044251226
-1.1277292346046295 -0.29419098150368228 -0.18162470995197566
0.73763891180152541 0.83993842249634554 0.49507011242241106
0.78947658275599508 0.71379144112093229 0.47284781266365883
0.58101687790825451 1.2437129496500958 -0.24052012610302143
0.21474772576436862 0.40976016401354087 0.76491147234025902
0.36015779617135024 1.203615874235517 -0.021689827333560174
-0.52243310210128868 -0.8467671749906458 0.42886346576891299
-0.42733449688405756 0.85207024190791714 -0.069348192191100111
0.36953997950925555 -0.75323395828288398 0.47173511467694595
-0.28738132820006967 0.84192491689884008 0.20318604812317176
-1.2113735262466747 -0.086349807580752724 -0.39419034728040003
0.18591840662230652 0.013973030756297078 0.60541254173099901
-1.0935282713192436 0.091727416834082476 -0.44738173677086479
-0.17552069511540935 0.79993084538903503 0.36399526133655513
-0.3360247939030927 0.84529709326179869 0.17491880199378329
-0.16327488033761028 0.85602120840940188 -0.3885825137790988
0.079637339064305479 1.0127929507609963 0.41141988287751019
0.22263261944536339 0.32699101310693379 0.75332291744032887
0.81166479158186178 0.8993848521208534 0.38406592348366075
-0.15964639131611591 0.79054692065187027 -0.03759678766698471
-0.37169017824636796 0.41771406415538337 0.39485164906507464
0.6364952745960295 0.72276295382667399 0.58744445139798529
-0.9698159120895582 0.25377475591501764 -0.24196656975774999
0.51883117839273041 1.2554343318880967 0.047489054235740014
0.85849053443401147 0.19333210772816756 -0.12750539461779908
0.60678480762474862 -0.51792741317475333 0.44019670529098676
-0.30674175758352362 0.87736681852656773 0.17409032696203042
0.16087082841264078 0.10259016622911332 0.63314161588345996
-0.60728740205625797 0.716322561116705 0.13299583045373709
-0.073373020107808884 -0.0057730447485653258 0.58106552588806437
-0.44268428451024988 0.15599590161290422 -0.30801781677521944
-0.19262898981253329 0.78647324208272096 0.12274793507890536
-0.18269473321993246 0.95502435816287345 -0.11121432612554116
-0.14336942435370759 0.1757979470376867 -0.53327735360322492
-0.086455811268095317 0.2129248995933537 0.59793278893599222
0.68794464467414684 -0.61825179433651556 0.11847752784970567
0.67162527055404553 -0.47331761231836111 0.3529402428674473
-0.3210026254346019 -0.4118769697185769 -0.33152003340603642
-0.034026066861429172 0.36709366269781185 0.60769664012316582
-0.33486733337383612 -0.72885386386705164 0.45178605515253878
0.37793740547340349 1.2151984425997853 0.15655817788872639
0.69245356974326455 -0.60962191820856049 -0.0042836449059535653
0.42324477692675089 1.2227584110734 0.15571805519329018
-0.97831409454370544 0.18784965699158107 -0.32748347014769763
-0.91990469205829584 0.093948906584444103 0.016642931800760152
0.72511201527365188 1.0651968275651313 0.09961655669457059
0.046103858241380635 -0.68052803593549527 -0.29392109345687345
0.95924534015320262 -0.41565480441892788 -0.15483196854285097
0.53053809219292702 0.61810106543206444 -0.65562266924007417
-0.71328483887096183 0.62910168833196423 0.12760571678002464
0.83427661015304011 0.38281319726407048 -0.25239651368302418
-0.25807771094302723 0.9557800272368624 0.087112477258983745
-0.28145241523817788 0.86246918040156118 0.20777405174445107
0.83658318535377418 -0.52466170453235605 0.049999805993422797
-1.0916544904053751 -0.59460786196821402 -0.16001408028274966
0.047034904009095158 0.78644299571556786 -0.55370892160733121
-1.2343409971191477 -0.58809630822662484 -0.93478356904022064
0.81876607468134921 -0.40111430313922369 -0.39701765760196395
-0.96412064799991981 -0.92187076960200898 -0.32025672564660113
-0.1397408186511484 -0.56698713815620749 -0.36567998456662565
-0.86291453222801806 0.52260557338563984 0.013955869734090243
-0.94357018293067085 -0.39151278835358028 0.12495635375961456
0.47532280273301808 -0.70637630452200995 0.34314857149549027
-1.1181270162223029 -0.67413062253353928 -0.42995976662234625
-0.073246150571932844 -0.65214028047155637 -0.31964359492295102
0.13280258627126784 1.017815864924863 0.45235328145865594
-0.44448314796993316 -0.37130722746864819 0.41681071956261917
-0.057957756337160049 0.88302113949262662 0.47601840969490183
-0.13437711212718284 -0.79978635465661796 0.47705308455502404
-0.20647676232209733 -0.75218957326403313 0.60170565554101074
-1.0258451428315709 -0.3502755704712186 -0.24538813637288115
-0.22846254766089658 -0.053619060746207481 0.50870156574363534
-0.45100010466101992 0.83291922612792035 0.020082846709669866
0.68861820214829095 1.2696555048124907 -0.20176178423560032
-1.1049912389929943 0.064757710558012604 -0.47023244313494672
0.85400757741203392 0.95209058169441363 0.21644225840125841
0.78567925445635467 -0.11915240652817971 -0.50942508198498615
0.18814010779128409 0.042834743879950565 0.62178524192476914
0.82757215632005909 -0.32236755050909949 0.12637612117036667
0.6826366414307472 0.65872514699247375 0.58452559832707607
0.50436496179402468 -0.33924195913058242 -0.34106209095016027
0.42672702886206082 1.1943389338392834 0.19952562113967076
-0.3793000974199856 -1.0233237776494022 0.21469007971215603
-0.50255299268899023 0.45036490600991641 -0.16315073366141064
-0.0099068599613048036 -0.87424432624706583 0.1739017850680824
-0.20177245332196492 -0.62328613939833133 -0.29065902368664354
0.036559969343755938 0.71828993975260147 0.45374324413558043
-0.79884825087141564 -0.70657582841766242 -0.28556766440168246
-0.18146488814446116 -0.77184258476923162 0.49565133553888074
0.63082051065670441 1.0405082730383342 -0.25727843386073346
0.11892517075732201 0.77730846138370424 -0.57240757931959507
-0.13998292870854812 -0.088585200330342673 0.5639935363531805
0.11381467355408859 1.0837609275006059 0.25173823930491324
-0.54392808201299658 -0.7825649501151517 0.29525376424894034
0.10882871715533327 0.86685705526105039 0.60049904662632514
-0.092180079884386146 -0.18306277777732305 0.3501252363448657
0.91056165522088861 0.58422559063014035 0.3772594409008434
0.082865523138266894 0.90790504780159154 -0.16263009093786707
0.76314713441836091 1.2578116514054756 -0.16495443918312702
0.48347470124701886 1.2188263297000006 0.013637381876520749
-0.22152039876348795 -0.93278629426126969 -0.25149297505321044
-0.65531350821025569 0.67812400744374202 0.11271397966179109
-0.21938208863269892 0.85315712534944765 -0.36398481528338067
-0.30747562064151168 0.84948072572755251 -0.2930681339294523
-0.039039133359977995 -0.80670397935507054 -0.11780321592571852
-0.30598690572919907 0.16074165415406583 0.50421520223930827
-1.1843907849178379 -0.63197436245410188 -0.86418280318854102
-1.201531839773736 -0.24691634556207731 -0.31576092121974852
0.76642149021462558 0.82336594711051703 -0.36533001681266342
0.4952506487083923 1.2667237179751254 -0.0029659679949816109
0.92322923460017137 0.62108306644901035 0.056698858625651383
-0.91247610783524635 0.39082995450181812 -0.03291243896168794
0.8444576421950245 -0.17639145971230619 0.48915109054300387
-0.1181043019253849 0.76555255262785238 0.45314549865040021
0.65621854080005448 -0.32952834470378178 0.51682289057372088
0.6698368510058117 -0.5123969869980769 0.28926605991961196
0.57057898790149864 1.2817165071763128 -0.099120333861975496
-0.66416066792849904 0.19428373639180307 -0.25451329969978076
0.79320420666884672 1.2611883828335522 -0.062170646314839928
0.24790902546040172 -0.89089627029366625 0.44936656115963558
-0.60736093586776008 -0.045922580196140927 0.23344380287184663
-0.66348578256253177 0.66585169442329573 0.14296548879822524
0.63406698556183017 1.2408224959849221 -0.0045293750810628808
-0.28582116268327695 -1.0956712638172519 -0.37002236710354452
0.24013901686302574 1.1630358372810576 0.037981341569548022
-1.2192762173513785 0.12646987214282746 -0.39407785469286694
0.079290479246310497 -0.47678799862870846 -0.41696397271694252
0.024315134046929643 0.4672562910440945 0.66880309830767715
-0.64464032279080641 -0.32067089202512733 0.13872401725811301
1.0139087839162357 -0.27254312189654684 -0.17984982095872226
-0.62352599579354262 0.59372750928022811 0.24318339539411227
0.9018818761088454 0.45614515877696249 -0.073041225881937066
-0.0032318994104798549 0.98029116916411851 -0.14348517879849965
0.93083971730288795 0.66593433134541158 0.31255937020480928
-0.51082080921888462 -0.12108769524029839 -0.22979990431480246
-0.86339935733613515 -0.3213051582761608 -0.034167565397865474
-0.62575412006501097 -0.053482623325344036 -0.17865656924070095
-0.53858198473783148 0.66929002397142767 0.2770772193945561
1.0094657904300277 -0.31068532269985383 -0.20011771934495926
0.53138916342197717 1.2705302505534846 -0.035197007999300922
-0.11968438175216534 0.95677116486383795 0.21020929476540573
-1.0484614526970688 -0.69104727156797452 -0.34533586048220855
-0.12096814761238761 -0.54475212144419771 0.50363724217704942
-0.091093827911620906 -0.14912310175456156 0.34747314784878824
0.62981039437336506 0.99577006578201832 -0.35176375612634558
-0.014253674502597846 0.67618609947217578 0.49205821100855474
-0.87196449903197504 -0.81845696519358313 -0.26220498093123012
0.059984325781172743 1.0702415892254749 0.19941047305744064
-0.82095364224434775 -0.18632942001343622 -0.21405183782840709
0.28784010001356819 -0.4810790433446499 -0.441651392681635
0.096273869813998658 0.63702113626676748 0.70435427041930154
-0.33092140610632725 -0.17688987488427443 0.16061821158216105
0.69100728710930071 -0.22726177217051458 0.55410987998592987
-0.16734285455535769 0.90360514598635433 -0.29122318552034443
0.4701233271474905 -0.51014598130853983 -0.086055920757615922
-0.21649177099843087 0.8523866317653841 -0.36691359894334141
0.52605135919090174 -0.48775078977128317 0.47217708597591468
0.76336191424771016 0.76302853939021276 0.48998573104611864
-0.31305556431408377 0.81758965790864124 0.19350469080578137
0.053385300645587108 0.31543456989238905 -0.58506373381015919
-0.34019866885751071 0.51941209520336429 -0.21790498599098385
-0.098523235354775807 -0.73031098916151649 0.60872302771059594
0.74100798370911036 0.6220933817742349 -0.53096791762591522
0.17270006881106781 1.0631323711230181 0.38053637056199818
0.16335895155627611 0.93545052879783697 -0.21328612714528106
-0.30352964147870409 0.87043549296494405 -0.24181580671539393
0.49682631011434353 0.85737935452667102 0.51078115897742293
0.094364237328434797 -0.62551384379283803 0.47501776284885011
-0.19035858538607897 0.45004127911515468 -0.35769067162836166
-0.6717391941539006 -0.89230942732385188 -0.33288166718085677
-0.082386865794518371 0.81049044814540849 0.23682776905860692
-0.64714781218538064 -0.44325518070369441 0.29558621071237212
0.90699027810555322 -0.43918239053549968 0.041097317340899053
0.56635841875755943 0.94812357485161414 -0.44816050668920582
0.32287477576444701 0.0037659054449008522 0.6430652669967003
-0.49588970109356012 0.52115593205670052 -0.12477325849962995
-0.55436795025573815 -0.87152546497988226 -0.053701823004217886
-1.0608658452374442 0.25014156182571412 -0.24582643368134427
0.22415062541888631 1.1550745448123649 0.035494484250236269
0.03400714707561292 0.052228693532661907 0.57462940586954403
0.8472929218337697 -0.37746328818004571 -0.42142202646698479
0.048820484531887587 0.78716208122604314 -0.32327949852809468
0.9558277286624417 0.2631216358685009 0.37538066209701526
-0.55713470797697084 -0.75748865909882568 0.55530754162208495
-1.2201177150936076 -0.53611497475950642 -0.94005992885861644
-0.034391302312840821 0.95025604526819052 -0.27804622894173292
-0.48780340310352699 0.59458691736828939 -0.069039647424190775
-0.034490325373752739 0.73152497303402697 -0.29365220878209186
-0.62948224245275242 0.58834857949920405 0.033212410074369814
0.82484662705698497 -0.44226158609792776 0.14440158211812104
0.920514428901825 -0.25227071683763569 -0.51485435505939847
0.86455906569216268 -0.27591003784090162 -0.51657756299796631
-0.22139999514405417 0.21043624552369522 0.55144520869907865
0.71833064701472438 -0.58160478909907454 -0.083791166480779111
-0.16461199521515368 0.76009254391895809 0.40076650048276008
-0.25249974990504143 0.87937293889677193 -0.28084291367086678
0.97486298947251271 -0.29259027126359172 -0.40638174754413114
-0.95044550580084319 -0.86666989955752172 0.11369386276311388
-0.017339285890059841 0.23114751632389385 -0.56243812015424055
-0.95899044086755225 -0.80071690976597409 0.072581724830314442
-0.87371181849357527 -0.83496039013417089 0.087352107932929357
-0.28069695947685602 0.34471780163125487 0.44082800820383738
0.49166624833721073 1.0596172035174476 0.20568376733491789
0.73948561180228012 0.98699861464842797 -0.20741170404657794
0.40155662008098147 1.0189791579560961 0.24552801605622676
0.84428175488214663 -0.47390051234700081 -0.27128107698892734
0.30574676610581264 -0.73480169478852275 0.070630364143198676
-1.1368516616220603 -0.602285225381884 -0.96946279339580599
0.37235278992552878 1.2072480859951114 0.19733832899733272
0.51874042539610343 0.11777760083229083 -0.60553872008129872
0.15539803375011729 0.81486419299787372 -0.49229669289674405
0.28841609086671838 0.19709842877368544 -0.64537966250999546
0.452472556612733 -0.72645692340054069 0.22731955605650001
0.24345961078223866 -0.78512608157974739 0.2853739853332371
0.054211098535546398 0.098312549777318736 0.60133629192657168
-0.41422892705946879 -0.77751903048015691 0.5824143456130173
-0.85368832372732584 -0.84334870833252751 0.32675594648365802
-0.47745691739939389 0.77140981329377922 0.24516062133490379
-0.95070822765306673 -0.10267986965950371 -0.40619282832071235
-0.89124103572902413 0.46190952089468595 0.043740659706003271
-0.83005298426303398 0.54586903459951941 0.05691691064326676
-0.027931578062108997 -0.79219430099156085 0.58218130820063152
-1.149246325218499 -0.74204973129478446 -0.34881522232407747
-1.2342424610724123 -0.15221893320200053 -0.40968017973344217
0.043797768505584145 -0.19197254891343363 0.5689544922523595
0.77928021755280952 -0.32883824814506823 0.187509366096549
-0.24155898212242732 0.040857144867558759 -0.51781377982189269
-0.032515625188878516 0.90914226848286006 -0.26366870311090906
-0.32784201156657389 0.20170373710286782 -0.42780559039871946
-0.59345772632441651 -0.65013656884535465 -0.21803566582835288
-0.23163045177135189 -0.94231393226336735 0.13069564248769439
-0.52102573562838472 -0.065656326136142695 -0.23307442982802229
0.217585203588186 0.84592112961276911 0.41529825498203365
0.62709267305513094 0.56695612618989344 0.61049472542141814
0.15635266659936065 -0.060140545003349644 0.54889977431656689
-0.097730054504509667 0.81023456474968469 -0.084204960472732182
-1.056997653058616 -0.53086256197463655 0.0026709532996989083
0.22168364300723908 0.26173654630503052 0.73410223525378626
-0.099665914513224152 -0.57816209664940743 -0.37816728846354408
-1.095464470077161 -0.81181724116995468 -0.15730551382995372
-1.1506801591103653 -0.44781042651617753 -0.37923998240903245
-0.39716644948943269 -1.0158931131803186 -0.086178557470319106
-0.97215178445310357 -0.34998209102280242 -0.037906727102068771
