# XYZ point cloud file
-0.55488729711910878 0.72548719036526421 0.12878279680698412
0.59054599352161574 0.58326744516863727 0.61654856259305291
0.20657006951064716 1.1286163642933928 0.049607615431032315
0.94488602970879754 -0.2534179022351708 -0.47517119644171402
-0.25572988004772412 0.49951805469302712 -0.24560218105431986
-0.15116849805669119 -0.019708306448883661 -0.55501095907760956
-0.084129552527187457 -0.16898988123092806 0.35857157214322299
-0.19036659929386701 0.7320427110260681 0.27601167740495214
0.055283473403392236 0.71072210842468309 0.66864077288770929
-0.19877215475233356 -1.0006575523647285 -0.223427814551453
0.91350764579745203 -0.027064331914054662 0.42718038144523263
-0.59388076653448252 0.31572906098683262 0.2556298418665115
0.037954805052535789 -0.10429031772280695 0.50186078334149187
0.80342939580785355 0.47140245690938087 0.55608266111837423
0.031418278984475023 0.72139196467124833 0.40780434403809096
-0.67562390736753741 0.33526520899902579 -0.18447890694251257
0.45701739902516181 0.45797015725241152 -0.68464375516333575
-0.71449900231480967 -0.60847450387538515 0.2341795090900014
0.90604204310358227 0.12854570058385661 0.11077397608354289
0.02358375813021496 0.80318178000059959 0.60031965537035958
-0.046160095424554015 0.81662161330505967 0.019379484567565441
0.30255773401238173 1.1198313574557588 0.41716349932537256
-0.58503838269079722 -0.79203772712801168 0.25099760918889658
-0.69470371768647965 -0.2959881175883794 0.096183604874152451
0.23038339192628143 0.74745838891837479 -0.44452911434309073
0.68327372947929632 -0.61473994139381816 0.084405298183263255
-0.60098607968498641 -0.69771479344233711 -0.2590723464747775
0.016802063636745856 0.24347309048999222 0.64197500425380127
-0.9583066691190254 -0.34966348928914925 -0.098365602203489999
-0.27458613778247809 -0.090476252624014819 0.26515289615709392
-0.9065218780562958 0.38528475561549413 0.025968047983415232
-1.076392010538612 -0.76491149533640979 -0.28844208415544159
0.085022500114760646 -0.82197080740287731 0.42297300554072592
-1.0544618739195215 0.24628898135598121 -0.16130181553266709
0.92423118045981312 0.66090026673330016 0.34301494178654224
0.9122205568153845 0.071853906416812663 -0.24824063176504296
0.20446860360907237 -0.68988329732726328 -0.21874585774870425
0.79411150007751985 -0.43756979404908236 -0.33648058199371889
-0.95715324336993035 -0.78819712632740746 -0.35182621040776496
-0.3617099596786062 0.3057936175687459 0.38836678797909485
0.007237867494112038 0.58247430893264607 0.534085432819289
0.65620152267081266 0.8308451568764994 0.50906079720093089
-0.79232830649510788 0.057180261214597294 0.055063362681654127
-0.64459452837982667 -0.93238964284147485 -0.21708755341625263
0.099427157804058197 0.72773722115164929 0.43434483469195584
-0.44212234533222272 0.17827873868002797 -0.27586843823533869
-0.86079295219637686 -0.017088055902995336 -0.40972811388246555
0.13445192923308014 -0.8147187788822805 0.34314652162628079
0.76621819461821872 -0.5319019394671507 -0.16691605659489994
0.4932298885795916 0.39437280828877164 0.63046490306154368
-0.80794032077110955 0.1121588022948572 0.0495316251616984
-1.2330893286034268 -0.16712395909671329 -0.42874859935367837
0.66582239770188778 0.67552425975085839 -0.60259712441719415
0.2998715992622607 -0.3662989368684535 0.54191227753511129
-0.78015180951668128 -0.23702727328989681 -0.21991715358857178
0.19784049677680571 0.69236831014983125 0.51464908369869988
0.76424245166661819 -0.56620194866227891 0.060537874633297406
-0.7166436914355927 -0.42247608042338669 0.26103780276808664
0.10490501065412161 0.75821118089285733 0.65087001034952863
0.65593924332751641 1.2707451100553229 0.2366934614982128
0.44746842492079963 -0.41281546590634832 0.51373512079902639
0.11627713226890535 -0.97631433772212972 0.033316318027722502
-0.7987680831301418 -0.55322460928810102 -0.17943261163097191
0.72799498025030118 -0.44527634620094148 0.36424840652382073
-0.5189400682181855 -0.77994017538897253 0.34555534579751424
0.044104270340888263 0.87522637884985244 -0.31943262649838999
0.6854436411259357 1.2459976265193831 -0.01777984796483878
-0.17820772052212419 -0.84819198611553048 -0.20792924183725603
0.90141164094633552 0.39826132799223757 0.50924010445686463
-0.21106890764819752 -0.85257909352527861 -0.23115976550688089
-0.22957207925540501 0.67430777063604097 -0.088976329276754029
0.88362355149858729 -0.40954764528530774 0.092919145620612653
0.80359302417991785 -0.47730268099246587 -0.2709215459160319
-0.48164362167261743 -0.83003786815977776 0.10324361505290724
-1.1611206148947701 -0.66208004669886122 -0.73756979256863175
-0.5531527420241531 0.36962720935669324 -0.19255159791757137
0.2218195845265285 0.91843958546841264 -0.24200216333537838
-0.86734432786981586 -0.60804437426985913 0.11130044384252358
-0.51020289512230477 0.53108258054114543 -0.082418858798956052
-0.4185860085822668 0.59347256796564096 -0.062324382159570035
-0.023326870742636174 -0.33385815844867039 0.54901501699903577
-0.039149643170702575 0.68670537511895446 -0.28601401588646169
-0.58190580105005552 0.61270012375259597 0.037352910445228815
0.35955721396427975 -0.71654279802589826 0.46226269361940808
-0.33430429539721729 0.83754721242434726 0.13308266097445909
0.86190023771237634 0.63353384275803393 -0.18507343760843042
-0.85550139207462905 -0.40963394257436647 0.13927120133473991
-0.65226134282946191 -0.093761051451934918 0.035516554181619142
-0.27653542099253059 -0.10960380123675151 0.51404350286135525
-0.71531357678158258 0.017517199197186528 0.17481311262523747
-0.20963605489446024 -0.10876601353069759 0.40497857917507574
0.48902757370537131 0.46053227729661472 -0.69354161081340493
0.80687003852119688 0.58395066529870121 -0.3816962705832907
1.0171201167259198 -0.19795042414570929 -0.3348689074675022
-0.13551974482430751 0.98729454159359875 0.040401710480228559
-0.87950026959202887 -0.91994094930933912 -0.38090290605738275
-1.1675876671937999 -0.23672051090222368 -0.33263779844739005
0.40860104825848964 0.32583016910185592 -0.67342546564631078
-0.19711680079872451 0.94873297297118597 0.14090779883054694
-1.1015330276192685 -0.11587719507615901 -0.47130715119703837
-0.43686825515460725 0.53781269825445577 -0.10748438061299126
0.053016201893484549 1.0467336040416342 0.12472930623794554
-1.0367584867649811 0.21761801612274922 -0.076744911560286511
0.94072563494343342 -0.085867850481857744 -0.559458650167862
0.53580301528461405 0.33598738489255453 0.62477574666466751
0.44111005694256278 1.2337554372141284 -0.056881131834220611
0.96929672089081009 0.28543050266136305 0.31930391148279824
0.88712604129531769 0.3426073909336651 -0.10424592565077972
-0.1599235789106217 0.95476366296711035 -0.12283185742413849
0.95426573221382682 0.2769442742387227 0.34604679089376589
-0.061058733599082871 0.88449487928154724 -0.39078359143471886
0.18728676700270341 0.88923213789317401 0.26251678574177362
0.36310483904280488 0.19581383576014844 -0.66308342195134173
-0.34443562408878847 0.10331543091216844 -0.43397164775358732
-0.86215141425999775 -0.52105922694834561 -0.23907805487243294
0.20642389126427929 0.83238464400998424 -0.37358737222850991
-0.15631476329090788 0.6438372259238605 0.43769341555386632
-0.58117814495284392 -0.77045802835446864 0.41383823798602393
-0.87046807531142179 -0.10233179116644209 -0.4186709378895479
-0.70520435616334964 -0.032790099054537336 -0.30498278038267301
-1.0058148843068437 -0.31192040824437584 -0.17190352591633129
0.23945467541827981 0.76866367146075021 -0.59145978621141282
-0.17768156957031067 0.96158758216880358 -0.015919751265457194
0.28253628151603039 0.87133554665305013 -0.3928622391917358
-0.72432038753630934 0.42094647224332959 -0.081475732892972275
0.84238587441835477 0.64951731591396111 -0.2446649655348665
0.41549489676476981 -0.74196723441080792 0.44462754429646623
-0.90906603284088305 0.38577031815206908 -0.046885829171294802
-1.2551122304385274 -0.034640456232324368 -0.53205821780517937
0.84546635482794841 0.24535212616390822 -0.1881802285166998
-0.14657701380730259 -0.78674568043654602 0.56143424015955645
-1.0997874875632334 -0.24106233524035048 -0.27318937723810066
0.57712438640763253 -0.56347105385521701 0.41695263727790888
-0.91691336692231573 -0.66355625844570909 -0.033835862268233541
0.19794086762601637 0.91493049728890696 0.20779943336341944
0.90442089638719381 0.15630291707016397 0.54165309539423845
-0.6643256661828616 0.055178914236535093 0.090517641697246631
-0.32327052735847417 0.70946830059079957 0.15048813479704393
-1.2331599311714712 0.023545928101270874 -0.41607155874375223
-1.2619548517105841 -0.031798991047828906 -0.49432328130654568
-0.24109879085291652 -0.055775489074328277 0.5243575160662175
-0.021197480909009414 0.98073868599493608 -0.13304893965413456
0.42469004343089978 -0.31045259113642487 0.55673363665170683
-0.7473970309225848 -0.067670447688165325 -0.32977841613569581
0.62786653642797319 -0.12354048246768201 -0.39703387227953613
0.62952514377353452 0.32663153812532641 0.62956965579885349
0.30310052017834721 0.37432455259023101 -0.63373995451447485
0.9189237699904993 0.80338758383849296 0.17222960885116834
-0.86940338900245706 -0.59341013780898777 -0.29053157394937656
-1.0907871189643572 0.21568225671990149 -0.21006008488057049
-0.11445920545077826 0.90816283735275505 -0.28551840211645896
0.017565534480340261 0.5278409905314092 0.56400186424806975
-0.0072002227138483477 0.3931836871923835 -0.50474109698931713
-0.13521537801496919 0.79280177064072177 -0.50626075468256815
-1.2549299876488647 -0.077583668199345368 -0.47814173526163017
-0.85528633917793684 -0.75389913447318335 -0.46243007547423076
-0.85427058499190878 -0.085421877771914012 0.023340719800028609
-0.34224666957219085 0.57291765408742634 0.43108897445269179
-0.330165055221741 -0.74100283776472509 0.53636996656742753
-0.38812215987901766 -0.29684223944420296 -0.32795072570492678
-0.1425090009799419 0.98586874683205394 0.091029061500563557
-0.074315671994170884 -0.12756166314092354 0.57801813335806429
-0.30705252126173832 0.88295131140163363 -0.032842932415587001
-0.92862849918174106 0.040148929154177893 -0.42586883309411405
-0.46042097057906517 -0.17403776300222518 0.14486646054668384
-0.11375568955743631 -0.77157375949310847 0.2347702082319536
0.72421133419744876 1.0030361114826007 -0.18606440279423708
-0.51270187804992418 -0.90001669236681536 0.23123479352699761
0.53882126744150582 0.62730827638183939 0.61425085438943938
0.83636776600302198 -0.51850982385791156 0.017520840645460112
0.56534497116292926 -0.18427478983396384 -0.45206550054228245
-0.53425385590757912 0.013397078037854726 -0.23678329395071174
-0.57663314939595978 0.036367455222503509 0.13344343843283824
-0.71151147052057695 0.10427759925069324 0.092150045929585644
-1.1136432004741579 -0.80173113871934376 -0.56473224034926872
-0.71556989437397078 -0.76955659965945244 0.27407107467139724
-0.90488185027622592 0.2846857296609997 -0.17927146802979621
-0.17613533266303705 0.10245470861929817 -0.54047040468656604
-1.0299109737720613 -0.36699488333252361 -0.060480608681622527
-0.44406588676895353 -0.85451768205237499 0.27921321011542943
0.36037335179136676 0.57447627557139924 0.61663283341671615
-0.27785133512519167 -1.0270234657014825 0.0099576060459973803
-0.27198222764266689 0.31271964255555673 -0.37798004206982228
-0.66628124435329994 -0.9211820297587856 -0.29076098848509346
0.14926885232857501 -0.96497848140446152 0.03807510421656346
-0.8456475667500456 0.22504852143885756 -0.24281961258316898
-0.24193234356449977 -1.1094016953459551 -0.28773189707317925
0.15439531741556323 0.63963203166896676 -0.43227406614280994
-0.25069325572741263 0.91062749983090185 0.11831084885850984
-0.19623066635824671 0.17879789124335588 -0.51055300760289057
0.71543686309166787 0.58496979268718974 0.52275642335986561
-1.0875005940680325 -0.68050792671634142 -0.76889261289663935
-0.36012646806619841 -0.47275978120073603 0.5092594219232609
-0.075869641260283061 0.99086339748029673 -0.086275740491615238
-1.2507663617858071 0.019726153214143949 -0.50001731321266618
0.3416404843112133 -0.8245540816186363 0.46316922068451305
-0.13180836215357772 -0.044538542930233405 0.5707036474273437
0.48421427758744073 1.2444584858294974 0.053851461857703953
0.19986328543386378 0.46577839240794106 -0.54780806439521612
0.62370293259601794 1.0638887977244522 -0.13040924865363479
0.027302768769871477 0.050587210766913415 0.58433165891371175
-0.45817161776780324 -0.17984222763548985 -0.28510239267023252
0.62272251835612735 -0.52673640708766811 0.40922035806616464
-0.073290811481498963 0.84865764917739028 0.49216144724195487
-0.5770878459920965 0.71081415411446613 0.13325553515008437
-0.7312604302561283 0.09872700412603308 -0.31455185098916161
0.9045756225889221 0.54993641032751839 -0.069825013816533499
-0.40977665681488418 0.074830724624867173 0.43596299125173132
0.7857435805845796 -0.52487053485087642 -0.16819145838794469
0.64522471252918479 -0.095745008894624561 -0.39902995905128336
0.29031149414427659 0.76459051509270637 -0.4671319773577558
-0.18409547466131926 -0.24683410721703325 0.54854243966553895
-1.0084766591342316 -0.10139758595251891 -0.46295898167258187
0.48145601152666018 -0.44279104610755837 -0.21152438181346156
0.85883276597191127 0.12296286133483392 -0.07189444010315782
0.37572064980128062 1.1907731465212592 0.0072288277376273413
0.08847910685808813 -0.53344358369825784 -0.3809110014008823
-0.37739127478775458 -0.75499587018475722 0.37685111838158392
-0.35897219272324321 -1.0008026043463687 0.25256905996583257
-1.1241139799285236 -0.61449139126051477 -0.20623785285527418
0.20933436952911677 0.70141002003198594 0.75106376001427222
0.072815656378836024 -0.10452922105562834 0.60284593344545101
1.0199251657097506 -0.093847955392018179 -0.23666465710006435
-0.49446766764627625 0.25684000522823425 -0.23942054175596184
-0.23983683769640152 0.28987146987258683 0.46160210257380285
0.66278258330808626 -0.54176975445724551 0.33576895803349061
0.036613109006864875 0.90148389845323607 0.48557677823241008
0.98246880279296533 -0.09853828787593244 -0.11740124295671706
-0.017695579808531647 0.57490658596498179 0.65080782615420318
-0.8963213107796264 -0.026776913059002538 0.0065013359172816365
-0.11963642689029541 -0.97102338580524616 0.37170768148791211
0.086722686309485653 1.0565629190883854 0.13117018684483028
0.55744246183536461 1.0077909994894867 -0.32445491916168834
0.49476729503885508 0.31857664512113359 0.63449350578968478
-0.82558804246863815 -0.94416115299629055 -0.30866637053245682
0.5490900122950606 1.2607451473472864 0.0034843601706029403
-0.61280832623872072 -0.05365497533104957 0.048673201947714517
0.66953332589581294 -0.62245057396244619 0.1287372913596414
-0.59059823847731252 0.44779667730433914 0.26595621395986058
-0.12803450050014931 0.99207578321839662 0.06986073094873646
-0.3916047029038765 -1.0380345179400123 -0.39668203991102757
-1.2031599438432181 0.092286935776584755 -0.35182832748438031
-1.2098365319820203 0.055132635144232722 -0.4837326451731343
-0.48666664462987796 0.018249488527757762 0.35752911717558433
-0.54537782711398108 -0.55761758050915233 0.38742153474358787
-0.23719829909757095 -0.1590909980984847 0.26959981703924285
0.97419623452300641 -0.30974384228927221 -0.36043575188968191
-0.52393205293299161 -0.8862911183991109 -0.36207647005165811
-0.06614222705785977 0.79028026578349397 -0.53920555521424163
-0.59740957775076708 0.51741384619012365 0.25982090404070846
-1.2089281710212703 0.033217458809879474 -0.49229725628756427
0.12291884347129667 0.12864921373119387 0.63983919669977496
0.29349933144969498 1.1364224936360188 0.30458684522681168
-0.68764865095765515 -0.77811880461170801 -0.29512197035719723
0.29171794930877581 -0.77223527373146084 0.15132582316032739
0.61913717046606109 1.2721425250286131 -0.052565881943145598
-0.21975233036438624 0.89495951801916362 0.27484150236959692
-0.34751100419904901 -0.18413767269122872 0.1692871762691901
0.5362102759725218 0.73998008119509251 0.5749072944217346
0.26914486858035502 0.30372247753913229 -0.63463188214794286
0.32384597201480858 0.9600969412275191 -0.28427507300014554
0.17675958918469803 1.0717350315912455 0.2843946686993668
-0.24639930771813567 0.035589403943632192 -0.51718658350521451
0.19002593367876841 1.1118550282794075 0.22426496802809837
-1.1800821766513394 -0.17759658532398248 -0.35982428404155797
-0.3861304445072733 0.82691878557938736 0.026321216587028573
0.48591522419634714 0.9467777473554122 -0.41534005466657931
-1.164651905589821 -0.67439730694057687 -0.39745600163620765
0.16281103603134284 0.87812908340097096 -0.23909599747540966
0.64037908598965032 -0.46309891278608006 0.44575163114045324
0.49734247683828414 -0.60066289619362578 0.43643715657621129
0.54897288456946569 -0.15048993867223004 -0.48144142756900976
-0.92601429550242642 0.31006656730210125 -0.13592808583451799
0.46540898191254598 1.246531249200018 0.06092652230730522
0.16284218711348331 0.31702196347133338 -0.61338967893994933
-0.58441081242840198 -0.45253246709218331 -0.042177366531454652
-0.28317072629650397 0.84155821532911546 -0.30791981595971052
0.75357113433550182 -0.12033400539571204 0.5676696391555538
-1.0813078254510202 -0.41191228189413209 -0.15463351160556726
0.18246619416974852 1.1184074888678524 0.10526948567762773
-1.1536133443474768 -0.10101553667926311 -0.49642287505779237
-0.45995451185284253 0.62991693636446655 0.037929684020898691
0.69330066883384234 0.38918504083258654 0.58570168563628044
-0.63190420599160291 0.31967386975852463 -0.21010746874454966
0.56758764936934369 -0.11874818685743094 -0.49245333426865301
-0.86915049406675848 -0.83770388342531277 0.22484279867445167
0.94382047528445412 0.13312634066021189 0.40793269402073662
-0.31410976967701743 0.18186563159813574 0.50976355637007487
0.88884015654478787 -0.42964337203808611 0.080670238973979735
-1.1744483227071356 -0.29726197113471642 -0.27151069521377735
0.95130147360076478 0.060042296310946597 -0.30098231455557567
-0.45924876941595016 -0.66676745079876554 -0.19953113877778961
0.35467014627522531 -0.75664372717342587 0.47536317327812583
0.21389319735351364 -0.49995639391735125 -0.42062152225006955
-1.2237134273149906 -0.63680673614786087 -0.73049859547742102
0.50491815285931807 1.0690070395287634 -0.13157482208323756
0.89599361816388523 -0.061097823343096991 0.40027545497315487
0.54888751036935446 0.95063019638266866 0.39819555831490305
-0.54473895401950756 -0.77229370207491499 -0.31459356264618421
0.40203274809796596 -0.37905744905614824 0.53182939389407835
0.059103917469983003 -0.72823832262260169 -0.25276941410296772
0.27697716397989325 1.1594249645085952 0.026561576138195875
0.049986152480315127 -0.26887507864146443 -0.50870502367605397
-0.29610754532384931 -0.97054346265793967 0.35865960334406921
0.3762061493069524 -0.82535645168060157 0.44127528566708207
-0.02120005224546162 0.79884520881107335 0.22123801731015647
-0.238353921884638 -0.95797654005042432 0.39718342461117473
0.5016983859157591 -0.67317970812641192 0.083994207887208461
0.18679419837883415 1.0575903934511572 0.37411104065374801
-0.79710025229830705 -0.32986864695260465 -0.21058808569828358
-0.38715141952862098 -0.74836481868717897 0.53137876128315753
-0.41030973539565707 0.64805192888523067 0.37074748902059085
-0.66885893332828061 0.11144633494254208 -0.28585964562300958
0.4243309901849841 0.53188497355865394 0.6342104369130297
-0.32072737804692508 0.71109147760486735 0.096734857012517494
0.71219864159202473 -0.20048921487958893 0.55716232922144115
0.82023096439164078 -0.18894754685458537 0.46700614706978882
-0.44766816481484284 -0.05545793909249852 -0.3342632025654666
0.020761078397839583 -0.55819171167197368 -0.39244077533003363
-0.79175867656952903 -0.2426187207278474 0.013287221262782367
0.53763975025847799 0.58357173338548307 0.62364437754664692
-0.68473334675968545 -0.66047453279648494 0.24963003655185645
0.65693070527044028 -0.63112031261812973 0.10371805173394222
0.48728587170583637 -0.22110819407900806 0.58866573933612187
0.78316784087016345 0.99845249311720607 0.23756995518309765
-0.64020341806171643 -0.70831424874310756 0.28221159231296156
0.865268094118818 -0.11567814881758665 0.45417194609522227
0.69914565222946123 1.0038477051389449 -0.23215084034793421
-0.27646138345949112 0.86144167564250296 -0.2606381393305881
0.87557707444153721 0.8243691987735744 -0.049438486774405987
-0.5611636181213413 -0.82616282093711391 0.025182166078639767
-0.26581133966978143 0.70235363411482155 0.032454680082107501
-0.30045794815494276 0.67544968322681598 0.0019968917050441348
-0.63977256310826647 0.28991602541432826 0.21412008716421838
-0.096561898325717266 0.95571440783406558 0.20835863557630319
0.83785041127714521 -0.10254072733876285 0.51207699907552495
0.30074938206981017 -0.53924081310238137 -0.38544488845531077
0.097025469944298948 -0.048194324196096261 0.61630568016931875
-0.048104066576641458 0.91524306782580567 0.42658937184339152
-0.4025822748961474 -0.91980186128515129 0.23831475361243903
0.3091191350764575 -0.32408143190932037 -0.50421765678120067
0.56195103009902425 -0.20824311463190526 0.58750151978225063
-0.0025120490236858473 0.81261066357065914 -0.5296213559995735
-0.49246233722720945 0.77144086531492206 0.13659752559028249
0.19241386515949443 -0.76583312463650088 0.51972138661652423
0.95580005232365295 -0.017081444011793678 -0.15503452392013628
-1.0878892740468018 -0.4255873053572401 -0.19142964947944208
-0.13828234541067275 0.7072744942569571 0.43639192108993541
-0.043729726621648979 0.36638576793250621 -0.50572676150951423
-0.19861981414817365 -0.79738634242389139 0.55314782738582124
0.11525127944794633 0.4297384387382408 -0.53798760345422281
-0.69138500363287392 -0.91102644466101879 -0.16308669866220527
-0.73066877671494979 -0.85860023841839705 -0.0038436739516463092
-1.014940058270497 -0.87489114954971825 -0.49463894753085924
0.22502104296570735 -0.82422443188733396 -0.10294965535123879
-0.24712223525961008 -0.73626222213262338 0.58011993752523949
0.059678938052371677 0.83260200305745968 0.60064885253949285
-0.25991568166173806 -0.2392769650678801 0.5348293097973098
0.12982461938374001 0.8289457593749745 0.64089982976854998
0.84973941621876747 0.48331929395034479 0.53798629440498758
-0.11504602680047071 -0.73744637443235916 0.59018130326180795
0.62140885343907826 -0.24224938292174869 -0.33660915825401361
0.17151510174815598 -0.71462494292362067 0.54028127861399611
-0.9883659864310772 0.32570915728341276 -0.058135923977253867
0.12425168191066405 -0.71786316135070649 0.55365943340900969
-1.1645419112063138 0.11953366696325674 -0.40927630252603464
-0.93469209879997095 -0.0059647170226924118 -0.025807249678905464
-0.60772407878413048 -0.19974151250247729 0.19801342189855831
-0.77309786280773096 -0.65046752730030732 0.17234704461136729
-0.068029593331104365 0.9545699916252488 0.19535886652049328
-0.81361162931655429 0.025713775473590772 -0.36302002751254037
-0.24549536260543903 0.57236363809661128 0.5001248586976601
-1.1205462154243833 -0.74403810307013174 -0.36316800211666944
-0.42309072706748907 0.0027701060389873078 -0.36610168109890751
0.32151946961791111 -0.75071229563704733 -0.18347837859446159
-0.91201560315275287 -0.90531179502037418 -0.11114939614645891
-0.9191130321118095 -0.60484872751337448 -0.39602780681048344
-0.66805675848037538 -0.51035471647954722 0.28216491378096009
-0.033540215604688228 0.50473575638250168 0.64045527787914835
0.19755823298963548 0.68417590733994871 0.75632959436978098
-0.39898857499626672 0.59946485473132327 -0.059784545812025414
-0.86858582063362633 0.45178461796914604 0.049122081155097419
0.56629438912140984 1.0767477375753671 -0.095120865265897692
-0.71447163635936306 -0.78773952456698026 0.028086685364954178
-0.5262496672122694 -0.12453263914414947 0.17529203403980276
0.008388655007735224 -0.48948086923130063 -0.41952444538016209
-0.27815196327338754 -0.99636164046657782 0.22637971407451474
0.22514225595362802 -0.85364024945939931 0.48436282169577538
-0.80977034355235844 0.18210495883032962 -0.2768239558947343
-0.36622670396279489 0.51204794419338384 0.41334730548912546
-0.45029070503399282 0.14151955585820275 -0.284939636513446
-0.60857185559746085 -0.8208821213677524 -0.0035733564856954558
0.2207449141541673 -0.36897266566528941 0.5419219354708531
-0.98010520196812934 0.19342869708150801 -0.011705902137727264
-0.9949570411308315 -0.51980840157600028 -0.39038944303877088
-0.64284404930683081 -0.39705322025097445 -0.023052506362535752
-0.02927440708144502 -0.16044176581142011 0.41885331452228058
0.85865833684930237 -0.14399134440464678 0.12381050995232101
-0.25332604096730904 -0.74037917995496372 0.44139978274536418
-0.66373855635954726 -0.18369462135740378 0.15188798315947949
0.094666420282067065 1.0658562505188058 0.11398998825537987
-0.46195805457873007 0.80944780702834862 0.02772059581066344
0.5141682082084742 0.47544484560688716 -0.68938268015612891
-0.81585870460769172 -0.066724744964190563 -0.38148882149138785
-0.18386641462474529 0.80575174779200154 -0.4612772819018609
0.002852671941965923 -0.75654280520754469 0.45749343356021654
-0.23475607772836327 -0.17365515255482933 0.53908058785220447
-0.39968385142383056 0.82974975499327996 -0.10505551099497978
-1.079006391603329 -0.33427281371375983 -0.15804604500816666
-0.39289855186282807 -0.82612956358559586 0.15793982913017146
-0.75119282948422494 -0.28821539997953494 -0.19170911984277694
-0.70188829435528532 -0.91025084479412044 0.30523742222498029
-0.44235494580446755 0.4122502009040474 0.3527548572264152
-0.81646953745779172 -0.40218200646147295 0.12096257627775842
1.0243920487892382 -0.2034325390121694 -0.29400958061783911
0.06888959601636202 0.44341802422550813 0.60072727113725222
0.43185041956120074 1.2318849193141048 0.0090946137400393923
0.74588648352046505 -0.5778511276975955 0.042782504140227218
0.55363750379535759 1.2326631463615882 0.21922387045992764
-0.7421841824987041 -0.28151754295230802 0.057195416488006856
0.93727261670227335 0.044941645874779113 0.41801763227591948
0.60814073155301429 1.2510037695459673 0.25930336814167276
0.13081677650608015 0.77998938770887349 0.39534605578027993
-0.18579880202103993 -0.75928691181733399 0.48533431410701411
0.71555857487021512 0.38504888033529738 -0.57323461392360286
-1.1401226762301917 -0.55170573732753425 -0.87639209434010823
-0.1828235585075646 -0.74311311932513746 0.601988294233891
-0.80460067238932709 -0.29676236552590751 0.00088942946118208965
0.14533233761879671 -0.10604584430957686 -0.58452665616061594
0.84984330303117872 -0.14189797470366017 0.47776309425997709
0.62102654280096203 -0.54648550265332574 0.41145721112011557
0.14378118891706038 0.85518146208496404 -0.25977594904308532
0.98847491885813099 -0.24221082849000553 -0.40469766499914073
-0.77103642817580464 -0.40185988205595891 0.17966978371627818
0.78230100482241482 -0.22840134747924878 0.49699702257284883
0.18897301395341515 -0.15129061914739594 -0.55590958342443386
-0.1717306034170889 -0.0050520007036141124 0.48798240257199055
-0.40296315008593808 -0.97824098566840334 -0.39613082914063469
-0.63241440455873033 -0.14693619026364502 0.19599412851993847
-0.01763245470506547 1.0114172109173722 0.17870822901981853
-0.94391621962158467 -0.74132242169199003 -0.71953295089857505
-1.0498200963052113 -0.12667215105506813 -0.44255616038015333
-0.77852294442405423 -0.068708869125117644 -0.357960143747448
1.0273833329524393 -0.15617421378128071 -0.22516268312542564
-0.96905041641228706 -0.12894851592274392 -0.11480800046046724
-0.36274471485927506 0.82701801502572891 -0.26230920015387937
0.42722673263384081 1.2278464957839503 0.083661880677148304
-0.025488552027979949 -0.76370369449693953 0.32466415538920401
-0.0094377584614164789 0.82245717812403285 0.16254280253992803
-0.059080828748143688 0.98577645549285364 -0.12387234076076226
0.92748510939750872 0.73771841786489745 0.26203503233799808
-0.61795063771229763 -0.52950551759690256 0.31083135880027513
0.13507111398149618 -0.043814398270100696 -0.60163096977908737
-0.95781088305443518 -0.70178804993675215 -0.20022116881790453
-0.047301871662114081 0.48926473562814721 -0.37154503502265257
-0.1584551061002486 -0.9263822823115575 -0.18833795679995191
0.03758367832216436 0.57608280735833262 0.53919345578521671
0.84607664454283338 0.10300081160387009 -0.34310596518751169
0.23912817357503968 1.0814507194183562 0.43113684800207963
-0.66033619147511047 -0.032588901277620153 0.1658927930517784
-1.0502419554488682 -0.52860848663056004 -0.016392564433338919
0.14556695914475881 0.91638099167651177 0.11010505744192045
0.84808838119417373 0.30669967731591896 -0.19582965332639901
-0.95169831121563675 -0.17557039233054894 -0.11773492543168729
0.93153007063311577 -0.12357644107062171 -0.5662747673948374
0.34962678376199108 0.75117502799171376 0.5301880430871222
0.47820773778774139 0.49197448474963323 -0.67860566769564912
-0.22093142080241535 -0.71112267544948793 0.43764964760520542
0.48232767527689191 -0.7076984746007966 0.40692834655066434
-0.4740411719879063 0.37981287278659437 0.33245273496429917
-0.38105113633984899 -0.75148838955604447 0.47428668593672541
-1.229486234933006 -0.50161382328965587 -0.75831662629302699
-0.47302758872082507 0.45258149054184571 -0.16250934560838104
0.19014917165037559 -0.95130177158661411 0.030442647620962049
-0.5338586454423222 0.62800504803448121 0.28386234590979598
-1.1754964049266619 -0.60557937976740206 -0.37961780856213068
-0.24296153887796379 -0.044060534610451896 0.51681229621751612
0.54268802166782848 -0.33384045983219579 -0.27164259038477923
0.88533477043768016 0.75637174606163171 -0.070734124028916767
0.34095595773602838 -0.69089134369773575 0.12704477866297026
0.8056779716229272 0.98205407777957276 -0.010482481220279283
0.58854251089712761 1.2613337067094577 -0.22414605291377399
0.81769756337699562 0.132592496532979 -0.22463059582735667
-0.15494748147338555 0.63977103435482974 0.45254280609513131
0.21994489575786247 -0.83093408773172328 0.50767752081046069
-0.18015970213286892 -0.73802999901172939 0.38689389835722565
-0.69518674194684138 0.10350282696381186 -0.30714838041391346
0.007401323750514166 -0.79956461393921074 0.33003313942220203
-0.34748560763964065 0.74416745743263135 0.15007163051920003
0.82442901749018915 0.3434750959493087 0.57069402640504308
-0.46685032823491213 -0.4778919620877744 0.42494553635628662
-0.21891204225428851 -0.7398306488596802 0.57142023932203756
0.86101656087465983 -0.20741834534586445 0.20421867415053896
-0.34634420292131551 -0.95678830745363541 0.38184276618638791
0.83333828626565776 0.044905371390655091 0.60070127151115571
-0.85635486157646312 0.2247444100295084 0.032871042610814527
-0.48801723770989724 0.011575011278409875 -0.28004538097640719
0.40033858080855111 -0.65658814169207602 0.45186473619551037
0.39254002681673228 0.98703178543565429 -0.29032005598411814
-0.7732533267441255 -0.36212655949551475 0.069086316128792902
-1.1313360046246856 -0.65700346939309284 -0.41097000539136275
-1.1461610204255948 -0.29173138870154247 -0.2594090358969332
-0.078646700435399453 0.64896285505909646 -0.28646060878052992
-1.1464968675226146 -0.63625991967057871 -0.29581839450836611
-0.80061077881465792 -0.027369181042786295 -0.37155531767054129
-1.0713203491647363 -0.59649667369535564 -0.093068033790306259
0.71780115664702748 -0.3836461077327229 0.45125908863397513
-0.70478235982297122 -0.77529872205035844 0.41850264252185099
0.47637001011250391 0.58503049447442379 -0.6454701483148213
-0.44885524204133276 -0.088965652524407801 0.36572539206597554
-0.77032042349087249 0.40820666598560962 -0.06712754792078357
-0.30216302917288829 -0.039750439864945974 -0.48606930593144071
0.48875189653763584 -0.71528793162313065 0.21791828843624472
0.084953546907911459 0.70071174187737739 0.68951156498796351
0.38118021254209111 -0.16991738370189324 -0.57409323439177129
0.097523709034305739 0.82697902228395037 -0.52359568486624397
-1.1348445849889686 -0.58215825667545573 -0.23395625209602855
0.80088208660525595 0.80870167341920052 -0.28166076822169828
-0.38944783241934999 -0.75584003316269843 0.5729910094389048
0.50373821882827485 -0.68137927528172781 0.38576545067482471
0.89095679034191733 0.042834836967173828 -0.17017815337468534
-1.1694401850790683 -0.66205311347519213 -0.42705928679777827
-0.86161612180647751 0.1494727462135188 0.02562825990742823
0.55673153511158091 -0.69068631821597037 0.18820528593557384
0.052853105979998816 0.93865764332005597 -0.25528901858857722
-0.1740753838063398 0.27994999117088071 0.57571568750888957
-0.71311698644601051 -0.39396601505234941 -0.091526265019254538
-1.2313871299902956 -0.16551913919376915 -0.46232304800482638
-0.37487521411523517 -0.15473243840214224 0.41167104043663016
-0.0046509818461402119 -1.0087480003820133 0.002947870403829711
-0.75379384693286511 0.1582761765721088 -0.27710480575376906
0.97977231745461779 0.29675792136783485 0.28291885365003822
0.87589556121812961 0.89008216891692626 0.29275740306563591
0.50005346360130432 1.0596628821537095 -0.17663256433722552
-1.1606991801098729 -0.26372456649960441 -0.29266751060803031
0.33303648240819683 1.1731703024731956 0.089014889644321471
-0.67796642089037107 0.46245258156805846 -0.053739093729415544
0.78805379242768936 1.0025682122243396 0.19796865714515377
-0.12985044159868409 0.86443154195696081 -0.38239310955577821
-0.14084461586591601 -0.74460725466769162 0.59959334490352489
0.82353280455890854 0.26021510624011057 -0.24341537627545051
-0.89283303352534915 -0.8791767138127895 0.15393158439144372
-0.2578388851648441 0.81382698651231777 -0.39554480131754488
0.86041656654133192 0.099969725393286524 0.59069264443096614
-0.066711939323113256 -0.75927092956550979 0.57875021200464971
0.62915595694882143 0.86156610155671132 -0.51430992088744887
-0.035586244611295115 -0.84415362025236362 0.35764717627505149
0.566277661324321 0.25943467121709318 0.66025602493628099
-0.018673870395545578 0.17601066629967477 0.61640960598854377
-0.89103962247214952 0.21983812320572582 0.0089993974230679896
0.0098043780708678696 0.58642295250277954 -0.36072269400597534
-0.96190847548587044 -0.4020737857043386 0.09682644240905347
-0.10472367531387761 -0.10233205135006784 0.36881595460886629
-0.30796236614361305 -0.88418158894518228 0.088746295737735181
-0.44918997586113107 -0.1514655484755778 0.10609878364818215
0.33764288801255304 1.1886360264197222 -0.00049067632321708743
0.60778455706699219 -0.65491645580909719 0.088206208422896282
-0.16346451418429808 0.11581288333831452 0.54237338322982254
-0.81637472925304166 0.15221636338827693 -0.29756460372788496
1.0207742496532575 -0.22060312877588117 -0.18873066161528129
0.6152467675893547 0.013227425537643001 -0.54565378824974431
0.46877417014888323 1.2257565746945858 -0.086768773473146155
0.84360055561869274 0.5291762425963924 -0.26768988605674338
0.55618947817427511 0.23389618474898555 -0.67186401228813963
-0.71393160389929733 -0.19345978934224206 -0.21613584527369767
0.92645134979838417 0.71835478736502978 0.29409940329727391
0.76472289036325236 1.2707819787778476 -0.065186421364035851
0.063481294761146501 0.27109522597034896 0.66971190949816517
1.0160594719898626 -0.25713998728011589 -0.21094216866428184
-0.70798598417891867 -0.96436015173025069 0.01861810320080437
-0.28289829116226883 -0.31343706508619817 0.53090461621905405
0.16386214717101666 -0.84001305361220346 -0.092179137859790927
-1.030021441302182 -0.76724154581885884 -0.34922084323682512
-1.1101861840000993 0.015144153870657817 -0.23147267529277826
-0.56667849782563451 -0.58864796227261706 -0.096932789455959067
0.87947358762973238 0.45639814875332974 -0.15862922808144475
-0.93214879209216406 -0.78465867035992076 -0.52193975495923439
-0.90264664693211216 0.44940688683286822 -0.033324793362968563
-1.0847860115316621 -0.069247313989535542 -0.5170263950382683
-0.37163412668127194 0.10478459579886135 0.46845837224213227
-0.042636315585141915 -0.72053993027784458 0.58616737735727042
0.067509174804825989 1.0554922952543464 0.2276969591331266
0.70520178442779979 -0.39785929520612484 0.43842037304141002
0.78952541948733312 0.086778783197168252 -0.3887221667060885
-0.74093778984695291 0.022951308994741737 0.16522845006296194
0.14008989998149701 0.89503129881249777 -0.35451339949259619
-1.2324631842306957 -0.60726589657789631 -0.73451502510392785
0.63423506149379705 -0.57007991257719937 0.31718434096431736
-0.58998729161956476 -0.33254585713449814 0.23716156579973813
-0.9725875339440222 0.29637139675003965 -0.13397691203647355
0.15267582432858262 -0.77504413681251805 0.54604098282923275
-1.2297990987259766 -0.57335867265623364 -0.68666673409744661
-0.36042044135386675 -0.19189119324181547 0.182126660292667
0.68192764252343352 1.2786322294294621 0.17345963548515186
0.70257218448172409 1.2744116936073482 -0.028289054307151673
-0.95196005988468357 -0.11407159896219099 -0.43916578801338702
0.046250251870205261 0.92670552107292536 0.4599025114052786
-0.66323168741250527 -0.80514510880578172 0.45273056530989564
-0.2710501397487235 -0.94792208585051085 -0.3241601933000311
-0.042547049552368321 0.90892632013316899 0.34362188735056876
-0.99637762300635302 -0.48461777567570863 -0.33434045328619177
0.31475816177574245 1.1626550887486644 0.23889068087473575
0.61452594575288799 -0.62930230674398402 0.34727460871643245
0.11860777632809061 0.69755405866048648 0.4744980064274813
0.1257216374445278 -0.66502786632000976 0.47455532288337565
-0.4102501754662029 -0.97717362462353208 0.21529979176884595
0.17062538512118408 1.075480025344568 0.36005469568374338
0.66065727132935592 0.95584516573009637 -0.37470427443516741
-0.21357105673052956 0.87488594322943669 -0.31515424977872541
-0.37834690518587877 -0.17720546567217355 -0.38386553697162995
0.80513549779476534 0.84907575681001646 0.42482653956180627
-0.71782868597378524 -0.77932083247927864 0.12567807467467418
-0.89542472128955808 0.07725685798546067 0.049477229085052699
0.85827197525188126 -0.11515762815718489 -0.5655615707851922
-1.0239753558551286 -0.64033557373461036 -0.81542794104253247
-0.63159945769405113 0.48180616391857001 0.24227164730075756
0.30579427776544321 1.0082664211203962 -0.026182128070374233
0.8702943127443632 0.027328145815843641 0.045975604045509044
0.84326822032792847 -0.20596092344757011 0.2613277736613
0.94430483378465624 0.46727388253707858 0.10673370468985155
-0.52998619417103043 0.4945234444040878 -0.10677240909093655
0.13465975627893556 0.77382484358730608 -0.5980661313236979
0.037471617404477797 0.66221970480133763 -0.34173659155957736
0.92920194486595165 0.13606730669226863 0.32814457150239207
0.60521388342698401 -0.17370896542378489 -0.39737934797529562
0.04602224345389061 0.66488927769659512 0.64403539807256038
-0.48991257187539361 -0.16352491413494619 0.082843805045854424
-0.95814226509685341 -0.83148148283149226 -0.41003975273384086
0.18055011714778857 1.1120942121798265 0.18771506960911566
0.47110792566954274 0.35000352821550251 0.62485613333382872
0.69543520285952809 0.64005844432946901 -0.58920911860166569
-0.56760977446712957 -0.28750746754005974 -0.11839534014515607
-0.11567269040861561 -0.99515800784728015 0.30996422396707857
-0.1048868878394984 0.83104124744649965 0.38586935897003372
0.21142489296984479 -0.75914927339227489 0.46914650627769561
-0.92657622840802389 0.25278448347176408 -0.2186643072040404
0.910351452638551 0.26165379648769971 0.031089947341634172
0.17489175339096619 -0.022834348825632844 -0.59396394466985214
0.54219839845310958 0.97166749372740924 0.36289546529921779
-0.14832678845036185 0.75765068558755644 0.097379110788807566
-0.52442808233837468 -0.34997907861050237 0.34321022841727
0.2206137898499918 1.0689236651357916 0.4325014285446187
-0.60874451420758646 0.42744702707116744 -0.14437075304131497
-0.21699745646964175 -0.82012468329531885 0.51569249065071432
0.76951643186330898 -0.30133752319493823 0.41850426613873992
-0.33415959575977183 0.89608736346877293 -0.095336257296857241
-0.72309395680714772 -0.063763727701214634 -0.29497957384723605
-1.0767574676005154 0.21219719303349649 -0.14154442188353045
0.67538242943329863 -0.43247975816537831 0.44027670419387732
0.28486050047838773 -0.24874438732597781 -0.54807983067658128
-1.0847481669634504 -0.083813445748411652 -0.23885897480975871
0.48626757904584395 0.60782611667052322 0.62103750721278317
0.78713402846317138 0.80791559841821936 -0.32061999125795637
-0.85571358285048404 0.38308710863831408 0.069940362012541613
-0.18096529368733627 0.020439801149017001 0.56083022046583153
-1.080160278182916 -0.26436784078101283 -0.25044716815758505
0.25667660771978262 1.1264938202522785 0.30422159682705896
-0.73598771384828865 -0.91371414398184214 0.26579763636770437
0.8852478820381009 0.074096334627881788 0.069279648171985286
-0.81070609354779322 0.082635644068616898 0.11416697361250172
-1.0831571074484998 -0.2347055793618793 -0.26414897263237691
-0.50689675501674003 0.22156349467640979 0.28111952103235183
-1.2061572814680375 -0.19612809825254374 -0.4460806177681782
-1.0544447235594561 -0.044226123949712814 -0.49985772626615343
-0.0052976414530974125 0.43450527798233196 -0.46801731326288021
-0.12664925681964689 -0.76976232384888021 0.57954913613176018
-1.0875926626632406 0.18161468249851964 -0.3097677917242585
0.86609375900857799 0.5751930054736718 -0.1952101048926238
0.86613022426894304 0.87977812076441353 -0.022913533337955982
0.15545484622728623 1.1049973031585196 0.14400813081935837
-1.1444237483777471 0.14578732272408246 -0.23890656593441761
0.81932928499352897 -0.35956762056428104 -0.43255879494400062
-0.87919366877298444 0.37547473878545645 -0.044233956204308811
0.39472870561003504 0.79203943433903845 -0.51161325915080624
0.57464001682487265 0.22421548239510258 -0.65084980223388555
0.85128362783687805 -0.1328386763115148 0.036722304562808006
0.32291402123001944 -0.11938657598474833 -0.60863211618476143
0.14364015564255794 -0.78412744791756595 0.38563033916899769
0.80385395219963129 0.41584788929803551 0.5733971808658751
0.3561546214234852 -0.80581406677208989 0.47012419676301676
-0.48613583277440853 0.77973414104785377 0.11678149965189988
-0.7738376525876447 -0.96239135393006237 -0.059140616992650052
-0.53653272392423901 0.54016202834045401 -0.06153423670379965
-0.84119171118823033 -0.48585117837964731 -0.20382073512037024
0.10493217712705416 -0.28741641963665643 0.5608247734456171
-1.1765148940230574 -0.053208651545858743 -0.34883542226231512
-1.2064351805746583 -0.13699627673989312 -0.49698980192204445
-0.20075113298538838 0.78160576866208942 0.45974050428688429
0.13801161407108964 0.39336208512940374 0.73060248790704918
0.042266439632740571 1.047050793214602 0.1418673530483936
0.8561793458875826 -0.14661560952927033 0.25889296975861953
-0.13971772873330224 -0.75546161997910133 0.29067138247996382
-0.060084918352728778 0.67935757792905349 -0.27469975882731745
0.84762733653766986 0.055924054691928404 -0.067246582079043549
0.68828728014584328 -0.368207691792513 0.47322178821110583
-0.14957208837569169 0.42988207263891098 0.55545770869022704
-0.4058204490868178 -0.18675724633556001 0.16736161702330676
-0.29033563573980814 0.72032628787709996 0.082643734111286449
-0.37197881509302988 0.6635575853467941 -8.5373396725429984e-05
-0.0077425208765475872 0.5161126733977639 0.6456036161145029
0.77790080623086055 -0.25333009983958377 -0.48882415709908145
-0.68465259282716318 -0.93392043788946211 0.25495026615962146
1.0187871834027789 -0.14479478074978047 -0.34893974338847045
-0.50159758114051556 -0.36761736225999186 -0.15818827541576042
-0.26825219668097589 0.71811918014672216 0.23788747996996662
-1.1775974798158302 -0.66393317012669328 -0.70350302053513047
0.26218547580499774 0.23429768795988082 -0.6400744677755057
-0.037941213847815902 -0.16899673650972602 -0.5394396707823006
-0.25835534426698814 0.80334156912074661 0.39457257513856803
-0.38342855999798076 0.76898997935915503 0.32060577167513316
0.13482189292990654 0.59978341432037752 0.72450648435711784
-0.10746609662405149 0.7562476780402676 0.24250218657973477
-0.93422310135669306 0.13939093113213374 -0.34481757766704391
-0.64069618568535702 -0.075707213940894746 0.027007974862389261
0.74301971665408928 0.85507319140947402 0.47487272914250411
-0.50394948056414535 0.36871865767786716 0.31918141970093927
-0.068307796395288278 0.31372131485528598 0.62214399737636938
0.027465948564810105 0.72812436809419268 -0.29752285433988845
-0.18692125054506903 0.95870801026394759 0.09969453081090407
-0.87251583068247385 -0.8405422846739512 -0.28146858098656935
0.19156091216080284 0.80067704254545191 -0.5093657474629758
0.9183525041118088 0.19456681866953573 0.10154161860373279
-0.11914752096275549 0.14753528658921766 0.59148903420410903
0.57545775648615916 0.85946553205013743 -0.53204955505352558
-0.0036746007979360229 0.619690889020589 0.50735308387584155
0.46960908185755557 -0.31347487077479741 -0.43540144911651879
0.2958195646565116 0.37692483496773121 0.64931127618646656
0.58943936298035027 1.2383153955750146 0.1045161250490878
0.53697613546360401 -0.085571915451780001 -0.54469044197225713
-0.52432403740277778 -0.9544762758157006 0.32856053258167961
0.85838929060312807 -0.049190146529468848 0.33426537411040158
-0.85444965619073798 -0.84358293830383957 0.25702899696881332
-0.53408275804065397 0.73228158028039303 0.18339711665633729
-0.24806895575775911 -0.8520393007702225 0.31837793121539448
0.6649804425830439 -0.3154647479120527 0.50050661937633123
-0.78712470472680707 0.010940332028567923 -0.35662172066277975
-1.022098415020622 -0.75315350818577542 -0.075149923797830809
-1.0840992134523617 -0.74228375524998569 -0.41183683684339201
-0.0092176019471281734 -0.88278375674939014 -0.089861291853075898
0.95041435088604942 0.52931157249703631 0.1843954224244726
0.34605786950081097 1.1718670936835025 0.2486278114999223
0.3269204185112784 0.1848183063184905 -0.65061001502595062
0.07592173066119301 0.64332911870213394 0.67229381839357316
-0.062849805603875097 0.16750022829977951 -0.55913536011981435
0.15445082324043824 -0.86445109835428013 0.4973381518614346
0.73768077107018826 0.55309565227315716 -0.54408070559314581
0.22119180410878414 0.9298274469496377 0.19586917111814017
0.85018293743286222 -0.0069697021407506554 -0.022330240990505956
-0.29733865557304284 0.34658434452899911 -0.30282929675755454
0.79373025110456297 -0.2731852207703227 0.37536601907083167
-0.5626407803223259 0.48315211054872975 -0.11052605909441837
0.90151389968688989 0.095038895502369769 -0.36264460064627002
0.81665410114254655 -0.5336443531862507 -0.00054594354100601095
-1.0911775765784455 0.20380840647155907 -0.25961770021137553
0.066163313924519684 -0.056670868676860664 0.53217222507552719
-0.73838778196333976 -0.095329275604484565 -0.28918210636647501
-0.93275207697062967 0.1060628969988997 0.023945717953644419
-0.98015388684868299 0.26927811534935842 -0.18370606383426491
-0.95861718170884558 -0.87870262251219344 -0.10641817753313276
0.79653424263652539 -0.27020038135306379 0.43377614897779182
0.31406004848122393 0.97654254563151 -0.23513338946768414
-0.257565968666853 0.67070587005144944 -0.062829296330967566
-1.0734855503797434 -0.59813953613029014 -0.078300960133219633
0.35769882228504457 -0.55769014768571878 -0.31889978252203477
0.31763474640009548 0.79042659585495301 -0.50275597171250297
-0.97553126658658584 -0.24400788740956614 -0.28880253395841748
-0.74048710197126866 -0.68289140808445836 -0.22692707582041294
-0.0548624541282976 -0.8146664658922802 0.37551912882020844
-0.30316660699385523 -0.13527068983100321 0.49054606524197197
0.055427309950168535 0.91714303158190091 -0.34383329368691307
0.15840912635073323 -0.71849316450799705 -0.19058005592221861
0.14948205536772718 1.0733215219362933 0.19538920307816099
0.62011291614052766 1.274478801398601 -0.17456608098246917
-0.60383196203072487 -0.77363971320543357 0.499175173250336
-0.42993159682893634 -0.87163144653371916 -0.35643818167705987
0.52167985573449016 -0.56736704977152641 0.44107289758539281
-1.1350123838725068 -0.2880642169737726 -0.2507317518828529
0.05144298023846261 0.45118034338027257 0.68847577752185884
-0.172908795760506 -0.76515574667116937 -0.20537639359078952
0.031817125601975249 -0.34930854503483744 0.54666909541359843
-0.032282622345036316 0.94163954363047253 -0.18877639695211101
