# XYZ point cloud file
0.67050302093666581 -0.38661469889953881 -0.20527790304115356
-0.58717390323165919 -0.48681476616658037 -0.10431955042305141
0.63984197690403799 -0.38937161125562891 -0.19595240247407419
-0.50820261603362415 -0.18559806988986732 0.2111627989149083
-0.69944144926106855 -0.53970674499354843 -0.019469620512632346
0.26096198250133951 -0.37107565385619157 0.48091713428549054
0.67830279752017641 0.79321708742817054 -0.094781624711773205
0.52816738514459249 -0.53214083799757228 0.2751595347845619
-0.2653544945792875 0.078860036234737252 -0.14137783678771765
0.045220151681247517 0.85988703084047913 -0.22316986685792961
-0.7032260209209571 -0.39894283267681113 -0.2144185316556948
0.20022710203636385 -0.33345060284475492 0.48407383317297104
0.030542186187917819 -0.35683047047013727 -0.16618981018979317
-0.068659097834547655 0.77555033792738737 0.061556294512330467
0.65000688251566119 0.10966640282772699 0.46509116170617348
0.57971833405955209 0.67467474911651193 -0.10705296926570584
-0.66539441855371206 -0.19661365945661119 -0.019175729497659777
0.4546347277267096 0.65158836186152658 0.01114047314905342
0.38221347621571833 0.96070351321950409 0.10150328928809493
0.0783334700433021 0.13039817074670601 -0.11554968747476613
0.11031086021471637 0.23695028018244357 0.36906676415589512
0.62145587167096816 0.75312069671083681 0.26180041739481208
0.22816400818599802 -0.35349137851847429 0.48244502899683894
0.099402926963982452 0.55921004951725273 0.42971161956015891
-0.33338542164987356 0.43557582709750475 -0.018347514889354599
0.56471835780854363 0.44374847452849431 0.40966622286317156
0.33969805196330582 0.9214244027879861 0.10954153134207045
0.76163701825943098 -0.15944994540370749 -0.40626219838105149
0.088242410822129025 0.22764986550452626 -0.079057152184197843
0.026281479766078863 -0.15419425241652585 -0.20553253086407253
-0.40989740044193357 -0.20679733698526881 0.29707982816282774
0.095930802845699159 0.45658762639624972 0.18089544326676865
-0.019395883880993225 0.62817940647939463 0.40353711015830429
-0.33691297732274422 -0.75177573897472616 -0.040588662987850466
0.72699829416275807 -0.022889848652934308 0.30331165075171729
-0.58690060306929515 0.095185598385657988 0.035898975872665329
-0.2299144719569019 -0.14179443995726426 0.41191184304513184
0.68694627516398443 0.38430389876774451 0.35049775587521337
0.25564356980216041 0.4733649951407104 0.27526432052390648
-0.39475765631927207 0.065543709569026332 -0.1704027268520294
0.61478251961899089 0.24091253709288885 -0.32782555908041289
-0.56556171716483528 -0.65023101647480597 0.096567597149500362
0.75823322268941207 0.14000942840270936 -0.018319098822646929
0.01934102992224257 0.67985879364474278 0.36106983830299688
0.26214272171685249 0.52111224783622068 0.072943730769944981
0.30984175966349803 0.99509653520540775 0.30013017729735614
-0.39494434151664948 -0.62687507936595877 0.10048524214977794
-0.66481240324694502 -0.47466697003680008 0.014027032214344981
0.49786546450913211 0.45698374073136439 -0.15683109533731843
0.61901946637911787 -0.45934261322240155 -0.026355066056408472
-0.64061833502648069 -0.58881524201735336 -0.16421576618828349
-0.11189392624444672 0.16367024242792927 0.43784495029756743
-0.86404411573406914 -0.53948808453034847 -0.16720607975798307
-0.54486693094493188 -0.1780876023045227 0.17199714225563101
-0.74012805579750374 0.061542812708340722 -0.17405458460562517
-1.0245292906568897 -0.66355766988009091 -0.2872836022763896
0.061206649143217051 -0.75447039558643048 0.37691640739359933
-0.83123346851036728 -0.076047125781988134 -0.29532670545931827
0.76737979256503619 0.5792466245103296 0.14269986414988756
0.75753227890307839 0.10503426802040128 -0.28129280060000328
0.27100236131892813 -0.57622020096369764 -0.028022421404868325
0.69047332119169169 -0.33978626453255045 -0.27062187713046404
-0.96518123151807433 -0.83557220387386399 -0.23780833712816207
-0.48869859396388332 0.17616970650977926 0.15902725863722722
0.19161803779427611 0.36418705806970308 0.34561075884054349
0.62799237423136278 0.66521040209829851 0.32085875012260079
-0.75940119259284899 -0.1992707555708606 -0.094248043564622019
-0.74457287086414581 -0.70617900586037863 -0.14268718634206179
0.29966668836045851 0.48806294807713058 0.29436802793289285
-0.16250877646855796 -0.028446608435104492 -0.13440771804994656
-0.76769441262982341 -0.21446848829891074 -0.35992843490042548
0.26561896943465346 -0.61768635609766265 0.16854382705410709
0.66995709904285405 -0.40056725391568404 -0.17823563639401918
0.49383419191852418 0.26372580215154384 0.43073760760462809
-0.76995642822649779 -0.15442981250010407 -0.11111734369669168
-1.1171473825546974 -0.42944228215253727 -0.45670211690654883
0.7063122828622157 0.47051064179407232 -0.36555672597129396
0.23537047711820125 -0.40854287252450899 0.46802752936865932
-0.63333803394746524 -0.33640865407720827 -0.20404068187857582
0.34665731645473752 0.47624167444633403 0.34571486252951633
0.66273129435330802 -0.41698813861666839 -0.041903529726037281
-0.54559642543436659 -0.52774587735089873 0.097452974140729509
0.11820293327404896 0.61958885911046624 0.41863180997615546
0.53853709518317772 1.2350625493391816 0.21975298413755873
0.34709830184313706 -0.43198185436950648 0.46238002542064649
0.1435852085621796 -0.73479955441069378 0.092962090892704463
-0.72611677083986836 -0.51861062889756593 -0.17614900821319379
0.60305283648610719 -0.39050217772678786 0.27954241837949034
-0.29222797610065782 -0.61747607646427904 0.15320639575816664
-0.079029132503922489 0.83859704180956451 -0.28044973332856005
0.5807282873930909 1.2195053737081138 0.088591178375537094
-0.21631640545650199 -0.66957133183508255 -0.031510740117607128
0.73817615204716192 0.34414206408761738 0.3088579819013999
-0.27176196810020048 -0.67206109713247786 -0.049570885067264037
0.11703757478294452 0.37875366098385987 -0.0018671819364350917
0.72620471949849585 -0.29389011797158737 0.0012121136316443071
0.69183819094991705 -0.36103410234608879 -0.24110164710329141
-0.37425074218193854 -0.64772897321050971 0.05497282693945893
-1.2409401212862776 -0.63052300967758279 -0.54957984572285845
-0.24756777118348294 0.10560780453354723 -0.13114269311821491
0.47864313488144394 0.61772418792865103 -0.048945105036496184
-0.71069528113108338 -0.65583177182384 -0.011603963166332054
-0.17698295180592272 0.23950010527517096 -0.066125332565596384
-0.075879032515369843 0.29947940599835099 -0.030636221941102715
0.043815506484279343 -0.40205647095511987 0.39795609704829538
0.29149917541570902 0.39332642860511835 -0.072800546535488397
-0.27692635395645149 0.30767974864585557 -0.040320907654419091
0.32787738788635518 -0.63214725181454756 0.35741009842630378
-0.097105252839626621 0.56540893200732167 0.054645208759597441
0.75305685743934614 0.53147294932020372 -0.22102453838651481
-0.68289801020749374 -0.53380439189302886 -0.0074229727489614206
-0.74838607188971829 -0.30318445826038276 -0.050191458358626928
-0.15405854623779358 -0.2484039483343794 0.32604313311343613
-0.63839756485686061 -0.21258901605814462 0.0095732762229263635
-0.33575273410198603 -0.21977379094544153 0.29720136544743125
0.63016221758177893 0.24837916924235426 -0.34266860527538423
0.73718235784769037 0.46244116296425108 -0.32027704928572343
0.79247675011648089 -0.075317961274952605 -0.34649357195218
-0.077798615877541999 0.82968281452897086 -0.02296265152104171
-0.93310911231408766 -0.91988251306212565 -0.2039206706037815
-1.0548951145111483 -0.4784034582604576 -0.37448559520635127
0.57909455054144443 0.13039071144529113 -0.30742843423546384
-0.040095592701025362 0.72600722111243476 0.065981599329806073
-1.0224428243215 -0.32155050510457928 -0.45678372771360198
-0.094728862219047666 0.25024185434636914 -0.055789026316559465
0.22654410019637888 0.81733341055760178 0.12922166127590495
-0.82754248611760817 -0.10248450308303925 -0.24310739941557946
0.76306229272794168 -0.030970531596640205 -0.46256880910984366
0.51663604680643038 0.21921965160171597 0.4296301276443284
0.51593297783876757 1.0437495328014372 0.0726914622142667
0.78225771433465718 0.27460352137324695 0.14348556846673377
0.75519519973978322 0.31206789947791003 -0.18247355861859349
-0.013628727199544638 0.73983593080372534 -0.076674846018778275
0.77401124767429352 0.26100280018769939 0.16995089230742222
-0.0098727534293453767 0.72788172249077143 -0.24076790714591478
0.39339945816557326 0.62632282486441682 0.20669212745110865
0.53964123677591935 0.025176835002084008 -0.28562939376266039
-0.13020009449901077 -0.074959793606350855 -0.19338462414450586
-0.80331731453659994 -0.50784353763697709 -0.22800249275732121
0.015691272227563974 0.87229559407062773 -0.29976547035387568
0.07912508022485909 0.3975862604814201 0.27033367593344781
-0.3268516455251731 -0.61745011478238532 0.17220166945543003
-0.8008049386467242 -0.27074227000465184 -0.36245674479201151
-0.54471424232683696 -0.20020193380339257 -0.2384257396729379
-0.92204991837063732 -0.52517882011752604 -0.22649170021553422
0.098302328321845434 0.7715590215209438 -0.36937376938273325
-0.015599296912402499 0.73713871224584759 -0.015338291793773884
0.52848846547370798 0.57244567271980196 -0.13144363809523307
-0.42383729713540685 0.1254672940422713 -0.13604773965773997
0.7480449069377908 0.53439044083643861 -0.25002605067401218
0.42483568453181275 -0.59032796283668465 0.24791552191648059
-0.64804068876096133 0.064600931972734532 -0.19019301775508746
-1.1520046699190232 -0.32679016555211959 -0.54052670513888312
0.73780926302281902 0.21931289486555272 -0.22822518833656735
-0.0087117132650619267 -0.67901134706595179 0.3356731234682151
-1.0066674523760031 -0.48653838362523788 -0.32055355433877475
0.48868510605336934 -0.50510784625934146 0.33368313452906584
-0.80924238720420316 -0.71244218462663256 -0.090570609757596454
0.40906972566999067 0.64586649608951419 0.17844853265078164
0.71649079949198713 0.12941482889583167 0.38330212363316418
-0.73287292909356294 -0.16601362855620994 -0.049070408283153011
-0.0063094766222910326 0.4185074675574455 0.092482157089892159
-1.1032361105500943 -0.30057793279051748 -0.47656552849777478
-1.1501900639514773 -0.34292044635718716 -0.52101490274002726
-0.14286315864890853 -0.19985066384364364 0.3398335563123549
-0.0031813404491508046 0.86227796305633941 -0.10795217881943486
0.32267531532205185 -0.35100926775421615 0.49093418319280246
-0.61515319128597112 -0.22889761515997659 -0.26757566533624688
0.63890597820462747 -0.14403451895785047 -0.26738623426208363
0.56650636203939575 0.22695976101000048 0.43670299585509698
0.52290484246813307 0.15578115227272105 -0.26272371078468737
0.77133552273885697 0.69601054040545085 0.013192051282092443
-0.85704422356730636 -0.54778703635432124 -0.25506608367764771
-0.88261791638837672 -0.10802913141681386 -0.33332149981442161
-0.09685428778855662 0.76316563210523225 -0.22454423348189967
0.18665575775677712 0.32046086103600169 0.36522607099943061
0.29289706149171668 0.15222026155308521 -0.17111529662874236
-0.10893964961582428 0.62175612020283422 -0.33503200335639782
-1.1386764851593321 -0.36488709175775574 -0.50328515860193468
-0.97920932988395171 -0.63009207241719323 -0.33533771762394782
-0.77543929188343841 -0.32955559618773161 -0.1040443328840448
-0.39509559652163118 0.42914714456911118 0.16136986345676307
-0.070338887581477577 -0.59401646936725239 0.25183843930355065
-0.26787591471061589 -0.34717117403423875 -0.14585945960387825
-0.033606318086538245 0.79678745831492948 0.031222178209641793
0.031375339805660707 -0.24103047406962086 0.39247734054806882
-0.090476827662142656 0.61783714405740831 -0.038550954570503837
-0.83054085886504125 -0.1890860245184755 -0.39624931360947446
-0.61901320737267407 -0.32788337846309806 0.081555852018421859
0.059515011982696292 -0.60628339549836197 0.14485703273392092
0.72129447663248869 0.78179800702839652 -0.13427854962172781
-0.45578550009959851 -0.83632839286447935 0.17902546386075846
0.53626497143367602 0.47438314575355456 0.40965534746618015
0.70143920848466668 -0.37323544478670245 -0.069536523575605358
0.60561117611606685 -0.2089866883655267 -0.25832704010124452
-0.29292793206019258 -0.15115150768745111 -0.13877375407024095
-0.69410346604570194 -0.15532143082217686 -0.0013077995407453358
-0.73574115080062585 -0.13486194766024706 -0.065004624371892028
-1.1240461353164184 -0.81658087731309104 -0.39881101140756714
-0.50026378047322062 -0.62307944392076609 0.083216804809969958
-0.66121290535643462 -0.0098536668971850316 -0.25194679635313788
0.039036296883475319 -0.068079511789806868 -0.20429930327631141
-0.86581817607061251 -0.52434545105063712 -0.17073831866053846
-0.38788100901905165 -0.80678365057801471 0.21651144195996563
0.42199935989255644 0.4028749639096787 0.41608700258866538
-0.30142835160317055 -0.75560470443094063 0.056812381884657093
0.026397606819617836 0.081707096860588968 -0.14484828495134616
-0.79975404243017845 -0.70203620334211569 -0.18787563831226706
0.18032272692890977 -0.7277940892506265 0.091040588486337892
-0.62432854583032737 -0.042372381079723187 -0.26391814881690578
-0.48908958397750729 -0.80618480421776728 -0.081519818372961517
0.44424627396042204 0.36004855041914818 -0.14795680777190956
-0.053059779184010059 0.66186484510939836 0.054403956536201559
0.045906492475478233 -0.013512890751741558 -0.19396386054897086
0.65366525885778093 0.46176219939334695 0.32246391337745584
-1.2280066048023721 -0.62255652160184516 -0.55089246247419599
-0.17312948537472156 -0.50962457766167235 0.2952308600257405
0.0077163846833123995 0.82440875037098793 -0.06252299839216624
-1.1349992304935022 -0.29369084454803479 -0.52859758570419269
0.31842047835328735 -0.6916499302179856 0.33637443478123963
-0.02804202137786993 -0.1787769710238104 0.38122807973914918
0.50077793535625592 1.1055296652030715 0.12799735652946209
0.46492047885193422 0.22003544266962494 -0.20756975502389885
0.68099704641216308 0.813058360620595 -0.059373925856849308
-0.15286842453700833 -0.014174491568069048 0.43488561485424926
-0.28454773417217039 -0.27497744326525247 -0.14187277228750306
0.517399637159913 -0.47575827809639309 0.33518694708413754
-0.013713381533210722 0.685965419744472 0.28281481325809299
-0.3602008908653842 0.41957806640453066 -0.023773924929470169
-0.55060843294714745 -0.11458261062836045 -0.25972618618161292
0.76483327752150587 0.48395448838509858 -0.16187094957995729
-0.32146118635257659 -0.10658875617625185 0.24126650570767172
0.67979704854296452 -0.39143077091834577 -0.1838565790815978
0.64844228760870593 -0.11885732045938524 -0.27628111907367892
0.53612371590582153 0.47658694857565642 -0.1765190755123629
-0.042502521029001039 -0.34258986630288335 0.35453748016764575
-0.94454313355889274 -0.29401348327706217 -0.42919080403167387
0.53131971628886687 -0.38770806820391401 -0.12260809793104999
0.73973407020036452 0.1281682837219944 -0.15206502783573228
0.42046596592415419 1.0511109156855056 0.095671798848948608
0.1738865216912433 -0.48823262078299556 -0.090168350041722078
-0.29031189202480812 -0.72814716595316398 0.26401815623665703
-0.34626438457981223 -0.89590104578096308 0.23817517282655931
-0.99076646003039481 -0.62878650867234442 -0.26204034882207505
0.11770873301435059 0.6265136067312207 0.49022593737151743
0.11892011784589485 -0.20850360942843565 0.43799561314664315
0.79688001532144748 0.011702617806831794 -0.28598769366080168
-0.20042508964125388 0.025199380429291263 -0.13250792043205895
-0.42603941542971818 0.20761701297575608 0.23015137960311893
0.57907209616572697 -0.44856265067165629 0.21445697575517775
0.13587075763670653 0.71445314446352981 0.31317120980967506
0.78449737040030809 -0.0091136335152093295 -0.19153347043044544
-0.15090914708614378 0.51647215082385067 0.37554592904624373
-0.79729299193136949 -0.28794636796003553 -0.13357740171136134
-0.11775235651845029 -0.85624091206751107 0.32743862855574468
0.26174033779457939 0.82304855585520476 0.13960868878158683
0.66605939030118244 0.73651769037328019 -0.15042537140941192
0.48670814593098954 0.19877383445925312 0.43934944726790093
-0.87571363577722872 -0.92972982379672275 -0.1478577670908483
0.53947488177293845 1.1413040853231637 0.10364938043669802
-0.74945238910994871 -0.25267655144423717 -0.045224243476391646
0.60979601009127349 -0.46614444506349173 0.0030032459284816682
-0.56129591382967337 0.21963441084088808 0.025874768391413117
-0.036065953622568259 0.81501747387668089 0.014949127904594128
-0.675661414638147 -0.76590995035013654 -0.17800959556341889
-1.0522635284689001 -0.2398543538838859 -0.44007185509564772
-1.0920607026779376 -0.25046060291060612 -0.5128856436470266
-0.42711308814646609 -0.16726912698074597 0.18081418243494651
-0.3776898296306993 -0.59420962827035373 0.20940617474776912
-0.50528295476462359 -0.24348149615708209 0.20428003985602983
0.77297804410166704 -0.18482566839335735 -0.34568793606558224
-0.70955426145876632 -0.68778630425993681 -0.19638272695950443
-0.064473194460812289 0.64462949438048056 -0.34510256641001158
-0.54042978668572161 0.2786555659429385 0.016321769012390241
-1.096064547356818 -0.26353202456729313 -0.51473956890154238
-0.19927395011003662 0.14885500669113827 0.45564401044785274
0.36658883273024145 0.95593753435110185 0.24750706633372976
-0.7706983547347398 -0.63304455471271814 -0.20313581737106245
0.37069271506071821 -0.59589184784742577 0.078198261714199635
0.5810845184689839 1.1743286239837571 0.075534133208480458
-0.068702880863337035 0.67371091664372984 0.13720637170923311
-0.59778581248708595 -0.29884343745043856 0.12029291709176437
0.54675673767759514 0.57044110950031013 0.38010797347630421
0.49356294120182997 0.097796446962609584 -0.25388273078089574
0.54457131298839556 0.66260212616997038 -0.078835539622486017
0.30393124484848388 0.86086059066144749 0.22805513338436034
-0.063690050124903919 -0.11790077523941833 -0.21068837830834486
0.25204382821631299 0.96240222339999448 0.18244995839285449
-1.0731136672752279 -0.44580938521689706 -0.40131273003461354
-0.14427288756236456 0.54562027784716083 -0.018350249794095053
0.6392337966173598 0.66417804952369996 -0.18173730083740258
-1.0921793942573128 -0.69295523706404094 -0.36007073668220135
0.44006933376129131 0.57644526152370301 -0.045804398727212536
0.49443561544618209 -0.44727379309464033 0.41567702818584884
0.39070371077018973 -0.56597390292685601 0.4043687267993552
0.60114454277343987 -0.18968269947375038 -0.26538988389484031
-0.67229165302692073 0.0044044823159359314 -0.23680287168673164
0.51782448802831216 1.0647521553686246 0.13149377616965818
0.41921403290082682 0.10001387606833667 -0.2256373113784198
-0.40403561166106761 -0.44541533106083825 -0.044685996188416954
-0.13673983345420238 0.60136992004516465 -0.21230448269773206
0.57813763896597914 -0.14637250704857907 0.48078483814064521
-0.90991060117811862 -0.48716953327528278 -0.24332455446437562
0.28462596417303943 0.94014694845280222 0.12697209414301192
-1.0697924362459266 -0.32634721435613234 -0.48637483448424135
-0.12832172343751813 0.3315218479908083 0.0041742679620764278
0.61994848951380055 0.29051687049823549 0.3890563337540649
-0.35252342512919155 0.059109184216104005 -0.16807303651934724
0.61347574721607301 -0.16327292668853977 -0.27918261933907518
-0.67071665533257541 -0.67843712652435406 0.027857386880671964
0.75747037619465718 0.12771633448210507 0.25117897686115498
-0.19712224406922108 -0.001709226543579967 0.29781271044512048
0.72811120823394215 -0.30734090092879773 -0.0081701549736514778
-1.0161033717409702 -0.46569740353844935 -0.33968861935676165
0.77062659625591534 0.10965121597236194 -0.32502650685105339
-0.4425553646625725 -0.56758752963706471 -0.09404609677906306
0.3837141721721713 -0.60455308795102869 0.26714934891126507
0.30142812860518098 -0.46554935533393627 -0.11463158251323602
-1.2547052859143055 -0.64749245109906606 -0.55819811825318588
0.62690308284897223 0.79636520667082356 -0.025664782648205708
0.72087127656399463 -0.052363945706898729 0.27877505243584499
0.58761746503238699 0.74359256886494274 0.26535955643053777
-0.65157320868251045 -0.62865405395166918 -0.17908170267842749
0.3168076297487461 -0.40854370031952908 0.46714381211065836
0.1005008239593273 -0.60391684092421916 -0.028327278561217639
0.37023056907594221 0.98289754977586608 0.10081111307280022
0.19600211207295454 -0.3207067253945447 -0.1550897917950449
-0.24981290080333296 -0.85344044743684655 0.28175428895754173
0.3298018120477344 -0.70009953953269122 0.34319286302606633
0.25416923972341388 0.52082873170988875 0.17417183766887945
-0.18883643934879402 -0.83747306829456569 0.30408680096643437
0.51692584584794887 -0.51898170592540849 0.0014836286236263874
0.27965700367391089 0.8702704558162675 0.27365471142998476
-0.67243871612286121 -0.39344351160976004 -0.20085621529392395
-0.12173637685640232 -0.6008059708791742 0.24594060038727905
-0.39476020973157327 0.46369897205510102 0.1119355086868028
-0.45908735717992777 -0.097187068394863019 -0.21847761721045833
0.45579607794518134 0.37555586953928999 0.42998572400058332
0.0045244660998053354 0.4166259849436329 0.067110924067266708
0.53464007524489143 -0.22375592595755656 0.49469090524926296
0.64645073850607582 -0.18809655832987171 0.38241338866953667
-0.25621916882752094 -0.19225912707120862 -0.16719382613948186
0.082692733622731274 -0.50483400397204758 -0.095203310683104281
-0.75542023076689069 -0.45042344528904821 -0.068949898600034754
0.53153868534831916 0.43633500556373495 0.41788923110917153
-0.54244286901529593 -0.68006040796867873 0.11560976134191625
0.60389818553978214 -0.47305185321462306 -0.013060923586060813
0.36706322998068375 -0.26777669672461674 0.51230503489188273
0.71885678880683579 0.82045865660162764 0.11249087774115685
-0.50099011627764334 -0.70380054250142055 0.1452648220351147
0.68574231619184867 -0.11388782884738835 0.35143663579393047
0.71496280098475884 0.77256400350122645 -0.1509802708022745
-0.11455611394152282 0.61792563241989307 -0.17773045048077796
0.7607384320778805 0.69263172877102175 -0.12570308368177185
-0.49157157434662296 -0.648377465224793 -6.0700465147611737e-05
0.072766521378643367 0.40641548137432348 0.0491870493408606
0.043072506421580836 0.37927379330715194 0.027970092472781261
-0.62861908572532199 0.057817989403532111 0.0019926374586787254
0.095666507040428062 0.71632771236189474 0.14566147080804459
0.65370008749419395 -0.1136989978134757 0.41526062924270279
0.37218146072815123 -0.48578174671789864 -0.11227588436982305
0.14584954036924891 -0.15851996244059763 0.44372886761771158
0.045756117993245582 0.73433132859943429 0.25616957622437875
-0.38256000340223206 -0.85626533914703096 0.21951672383470866
0.4210175428972448 -0.34702033238715746 -0.17708495178577266
0.41953984903484753 -0.24864871166050517 0.51704254573349218
-0.010936748408926833 0.68899477756002658 -0.32790631593425767
-0.28063098583296386 0.49200231433443375 -0.00015440463244953406
0.29976202624889581 -0.59899059957397527 0.25967071767155936
0.77416619624865113 0.049409648049378418 -0.22181826396058124
-0.93302278998763333 -0.49474195309408553 -0.26459433520194375
0.07623327162317034 0.464518862242291 0.27107920393002249
0.25397513111601855 0.13049357866942479 -0.17221472385711234
-0.054724016735952952 -0.69035419287901401 0.32915767465750845
0.39956830146290162 0.18577773144038412 -0.19143479837515676
-0.74503024390038464 -0.69518648093998225 -0.12591690301974801
-0.6967433783004997 -0.8432329454460924 0.0096086964205430725
-1.0468601783444424 -0.87656134985646827 -0.31635050615878724
0.26721059005548431 -0.65183539466100027 0.022286995315806468
-0.004675543391506165 -0.59541401457101428 0.27946325480444134
0.066214726168152938 0.70331008046258292 0.37062235421344614
-0.093732800256993154 -0.34187679889087819 0.33061832507482558
0.1272004294721979 0.70298517326419496 0.40969160677536154
0.71299120265620808 0.4053743572212396 0.32968279184832339
0.089347451677971201 -0.59735153802640373 0.29488312746545153
0.62573388103736305 -0.22931655694386732 -0.23251781181316966
0.27250172004378337 -0.58693416467030513 0.29760203405636343
-0.75970272492570012 -0.0034648937168522131 -0.22551929272883031
0.22417075141536974 -0.60447722128917292 0.323373210918382
-1.0206992744210406 -0.19309915840748515 -0.46398796294760603
-0.82713986253687466 -0.27838820870596614 -0.16597248717020685
-0.57635543666807032 -0.37933077557639561 0.083240380350648735
-0.63174352221873176 -0.68170311966935349 0.052101715962352468
0.14328838853216896 0.7034904254697617 0.15036254605660648
-0.68365031808176169 -0.17741771601037859 -0.31665288577089123
-0.32359344837731419 0.45730838778906224 0.22768159593873483
-1.0746527773310621 -0.6669827947358502 -0.33640067601605628
-0.22444589990304689 -0.15089957732638504 -0.17828314688553437
0.35799741204861635 -0.60839081510105553 -0.026848405121631558
-0.84724392735580123 -0.84136517806605937 -0.10490771222827666
-0.95190023951315172 -0.56015615004587493 -0.32536025998193097
-0.51078788121291374 -0.58347731121151947 0.12781036175471527
-0.19753154707516796 0.45772037999280701 0.36792761783395012
0.080487120294598868 0.62687366650506393 0.48788193900552024
-0.053897471295213328 0.30572570658201614 -0.023908994845815545
-0.67720630678333671 0.12826605452361495 -0.15056646481555358
0.65295416973698372 0.81622249627667798 -0.020896993793066088
-0.61922176520691485 -0.6323154503810029 -0.036299994472815733
-0.60475865336231882 -0.30018964149576527 0.077195144832886697
0.089346600580056168 -0.46250365243310754 -0.11054308487352493
-0.30523813406304046 -0.908167453616752 0.25716835512368164
0.22679349116918807 -0.72242315127735868 0.35312169429835416
-0.60558801920414507 -0.067361507948247301 -0.26919631192216897
-0.44072073914238541 0.37030257168446834 0.14671556207886516
-0.18341635027512582 -0.05541139315618604 -0.14139678921192811
-0.55053557098110595 -0.64691222256698433 -0.025848471953503704
0.18183323286011699 -0.4168820187479213 0.45510481932641245
-0.79841180190998218 -0.11517656456175174 -0.19033180516189541
-0.98142881930070636 -0.52493508386676246 -0.34659768799372959
-0.43812488955792006 -0.41603764596145343 -0.050526757631518926
-0.32516933204381793 -0.19975591515489666 0.35242627963115325
0.72755033008987346 -0.091931378266063568 0.0094666670950771525
-0.01377708634117461 -0.58620853558576069 0.2155017759162039
-0.6294588706732841 -0.37653785971597331 0.038528635573118031
0.2643840949472927 0.8364879677688124 0.13094390939285994
-0.24206913482407288 0.52644255713109822 -0.051016465573940017
0.64211615886498319 0.26561696168554882 -0.3504105450565036
-0.71752209319157112 -0.23894538785066949 -0.32382404449441804
-0.11513325507144198 0.609067836513977 -0.30221075740726855
0.18786045682239993 -0.58630972681490978 0.21913482152170616
-0.085753974224120011 -0.29198101655010483 0.34115561883394596
-0.18241698369150661 0.5515557244690894 -0.10549436535060863
-0.89650821289133809 -0.44280422638975397 -0.24981168782182994
-0.25756239259314562 -0.64345075840249211 0.095570902477536634
-0.60335509483149674 -0.36372131692238613 -0.17710952686022408
-0.54170920367733477 -0.78712614052652752 0.1358913412990721
-0.51452177833423296 0.24929380433881554 0.10475096117736005
-0.67989832689980811 -0.53950397263470207 -0.0027077510798125815
0.79649229607228245 -0.076581740240217355 -0.31903753245923161
0.21087784437531543 0.25454145511546644 0.3942058495812768
0.50855334174854983 1.035824048299772 0.10485706472476197
0.65376679069762778 -0.42686878170370868 -0.055081756126413417
0.4714364185655418 1.1839343860183804 0.20673008073554433
-0.70741278840975408 -0.47137353033734125 -0.023891980259582724
0.74665464672087434 0.047027871285356904 0.27900664631617111
0.50134877779720477 1.213635448998414 0.22986270852406943
0.33059969183473081 0.53426166091787897 0.27496049027620817
0.043476051920894099 -0.59459151798490861 0.23465787181972386
0.70617972626286019 0.25919732132948048 -0.38816778284309716
-1.2811782169441295 -0.57317025512961917 -0.63483062823293768
0.02370415718566532 -0.61512387492743126 0.30915739834906741
-0.76100644605828138 -0.4931106614767099 -0.07179499895342234
0.32565511993199686 -0.20868940217918053 -0.19625882821701257
0.66526658213482448 -0.14348477102787016 0.38703992198210146
0.50103121921296179 -0.50003299643165799 0.35978719134609172
0.42889008526339584 0.55329692669664809 -0.055700849411027153
0.77922733880329276 -0.12650770548594559 -0.38129207488492067
-0.62383632559361601 -0.52973769304246754 0.040847118080128642
0.6026236768071318 -0.23399374211850277 0.43236902245843334
0.3582518960719388 -0.23720311496143609 -0.18861520146578359
-0.24962048524326097 -0.12328137214847545 0.34076713558590965
-0.65899548421106235 -0.73649538693222349 -0.1831668972386109
-0.59056962013532144 -0.33856639006654354 0.067687611930633107
0.15059154671386432 0.78739579100649504 0.14117283880581111
-1.150837380436609 -0.63359475203921223 -0.49195011611907491
-0.97086845275619016 -0.31622257344357663 -0.42503474093892768
-0.6655157980652191 -0.23439206850241551 -0.29622731684380765
0.79996294036039539 -0.037309879061126816 -0.27333512641609037
-0.88966538637678172 -0.38911691962254585 -0.21016808325092162
-0.20498908617674419 0.56990345255380204 -0.20797575807288915
0.49683903714512329 1.0351001254225347 0.14195401313741529
0.15317354134455649 -0.59467734623515756 0.17176469610858858
0.27185126812801474 0.53863791456044829 0.14600948669224056
0.012348042110789409 0.8285718627229145 -0.084841958433928166
0.77195532258701061 0.64512060386024928 0.077063912804849366
-0.46764110610423282 -0.59269193553244026 0.15740736587315762
0.32919700204397645 -0.16587680918637693 -0.20500126614691272
-0.90446853183542941 -0.76150905906530952 -0.17833294315232751
0.27924069475598268 0.22682848271958278 -0.11537987512526859
-0.22550485573689538 -0.71247083804580069 -0.01663634525876212
0.21688212487003145 0.36059986517915898 0.35099225871303696
0.73406720952121596 0.10153966436956829 -0.32193176252662159
0.26666923611004512 0.94341440124610498 0.30184757237109583
-0.6396315852384663 -0.24673586212890131 0.023813784154694595
-0.85042670765489903 -0.55890243278211349 -0.15101337838214413
0.38813448644290482 0.63397908541505621 0.12830947289780603
0.74034776000814406 0.26832309512752905 -0.23338469881619117
-0.88495543155865264 -0.42447519917453358 -0.19995777089916755
0.75952032420962567 -0.06715689293538385 -0.45858730702862438
0.44337675226125728 0.54917255650321484 0.35790090832616839
0.62688245093342754 0.27217008472954229 -0.33254418603695468
-0.15103694849983745 -0.6895799689231058 0.3223881960255075
0.47025906900990133 -0.56320574901589482 0.22535701520804219
-0.5283346589598823 0.20299265597219218 0.093493943777551713
-0.12337506717731506 -0.59795629734779265 0.2216846447009404
-1.2636379968927203 -0.57447648074875313 -0.59524127400131288
-0.14224149424549812 0.17765807870205685 -0.091430027975726968
0.2206270514187969 -0.71993275565344161 0.083415150909900149
-0.46556888568855159 0.39780153852987732 0.038422704341314784
-1.0902247140386638 -0.6303586470368796 -0.36755402729798758
-0.16268388721471472 -0.18948169316952207 0.33718279155564357
0.5776772811782469 -0.30571562702755239 -0.17409908455186862
0.76249751875575977 0.64121880661965935 -0.14795157337412945
0.41768820745638358 -0.54207606011431375 0.051587590867278266
0.74071904629919028 0.7988763391940934 -0.060190724228339931
0.60212664294615548 1.1199389696035222 -0.0085502066625182671
0.72433831198318621 0.12044017139056851 -0.2443692950672367
0.070752320022919868 0.39751579274589399 0.27847874236037162
0.24473199407916901 -0.69372815533986876 0.34132243636441117
0.040911867358264048 -0.58301669919183996 0.19627375294333049
-0.50368241172405881 -0.106317018079231 -0.24176720839848986
0.17126067658773517 -0.6142050922378417 0.17423761886902378
-0.0509616327858885 0.45486632717038034 0.081068606353700279
0.6870055299576352 0.27741635328680481 0.37748791192937237
-0.30716138152841244 -0.5377242398383566 0.24550821915625543
0.019514157333016868 -0.59344462533632214 0.27474518711317453
0.72038108910658449 -0.15169137053319515 0.088977610272099383
-0.27216743125571763 -0.83560567162780597 0.2728558290536105
0.64398134212396829 0.013749552306348112 0.47442931726544879
-0.78710904850229446 -0.066682170112900008 -0.15000911734880296
-0.25827758039530868 -0.14911688392399014 -0.1489103670327081
0.3383053651600787 -0.60358791829522707 0.38422373010039257
0.58362960272614328 0.69436501851558341 -0.091962498104510182
-0.7002085307474295 -0.52756797972127867 -0.017325103282912924
-1.0760194120357516 -0.72199537763517729 -0.35100839085725122
-0.98577804611043851 -0.4395808938016626 -0.32752992402289083
0.25730250580415959 0.35926137796156743 -0.075849800956031554
-1.0409582878884964 -0.66082493190784619 -0.3090243273409139
-0.68677747820846524 -0.21088658203015243 -0.31468622494587173
-0.91117024022723725 -0.63298066060549862 -0.18563571001762869
0.55302889994156712 -0.37278563724887581 0.41348681190760761
-0.44434840186632202 -0.63818049526646137 0.15408643762115348
0.63084454483173436 0.34810340567149511 -0.3156480576988181
-0.39722052835961341 -0.25552144229766194 0.20872638707183544
-0.47539656031514982 0.1085103392265393 -0.14488809749041121
-0.14787687721382459 -0.17317105607079952 -0.21031562522703995
0.50377204327932701 -0.54082546569931078 0.065803992896076302
-0.0015364255256952175 0.62552706353320375 0.42275733607200738
0.50000456879601818 -0.23660442574289409 -0.23431195071401767
0.049954029388480869 0.74905077172016754 -0.31896466454830619
-1.0053467814170638 -0.60652804719793685 -0.28374017147355568
0.74194509125354058 0.64302608224704794 -0.24290680054631242
-0.12845754123134279 -0.61454992237481054 0.26824894888381534
0.49010734155213653 -0.54018542734310149 0.20481231408884204
0.74972326456881389 0.075456124798488844 -0.2240403637258539
-1.1041976794930717 -0.69664599202507449 -0.37606777547558679
-0.79086403076068534 -0.13453860770606318 -0.14288803176335119
0.54396200555646224 -0.52048860833242283 0.043445108541605659
0.016191026046190049 0.86256792331983989 -0.18493358431087459
-0.085289867320673118 0.10757078793222019 0.35970416550414575
-0.54452127705375641 -0.42071476526896745 -0.10690884429661862
-1.1169337424054164 -0.3964452181812167 -0.47729235852752661
-0.31732771905722867 -0.30109131986453896 0.26042400613511729
-0.0026179674031753808 -0.75371088212315551 0.085964064014567132
-0.54568647077774779 -0.075501413764397229 -0.24691145134338832
0.78846367475906498 0.29020917218422149 0.10860178871377757
0.75181231328933773 0.75700048610473658 0.11802273452728507
0.62866284117340254 0.78358189689573177 -0.04958649237750512
-1.0314749693424445 -0.48437432911510414 -0.3474708347208737
0.37018046256199844 1.042624724344235 0.130097165470068
-0.36617427831526694 0.16521308408653645 -0.10632789029514988
0.72363906571411563 0.82278303624331683 0.084541575955502157
-0.097084026818202163 0.70173712958526258 -0.27016695574378091
0.047851278271030417 -0.62006071665190465 0.31668871381384589
0.73052179266473738 0.22161175008446143 -0.25679284298831728
-0.7275235707967902 -0.76186992670684817 0.0067190964181937929
-0.15230401448289377 0.59031952798583454 -0.27122521664785992
0.67226199972731049 0.068314375401218763 0.44873051574789447
0.07330809306284003 -0.64622950319374584 0.33577891020910577
0.69947500391485096 0.61685620622809267 -0.29004873108111484
-0.072489961802488234 -0.79504587301587737 0.35354181101428495
0.50853731422919457 0.16106586623932795 0.47389207541698886
0.094824216947369033 0.019691314900932566 0.40927788362696926
-0.80482162375618449 -0.080325501843769409 -0.17076358875274433
0.33284452539879139 0.3086525315965345 -0.10884289639995925
-0.74755425289360555 -0.51513277166005067 -0.066847465205472467
-0.44281182076441838 -0.13235283715759932 0.27625664011901874
-0.22564039403787761 -0.67714445615565388 0.081423854436604159
-0.67068774960405642 -0.29604380097816069 0.048282570776368772
0.43828686995348815 0.99321288076858649 0.096265197301975469
0.57697969791045678 -0.49489875508867365 -0.01649074527354788
-0.18677497290690925 -0.018255656722676927 0.35914536942056774
-0.6276434573274059 -0.089837699503628632 -0.28298941744795947
0.79756256906452561 -0.093967788380908024 -0.23961495627846219
0.64706530463757295 -0.057406442894347487 -0.32714747787806253
0.50456858223523349 1.0824342865166823 0.05692177964702827
0.74502039555856281 0.43926074987915298 -0.27082272107195493
0.64210425057855114 0.08730386547943958 -0.35929354645637979
-0.54863489738550453 -0.3025721991415426 -0.18203430589676994
0.77047976705561882 0.62857827415457024 0.10227991546730042
0.64034764277419609 1.2477555113217775 0.064620741195941189
-0.092724674340816549 0.20882031298957804 0.45861068882805789
0.7945298612539704 -0.1247639808058707 -0.25319488639934384
-0.67417044833852091 -0.8901438797436525 0.033657397043285631
-0.10559305373046468 -0.39572573682733025 0.32146796763094221
0.20840144249387949 -0.66187285905621929 0.033886982415452405
-1.029539466321244 -0.65196557635097663 -0.31012381667043698
-0.9897972375674704 -0.29779165951340913 -0.33726936142875052
-0.46578265384349499 -0.52388197448665086 -0.067585827723741776
0.75452251478868015 0.39894410660280899 -0.21601204060485113
-1.0606536133482465 -0.64980050483376028 -0.37995644950794638
-0.66344058102277303 0.11638513591536426 -0.19416454031229513
-1.0259315888969365 -0.29148200008996378 -0.4855238773842534
-0.27049277108584613 -0.075811185709660944 0.26685519600939678
0.13504701982696549 -0.59223496172826118 0.30396198383651374
0.17882669640183768 0.87005406301899924 0.17143442704440037
0.55624492242986046 -0.38032711776974509 0.3878512932182363
0.7138657882025683 0.065783697889027604 -0.32830107202071401
-0.64884831059073866 -0.21251791899891281 -0.0031636762502587068
0.058010535845756772 0.85934769430378766 -0.23889619608752044
-1.2579388487511456 -0.63667407897962736 -0.56606580291273501
0.57242125159563351 -0.45824358707952201 0.17410126077921939
-0.52071858356819856 -0.47682510836154895 0.12434838923252389
-0.72669030761716913 -0.016609802339181801 -0.25268250730849218
0.2645666456148893 -0.6133403176260066 0.28360391145472885
-1.2376611545218932 -0.61750719745176885 -0.54612425144116994
-0.57660025744132104 -0.31548043175096613 0.13077656338156318
0.56431685263990405 1.2428004535207111 0.18740403120287796
0.60842696274837593 1.2247700940055524 0.08541962269896386
-0.88743553223778837 -0.29124467266070037 -0.39787853949074137
0.15274448074277946 0.7352775860716152 0.30091609886255899
-0.42534055929597447 -0.68568322196301179 0.19011596440745615
-0.45703742781209905 -0.72396110978441053 -0.11190916236134818
0.14131455871809007 0.67302658072395527 0.23162805781658591
-0.94689889122743898 -0.50575334261007288 -0.31816117415777079
0.3872293786398161 0.98374435473910227 0.21485086456049673
0.54755974836214705 -0.50998395416547648 0.21100837501361314
0.30254240675242305 0.46758520570386386 0.31817499450395159
0.11875316912708772 -0.63993007042441996 0.39554722126023245
-0.39842373328046132 -0.8903800348912978 0.21101171701676558
0.21161697924316902 0.93662429999699159 0.24978285675995604
0.70729921635838133 0.7126352615901923 -0.22015277672439826
-0.13370473167682145 0.67630326537223517 -0.23410176273710936
-0.23960896390980052 -0.26989924731986947 -0.17453928980842015
0.71223153813461226 0.70771288900302598 0.23247836834308755
-0.57102827722125338 -0.62717546005428537 0.011611083664483157
-0.76190758835207661 -0.19740866676955743 -0.12019081882630811
0.73446083810907203 -0.089124019742523375 -0.42735328903924374
-1.216746605626722 -0.59609203613321493 -0.57030001531490981
-0.55800004398692127 0.2321174637914627 0.0049158010897141224
0.50642449891475227 0.7239804065369555 0.056874443444336897
0.74114068335966909 0.05232675677946208 -0.063096390512202838
0.70661415299728336 -0.16134980411645339 0.14376093100893028
0.77843923983296859 0.43009343680893242 -0.043050900026284644
-0.20079586145144521 0.20725149635248441 -0.083225060709899878
0.043758494655442959 0.72045235306188582 -0.37180329522415034
0.35646498474404004 0.37402959753153464 -0.098527266879086195
0.75924752490604774 0.13459731615377568 0.17244273638159857
0.62480782798270706 -0.1872522569732753 -0.25529143759109729
0.080730292465934883 0.51270389708470232 0.41242361524331805
-0.68551480420871846 -0.32209637308490452 0.029183787505160375
-0.98717326320232812 -0.86571313741737643 -0.25947765205814166
0.25655706100846637 0.95295318287016784 0.16414671032358408
0.47996138827601775 0.22139097759382254 0.42757508262220378
0.71315277964212165 0.45253706052377507 -0.37492638547948109
-0.36471348645197049 -0.34701870264948032 -0.081190214878203548
-0.14831469213092185 -0.88938085537452749 0.3191549347800664
0.088966791333764395 0.59200091313407355 0.24505511599828234
0.19744725382131395 -0.68483883854724048 0.3789771866661793
-0.7009967311014198 -0.037735190974069743 -0.28133294386180241
0.76308830814617079 0.25318647341811196 -0.087863194906240505
0.3713530723013701 -0.14890154448322357 -0.20825660582816186
0.5893025908402082 0.75795057250542053 0.24490403564866048
0.17153640921192437 0.46557894175542902 0.099260153595989387
-0.40712654713916829 -0.46937558026279014 0.19457693890198957
0.25951020698273597 0.92212239219763337 0.30197855521651151
-0.30116841187565391 0.14528681589007275 -0.12815096611741117
-0.096619982758918532 -0.72067806581780691 0.32576713452102002
0.62246767018788196 -0.28261557500214929 0.33716650453757691
-0.18373081910209388 0.65377332118700549 -0.11571722957652186
-0.56692817413869734 -0.22249349853606559 -0.23713691345793997
-0.86817375904040817 -0.11329103302549764 -0.29125168985096339
0.52952062143691081 -0.4142494981499712 0.39785238582194893
0.41503836138951394 -0.29902396815836618 -0.19369716963118666
-0.99042198282761174 -0.37484262548859992 -0.32050416613857413
0.50172976421990267 0.45006829643610047 0.4173615680616547
0.73888881539605511 0.63534674049266893 -0.25973897726867623
-0.71787639647183521 0.073857925104166333 -0.13864139829503763
-0.071403600750450602 -0.12878887679733031 0.36454293698738027
-0.98832957480507777 -0.50001401440213877 -0.29883890302296301
0.27441798888731456 1.0072387045886932 0.22897302438762202
-0.58196983297530847 -0.79302827179337387 0.11025653744437891
0.74858947443960044 0.092560153744359219 -0.047589901270668644
-0.70251181016351982 -0.17623281676056157 -0.060560013650391209
-0.99791733889110312 -0.48377161958330828 -0.3114893056166208
-0.5734048790719195 0.038820795753566562 0.07991268142373098
-1.0950506627543259 -0.4008514189572504 -0.45857858596233481
-0.99065746008496935 -0.26930898010410198 -0.47008734367113236
0.30344041464157512 0.18463645253773353 -0.15598826905879459
0.025022252528113964 -0.65662943816818031 0.33323160681872066
-0.90697930888039036 -0.12749422760829399 -0.38685999548566929
0.75290458035024932 0.48674952149780393 -0.23168161382218555
0.7585722382525466 0.734789759850484 -0.10026993554317976
0.25659472252867521 0.92772091663117795 0.14197064330984466
-0.96916628923258052 -0.18562820286708781 -0.36385551828029605
0.70712094155168503 -0.28316407764556328 -0.3284355331782689
-0.60420702780344726 0.063334328125334016 -0.17335017985133394
0.59647509294023737 0.51115458213108789 -0.21832683991823476
0.64845929989984319 0.085950631644893249 -0.35916042946237559
0.72721917905748124 -0.078279206827029046 -0.063763383320595501
0.46654662334296548 -0.20819081977685183 -0.23416158557219457
0.28042628004672343 -0.59767028186218052 0.18126561776959838
0.6808472249557832 0.33630223898964773 0.37175350668914842
0.34428614398679558 -0.66699928882830672 0.31972221481944008
-0.26978109266305866 0.49871227383342798 -0.0082143054992815934
-0.74603791027203359 -0.89299040213235947 -0.022915548820057197
-0.20701678356604714 0.24516840455876865 -0.06510120462961444
-0.75621343774355576 -0.48603735744938331 -0.2039201746664574
0.10916289637493204 -0.35901178918295762 0.43982199403792155
-1.0689933930023512 -0.36333440710760945 -0.41278283850872377
-1.1105893261643627 -0.36479601791216149 -0.49509780784702828
-0.15679947747830258 0.61777266039288492 0.22660470288864376
-0.034096876314330782 0.35087706866881818 0.4914630115639409
0.20043832699264236 0.82945983180499572 0.13202168949724324
0.71696548245518177 -0.11036585714676039 0.13620184456908202
0.053515701529798732 -0.59503475721892285 0.16309509659139287
0.27342002236952723 0.38637758012849255 -0.068835743195700072
0.73328917079956268 0.071955103200012971 -0.14603379946791284
0.52763299060017299 -0.36635497817905749 0.43472400055364524
-0.31830851284329753 0.36556054188295939 0.29197332595589076
-0.59196182718244739 -0.3248356025604055 0.11090682753452352
0.037106124760538761 0.42553802039526478 0.067232596235501152
-0.034343311110916819 0.36602178429015797 0.0091913408097523686
0.025264678617171965 0.36423474351895335 0.4144354055058872
0.69644250322960066 -0.21710796464516924 -0.34715226819290246
-0.55554835971429273 -0.81739283874477109 0.12606901073841392
0.79299339241134881 -0.030864660453135517 -0.36056818132921542
-0.33861659025818491 -0.39320119505685547 -0.084228184520248384
0.029616294983472291 0.43670644076036047 0.1471156296244831
-1.2327963155861621 -0.6375451988985259 -0.53425214275135469
0.47999876650501955 0.044234915543787778 -0.25245716412101604
0.12169787917125563 -0.25548910743467268 -0.17689139565102829
-0.18024425760892809 0.61595744665825136 0.17798035110019006
-0.28433020549522153 0.55397791591663093 0.10337712905871399
0.065480039865060458 0.50655151592407111 0.47315008777285117
0.18125757219120597 0.47816749646248602 0.17599579124544418
-0.77727081322325908 -0.1210480915687393 -0.35405507009550696
-0.76146716164101513 -0.28273698685939214 -0.058911459053410109
0.67718700753770178 0.70166725171860356 0.28255835289210562
-0.53116893088916795 0.17703429391063197 0.085081108233783453
-0.040790037587626227 0.16563354654350437 0.40642203710728442
0.3466671054833218 0.43185107217100671 -0.07566833996044986
-0.030090184518478336 0.73692239984561536 0.045023703961907469
-0.89276750219397383 -0.86752354452855596 -0.16629456805230802
0.051180532044029892 0.7972897803582234 -0.34258015209042547
0.76488926881715247 0.19808648665793882 -0.030745458577851714
-0.0082636131397219037 -0.012598286351506394 0.38500384163487444
0.68071745685494212 0.60064601358230996 -0.27798614896388507
0.19302039521516068 0.39310234316135906 0.32869672831784014
0.53768688432022615 -0.31803419231240382 -0.20353651831923258
0.3536269307064332 0.22563855817473888 0.44492639597844441
0.50952315841840323 1.1915161081523877 0.14929417753250718
0.60240683415162 -0.14934543333525152 -0.28770024509455583
-0.41844549557696609 -0.83247326696108137 0.20515355249074263
0.7157673933555686 -0.038791492622135326 0.20044822528811634
-0.65272480236738672 -0.7230876621754696 0.05849938841763791
-0.34695947542327188 0.45747673787063481 0.0069417613551419066
-0.24078507268664462 -0.80753097040015187 0.28959451772334432
0.51730117686486754 -0.32467189493151694 0.44455873202197793
-0.65507117438566009 -0.18317619092391468 -0.30252745282889437
-0.89484624327519335 -0.6524984595947031 -0.16433843650979263
-1.0807060911257194 -0.65095317430562627 -0.3561734467455171
0.016330490988133772 -0.68715770662205045 0.041510396677416406
0.78082005470721771 0.48108636293969065 0.014288590853139382
0.41685159549666462 0.98674401483305485 0.22263874360610858
0.5161083607308985 0.013234685284277292 -0.27062845750606401
0.079671524036153074 0.50822271286101961 0.43381258895444041
0.18731926035939828 -0.01914339093203532 -0.19456410819008285
0.17520432789431234 -0.73258203471109806 0.35584728349843076
0.71984964765192627 0.40153182910317353 -0.37763708541043073
0.4258411273474586 0.66089826455033562 0.17239770137932453
0.73212883826905306 0.022466743546178725 -0.11260155262204652
0.023415993825770309 0.10528577119792926 -0.11307402227396768
0.65463844987859399 -0.2449553575677087 0.27600956841138791
-0.24024405656508074 0.19500242364545539 -0.096264251364883702
0.75308477777124794 0.11528205925616231 -0.35021740224509923
0.6917709465084585 -0.386041052204108 -0.084625427992280677
-0.8934752241229984 -0.11408505449906953 -0.36058517833466297
