# XYZ point cloud file
0.23196261761745962 0.63785855054607343 0.038737985045175449
0.16665256044130317 0.88948691776422517 0.39826935356939819
0.88311415858416598 0.34336833320328086 0.15328019518215896
0.49104767267023464 1.1239664161382623 0.11551793466905202
-0.024895493697243865 0.50505212580675707 0.66380038606586744
-0.51833561920535676 -0.20642587032100246 0.22771904402847643
-0.19984473150404125 -0.28538459943860994 -0.42087025097418085
-0.70652223954542559 0.25715094982338793 -0.12206782766157387
0.52509704981001526 0.77511765727909943 0.31648296665190845
0.73773105158782237 0.54492849754053085 0.4114973121463148
-0.4399104968980061 0.16219652921090932 -0.22836697871097966
-0.14559550795331555 0.36477740470027487 -0.11560196784175458
-0.25747486434978661 -0.29458578972139993 0.40151023016909981
0.70173681657739428 0.41860070069905353 0.4673446091759903
-0.059605746490265288 0.25711777270405112 0.56342456760328474
0.81520120723760692 0.28522023270613894 0.45011102283600213
0.034168845939439363 0.85437368992172091 -0.30340857385427267
-0.45020476221073435 -0.68822416629374716 0.23949906210688177
0.030942041932777942 0.075591802656899576 0.51759401735049693
0.36226759992489144 1.0857251994653994 0.2890831433830412
0.51532050930940998 1.2166422851727319 0.27471700673762012
0.44668829130124643 0.3395534741834253 -0.46628636057183659
-0.56353675464113429 -0.88846669525479616 0.15921167495165456
0.27261456773366177 -0.44601978336306636 -0.35478925101336012
-0.82125561567386762 -0.13042533791660293 -0.055636517266861141
0.80950542630983868 0.040457296628933603 -0.15636120019620314
-1.0689175279966308 -0.39449931006124417 -0.43097013463525169
0.64875762423216199 -0.53022014734330503 -0.016773322972408522
-0.021230439264691814 0.87519966357467749 -0.25002294939613545
-0.10020719523589805 -0.51543725677624708 -0.33293595043449464
0.4696526525684046 0.79013969504596826 -0.055991066373577869
0.76906330345178098 0.17344283439666786 -0.24858811683212689
0.88245907308114713 -0.16330647748744198 -0.097734835910347151
0.37640900570658209 -0.69042917861993525 -0.11862286483467965
0.69216103978207422 -0.38523312708036173 0.19021727252268672
-0.013153960840774248 0.19095847174894853 0.48999784747159314
0.37345643759611957 -0.16575728669361345 0.63522243199036055
0.0070382482299524707 0.032623267723028482 -0.44452620746137939
-0.47797978297883481 -0.18912305432728638 0.26726249928836054
0.85694714601130217 0.53660066180486332 0.023457569842331161
0.36512400743558948 1.0697114204979723 0.068920054381290008
-0.965540689284627 -0.099232163750338831 -0.24857177479785619
-1.1953335872275721 -0.32177076867225973 -0.56349836281226429
0.20451568273736631 -0.18125776250503023 -0.46620356842415633
-0.86018933704635003 -0.74424725533749259 -0.30210553811147456
-0.12630145878521049 0.042327588722765652 0.56715120578176048
0.87911099937201842 0.31067931134612231 0.14468639399630678
0.17807806566594553 0.78022617772148306 -0.49683429092819242
-0.89685209524475984 -0.024603475762372984 -0.19275678404143548
-0.77789873297904122 -0.16286422953502711 -0.43299568150839773
-0.93239947753600783 -0.5186043558521849 -0.18537214209986708
0.72877378263599091 -0.29602424635051916 0.34070505878329804
-0.99362853770581938 -0.51107352168934339 -0.23220412351433906
-0.51120531775779243 0.28103084450437354 -0.10868959995365746
0.0055728549865197152 -0.66888142419532226 0.37492006535689804
0.73285689119669595 0.18790213126156918 0.58057089264752459
0.86312663062966721 0.38313864509257856 0.042134079065464292
-0.3329050297853684 -0.71050581933643153 0.10449997490661467
0.64575223421991512 1.212473134925186 -0.043905444923986625
-1.0449983597511578 -0.39515604307030361 -0.41084765630985265
-0.65299846737702816 -0.66948954613061762 0.12373069987604701
-0.23060673540740195 0.0055928375379488138 -0.31358684814838833
-0.48047992918737159 0.18923988210136833 0.30547118832084141
0.52864823914988857 0.58203411754706846 0.51120741089202948
-0.20246467205153107 0.64292129631285599 0.026682967053429874
0.15143664343733398 -0.1823401570336689 -0.45892658935471475
0.82868642298317807 -0.16911604360857213 -0.43262193703920593
-0.27743109021917478 0.27994798793507714 -0.15220676225266461
0.66444924207279144 0.52478874786417773 -0.53094264728483509
-0.42542527885223591 -0.099699771873719811 0.30883721110667217
0.430556333960747 -0.57946539115650464 0.45211868607094985
0.76014045478188363 0.60985599722561634 -0.38025897433171529
0.10474623337645472 -0.67822133346405455 0.24521416847878097
0.89025957822526813 -0.059725100431448186 -0.27632697765514358
0.80213297887148305 0.44656961507743809 -0.23582667889026876
-0.38876319832670903 0.2939641396330992 0.39298631008141616
0.22742002215558554 0.55382928970469458 -0.15677913323116677
-0.52765675143016622 -0.27294941694274599 0.20827205217126554
0.23090317088343237 0.095108823432001666 0.5757123832909965
-0.17283076004467857 0.68862193300920793 0.0033951019967970453
-0.22407000109141517 0.60194676558138516 0.052185373747872354
-1.0042371826088732 -0.93121666543007109 -0.36408815902975711
-0.94685486642863559 -0.17391874224776749 -0.50424463295430177
-1.1374815338611202 -0.40333789918888296 -0.44358347882437732
0.2710919246170953 -0.34716983644591237 -0.40648942387085762
0.36439041796979676 -0.72251149459009878 -0.079773021816501366
-0.80073253187688187 -0.25328228459123436 -0.052312898897326043
0.085151610691006629 0.58560542250768866 0.69967583085523133
-0.043565539803395614 0.8398528974576851 -0.32874748320068159
-0.17792377331064135 -0.11137395583619014 0.51749005379087798
-0.49447912967574159 0.24868646959694596 -0.11093023220393006
0.34668510366730931 -0.75964289951226438 -0.039854463020819519
-1.1369752411480463 -0.43889999678949509 -0.44539017253165847
-1.0273779420422673 -0.70615117076846934 -0.37800168113114951
0.84983996868737388 0.63729110181634108 -0.016616965503008174
0.57634549965042647 0.78113777643111471 0.35030027359052873
0.54563798047890411 0.3718855132063868 -0.52021630690591047
0.47775620260413221 -0.1034821354437041 0.64940022700789335
0.094396283669027081 0.83005940592038163 0.41953438508775287
-0.50309687928432778 -0.69466257625581762 0.22814771839555448
0.16028880379168431 -0.79563893126273944 0.42218504542634427
0.82766991784276067 0.81380254128644469 0.036425423254674349
0.10535430777160948 -0.83585767152557167 0.047116395646338738
-0.80279524283206527 -0.53805904781293989 -0.015274479330308566
0.7678540440208721 -0.2171458521600611 0.23018431176180965
-1.1333383895220506 -0.22150162600246226 -0.45720455101754576
0.69881318819813942 0.75354310893516407 -0.35379274190380627
0.69152920681356678 0.2672266229831789 -0.5307377521277914
-0.60830364138748316 0.26734182681251228 -0.12642561038629063
0.69883247690013839 0.53605035301905801 -0.5031523665169706
-0.17461642203152028 0.0054328146936983845 0.55262797879991421
0.37846181779575949 1.0245474541274313 0.08148973188588915
0.61637688338745233 1.1690069963277274 -0.094435197264849169
-0.8522017521051557 -0.54269243686184288 -0.064357341721840378
-0.78998535195609554 0.056146493827288646 -0.24424566545630144
-0.099430874359383026 0.10467497685143612 -0.34576008353762955
0.33775656770279405 -0.65294204474308293 0.39086372718056861
-0.92269503640340211 -0.50212740956963797 -0.13841347009831662
-0.51694906917000338 0.48806998542989621 0.14620861881328073
-0.64457407816899992 0.31386259581307097 -0.077651604901161075
-1.1443242677609118 -0.31781387532571848 -0.55055591503577306
-0.32907222260004887 -0.71272295386388063 0.33170932137710452
-0.29555361850575457 0.74112974937322407 -0.061510237985333394
0.40967613698306427 -0.60852291571913786 0.019247298113924671
-0.3499845346471695 -0.740166124023101 0.0161104910083254
0.85982902028436337 0.5234952330293241 0.2468008301569693
0.16133173431065806 -0.72259323026758548 0.099340600100645826
0.37273308466628019 1.053764387959653 0.053795656546988369
-0.27786770673875738 -0.80462322977918088 0.3255274358199145
-0.3735301055902962 -0.58524595404884261 0.32397485851627383
0.69349982275191469 -0.2509847805041272 0.47863892593560564
0.059848119883726625 -0.69801922648649839 0.32167588142607251
0.35759310881133421 0.2670471678233225 -0.42976832219101269
-0.70132488075833255 -0.84594140079149005 0.03383912941071987
-0.26371484102543841 -0.012067203556672679 0.48524506249270782
0.52755734034911417 -0.52761473242548029 -0.063305185723141921
-0.17164208583758234 0.63973175762775414 -0.45858991150860229
-0.74622105497432401 -0.5989484335321702 -0.20601243951949577
0.12647756955789879 0.7216292042914112 0.5879203796775232
0.029982761081920994 -0.6909590918805204 0.36061458525415446
0.22568408665545681 0.29589948275149625 -0.31860189239463699
0.73522850910412374 -0.44760090083772397 0.06732472924534072
-0.1106575081665675 0.70591789714731679 0.44091896107854689
0.69606785430397666 -0.36323834489338047 0.23130872945843084
-0.015180318525004788 0.40919014028148371 0.56581846117325085
-0.59815538012824487 -0.21925362168131368 0.16586448681559229
0.55400150077170141 -0.5896618574264787 0.14768415266843427
0.24636737849069101 -0.72894624548430031 -0.080837826343458374
0.76020484808040467 0.63759936406967865 -0.36536588963403549
-0.80809203426733678 -0.53473991259910081 -0.016401677339013432
-0.12395126350246644 0.71588975255129361 0.40017978945793997
0.71480869014015447 0.22283888685827724 0.57243291318153222
0.037097797111468989 0.48936506584170641 -0.049101169809791845
-0.94756340016542651 -0.722140419938051 -0.22922129728148777
0.62772863610972818 0.099506579980050747 0.63812838745807721
-0.50147916553699234 0.04865633685939752 -0.30039251221048646
0.60730152643877433 0.53481117431896963 0.52780414590574942
-0.33531639634886434 0.4342753097165033 0.42242616214258621
0.35450174262222767 -0.73271642589168806 0.038775914013303936
0.74818249522263069 0.3543888394598585 -0.40673898149931365
0.30320669149149793 1.0479441896982939 0.11469018806401099
-0.35332603308886812 -0.090620271763205418 0.3968324538469834
-1.108128434539374 -0.68453114431570627 -0.5466390472302729
0.77791904912004961 -0.41009896477723884 -0.10698887487722875
-0.41193260222645445 -0.37535857293727326 -0.17368442108135884
0.62460300503116251 -0.23247843703304327 0.55606103545753172
-0.27601095056805347 -0.69680230991732328 0.37047779567011663
-0.15953483520030343 0.098541122858684327 0.48825817229423052
0.66415992421297276 0.38625024357856896 0.4872085248016953
-0.12750088218119893 -0.63864634603417825 -0.21688323084930516
-0.53162661427593871 0.38320178500828628 -0.053659235501726243
0.35317681599989181 0.373431653439667 0.54820433130128343
-0.52944384040827286 -0.86095406351774528 0.22264618874282238
-0.053428322165787412 0.86741276012142476 -0.25781609421083695
-0.83071058971677525 0.09975319529995974 -0.1981963966274245
-0.021183200260387114 0.51194519227461643 0.2582654551111121
-1.0121849824849949 -0.53101459872224321 -0.32366307424367768
0.58287984543068394 1.1790259589168202 -0.044146194751393697
-0.56901746910662876 0.32107978310394081 0.19339921864172016
0.73906009957134366 0.44764054592263786 -0.46131568200944617
-0.16877300125883532 0.85945996991040308 -0.12153357132618448
-0.50809930756687671 -0.42906045704718587 0.22905871812265577
-0.33671502314791657 -0.81061082039450749 -0.19758784867003287
0.49929182718048093 0.34016426767640362 -0.50147312550573986
0.47210718656512463 -0.59524052726990573 0.039713016965261083
-0.24783374075802778 0.29526318016242803 0.52137383682199934
0.79150483970812435 -0.32363449704201042 -0.3411775690266885
0.36718134874212249 -0.64859812939674955 0.20502016521574706
0.071841311767999461 -0.44718903424163159 -0.37096910668618488
-0.59201416641808857 0.37625342306836063 0.058065345496832954
0.72159547775108845 -0.32818903425580004 0.15733042013485576
0.70809659487676591 0.60262341098013683 0.46765911809806759
0.4214299549970002 0.41072273130071857 -0.41263738030093089
-0.079756672706755349 0.89565854599641614 -0.049129680787318719
0.014108314296764846 0.29153592293439679 -0.23592473274522563
0.61712246610285315 0.1579380217244637 -0.58419142985503836
-0.51514912188867856 -0.7965698762791904 0.25301674353114656
-0.18655609193870726 0.68452754911794211 -0.14899406824183625
-0.30250462134246781 -0.11163631315196709 0.39141586541316986
-0.015958249098215305 0.85975456352959001 -0.20476443100826858
0.72604599767858657 0.56900304512356248 0.45012226134175215
-0.14021257004903864 0.10430484389670602 -0.29921930807764641
-0.96779571453468782 -0.5492133380137787 -0.22189409770698543
-0.22946969707936415 -0.28573543755197917 -0.401896343759653
-0.80430411002070423 -0.075852459073776135 -0.40115577593393592
0.67942114392330455 0.8994114354563123 0.097873253246864245
0.40916977378148456 0.34083426443671994 0.56778064389688421
0.41375133277652076 0.50339347192293615 0.51634386592803327
-0.47457741773912099 0.49002642418335374 0.036374812980711102
-0.50982087863039016 0.4607514222913196 0.059123589032322954
-0.58725308895873285 -0.78729204068038605 -0.082965919721515569
-0.027925663338598694 0.37254591804457982 -0.15956325395928372
-0.79429557433920772 -0.82935872803913702 0.015289438094358232
0.29172090783744631 0.4306046997118651 0.49912566356431576
0.50522336147158087 -0.05333812922123482 -0.52834394954376673
-0.4153299206269272 0.028637313736900705 -0.28137874127550822
0.45659993068197036 0.21667234454056694 0.5641540900189872
-0.80338816829349202 -0.34266603877129054 -0.038889061624501231
-0.16358832779103816 -0.25519435833539772 -0.44446854648705747
0.8106227995048374 -0.3501469361770515 -0.21686005966577904
-0.60570810156376975 -0.24218603941593408 -0.28958456141591382
-0.31190325294407106 0.024594330237805995 -0.27806515553451572
0.86986653686544824 0.3881582405515932 0.34891242666993794
-1.170034689575784 -0.30116685078211547 -0.50045469631798634
0.4855430570753968 0.80525916789882546 0.13550309786984727
0.2780145656118691 0.99362008368364352 0.30713260297628953
-0.74415706948737248 0.0059846419121913907 0.027570081241436117
0.68980274287304366 0.80059898479750835 0.34789699252105777
0.34689879182983907 -0.74940609175392248 0.018940243228736442
0.017186986592616083 0.85398918931880008 -0.32329113892782324
-0.64571662223300308 -0.79458045046301695 0.17726670854768312
0.10989055394353775 0.54705156194848625 -0.014589742754533397
0.040717299721642952 0.84051495239080865 0.36817697055771381
0.25758009724318143 1.0588193740204446 0.2532929541121911
-0.15516933410269385 0.081751204363595953 0.51281071790203026
0.066981530853855387 -0.75258703816338612 0.10237592228623704
0.79266145493915741 -0.38238615941699372 0.019880597947795842
0.49704350282383591 0.20844112763419009 -0.53618380552293976
0.80109548262541441 -0.32547782334634967 -0.30769776939585336
-0.82568626426969627 -0.18357247418654343 -0.45892735527600426
0.026956235192702627 0.46345427810694373 0.64242195973095795
-0.7632328715353649 -0.77163178014242639 -0.18950622564942643
0.78510688662645278 0.79885105726431427 0.29170739981485383
-0.13808091315916138 0.72308278984897945 0.3559522874422596
0.38032560146159033 -0.55434488657017611 -0.25651760339101193
0.2136941864131281 0.52758963549925775 -0.17033523642980075
-0.86259808571882712 -0.69609895664901922 -0.073726353164562219
0.69474469928631066 -0.39014144489159386 -0.30710851713766285
0.2321756394239729 0.64066666157208485 0.096009437696493727
0.82003735017827595 0.45690799813147764 -0.1776653540353017
-0.44811483367060967 -0.14412911090113978 0.29505586893772673
0.66420003956487528 -0.44458891442492665 0.23798766965117935
-0.226077713257123 0.012603447745352714 0.42660374011295676
-1.060735121119482 -0.34389952002876578 -0.48824604336539545
-0.32364543131058499 0.64324924918311122 -0.14271955589786067
-0.7586262778812034 -0.63193981409953492 -0.21468431997444393
0.81070303786139775 0.10256123018077945 -0.048017720285495002
-0.60671600770611778 -0.51902474892519335 0.16202845215814143
0.62828787573082745 -0.44231770262411674 0.30195232768281599
-0.27028026295095042 0.37333534678990166 -0.0590052718867069
0.44874174266812727 0.75257445576630655 -0.11964847350010377
-0.091013915836977599 -0.67026867123063094 0.21796785054944845
0.70577582632149038 0.57585808977992037 -0.47045853303241358
-0.91048263711839361 -0.64268274413923354 -0.10949835872463431
-0.96273787472525751 -0.49749698503652873 -0.18788801507337549
0.33414664602362798 0.19402011951790921 0.57738622003924434
0.81238144079505725 0.38676556311979182 0.46618157072120248
-0.29543344799520677 0.54518028761627568 0.41359656049958904
0.05064468458183724 0.806948917173959 -0.41433515304163393
-0.52119206750573177 0.3730460973416061 0.24246857573736635
0.0495757676511277 0.4676558979064237 0.36834422142434864
0.57593341426412847 1.1605067037523571 -0.074708052802638925
-0.54716447965634263 0.26082972522409298 -0.12133397133690682
-0.31994504972129501 -0.13097629375547371 0.39773209232439921
0.2666555983536667 0.11087562559707997 0.58068589097134371
-0.27278790507664707 -0.67823417032367384 0.25499093848865506
0.54684389367422404 -0.59378384244927807 0.068537123024471569
-0.09028530029107884 -0.73036091981832074 0.40941654358650936
0.84797383780453672 0.71844531133682343 0.018543592860591929
-0.50708968860621439 -0.65740480456748784 0.23586888533717509
-0.95730380279142047 -0.4776981817306527 -0.26871263334923956
0.48439903271558249 1.1276508674540344 0.0072110143323049769
-0.92071825670214702 -0.093515508221575061 -0.43692437126457007
0.42210379806045961 1.1297556453341153 0.098537265900385584
-0.9170146079053656 -0.65924947196553152 -0.36139804578985713
-0.04958815902609981 0.24938365968407927 0.45384872675877119
-0.27129606362193526 -0.20388805138686772 0.4358796918809249
-1.1911484213997698 -0.33053776659366063 -0.54223829440159976
-0.061386477471649048 0.41559995889774881 -0.090616057648143844
0.078451576316972083 0.82466820526047735 -0.39218276243755845
0.25497026527461486 1.0350305093887759 0.17432312225621072
0.036945319259101383 0.51539455810893819 0.60888206128081679
-0.86677895590291887 -0.83723599700188078 -0.15114960061171256
0.2090846158549784 -0.47412678127748165 0.52402233012815547
0.85726504272047033 0.44865960321157883 0.351573185550623
0.54168883709142246 0.23651786893842047 -0.55346499613552558
-0.80340785573357709 -0.51715974779501406 -0.25369811163536227
0.17377363156072279 -0.67089503526266037 0.128142000803809
-0.62615427617578878 -0.54739795748597464 0.14954609051640944
-0.89762760268538688 0.0086998755741634071 -0.1599266691840926
0.72116257708222165 0.89810012818060236 0.039542864536944222
0.63088754553019388 0.025830499807566021 0.64241299156407194
0.019295186353118776 -0.81841427517198984 -0.020625830813091106
0.21551575907738729 -0.60885050904733573 0.47727735082170941
0.49209324343501271 -0.49178163344680703 -0.095497755873261703
-0.23560335275598998 -0.12829345428893846 0.42696573184998776
0.79782134276775962 0.36520767410686583 -0.22664017856422181
-0.21437530313225261 0.068605521742904241 0.44048101120789429
-0.56372154246609485 -0.78662494705553376 0.17846578963128579
-0.87326595830549314 0.074890466404536227 -0.20890363112720012
0.1591455667407935 0.1357068039024365 -0.43804537497270113
-0.10977734837737585 0.8299921353361146 0.076103298386269724
-1.1948916769748501 -0.64867604433489667 -0.70689862829504513
0.7315094551333432 0.039799252216619396 -0.38775535246238402
-0.98803204420183621 -0.21085964911514266 -0.51819558478730565
-0.26505187083298609 -0.68444387118737371 0.3593328882677147
-0.0083046687046461898 0.81737499803429259 0.30508392893292857
0.033054560364835117 0.44366451610378377 -0.11846342965383805
-0.44898485750031059 -0.70497625036682932 0.28961368973803392
-0.46346820824203538 0.51860353333033316 0.076756006538367227
-0.060168630279807234 0.27670627346469856 0.46624977129370038
0.65450738802297792 0.87210518664869308 -0.11638860733003442
-1.062653771741233 -0.36318587367806288 -0.47531022623830976
-1.076300030383619 -0.45408796247500582 -0.36318001477480433
0.39407308967676746 0.46933939812738068 0.52365025408915766
0.10567516416198686 0.86074556307906969 0.14585735861644133
-0.40707672558041819 0.461929476851205 -0.022367978202891159
0.8180593303807131 0.23769069380388419 0.45057014600238432
-0.16372776585407323 -0.0078559557101034461 0.55158981064568557
0.32843205264774511 1.0303129587065276 0.069985442888225613
0.11370870707851166 0.075420463758045009 -0.4481740769274003
-0.25968705552427362 0.45442694857424493 0.017568661647910044
-0.55531950136335739 -0.16211041613317922 -0.32543098752096311
0.56190807583960956 0.39217951490634684 -0.51938727242044003
-0.92013445856771159 0.0033140195959708851 -0.19851197606414539
0.15344593894602765 -0.0099133475583088604 0.55243448736736767
0.59809508753768992 0.27858823472887606 0.53881910342356232
0.85497706793428208 0.28576336493408983 0.046695374493165964
0.70905482545772802 1.2234454859865698 -0.10472963937957047
0.59240527137063015 -0.45379863596677461 -0.18172275055634035
0.79767783328739728 -0.32105634342864287 0.067471513520621862
-0.96650652063524234 -0.72610330427294345 -0.20418364728934035
-0.65769616320400281 -0.25289839309036921 -0.31923988715702922
-0.5895056822601541 -0.71781960340924011 -0.055504035425533171
0.24921450564216796 0.53834768375688669 -0.19027742613790721
0.66914373056110443 0.7446197583391172 -0.35756650869132933
-0.54148487686433366 -0.43393787250695115 0.20245680680876177
0.00020806383020377517 0.79501353351576842 0.38056177852661133
-0.99411909578001456 -0.25861495347093411 -0.5220738357687762
-0.47302347143683598 -0.77757718314758417 0.28138941570369624
0.66049744575503677 -0.19324415670155548 -0.35724217047878781
0.61999761244915397 1.2529145104401811 0.12680121206779127
-0.19520416548610453 -0.72069949105702191 0.40520614838741764
-0.87438685679305128 -0.087485788422461352 -0.12623383036134994
-0.29682056780015698 0.44247083590971514 -0.0029659136604651692
-0.39305709332940886 -0.30173279809427189 0.32351187160386541
-0.78521739195933415 0.12438791070535093 -0.18946264622441689
0.49719907393375773 0.32981667618815147 0.57098183379776923
-0.2377154038515894 -0.16405579784870294 0.46972852075458693
-0.33831032901610336 -0.028986153504875212 0.3686400935910088
-0.058496401066732373 -0.72195934449853993 -0.10242469631735629
-0.17524486989217203 0.69141608752772088 -0.03333632214281268
0.48026222259368923 1.1422926949412646 0.033529474286668304
-1.1163669647644781 -0.45091788000842126 -0.41250532046459831
0.77439324703914569 0.84492990812892477 0.2523676420203449
-1.0636162491769596 -0.87610480259026247 -0.40401990691120693
-0.61794324434362347 -0.20055486360282959 0.14844419418107613
-0.29176526415250459 0.15390867001118957 -0.22940257214070359
-0.84444252475418624 -0.7381837820143069 -0.076079076764516529
-0.66291054746992972 0.063762547445462614 -0.27280744625882969
-0.31609512640722182 -0.62457314614183179 0.35260587732841042
-0.74467423882836281 -0.27103755567928478 0.010238797180912584
0.48726638581243642 1.1736667899332662 0.17818647659317843
0.84917226305536653 -0.30156835755243472 -0.20031660891940017
-0.16188833623411436 -0.33701053763710442 -0.41830956927549501
-0.92653431646616746 -0.044018884103934619 -0.19335769508968781
-0.84484680686453739 -0.53865886588767831 -0.071639505811043946
-0.70148082068579876 -0.2246710788364632 0.046869389163910924
0.0021405422323919066 0.36908299574125225 0.41923764505634242
0.057147246799102991 -0.099506041784420907 0.53214704963689208
0.2312408995959423 -0.35732647375206317 -0.40715708601593148
0.46880678759338612 0.47653384282857858 0.54138474744853138
0.68291115730153595 0.76222984818410822 -0.33848938266754924
0.51344309889216144 1.207481361716515 0.23510477504890703
-0.30957696141814273 -0.76433584083373085 -0.19933458023072514
0.80810572731442298 -0.061088217672179979 0.20618916533691678
0.75205085119318249 0.8167933015554274 0.31500752602511284
0.81881212468691444 0.15295734000063654 0.47395683987169601
0.79948720257913386 0.23769772535137523 0.50020058744529372
0.45294708474886058 -0.28409831671779062 0.59781863067787988
-0.55848553970296089 -0.70923632991028285 -0.0050654072708118392
0.28612287544149395 0.67838167198556998 0.033747129695120393
0.52207926418653727 0.5153953598855423 -0.42362811737860584
-0.51931530502357337 0.44389777858866419 0.031754044115335223
0.67661694587046051 -0.29112507447725 0.4653801595134972
0.81807769179059853 0.073584467494129391 -0.45024234819196973
0.5849440541934755 0.86511172678197323 -0.029635637997984077
0.7826109862678472 -0.18188664643849961 0.10196149320849379
0.013023042385595485 0.16477799406126059 -0.35550629228669317
-0.18397081502399582 -0.4313839162081996 0.41042837981553504
0.67592722409049866 1.29157669259701 0.1515648033353294
0.28340423055758235 0.99517872300566412 0.082064830981995129
-1.0154849596353748 -0.20509088145533072 -0.52929693769023256
0.75538659614963333 0.68162775882560256 -0.34655896646605022
-0.49135028535493253 0.47807815841253765 0.05513642820061504
0.783192772876381 0.82637838768573812 -0.11185720870927618
0.60084321747402192 -0.45515919014978801 0.38042561113969775
0.5659483058453213 0.54289455328183844 -0.45043371432165635
-0.78237537986588013 -0.57699106073466799 0.018846823382155264
0.20345634344789398 -0.084060879809124689 0.58278105866614549
-0.19528797996952463 -0.84293151297464219 -0.096497128279116051
-0.17290780248918836 0.75842808971515041 0.20286276061395858
-0.25591787054355009 0.16074721079482224 -0.23060748254125629
-0.70132257717869662 -0.53613867474086252 0.087773500632865264
-0.20963348553112882 -0.85893051905194584 0.026983269253310294
0.38522973396647353 -0.036721033594597108 -0.50154696237404783
0.021576383102768881 -0.080399717160669404 0.52901016935435763
-0.63287026647395195 0.26054816358619104 0.11421990777259872
0.012179791437281429 0.51856170791278045 0.38731023746812721
0.49679164310565471 0.67923562008980332 -0.29765238521286097
0.30906366829430532 0.67795862111611749 -0.068732148684105265
0.29099669206007128 0.95661395753214218 0.12337194235616566
-0.21215597358544658 -0.51076456679982551 -0.29015523430737389
0.64016023107871745 0.17312471447673461 -0.57380916620209188
-0.44870483771669889 0.26753530498989297 -0.10037835779664306
0.21262586008126183 0.60775117550494995 0.21758890559986721
0.7217829217863333 0.88977356994451184 -0.038049737772202441
0.067222495646692249 -0.64953550287728934 0.41724038031284749
-0.35113272268847173 0.45314448999429424 -0.021180663775300257
-0.47861848992975808 0.40400055246151167 -0.053567007291228208
0.24619238132377963 -0.64028097291499919 0.39635929047378049
-1.1619016400181605 -0.20725279894205029 -0.55172082253008359
0.43254710521432937 1.1509878685112738 0.13733633806179535
0.69610054120317399 0.3600620967632257 -0.53771226955833118
0.54203630838648853 -0.60628160431176203 0.35401518125877018
-0.67429744498286681 -0.24658577306740659 0.069979525818324451
0.88063815259701628 -0.084579778675785589 -0.11204128748036712
-1.0608331084537519 -0.70953575466900309 -0.32684070111322594
0.44208763906920268 -0.28180031630687652 -0.45093280595120211
-0.81489281184817708 0.10087024806579326 -0.19757426208922269
-0.65529599780461489 -0.47542013077000655 0.094337308468463554
-0.024736404330057749 0.34550685308640472 0.45952813947407112
0.84568127038019247 0.10057954622605703 0.14287502193937662
-0.1908095422646392 -0.46837739375515386 0.40658756138808361
-0.86649526674253874 -0.5712771554554088 -0.068816995564506378
-0.26280993206681358 0.34970647061578264 -0.10342448253099246
-0.9000447599878203 -0.72883515812819422 -0.16695331325824236
-0.20692702696655396 -0.881519743506602 -0.06960082718051197
0.79368512684852899 0.50227232800551913 -0.2703339014435473
0.48393578731144071 -0.63379023172161997 0.3305821803391904
-0.025458365115053283 0.070202781832475747 -0.41778797548408697
-1.1992424910101787 -0.29918116452632959 -0.55459005109282611
-1.0576362161087889 -0.16287872779196433 -0.35714596776277352
-0.12199097137009773 -0.69523756825156702 0.14477712610133509
0.78204311928362458 -0.088558686118357821 0.26396256091086823
0.4049673107512396 -0.6262020505225383 -0.037703075732785418
-1.0004383986408225 -0.51467892378741986 -0.24944783067913612
-1.1085184572536653 -0.27954549055061673 -0.57857500231988102
0.010138201120277968 0.420567371957562 0.54289622562758844
0.52203356202674178 0.45698244483650652 -0.46521596751258576
0.51605778885014497 0.067889600813200612 -0.53929173794803908
0.081656293161016302 -0.79108254859270777 0.42952834495142866
0.67451313183843153 -0.49338469806668295 -0.1273494469461518
-0.65668129251934637 0.25746843077239956 0.074700343887390996
0.021909002358498686 -0.58713337850054748 -0.28972404509965877
-1.1106477480959791 -0.42338895170009172 -0.4356333796067684
-0.66653193896763607 -0.18446168756713632 0.089072207758176702
0.79570284070706709 0.07200017517839552 -0.2136858519651792
-0.19731513457549688 0.21909297259308724 -0.21139632725369939
-0.79000282684783474 -0.44321923561082466 -0.27202831394754901
-1.0606893461751332 -0.70995025850512228 -0.3491709703148751
0.38859157592861759 0.40127084862781848 -0.38463632613868493
0.35021967621328631 1.053896720268007 0.24929269870952986
-0.029737223539221924 -0.28257979878601303 -0.45673813701999855
0.49187163413403046 1.1155679782350734 -0.006334569471227347
-0.36430601568934051 -0.63125201525951713 0.32934563714601062
0.38795886140694757 0.51073515296478766 -0.332221525408253
0.39471085312057919 0.048065443707137723 0.62225977192155568
0.32030226773663895 1.1069078053634342 0.26393348422881591
-0.085390012546338045 -0.66534851624790425 0.39971049401891978
0.71467723051973708 -0.33627502671267107 0.3383997579755329
0.098922348980622354 -0.69691918569717548 0.33879547301963431
-0.26772302149602378 0.77646741741055214 -0.0069125489998631551
0.43284475334006833 -0.61956600316379151 0.20836520482308085
-0.096207329165851618 0.36256853509818887 -0.13895397864435166
-0.11093137763506622 -0.7230257185503679 0.42288653042974023
0.50647731145850394 1.1303196660933659 0.10262316064138455
0.61079799458889994 1.2765756899898093 0.2280705013658193
-0.2601260347491221 -0.034960623349116871 0.43984439840493206
-0.61547997257746823 0.13120009908118146 -0.20638282906017213
-1.1151283866526429 -0.58030403677743081 -0.42870175405179234
-0.441248385643082 -0.42904770534608505 0.28059685160779058
-0.19982745402419555 0.60983210217012429 0.46576213274348177
-0.18428123722054091 0.25703968234682084 0.57408989809155342
-0.024030669971868646 0.14924056958468979 -0.34669209225017106
-0.7544368330686313 -0.33845508136849323 0.011173018956011305
0.057870793034960899 0.36592422167329053 0.45543405042498897
-0.32613162449786914 -0.44019069892350537 0.35222842009154132
0.033778384243962067 0.2188428305773491 0.49826846493670729
-0.24696473640618644 -0.12745008739507502 0.45570661390121892
0.68883926907539461 1.2692655826615344 0.052981624588128273
-0.65959869581253061 0.11512110283059918 -0.21305608449922753
0.11764631717630158 -0.41584933178614492 0.5222901322967779
-0.58078119724615318 -0.75686814329833929 0.21479040652558634
0.23755403678169129 -0.10035583029753803 0.59765433414291635
0.86631559104028766 0.049306736305483101 -0.34247891136944464
-0.54577652390140474 -0.19283263975936182 0.21184988299329444
-0.29293122927693194 0.73918970301007669 0.017926901895070291
0.64275241771255598 -0.18642407523844651 0.56829818656970499
-1.1305337774854187 -0.44335591722916723 -0.42895965974431771
0.27680942033432321 0.63006446539907746 -0.10699122685314721
-0.48069896099016196 -0.72616629603333882 0.28544672463393983
0.85567175419911523 0.12378165797605201 0.24139793848441116
0.63110711261078734 1.2116794222892884 -0.017694988270583689
-0.33846825157920191 -0.87640213346704177 -0.055058460155343436
-1.1330516253401544 -0.44488174376645562 -0.43211877513465025
-0.70734208554173206 -0.31096809411243265 -0.29863254287118624
-0.19256164981426149 -0.11633694001287176 0.50100121469921977
0.23257345755192826 -0.20669729266856818 0.59922841111954472
-0.60872918858335656 -0.58749033745537815 0.16191452245778581
0.73085581345040829 0.15794425695802039 0.59229115008286559
0.41962610130828937 0.26516923733674724 -0.46837637420694866
0.56813821682344001 1.1942041540417183 0.020213247243826338
-1.051968626844145 -0.40648472077924858 -0.39972782043127841
0.69265098333702579 -0.23159242661767521 0.50166076895772704
0.43371095815588645 0.75908715534073123 0.20903254902673574
-0.64395247756897778 -0.0065393461544811515 0.13349085993717624
0.74793648113490052 -0.44063282114264224 -0.095995241108242979
0.5148105462783068 0.43992530327145341 0.55741279455352277
-0.6030905275827283 -0.79245889601660613 0.14524335450399573
-0.69586316602229559 -0.9179924902296861 0.03915965596612736
-0.028198524389114632 0.77158086952741922 -0.42149740490678589
0.46157177186258025 -0.1849204315887476 -0.48925395698925467
0.40339083835818967 -0.70367596757960671 0.39606632903658312
-0.64591431725079151 0.16913259589156437 -0.15785870731842655
-0.0076632234426512458 0.84545551794300999 -0.24839634363371887
0.10541470251976826 0.73025958052971562 -0.5436235647939367
-0.49132118928989543 -0.12411549341701011 -0.30120236277178458
0.47981028205044507 0.58653154867113377 -0.35426386074211402
-0.14468164689592911 -0.14670322378768397 0.46205861053511654
0.6708511153826564 -0.38060565073588148 0.27050799205838416
0.027782176950679527 0.81553159659585073 -0.39398865702178032
0.52017562385468119 0.11948658949832869 -0.54309834936539669
0.028878661770648462 0.65409268469447801 0.36840160983880565
-0.59852785863418145 0.29031994476310308 0.1586890123554201
-0.97660634211381758 -0.20243178276471419 -0.23394626669488794
-0.71205641669075104 -0.53184447274158053 0.063871917480654794
-0.88365394828749588 0.0051093625020703914 -0.25353734023419294
0.13263120283232355 0.32737018988679423 0.48949677736505492
-1.0942985612917202 -0.38874556655503589 -0.46238855468381201
0.71526123761156191 -0.34439563572634757 0.20113160049500944
0.1767071415153092 0.54793978011553124 -0.11426822340744325
-0.59394120790859972 0.11088693239156666 -0.23463487924799509
0.3163260565176389 -0.67141385067728154 0.20927419806297465
0.4050554182122188 -0.63574565209896639 0.10745420927753546
-0.05743667082964965 0.80833262103247439 -0.20195936325177577
0.0066628821939767047 0.66898175644458457 0.27509510490555833
-0.3352639078317905 0.65721796003259236 0.066820703920499547
0.37147688878102181 -0.68366298325801611 0.38893676607419803
-0.055357503861113377 0.77566258010963418 0.25273877755923113
-0.23168522189516128 0.81647915561846773 -0.059654509906133413
0.6122821415169597 0.75395043674826057 -0.30808116689556853
0.51105086149151302 -0.5190094737694344 0.4525393753247835
0.89283019600148927 -0.15516001282130276 -0.16249329395178957
-0.91929839331660279 -0.095171659427220723 -0.18499512443564026
0.6248552002476081 1.1726010947696293 -0.12709403939253061
0.63426106403970006 -0.45424130146346775 -0.2010257586161015
0.70710992604929745 0.092704836677918179 0.61324717290176967
0.86247632442480748 0.27143058418150856 0.1046858325229767
-1.1656313362311514 -0.27562712904614783 -0.59057779251882758
-0.81458824696656107 -0.22516634943410918 -0.45099943058579317
-1.1544321585949389 -0.7590341626999213 -0.48385948396084233
-0.49381694476003446 -0.749601458522974 -0.25394266481152616
-0.61584734007705388 -0.57783626872832139 -0.15174158816719929
0.29065707202111202 -0.027535345190002114 -0.48843316774166201
-0.93821733819739483 -0.5217417265205615 -0.19231027474851281
-0.90817456358695714 -0.44622576137427483 -0.16338582948690661
-0.10901185280350267 0.5158001714608782 0.13555008758908738
0.79668509515334662 0.54248647905741221 0.37253839067210759
-0.10390792197193988 0.81577323999414197 -0.33420281145381114
-0.5660843829803639 -0.21029342528672301 0.19359931174114209
-0.17309236668371542 -0.5140049653991754 -0.30592817395778704
-0.32539261390241403 0.62123018252425311 -0.11613783446338299
0.1703827855911535 0.24587726557491085 -0.35374393540433013
-1.2498943016072004 -0.59405100391986032 -0.71433828764150675
-0.033344691084241873 0.49134933937316005 0.013776408751867919
0.41416026846444531 0.57803348292214451 -0.30880263915964878
-0.018591497309641047 0.17003214028237856 -0.3192758920582377
0.60837680965298924 -0.56181379662796593 0.29616564350926655
-0.96957592033657525 -0.61437002506888971 -0.19195140178329018
0.14269313152570584 0.73801864229488845 -0.54988501125794054
-0.47630649682247905 -0.20076183484663779 0.27051234912600375
-0.16440707476955674 0.080203369792660961 0.44945477688237823
-0.49940036157309864 -0.63995300690194679 -0.21022755010284788
0.85135951652797726 0.16942145449973223 0.2709946010544817
-0.66687434795259404 -0.75224555233872792 0.15771056472230782
-0.0050831523787069344 0.50838108133393556 0.33024202708081329
0.69662404852452608 -0.34654832548156156 0.26715789115326327
0.44960673649818605 1.125420915699616 0.15728834798806357
0.70596584767172521 -0.41989823791169378 -0.25674345802125442
-0.27394853449089185 -0.0040591790401272032 0.42162514357769165
0.02249577774966971 0.50116896986469883 0.52924424906067635
0.31109602365404676 -0.68463272211804149 0.18796658357271578
0.57570248278949931 0.83068741882729025 0.23644121029386422
0.48212639542907143 1.0972998029604883 0.14242337152168982
-0.15356926905567336 -0.16009044307714526 -0.4524465438262264
-0.2352244175691256 0.70211102512663071 -0.26747693897111224
-0.36098903700799245 -0.46595454179420392 -0.19158986872563366
0.80302093869272495 -0.14657992684677068 0.17498913071652389
0.041725183844371516 0.58279045154092346 0.50146130564939995
-0.13849740478349915 0.68090226953742206 -0.45477592811262735
0.25355849761415872 0.28255144809815635 0.54404430645082957
0.44709423077103028 -0.6779289972024527 0.369189416499907
-0.018904464370059992 0.16373508524785829 0.49436674102139744
-0.15690416134921858 -0.66560801967765926 0.36359501252534976
0.14887789978802357 -0.4736167108551379 -0.34145823422006627
0.65001648202067108 0.53006069156357727 -0.5243594670625269
-0.53142292240854072 -0.90149112066991588 0.17851911701961942
-0.92975651379023616 -0.020655937539060698 -0.20785664976447782
-0.0026999786268029347 0.85673482285738944 -0.24179830784582856
-0.1083541932310097 0.20709782870874416 0.5692699092718545
0.63702685293355543 -0.51014183639586541 0.27677864475681169
-0.75765181183365549 0.15869491172520034 -0.018928515126959145
0.40926464555547604 0.1689780173117329 -0.50033954179513573
-0.065016286099758069 0.43906431479333374 -0.046400202334132334
-0.34115149888978946 -0.78351627258590328 0.0032429486891834003
0.10874878861266435 0.79914563091782642 0.18283503825689795
-0.63825821943648098 0.30681203053075579 -0.097106992959462346
-0.48056828010411978 -0.69696437450202553 0.11589798321459099
-0.24241159615289698 -0.43021470712039944 0.39149627817082866
-0.28478653388638042 0.74554268784263167 -0.095019992418451604
0.85557885428982194 -0.2496022466164044 -0.28229165029458958
0.65555719748538477 -0.50365652365347202 0.14457368351674837
-0.16041528365935953 -0.038030883451326547 0.46224178474520539
0.11344559937958709 -0.14635596117170646 -0.47003111942802578
0.46239239816625577 1.1664617853768702 0.22957810433876258
-0.84565690324115139 -0.51389147268456936 -0.048500318693496247
-0.79548811694033694 -0.45798450315667871 -0.041635053732175464
-0.0088944372896833102 -0.36185111920613 0.4872528286675637
0.71467602672971731 -0.11372100899200388 -0.43772541272556165
-0.57685315992422725 0.40017881007919509 0.12995486123937949
-0.12256147954490326 0.7373855423308654 -0.23558170965777014
0.76960111267272835 0.86798868134386264 -0.050136463652949104
-1.0415286203293095 -0.45749817826438655 -0.31892956298999442
-0.38924029502880164 -0.065770650824265253 -0.27320595605449638
-0.14951095892209043 0.87400929277862638 -0.063349180552429551
0.75015334669573341 0.58337549612521844 -0.42147279272006433
-0.37062988349333903 -0.17682442725217395 0.35686072888150555
-0.35377859657474975 -0.84758857971125456 0.27844128229629028
0.59208395151498927 0.85230399334849871 -0.10964299924165566
-0.050800307817516988 -0.64933165294730255 0.345494210452852
-1.1204391660494015 -0.26822884006622405 -0.42415067193483358
-0.12069000501289051 0.88654900536069448 -0.018014362608829604
-0.93844863940343393 -0.44190606972971969 -0.28461253856523383
0.61361478799858415 -0.19496943770194664 -0.38961432712143296
0.65572600188206787 0.1922646610940027 -0.56206245961824575
-0.20156773218640556 -0.67380317678982093 0.36283776509642429
0.066771515262146641 0.75150287957140804 0.2173007015889068
0.33336792634630286 -0.71824463952634865 0.085938463746008775
0.36266290457948225 1.1073853904395252 0.37462453014960007
-0.25124835696151115 -0.73399470428501168 0.057946209001275673
-0.79987789019361744 -0.94356675399169054 -0.12076050302170893
-0.098510697571856376 -0.66358115387282979 0.24700095465785488
0.078161239770773827 0.51604527381248744 0.31923872667701847
0.14732291956218013 -0.26430147889355782 0.56482728371470259
-0.81464774071292645 0.022072616158296254 -0.29588204061169687
-0.46434891659708866 -0.24301334746291681 0.27164056294924066
-0.826643752475553 -0.00888094491900282 -0.065011652256864672
0.71168826643535044 -0.34861722435955222 0.17888416457379464
-0.21008834160365586 0.73067397107542575 0.22414959851618788
-0.54000500662609174 -0.61187629896304974 -0.18333881709901378
-0.58905445737059137 -0.4446672972738388 0.15648624898280339
-0.35296035667059811 0.57413448732923977 -0.02310240445478362
-0.15929898483613991 0.69067649054640379 0.089196112652194071
-1.0065729002372321 -0.23062176227836639 -0.52687742766320733
-0.58390255867135732 -0.81335931160939356 0.21434694713499525
-0.6908591843105818 -0.19592921410052466 -0.39411482443703827
0.45173921267167916 0.09267801588045399 -0.52911148197559577
0.87766009915298571 0.37185787325394465 0.28265978325688668
0.40107237105297378 -0.36177174936575129 0.56664054142871301
0.36867618736541363 1.0599390391902004 0.23315213210347219
0.2487772459626546 0.23891219453579937 -0.40363128507570512
0.81207149057219552 0.65401195881617746 -0.18118116488057012
-0.22752377062691798 0.20325407708918886 -0.21033819065449011
0.58044244790914046 1.1486448515390264 -0.10251713404029994
-0.077974151161806615 0.26873228800938198 0.56637002114475798
0.39421424646537706 0.43422681337923419 -0.36446114335203239
0.10481754559595258 -0.65067884666252418 0.18952413451618799
0.87219247206174488 0.38056425027074059 0.31038137054141934
-1.1423771121146236 -0.81277078721159768 -0.4938661333719816
0.54063973207685945 -0.2322096805473115 -0.4389921202735878
0.18022299847820755 -0.45188053945014861 0.52760994413301177
0.62573680161188594 1.1719122742253207 -0.10995962227187972
-1.1258387827674667 -0.44415319418006804 -0.41941222288695768
-0.13268328703276544 -0.42189084866804127 0.43169354108430102
0.7061715846565163 -0.36496492000155256 0.14950515430709732
0.63475264854419156 -0.40843958447597783 0.41124789913789872
-0.27458381742198912 0.66067676814588916 -0.28572930651337725
0.06168645955828933 -0.66989917713347591 0.27461463430784683
-0.81707078386898746 -0.52574633126339654 -0.055432614891534726
-0.45424023922541767 0.016593109518028726 -0.29550197261705691
0.27125658177025225 -0.70195896874129282 0.17969489940719274
-1.2663466435329123 -0.64118704574008101 -0.75821692337672175
0.73422749491264216 -0.39837837629287964 0.1150573548822198
-0.63607477859374195 -0.69426678328120572 0.0050048924128356376
-0.10062903273114476 0.23346531009847793 -0.23951724474677194
-1.2427719128715509 -0.6710761351806358 -0.66451736444529574
-0.36984042133691064 -0.23875761826670661 0.34325597927920448
-0.9201603834606471 -0.19760575509321776 -0.16498129251984572
-0.1081419502160148 -0.68306783437807073 0.41463222949368195
0.18787639820107227 0.90834592973132 0.11673897268088584
0.74653341182974875 0.53868755811345248 -0.43726065307444362
0.12219795275897694 0.40396494854285425 -0.22662346777904796
0.11332403401645053 -0.83364936085821095 0.012367135953075259
0.36397628327122988 0.69364779313818459 0.26862070381715331
-1.0588402536469375 -0.13095875503940135 -0.46572411766674238
0.049522223627670225 0.54342304895152882 0.16775250581050027
-1.0816449348267914 -0.59753128262994748 -0.53951275968167867
0.66513540255228387 1.2338353115897465 -0.012713573166660552
-0.2939159036633805 0.6990409418889868 0.1282228393802689
-0.34317948052025238 -0.89920345939394375 -0.15307832853387904
-0.44337903545738477 -0.21758408563526199 0.2941460769591373
-0.86105607387264294 -0.43437243242429191 -0.11051919717680736
-0.84798550708262121 -0.10296538072878469 -0.086750663765935876
-0.69223765690293693 -0.48608702129352932 0.059578554141572759
0.71416191543339336 0.32981466690041294 -0.50973286909372639
-0.10670490503320051 0.28372625913593874 -0.2051969406248948
0.23457188376896898 -0.79848715680140736 0.041262229749211343
0.11257086070625988 0.20513960477453974 0.52246864262077963
0.75332898945648363 0.20683130555524976 0.55304884402951426
-0.94440578629385907 -0.33840284982017144 -0.42103312685458638
-0.022539459954076468 0.34765932216351814 0.66375675408273072
0.58188529446017456 1.1910133492672452 0.028366625833488701
-0.66082247445995002 -0.30966232033013874 -0.27573737210841864
0.7439530278318679 -0.11558374286311834 -0.48359755842491703
0.10765201454417528 -0.78601914634095138 0.42471765407400852
-0.07341756383912057 0.86032994127434281 -0.00072402218981615363
-0.41070659710250546 0.20974966304926523 -0.20155831709726835
0.31343779406390904 -0.69158748537662684 0.16202256828069039
0.21191477553484761 0.43734570267854789 0.45499735700114119
-0.13029638672501198 -0.89195718155019366 0.34380618841005273
-0.11200467409855852 0.29349197840069075 -0.19141976892743351
0.034893185317163233 -0.79913928875904028 0.42668863795755829
-0.13111623482590895 0.24077303336091493 0.61263710154859474
-1.1234646708240805 -0.68274529255266891 -0.53376179712650318
0.43693080121854877 -0.56143289048283163 -0.14192256917111168
0.75609483610619721 0.72777341468898138 0.38621869680787668
-0.19068082273882703 -0.081707762215506463 0.5016967891261146
-0.22972856999054447 0.27462793891466819 -0.17364510574225456
-0.57507791249042661 -0.76183725714410455 0.22669091630400828
0.65035922952896619 -0.08633223117394262 -0.39351518625951254
0.088459727355998052 0.71850063601773795 -0.55605993519232655
-0.037564581082738746 -0.88873091039685725 0.37364085958261484
0.8108640901110683 0.48567720055971819 0.40656306118812324
-0.0074583838711088646 0.40542820351940168 0.64697397863854222
0.48631606702252039 -0.24997325456635311 -0.44090177719586876
0.23114111569299145 -0.50395696949403068 -0.3128845642233169
-0.39587534426070969 0.57972008798687713 0.24288454663954262
-0.077100541627696417 -0.68884739440333176 0.15176818210712639
-1.1484018327124708 -0.3673015741215373 -0.45955364736861837
0.49174518730596983 0.77308490250125572 -0.15296447309387462
-0.2847891549203394 -0.71186790327263494 0.37602708690877673
0.1092695417282199 0.27714208532611428 -0.27772509336991913
-0.49946657982454723 -0.81634088861196297 0.2170617734228335
0.65185596158973191 -0.42443886840196421 0.27315564266401626
-0.94614228745161655 -0.79788181285696602 -0.15060065552035917
0.34223380705775841 -0.067190663045173626 -0.49114171621592773
-0.024735149602252315 -0.77058573639228434 -0.069750586940175108
0.51775245261656655 -0.65054139010003165 0.34058553467527641
0.026872289798145488 0.70549914098319544 0.58917384522979788
0.52158004855984441 -0.28954368587311918 -0.40852320478447401
0.49860916371240704 -0.41830970067408446 -0.34230775560497095
-0.9115634487442783 -0.72626353861043813 -0.35727722299026698
-0.54273488095148337 -0.36683835068044712 0.20313822445610619
0.0027063593687306486 0.48235759620781871 0.32592028038649268
0.66212857758578703 -0.35524877886140815 -0.32024487903787957
-0.0085636099766634999 -0.78097480221144155 0.41217029815415351
-0.44717231828460413 -0.92000943856636797 0.21969368328469052
-0.056120153398275363 0.67787417645347503 -0.532501967750036
0.62100922350300092 -0.029819090700203055 -0.48828582098954731
