# XYZ point cloud file
0.54204053780237427 1.2103848644595612 0.082518915309472973
0.82613958722682557 0.16862788289153396 -0.14548346776272592
0.53549384522479238 -0.47380100147228976 0.47695647344644776
-0.23621692028290897 0.70962848609737328 0.12147813982147415
-0.11646525061194879 0.15158901622322096 0.57287429039138527
-0.56406687383513221 0.51076628691149861 0.026925464605740856
-0.068732630902423653 -0.12225733097240887 0.55325137478351483
-0.32007009050259083 0.00037878426130077969 -0.34928709881089759
-0.036502286879366297 0.58173899931873185 0.093307240715698292
-0.22843625491985531 0.85864524803395781 -0.156657682921435
-0.010024385306477424 0.044692188379231279 -0.51603599235508213
-0.060102928193014549 0.077629232815788818 0.55284322803764852
0.71407331999958834 -0.52773633150548482 0.045826517153671809
0.66601023512023061 -0.41410765043095088 0.3145506806115046
-0.27394620587178831 -0.45018615273514007 -0.35226181292819447
-0.24525035206298718 0.37723541769415303 0.50783119112999753
-0.14393731146102207 -0.71150261297250061 0.31266039719648475
0.42974209277131603 1.1340730466182647 0.1721006458160419
0.70847385410072139 -0.531534948399909 -0.058402498149080273
0.44835883888799533 1.1717319463864146 0.17788201985260699
-0.94210625752821908 -0.037768304861575785 -0.43985436162807723
-0.93322870756918586 -0.13778457201036254 -0.096928995907835436
0.7674679889067384 0.92950998514329508 0.055864530482036656
0.097775611604436374 -0.64652542449001782 -0.28621058658884202
0.90599304250338797 -0.31279467350574386 -0.16594561543872999
0.59872479894209152 0.46317010301036232 -0.59776425703570979
-0.68288826741634567 0.40886952536554722 0.0024660021424374179
0.80473455514820946 0.32228114138269182 -0.2601711106644915
-0.27698329672471589 0.84288309086211699 0.029375340876512723
-0.19657562646240945 0.68958557891091987 0.15834901086876041
0.82332364975194339 -0.42347501949951605 0.003763701491529936
-1.0118626420738104 -0.68394322106391314 -0.19179166835427974
-0.002431767566598797 0.71849611269742353 -0.57334963221310087
-1.2363056869665319 -0.63823908873638802 -0.8424895264967045
0.77129116393121477 -0.35992710148383278 -0.37366339701334095
-0.93901593898050995 -0.91601616573920275 -0.23929718502223807
-0.10619890740263993 -0.56046004068864752 -0.36256294731058958
-0.8161273944372458 0.2743394620537245 -0.12233655066828675
-0.8507706500515142 -0.52772295709416861 0.045805846591810528
0.5537412767430443 -0.61837112538239003 0.23116286622687454
-1.0854419180261925 -0.75765255235511031 -0.39491901926771522
-0.035172773865587814 -0.62592756591842402 -0.31502565092565327
0.13580360509514544 0.95485535793079823 0.42268900313343494
-0.40912806380193656 -0.47701221583683306 0.38112044026346581
-0.070260528010291479 0.8009414158754018 0.4199823776188456
0.044298110484378039 -0.75113216519678172 0.33243620572402222
-0.019447218550041834 -0.71659552988769093 0.44881793366732214
-0.96319602673501836 -0.46618836264371621 -0.31779700975484726
-0.24902543562630752 -0.1782439735547503 0.47814712223460809
-0.38784253354209186 0.64563974694580428 -0.048979250278904374
0.70515322802390767 1.233585649951136 -0.14414643295957141
-1.0937012470406029 -0.15893683062241504 -0.56612592919203397
0.85911624870306569 0.8506809294668134 0.14794537105885386
0.74330032681410252 -0.1321297819436138 -0.46990376040817061
-0.090531692090536575 0.085633807504265747 0.57879383511275773
0.80994100455981943 -0.26373274837461391 0.087337037835648168
0.69606362169668112 0.5703707722599578 0.53419519651919511
0.5410095625896536 -0.35705812269037907 -0.32847683136840189
0.41587317331052853 1.1772543578114965 0.22309945932314079
-0.3819412990109099 -0.94818936668639697 0.28166405891038071
-0.35461105171140228 0.24637617643913767 -0.21817053954776089
0.10441139581598979 -0.80400449197784196 0.095343064739780381
-0.16848469256595799 -0.60901878113829122 -0.29920206392541626
0.1422979682050185 0.54877314649537401 0.41105234133510393
-0.79639845260025233 -0.69796639806354976 -0.30572824827399447
0.004005945701656799 -0.73325397894747146 0.34863873093355657
0.69739256462365251 0.87530629118831826 -0.25662785536269883
0.058888768032586469 0.72547568401661255 -0.58566018339536718
-0.10375527640135496 -0.20716017593605329 0.52647098743330201
0.13592941915402323 1.007840104700948 0.24459131801483558
-0.49780014760292568 -0.79239355372298936 0.2922096735508104
0.088466931700112994 0.80833793302072199 0.55005414531111185
-0.33575813979977731 -0.2375329796382446 0.34464307065905064
0.88906725954161114 0.5306417121322462 0.31464909816667053
0.24812408105196249 0.70809993316184805 -0.14539002927312517
0.7522059938982304 1.2473035950962439 -0.10750775118090328
0.49419903032709644 1.185477939890426 0.057083683790809303
-0.2586800989867748 -0.83873190293223576 -0.24480980245508377
-0.60481571407738777 0.46200328845319705 0.0017963092528487934
-0.22234054351781252 0.72451702029499698 -0.4042614263463884
-0.27622906622556842 0.69484862358523203 -0.33668673340465372
0.022481521621865452 -0.74941401134616736 -0.13862564897443619
-0.31719879528629358 0.015889020032231471 0.44526372921050772
-1.1924086235350642 -0.66021272195030267 -0.77778569292481503
-1.1367416441457847 -0.42979250686872117 -0.38929912236646214
0.77313165933440375 0.6927053614074441 -0.36696615881718664
0.5450984807236765 1.1928834595227846 0.030355825160010674
0.89196630115461395 0.5608050966399063 0.0040389038790724641
-0.83427206084766858 0.14195317095900428 -0.16285265294263684
0.75511715525948198 -0.15630890709914702 0.51345508772483406
-0.046357171656567386 0.61096139022593809 0.40125167742210355
0.54557833221643803 -0.31876057161253435 0.57775253306069096
0.68518666637007297 -0.44128354269299708 0.22801851506474513
0.61283373509585437 1.2177054822665612 -0.055397958702998906
-0.57300860808408371 0.011384383717851332 -0.3329277356181084
0.76216654427228336 1.2689100053976039 -0.012616675249596199
0.24824918011591457 -0.7823479468256922 0.45060306893304958
-0.66365138106586397 -0.21677438858099762 0.1672373246625245
-0.62914441074158622 0.45341514098460967 0.025521608146897634
0.62058897291663317 1.233837351438992 0.044286103389291398
-0.41393257029080854 -0.94944903440404405 -0.31827993325904202
0.31411021893463431 1.0567920629224132 0.061465320030148263
-1.1935905429689413 -0.14326548353085133 -0.51177188884396685
0.14890527789427255 -0.48491563054395392 -0.39411762819236085
-0.056362466694644731 0.40583965634103936 0.60910940842840677
-0.69453582225018407 -0.46894702401043586 0.11545230559666209
0.94291238305787073 -0.17793062473529631 -0.18238608541411505
-0.6477653428770922 0.40809560268958678 0.11434938116180771
0.86527522403147494 0.40815212250734678 -0.10577242676479681
-0.05012068283833182 0.91739947352563689 -0.15400443913114881
0.90764172713822822 0.60803849134337407 0.24387260875706662
-0.41055152509585335 -0.23786058629251183 -0.28460972447167077
-0.88527332422722682 -0.49397488519815358 -0.073139462024212065
-0.52051513560345386 -0.19492964041406902 -0.25116927407688472
-0.57014852522795589 0.50544190946260947 0.1558927158061989
0.93908684391847164 -0.21175423672127192 -0.20066488476883038
0.57181487789052943 1.2080647225409711 0.0038758051134450966
-0.035951970621995955 0.80506766940088836 0.18277962923634927
-1.0269419003286755 -0.77285475666105885 -0.31026250144649925
-0.095067243876645335 -0.57959008559176928 0.49199737261768561
-0.35799757218858508 -0.19141428254461923 0.32368049953596056
0.69350407852060636 0.82940378747669441 -0.34106538335951431
0.079415219331826936 0.51137716647401699 0.44449643266648575
-0.88954802081724305 -0.86372807864118473 -0.18663740772936332
0.10233883393321097 0.97234686999464282 0.19263553589444626
-0.7572620884094492 -0.31913426898451025 -0.29590576685190584
0.34526849806603721 -0.48250893905543402 -0.40714942591507519
-0.032474148613157228 0.64314849928835072 0.62715637140433422
-0.57297195001200429 -0.27656778953725603 0.12348233137694731
0.58358907532920412 -0.22531585997088177 0.60502679060567655
-0.18205839858238937 0.79112642623195284 -0.32452621465582432
0.52503875592804428 -0.49363437870496663 -0.12245322169698092
-0.1986443015975663 0.71786395530938085 -0.39857825677293235
0.4406261640211897 -0.46584926472744392 0.52710419880287684
0.77674711433329291 0.67288806837013371 0.42944856563522738
-0.20730857284613768 0.6292033251080692 0.1427251381832928
0.20524359055524632 0.16724724084122866 -0.53997698146820738
-0.17148586378563158 0.32027002764559764 -0.24271752228188603
0.047694576090367979 -0.69249209750242935 0.48648776416586692
0.73871318045987633 0.50276273393028248 -0.50369860383636134
0.21302862769357978 0.97322351805358276 0.36239577427587299
0.32312171954965674 0.73763750981345777 -0.18923026303330204
-0.26099920902501683 0.71343374947584781 -0.28138459824674023
0.55376007222907686 0.73338355808194855 0.46673605297732568
0.071034648944713563 -0.62258501443206082 0.50195441849632338
-0.017035636222004102 0.26826357440308923 -0.35403399268805824
-0.71796170256568859 -0.81810752098520734 -0.31665737615591372
0.060533799405370514 0.61615592451970214 0.20633118608028056
-0.59999146935177694 -0.55297213219955887 0.25267277655975651
0.87292975067930589 -0.33929100465853468 0.0089023024618732904
0.64620431572319592 0.77388850090709571 -0.41981920739154344
0.27940469484185715 -0.06603323244668946 0.64796220323687503
-0.34658992659161236 0.31072542849156592 -0.1801582210280479
-0.51707015957691715 -0.81009672294355273 -0.095829527930248126
-1.0123025595406956 -0.0031299697714950447 -0.37543033014110083
0.29110734159108254 1.0547550116978606 0.059414228661869295
-0.13321768216043806 0.0038027541121037345 0.55295641717003274
0.79101207840561405 -0.33448005300770545 -0.39343633266495637
0.22404737154031462 0.58686838566985311 -0.29520119978636394
0.90939618849438886 0.25358006186497528 0.33436033148312827
-0.36446733554958777 -0.74427483780116432 0.41746921989022923
-1.2348926573289056 -0.60137039973871742 -0.8563631183028555
-0.03716104944629306 0.85895727200935801 -0.28113672249881905
-0.34073229412888728 0.37946048110302044 -0.12589288803927978
0.14530157421016687 0.53033907861210761 -0.27444676884933283
-0.51316282885602571 0.36224042300098391 -0.055795752747989091
0.80897283729126412 -0.35899275464912783 0.10086407480197312
0.83818587477009965 -0.21255238876075433 -0.47069010825760582
0.79648635488850705 -0.24895458794752168 -0.47232428557922912
-0.21632091892327021 0.069165215169495475 0.49679527979866833
0.72157514513002341 -0.51004999318420685 -0.12220140293207304
-0.072390080217795916 0.58943401462119849 0.3492603343011691
-0.21821236637735986 0.73399221211869725 -0.3131466348104599
0.89142811495630792 -0.22088059187588094 -0.37894897583860931
-0.8210718733334772 -0.84547183668285975 0.066809560697890902
0.13003857032707256 0.093359414635592941 -0.52683519009402868
-0.82781072184144167 -0.78224030544031198 -0.0043372074575760422
-0.75442276535841657 -0.79925453348232089 0.0094147430701587709
-0.46595702758898727 0.28471596102559449 0.32262426279889134
0.57949625018392747 0.90600278985408589 0.18126319224306986
0.7700365967728986 0.84274959337950017 -0.22607753548084464
0.50008663300102185 0.86044937200283722 0.22337951838565839
0.80352442936072599 -0.40564610625876307 -0.27127016678520377
0.39134436184608345 -0.68237550759357379 0.0062294124028099418
-1.1853322189205207 -0.63111324152760195 -0.86272009867559962
0.42807125553867942 1.1201032780654641 0.20635697841470613
0.56267415272953403 0.024186522743228078 -0.55097407868614656
0.078336933282985299 0.77578350600794133 -0.50104659660745021
0.39676009398527934 0.07469894835270674 -0.58479711294319348
0.53240793510362816 -0.6495147890117785 0.12583296592507054
0.35994436263184171 -0.71812303914691178 0.17435254651809728
-0.11047043529740419 0.055391527171962274 0.57410657860913439
-0.25214499067523866 -0.75224045200772327 0.46718906333161403
-0.68047825032742626 -0.81475734925941978 0.21904792929102612
-0.47923023409851906 0.60893912403725836 0.14310250844819716
-0.9386417869626662 -0.26606334607045756 -0.48273127392854231
-0.87589593990356285 0.21448978206263924 -0.101313550237351
-0.79500656648467283 0.3044268175522733 -0.079797519712652587
0.14127188772150756 -0.730765188585488 0.42807862959798548
-1.0667131569929669 -0.7508408699576119 -0.35121093569351025
-1.196849799299178 -0.37512488611965722 -0.48377671020247881
0.028132851610032095 -0.27580479876817288 0.56629657208097584
0.77160512447396767 -0.27893561285996515 0.14359121666076025
-0.14696672636041042 -0.070368387935822785 -0.51941768317426629
-0.11846432848583932 0.84616134853467551 -0.2977208252939505
-0.20760712493104405 0.054606802019768086 -0.44525518994777258
-0.58177755496827399 -0.64937991677306606 -0.25307001118276862
-0.13978879929647459 -0.85840745143835973 0.063921704788874045
-0.41630345176883043 -0.19362382068087269 -0.28940885088883306
0.31791961456410278 0.68627393616097576 0.38191246003740265
0.63972208657402296 0.47807102829272319 0.56725670677309559
-0.12867110110882951 -0.037036464428080729 0.52559643795584687
0.074778016864057495 0.60444142814311896 -0.086485942879130917
-0.9437156714803776 -0.62454744563307951 -0.07065229351790947
-0.0034759450534724845 0.30803939227234745 0.67447486644946952
-0.065443891821972189 -0.56721637367277244 -0.37011913133109253
-0.98764671252625069 -0.80963480631479534 -0.17466112767293751
-1.0922350810417039 -0.55040317708627828 -0.42040741080076582
-0.39829837301776405 -0.90598345957886206 -0.10474947887005115
-0.93785092762749667 -0.5146252968778473 -0.093074988380018375
0.099391235301589553 0.56623638316181735 0.38012365553814931
-0.826299174962559 -0.11793429015837953 -0.0024859819666280814
-0.44199963909623552 -0.011906491060936109 0.28856604829560428
0.8284445288703195 0.89290778257551628 0.1228721568229707
0.22018574641567756 1.0248323501106542 0.089034983293847958
-0.38682655559736667 -0.76315409945263113 0.42133211601471299
0.27521300118099901 1.0160039293127856 0.32800065388004995
-0.32391445659102236 -0.49209664784203166 -0.27565069125716413
-0.46288545622262278 0.2038765337642352 -0.23817155417465496
-0.59581363233038154 -0.22618435955960514 0.22564777596523999
0.68951845986767824 0.86448259773989722 0.34034207020259988
-0.1075831241677554 -0.8538339515046296 0.075302643668628377
0.93830135873119747 -0.18760012738544507 -0.11307228335250219
-0.67300893435062425 0.38473029496600764 -0.054353103527728486
-1.2062284728199248 -0.15847356254798628 -0.53689071321952753
0.92953639725484494 0.35127337205047704 0.2071574654240127
-0.39517482053781983 -0.28096244348983834 0.38081008769771341
-0.067359222530116503 0.72234364827518094 0.25979286684926528
0.7597034819267976 0.33365580848330989 0.54478087748157211
-0.15635160488634958 -0.14618161665475915 0.51912698966299597
0.84985627399657426 0.86015734426754942 0.057545700121869992
-0.04222363418961661 -0.032163965894287827 0.56439742495087142
-0.23121789053222352 -0.7329147165395935 0.46290736916325681
0.0075951131093519031 0.46058473263544131 -0.21882978214815996
-0.47704877406111645 -0.012529741098489255 0.26172322281861327
0.8283394204266894 -0.01372306863642514 0.021705082224960925
-0.20233336289352288 0.071180498702906991 0.52115370090588886
-0.073270787485055111 0.31748051202127359 0.55456604426327605
-0.046984755327727612 0.32407214318017741 0.51005084457288596
0.26433474373549992 -0.82489712988214947 0.05647277112493132
0.49315928071731596 1.1506192868146905 0.078475131420809419
0.72873569971083318 0.70144188492997861 -0.44190647507502501
-0.16170697909887388 0.69348557843008451 0.17162007642285104
0.61753129349684299 0.92365546715245794 0.16101652458525972
-0.16120743943686189 -0.84911039237388763 0.38234775650827313
0.79126965240600367 0.095163398924571929 -0.2444777341606974
0.5238463665974431 1.1799955333577132 -0.030098903865435567
0.11067463710424841 0.90761909810000418 0.4372272313708887
0.70108896527527542 -0.50095028197430436 -0.15737425763550394
0.62781437005888319 0.82225376630066227 -0.35396013389860226
-1.0508592982595726 -0.26459126779054509 -0.53129329268672532
0.39986304746753043 -0.6987419261129757 0.18566619510205751
0.59955849139963835 -0.38155112013414572 -0.25077357018708124
-0.86962492008854886 -0.50726003788112894 -0.045831126052302551
-0.29583430330291716 -0.19341443514417422 0.40468017416278901
0.77710188104966726 -0.45095875296632837 0.093601281872801145
0.78649139048391992 0.79174886062220684 0.38846307824721116
0.13689611040398453 0.90341625700069539 0.39916257908029351
-0.613357718685824 -0.81633009122536215 0.28412329820455895
-0.17265315582493157 0.86854426086167313 0.13661118288687213
0.84281964498728912 0.59306381515307782 -0.18407188017978982
0.9084491892940243 0.44146208363719763 0.09316463298638844
0.34970756462255137 -0.19130546098673573 -0.54601797314345202
0.72271351194689359 0.9253163726657343 -0.095759785399835984
-0.88945294361279359 -0.25908367768597484 -0.46910569099498112
-0.35691310629529593 0.48710693412971395 0.41036631786139655
-0.20152921143582736 -0.90922033435264815 0.34045510829342884
-0.046524764248611294 0.77791085405907179 -0.44100038552450815
-0.1371415834977423 -0.53253277397853482 0.49028434064868076
-0.87463653100719574 0.21550633720371604 -0.13729622269374886
0.50018538705125581 -0.45058256321945844 -0.37334828192653102
0.85666286585275064 0.020257471376985858 -0.50175614518853617
-0.15738020961111721 0.20157064711025097 0.50295436524619141
0.77365792616336226 0.46602836798740954 -0.42379990945665114
0.51204034157316736 -0.56042973370434801 0.43850736669456847
0.48920499895026981 -0.12935837293896801 -0.54175244241817389
0.092430752487552503 0.78664362078906558 0.54936374641918562
0.20814690098371202 1.0466901796727091 0.37045073477299351
-0.89357161514708006 -0.34501404768262223 -0.34287606268644311
0.44429818571226154 0.72220910495113055 0.4304957451948539
-0.59648349079797547 0.38426145887394858 0.20069568732723742
-0.56625738333030462 -0.12889587440898742 -0.30718002082429852
-1.1124018068693147 -0.38387050303578985 -0.36627463360903878
0.43173658186003205 1.1655933668023015 0.20679071468737575
0.055405595321829315 0.9471491068656096 0.28540535068348483
-0.76471000964357394 -0.60395458499835675 0.11931709708440863
-1.1230522212960801 -0.18315019480289152 -0.35229512629596726
0.13062211887580366 0.64564703596147788 -0.083419585348806891
-0.28454550810632795 0.50908790320951125 0.063653568420457773
-0.56165952341375891 -0.3993388243836562 0.23818085077124707
-0.14649838886295941 -0.022677086790020118 0.51058777133128075
-0.36113666036268643 -0.75572253037363701 0.43009814603447349
-0.96847971936500388 -0.42472605560206178 -0.18732237050396794
-0.049589883511815591 0.8565453012376667 0.30517618892447995
0.15964040693462112 0.93439546556639896 0.16033954106618165
0.44968069714243608 -0.64994229433481054 0.28971176117307351
0.21710282107741841 -0.010779682933297341 -0.55616194729227963
-0.1643864378732518 0.77488087375738213 -0.29462800234436148
0.022843589149845744 0.87785388236438411 -0.28600996292057168
0.65053294912902637 0.74885726021864429 0.46247498485639404
-0.47992636316648518 -0.24270272494938894 0.23226984483169666
0.29422726853445669 1.1040976895758678 0.17473804043925778
0.38506593095294628 -0.48252275347155393 0.53603647160115475
0.59871467120339228 0.89222159624549158 -0.21000430635051703
-0.13371568951622059 0.88106472176746464 -0.20271752882764815
-0.84756090130593797 0.15203528658999543 -0.15981859791536301
-0.53801917645996067 0.021977016876329802 -0.31164027622795842
0.21436548636805375 -0.65172286419038938 0.49103020545428055
-0.92611284350480361 0.10196098743597926 -0.11301278551039928
-1.2347845113137379 -0.24769503344139832 -0.58445383214966817
0.49953821936487197 0.84602901514896289 -0.21680300699057486
0.29114804997867361 0.75998343108656197 -0.10951637546140169
0.031086164297171592 0.58942757002269741 0.30405494294792934
0.11326351443751326 0.16184295720166419 0.59407128353400562
0.29423837650766971 -0.53670398525712715 -0.37156294830458236
-1.1074875663613861 -0.59464379771015308 -0.71269654078397338
-0.25548778062673105 -0.5640183002196828 0.45620357885331853
0.91553040422089493 0.29003683167069028 0.37523933188200953
-0.24882344710227255 0.53585369692971829 0.098162412417433842
0.80177944395880885 -0.40545847169051719 0.09655031974078554
0.57544487950708456 -0.30018070033719813 -0.34111879608672258
0.7442120709186153 -0.45712469788689658 -0.22599959861315799
-0.64493066515142772 -0.53861169888087934 -0.14944538774515159
0.68984052489993775 -0.45558036164770099 -0.24557793938036188
-0.42390418839986976 -0.15125558724460753 0.26404701780062112
-0.80783603995861641 -0.5238066121561662 0.058235094894290462
0.29155265895705074 -0.35104772180537314 0.5924640308857283
0.67268632328507849 0.90826814332647254 -0.19069531925883254
0.60884300047387119 -0.55880279359065899 0.34937009604477964
-0.44294782142256661 0.17689539100507345 -0.2579483714039652
0.061540412044399417 0.86892536523304731 -0.32884218793594755
-0.76554719444415364 -0.40973926598022681 -0.28165806515869019
0.22021458068054622 -0.30930858288887597 0.60466003204761432
-0.018875109286134784 -0.35370571879368962 -0.49005317402707682
-0.16785464242459502 0.88043669439868955 0.1229032190196282
0.76873757571479162 0.13467176314722584 0.61263918191278854
0.49634885382017169 0.80927929855262137 -0.28412334287885876
-0.77399383602994609 -0.11909798906216684 0.068291101593679571
0.33734308183609851 0.78890301663933649 -0.103689502064789
0.32929350040324401 1.0719504665569086 0.048247745089380345
-0.097500347974703416 0.23140193131513564 -0.32961664045605943
0.011316766440799597 0.31911969810408269 0.53047079863812208
0.65842566093594257 0.84238564189423926 0.36817544288899651
0.25245385106735774 -0.33150970199826135 0.59894893524930026
0.075439694927416312 0.64528999613170901 0.61810041663849447
-0.50324752268376116 0.56458589244113389 0.04860237205286122
0.60976612048730483 0.5046221233979884 0.57539316902925908
0.27207844004176063 1.0371438660842787 0.069392154052281718
0.86913366374749179 -0.20781305369165981 -0.43574388336444603
-0.10011652544232152 0.34170599060234896 -0.25127962873014997
-0.068890847254990728 -0.10147113105161765 -0.53534269669249568
-0.30690757910954169 -0.18029372358439044 0.35381728639535659
-0.069235284220398707 0.57880928487595251 0.23785911654746172
-0.016936828399235937 0.70190651596429898 0.6061826922180682
-0.2378962036609289 -0.89302508616415466 -0.21071692141394216
0.85552618877050279 -0.017667204711151019 0.41565109614967888
-0.66424377125277578 0.18631920825388537 0.1536559351217095
-0.14373443891364657 -0.11191417652915536 0.50953329025361427
0.78887006229811329 0.42017931056317259 0.51244312653550672
0.13809277714045143 0.58241962341856568 0.37141282234208095
-0.57035190596950791 0.16560768182449337 -0.25197955016083373
0.53358069913012673 0.33100921772701719 -0.61825398898311157
-0.65763132646585998 -0.66982849716593318 0.19844016819427246
0.86917206739046726 0.12865217670641815 0.077883230019268446
-0.011199330243949479 0.7676630716378835 0.54461848529372237
0.09949698572248189 0.65397503265151258 0.0155495332240978
0.3038485479059192 1.0853609474178518 0.40266711421242807
-0.45656687136006968 -0.74966805172887385 0.15424554286420555
-0.73445284479754869 -0.43089691183703183 0.067493384019295277
0.36819122058874365 0.58629952737354474 -0.39745896203037123
0.69935933370406156 -0.54071285217105736 0.030250133171717764
-0.60218875986329556 -0.67303946184857244 -0.27607722936180412
-0.085945987970251547 0.21728205674261014 0.60614938869111779
-0.95294452488716841 -0.50216334508536509 -0.14305555122328784
-0.47805461598310406 -0.1375344719866467 0.22643162811644757
-0.89447587307690757 0.17962176466321944 -0.096507807970388271
-1.0150406117299513 -0.75143761479410021 -0.30356635939904386
0.0755104496266914 -0.77723023096195565 0.45867765276180261
-0.99468715042215017 0.028976934460902548 -0.27598420743922691
0.89966344582339297 0.60856727681280387 0.28414227791200997
0.85900234337161163 0.08127016087147787 -0.2494552194814128
0.25453258175288362 -0.65671093668709979 -0.21992130394870024
0.76166741796119153 -0.4002942443166293 -0.32006951284464602
-0.97326985180991343 -0.84938174541531541 -0.2982300245030638
-0.49604424186711737 0.24506456287748435 0.29528393259263641
0.089347878659033819 0.45830505660971399 0.48856154420953501
0.68424678849055254 0.73975092347086968 0.46200477798198847
-0.84586414556518896 -0.1153956180034017 -0.032314606492241715
-0.65599507783939814 -0.84463895410844181 -0.21587732779762536
0.19899075687293166 0.59378822161574374 0.39855326870185426
-0.32065833105699237 0.046789259885310575 -0.30783436525108598
-0.83602407656032396 -0.15874844407102717 -0.47252415142008353
0.25000172675286825 -0.74721663886338296 0.23770192769089515
0.75093774750718878 -0.47498525624173249 -0.1792838105669583
0.51487967177816341 0.31692054964962169 0.59623939371029078
-0.86076465553618919 -0.064784411994514013 -0.046485524712923443
-1.20394617358158 -0.36623362168152696 -0.49645779660750211
0.69398863788461163 0.55395101809848812 -0.55551229393233381
0.25864025920586231 -0.39135838155144675 0.57783914350462773
-0.71609763679203664 -0.32883127007651414 -0.28315843297034782
0.27795117466541153 0.57182652774315912 0.47643362396800537
0.76141128507310163 -0.48710653700671136 0.015859983825973423
-0.65999704745996235 -0.52160826339660993 0.20846876139955217
0.092464179715870287 0.708897039633131 0.60309397375013862
0.62453867296669574 1.2755860873394949 0.24701693105464528
0.39601375340891476 -0.41799398395697951 0.55584136079958935
0.16686195934232995 -0.88083028550299858 -0.0018866490983588946
-0.75057076149040358 -0.57588610518976324 -0.22816969630779926
0.69408743082594748 -0.40115167316624101 0.3553880404308547
-0.37012949077652135 -0.74021325453493558 0.2340208002062143
-0.041081274788013378 0.832120331095629 -0.35064156475259622
0.66445317505717805 1.2428660941674843 0.02016099642392799
-0.17508155960488558 -0.77938904407722198 -0.21127240537775904
0.86738814224877969 0.36637979178998759 0.46601281499453862
-0.21930700892640664 -0.78224465050780223 -0.23100372690893689
-0.074677054374982399 0.50709474248741793 -0.10047555117268558
0.84785818358523857 -0.33602410126559468 0.064512041315196278
0.77352684506585789 -0.42811587191485723 -0.26506957960702859
-0.39631732447643997 -0.77347397498261117 0.037093002850659751
-1.1613762786178821 -0.68109168971313849 -0.68130650799190917
-0.43022476026848766 0.20765872435115651 -0.24211098010306475
0.35843605872406847 0.7558226848109868 -0.2097146718891203
-0.80319054881938823 -0.67750780462100879 0.068658348828090965
-0.37761236908329487 0.35841901388511088 -0.1311528224665901
-0.2771983032897658 0.42291695859921852 -0.099049160576805129
-0.003792868111633485 -0.38935898380472533 0.53928787179307314
0.11937024053886436 0.52338300961651596 -0.26447324076449874
-0.47587498826019314 0.43438928800031684 -0.031127497581128871
0.36693726443384023 -0.65953921318323294 0.4503837264678987
-0.25839355410214671 0.69535469949735362 0.089049151780593583
0.83801526866407494 0.56412346260029356 -0.2026477060369869
-0.79889270846619542 -0.52348866204779876 0.080409086259914275
-0.77218521597176926 -0.23602053106648757 -0.021066988096581696
-0.24640994681765593 -0.2096493824951815 0.477212837801539
-0.7399815962585925 -0.13928013643429837 0.099300366722339994
-0.32703673051308702 -0.1751789997225468 0.39608606299350413
0.55719854617925146 0.33595315873281373 -0.62669210970634204
0.79011543945234464 0.50369400126083486 -0.37232109064213326
0.93392301113899223 -0.12757542915636311 -0.31621710395234803
-0.15239393955537306 0.91401927339718625 0.0081989066193663973
-0.91498573890316726 -0.94407730559937386 -0.28561855934789548
-1.144797533851158 -0.42389882429842363 -0.39506247744251333
0.48941899568441649 0.20917882986024705 -0.60908267320186127
-0.16007335552112334 0.84292569041148802 0.10795703810477164
-1.0777127993953659 -0.27330954255496742 -0.53249629071481497
-0.29467298167284572 0.36894370272063726 -0.14421829170495482
0.12601222740323093 0.94087644148785188 0.12616585767635158
-0.99037807739501282 0.00085915628169486169 -0.19381624679995468
0.86012688655299474 -0.063277437530459224 -0.51184098552417101
0.54905150865050767 0.26592779563156554 0.59307017084543734
0.50017307672102818 1.1507277183199534 -0.020151198665050885
0.92250835820497223 0.27655572090210789 0.27715912810412657
0.85144607457476873 0.31350230911999288 -0.12580230174085472
-0.12122291455109613 0.84733661287171558 -0.13472462833730869
0.91009792725586802 0.26538463753981434 0.30490697786298515
-0.057442648740336999 0.79722817667741586 -0.39376080157114934
0.29748455632131421 0.74669637877704331 0.24536008984153845
0.44597609068833721 0.091766184436372189 -0.60093674188344348
-0.25104093964255836 -0.007041479319506383 -0.44451729921721039
-0.82223849345845235 -0.55575602644558764 -0.28350074587014618
0.10252726457744998 0.81795949398561796 -0.39349663185280903
-0.060886906310017697 0.50587957234612091 0.38856098579561138
-0.41850704053661381 -0.73655734661464356 0.29124961057961407
-0.85232023082923769 -0.22968536399098127 -0.47494145630364315
-0.64421575978458501 -0.15376854767792913 -0.36296166321221879
-1.0073671749655322 -0.47902499218306938 -0.21972069545274042
0.17699881660026806 0.7418294060434264 -0.58921428692300459
-0.13370015660057222 0.85171823723777162 -0.034503738804794182
0.41454927876226799 0.70836327071417349 -0.34717093476918404
-0.61731109275102813 0.23675821332621649 -0.1620334438226374
0.82257480705341002 0.57292725089204755 -0.25464818941863054
0.47101174182709316 -0.65967506385570829 0.36323940731231819
-0.83422980660801782 0.17938132289563713 -0.15652133936028267
-1.2297880236777305 -0.24720820526844101 -0.60534633275403404
0.81522833592020016 0.21738261530734526 -0.198767722443427
-0.052123336381421526 -0.7451581712230082 0.49335547944453761
-1.0950077677649386 -0.42889286306813235 -0.33246788615238199
0.55643086432110556 -0.51778964765457225 0.41292474563341219
-0.87723802622219083 -0.73214803245526205 -0.050754203430313893
0.3115860479873247 0.76953342905149469 0.19618980235290184
0.84961763489711783 0.14583587075532956 0.5238440187914124
-0.77328035731749623 -0.088420298046089307 0.0078251277876066894
-0.19500976936166303 0.54590239048870259 0.10995915645510212
-1.2093189396644495 -0.20787486279288636 -0.5087112490469794
-1.2394896780438631 -0.25712009334124142 -0.57401682491682848
-0.22522394696974035 -0.15494419180457397 0.49115251952647476
-0.045481792732743553 0.91982068383023585 -0.14485038857940058
0.36930389608660819 -0.33029413880164604 0.59798647369959923
-0.69950423928225014 -0.18700044210408251 -0.38802988893761192
0.6385673191231882 -0.15675218202145702 -0.37727346421295316
0.62605341981378682 0.26846404794724998 0.60042113010068565
0.40979256745373149 0.24672083228634922 -0.57367715520988849
0.89738503039638928 0.73484442153202068 0.11697388188527746
-0.84635504154546592 -0.60936301211881494 -0.31951347660247809
-1.0366421454311654 -0.0046363897583296954 -0.32353286713502971
-0.13840940792616063 0.82468549027557869 -0.30971060286171337
0.092053965136705607 0.40853674049152344 0.51792290150897635
0.13673085369407612 0.25592408779670683 -0.46826925256885232
-0.14305791786396371 0.69283627426309424 -0.52492207693679394
-1.2259248156304223 -0.28947129886480338 -0.55317904119145744
-0.88439890768275053 -0.72154453862199475 -0.43826020651605901
-0.87551057835354462 -0.25982917995130705 -0.049525088300222286
-0.43863368097313638 0.5132060315892637 0.32964077591152119
-0.15961423829808763 -0.70679410510311058 0.40141025594680269
-0.33085790829938655 -0.34829047789934275 -0.35010001810935965
-0.1298610313862425 0.89913862576698356 0.063355899437989471
-0.039068809969584173 -0.21038601602797158 0.54976534255137999
-0.23977819675099621 0.7455048274883479 -0.063727092210744907
-0.90527610677779879 -0.1209015693503992 -0.49604417393349021
-0.60838489826457209 -0.27645335714774877 0.11835297373061504
0.008643061865278634 -0.72541021626492519 0.14870996582090967
0.75801066168193199 0.87545650171136002 -0.19041924026492918
-0.48911752402237418 -0.88159688709706074 0.25553531703675247
0.56686296009405424 0.54224596194103625 0.57318900003526263
0.81539605105942115 -0.43574489002862205 -0.015801478138294023
0.5870693053881173 -0.22011608297807728 -0.42248984689575408
-0.42979446016507872 -0.1017344155052613 -0.28335380222401252
-0.71010310132177135 -0.085165066047786286 0.057258621660444931
-0.79794155456733717 -0.050908463984378205 0.0013243913352178893
-1.10640569443556 -0.84431316239452547 -0.50173166322535678
-0.57604416451506912 -0.73876658456952304 0.17001466517575636
-0.82691393435727401 0.091036792027576752 -0.2765188813547681
-0.077224346217221296 0.002000200342381131 -0.52296014156459059
-0.9758974341193376 -0.50410404747655235 -0.12487320062822249
-0.42423847209637966 -0.84479965978966565 0.30119789012557519
0.40647260390384399 0.47778574883858127 0.57778686552467384
-0.25052553956668833 -0.91584980818509143 -0.02001268728261163
-0.13731628328964618 0.17644120029677279 -0.37945796846034607
-0.69445113979413997 -0.83581173742419246 -0.27600557752149069
0.20191350283704068 -0.87200666771817836 0.0012157423937901868
-0.7718025323752129 0.048149975649774746 -0.32744726021267034
-0.32858445789933621 -0.97034002478534243 -0.24891606752648876
0.29937764072940931 0.48180851589501472 -0.39116058057997538
-0.19281239505613579 0.78684266708920214 0.083745533447112663
-0.085344779806360238 0.066384433822550104 -0.49615058640947218
0.72527991272858161 0.51160005615700732 0.47605166253953879
-1.1158297227045548 -0.68228145100196214 -0.69839100828654921
-0.27453351198249432 -0.52560409980320433 0.45222453516232619
-0.068368763550442857 0.91031936685577119 -0.096775462172947968
-1.225265538474726 -0.20454282873881802 -0.5836076512553614
0.36585442969205251 -0.73710096848828632 0.43172664465378752
-0.10426004033222314 -0.13728241269992525 0.53975623171264253
0.51302992187384233 1.1915896926689991 0.082138646485042877
0.33031496953590356 0.32431337455460851 -0.49762637220437878
0.68630135540796233 0.924590978270454 -0.12758535811436467
-0.10439222955197747 0.027726358533087581 0.57225909990367185
-0.37910978065288914 -0.25714612515404012 -0.31916927914171911
0.59264473656032801 -0.48406772156006861 0.41092887899737907
-0.081448942649396727 0.78607291070864271 0.43872693594245771
-0.52950509654648537 0.54817603096116774 0.048732590514468654
-0.66708052759316283 -0.045514585872401092 -0.37857370387491507
0.87070477685325121 0.50109846994363427 -0.099879841381552481
-0.41474436197579867 -0.042607777898298504 0.38222232280159041
0.76657060972009083 -0.46492137163767966 -0.17987741567507598
0.65222174600773553 -0.12978554650130336 -0.37913904954632827
0.41917950901271372 0.604439626973168 -0.41767631255569171
-0.13002602844451205 -0.32549633160378866 0.51056725760333865
-0.99288376978495085 -0.24737367061599347 -0.52171156621752957
0.52183063597150081 -0.44175345743649785 -0.22027592615822567
0.82816650928758784 0.11474923859627761 -0.093009613731804386
0.4069513973604586 1.1363461769640031 0.039583364927946008
0.13877059342705733 -0.52966475034852234 -0.36292305465201036
-0.34211497852280237 -0.76044457298695445 0.37544792867559629
-0.35208849604515735 -0.94439852811494163 0.30277817793044104
-1.0460637197687654 -0.6702665432563446 -0.24892401211348236
0.14672091815043165 0.696894253215531 0.69980319066187047
0.081483753196051056 -0.17550530388400176 0.59127063212343955
0.94089520655972869 -0.033414679941095926 -0.23347606786567265
-0.37033405556874355 0.11169470643428614 -0.27931919242697933
-0.39929898208814696 0.26405325146192848 0.37558201452854334
0.65921765998138571 -0.48088817690355157 0.29716264693830041
0.065578102751685075 0.82252606179434973 0.44794841202618052
0.91862275397640913 -0.047987963415998092 -0.12792861472379702
-0.13117070752163573 0.579010058431081 0.57660367038448079
-0.90825032537607031 -0.21117358769914407 -0.077551279175752441
-0.11086615642207609 -0.90008345197022743 0.40773198969907654
0.16459712494710455 0.94827512232970046 0.13458914867315652
0.63646643013614346 0.85747988927033914 -0.2968475960844561
0.51040313505075896 0.24664020370316164 0.60400155344594353
-0.86069520923102938 -0.95753822031110492 -0.2131181394967383
0.5701027796940481 1.2160782776570964 0.037392434603030544
-0.75573418387914937 -0.18528316283951307 -0.016094410163501216
0.68977102139544177 -0.54617978322086591 0.068675915350490335
-0.6514515102528633 0.31953673847802144 0.15524497721983188
-0.12411476431588042 0.91115437913077302 0.043231344973335695
-0.49688340567401812 -0.91554428273865218 -0.34340953836628252
-1.1736729647269453 -0.14103457445882572 -0.45533392727435462
-1.1827269446959314 -0.16158228997465729 -0.56926936097271774
-0.51229071748720889 -0.10419335408956787 0.30323101244393769
-0.47645344113639621 -0.61276509313086081 0.34299426960924517
-0.43686740304038163 -0.206242855577488 0.25215649659706152
0.90064547028305886 -0.24144651169808906 -0.336970664266806
-0.58664566939851959 -0.80810200396043452 -0.33713757974272163
-0.080620329380334699 0.70244942045534675 -0.55122247864243779
-0.64424397075063045 0.38461013728726812 0.14780461512364607
-1.1820870850366676 -0.17864580054824009 -0.57429645247481353
-0.081674064172683636 0.17373713223755782 0.60243079068026084
0.33483710636571695 1.0647038599715439 0.30091734067003717
-0.70211278249942799 -0.73464166870874203 -0.29822399270821887
0.37210898814146121 -0.713061117962142 0.081381392384481721
0.63181252111761887 1.2357009181685341 -0.013374822546414755
-0.18830375502450303 0.79091292118502288 0.22784260344263352
-0.54232317829610333 -0.25606421122295142 0.14683758168235972
0.57288594188733022 0.64749415819818745 0.53271085619487124
0.37735320794474536 0.18279218090520111 -0.5756785204029562
0.44802045140729296 0.799241451634221 -0.24796927607073638
0.23697919859154837 0.97924659588001051 0.27729425232715421
-0.16464352873748211 -0.057940397030846746 -0.51099926674309692
0.20889188619702903 1.0575002872183759 0.22421768817352739
-1.1642698705803689 -0.37976455679237464 -0.42807405056131032
-0.30998943680614044 0.67713685281625746 -0.017862931077642585
0.58072848943782129 0.79076414273406481 -0.37385089538600269
-1.1133820926287434 -0.7284145986115993 -0.39897607228308107
0.30603184695702845 0.71424789685797041 -0.20877049247807822
0.57792023034326512 -0.43826641475364791 0.48484159409066407
0.45265330064084019 -0.56576844216596944 0.47245559380026059
0.57491853708801277 -0.19349419718263983 -0.44735359140769138
-0.84689643537066051 0.10961809202812978 -0.23922967745469226
0.51485969275386401 1.1699298266682177 0.084683378220097971
0.28697108467888377 0.19216433818040946 -0.55867191963977447
-0.48832129099144894 -0.48811434845942259 -0.10693067964581804
-0.24550474514428977 0.71183894914098045 -0.33231032025856688
0.68398956778413122 -0.12535303602550618 0.59271832220828635
-0.99634628104593892 -0.50352978444823204 -0.2282316954425978
0.22553994846760617 1.0445841019091329 0.11770593851121358
-1.1286274305407162 -0.27135422792612651 -0.55899831759516783
-0.33032081170304473 0.45739919808812357 -0.011483169856707498
0.69092401826357586 0.33044617732085046 0.54937787503797342
-0.52435070797408123 0.15644042415181514 -0.27011616145654571
0.58998374355330618 -0.16415421224789428 -0.45693736048451061
-0.73437529457550021 -0.79749998604398664 0.13316550919888126
0.89248767789344141 0.13230770082989363 0.37983277990924602
-0.29703997632429502 0.067465905362946721 0.45511045551141116
0.85234486851048952 -0.35166227602351929 0.052774758862834226
-1.1104292494866868 -0.44252740712854788 -0.34139918737940178
0.88475431763103218 0.080716200309914665 -0.29524563791559721
-0.43577569565886254 -0.6457430499977832 -0.22503370118005428
0.41926368741139175 -0.67634115898908487 0.39043423031110258
0.26358127500644646 -0.50169395443187392 -0.39331200078215378
-1.2054239029634151 -0.68174805863810795 -0.68404035923475259
0.59367919349418496 0.9213325726390762 -0.11709714602284116
0.84286480496483307 -0.049727789003943812 0.38678090555253863
0.60356048623989111 0.83937905689342718 0.36331839085842699
-0.57584427931677595 -0.72593128323449285 -0.31309235555214432
0.35623568009398876 -0.39304953386067032 0.56945264800564388
0.096012955332591687 -0.68658662611198285 -0.24922386774316152
0.32611240333048208 1.0855086171246069 0.052657857795421315
0.12295186915133005 -0.31119536680611182 -0.47846127093229729
-0.26420717539529792 -0.90898998653282881 0.37681557044383762
0.38509817484257325 -0.73745877375553359 0.42564800599192409
0.10870138458151435 0.64482033297680807 0.19932505776295439
-0.20188743333355741 -0.89338445826424362 0.40673727763774359
0.5507160309096264 -0.61715557003263033 0.024697951668568585
0.22766874990460328 0.98137141746718537 0.35839842196245097
-0.73844549823900629 -0.40400962796890028 -0.2708134705444456
-0.21486505446660864 -0.71462914833850677 0.39664010171294795
-0.47321700501668729 0.56137319609123315 0.26976752898437173
-0.58881623209748346 -0.028203498031114549 -0.34489778639019253
0.45906617904534031 0.44329436888596829 0.59644205940615791
-0.1870302440682472 0.54552378503118115 0.061091432717899963
0.63557584563567349 -0.20243428703054933 0.59584227799322598
0.75768195423295381 -0.1774609273958383 0.47877724174869218
-0.36406416834130284 -0.15153937796381145 -0.3640791443826572
0.059570965925179298 -0.54878632282777806 -0.37489155725004508
-0.83075345029512171 -0.39714745845311272 -0.029782389484742211
0.56286980143767473 0.50095456658690241 0.58364601218611245
-0.62747647946638385 -0.70727515419146414 0.21911997844468978
0.67926340178780498 -0.55744473509707726 0.045415058451846235
0.42620435264650491 -0.24308200466297647 0.62712018819013959
0.80170527959777727 0.89697128509423418 0.1917867099879107
-0.58004482061574836 -0.73901229968323268 0.25439853947190549
0.80492049879025473 -0.10532171613602515 0.45526206693913895
0.73982483448120251 0.87139624279591699 -0.22892541550814283
-0.23179317232753061 0.73173301067228602 -0.28299502876534266
0.8601631927258544 0.7407208231348541 -0.084029715991005283
-0.49598560283424531 -0.77087736240456417 -0.029197346003103419
-0.11926588981642494 0.53513736397804657 0.0077498320526032671
-0.15298210580160654 0.50704437704563765 -0.024262243590439603
-0.70904788396568597 0.15026350120617393 0.11014859275312627
-0.027519511435876387 0.84128617122819693 0.18708863805451248
0.77164150018988487 -0.098878425996188124 0.52352814247232171
0.34409794360351131 -0.53321404075230072 -0.3611298861803327
0.1089598061294188 -0.12192167335614812 0.60115024879131074
-0.033680840018563751 0.8413146820208971 0.38467208961805177
-0.40099759782806244 -0.89432902796549119 0.28459890267718002
0.36554031208935633 -0.3552575394329387 -0.46501435276106218
0.49363534307780244 -0.22418665720589326 0.62823274099040205
-0.018710903237254328 0.73610535059284932 -0.5334052396318274
-0.44349473475645462 0.62031135065697185 0.064327854370625381
0.29967041718945842 -0.69531374978638505 0.40454096322457378
0.89636173238044314 0.016109756840733347 -0.16437729397213108
-1.009039571431827 -0.51334278382419818 -0.25930641757705786
-0.054896606732104614 0.57692528704303392 0.38978936868238812
0.098081237032083379 0.23206725551454221 -0.4722557224613313
-0.10295896077732691 -0.7573820839165224 0.48723728228817098
0.25384002990898225 0.29022265839770589 -0.49141568957644388
-0.6796450462892476 -0.83119431948870481 -0.17611741739700371
-0.72638275424261423 -0.87625741267116464 0.034284573874447055
-1.0267684472088752 -0.90487322111009805 -0.4135065605806032
0.27198305188528504 -0.76278629362454442 -0.11949846598935032
-0.084398322381363799 -0.70023109608079448 0.4468099332596509
0.035497796919937485 0.79351919422506934 0.54974293240488326
-0.19525552626715426 -0.32459195441639643 0.48824304222888948
0.10933847235149274 0.7916768326153899 0.59341493067089424
0.8283929478968628 0.43739981410221196 0.49169328778445909
0.03047618384832429 -0.69461236877545485 0.46423987732644356
0.63284823552560687 -0.25856543890255512 -0.32575001761456335
0.26504545790877843 -0.6601089985302413 0.44444488050241837
-0.93401254148993473 0.10966898595518471 -0.17671177874558985
0.21089088690520508 -0.66886653866925938 0.47109102901233246
-1.1300904518628925 -0.098395412850641684 -0.50539422407655188
-0.94227371765352408 -0.197895842228208 -0.1149394399183663
-0.64869155723349659 -0.32956916679655146 0.16156931700637855
-0.71715251624440346 -0.70660098919628567 0.14079400708143641
0.016031261568499655 0.83194881125502573 0.17907217601995207
-0.77265442305606724 -0.11699920513565987 -0.42862425453139341
-0.34869672255034323 0.53414422886163637 0.40700036491429259
-1.063433525481758 -0.74331155079258293 -0.36777641083089829
-0.33716154017955269 -0.09986030620791464 -0.3910126663943041
0.36061827889500064 -0.70336854713808528 -0.18760120107911415
-0.87099178580864334 -0.89938290958559319 -0.089222457894550189
-0.91511327768711759 -0.6202086431975995 -0.4063768757537698
-0.61330799923314294 -0.58932128723214428 0.24011289684605419
-0.16571077455202765 0.51455431458308853 0.5636642590182106
0.11799430207265438 0.69234303413860832 0.70141176480937517
-0.25513930614414027 0.42937009418624417 -0.094062239906411271
-0.84273302791868332 0.25012093708011895 -0.070617264935564528
0.64162829183077419 0.9343490648154702 -0.089420258732253899
-0.63683304770098093 -0.74711259663171692 -0.033746287582735235
-0.63177851796035212 -0.24285913583564689 0.13709494079986051
0.054451111905130745 -0.49311326938560684 -0.40056394278908858
-0.29857528615802109 -0.94415211997764459 0.30220422596519381
0.25745981906350912 -0.77062184159836367 0.4572324932462184
-0.74057821720232209 0.016059445635943081 -0.35410784896063685
-0.47559105602167873 0.45123685300097649 0.30845341403094295
-0.33454683129528529 0.014720374807810188 -0.31771043100211749
-0.54928334732644646 -0.76760030988085859 -0.054355549405344483
0.18986252306096452 -0.40060795274541317 0.57087019144555651
-0.95175348206120813 -0.015017358637399614 -0.12514752998598944
-0.97367249860293903 -0.56516339635531043 -0.41443243665372886
-0.53793014537810668 -0.44824105758165533 -0.095249057518405955
-0.23181744555363615 -0.17194664407631155 0.42538505164185736
0.82916053630363118 -0.116899709124481 0.09239187847897945
-0.093151163613904187 -0.70358787596941097 0.31761253316886418
-0.70502905399620164 -0.32289801991287748 0.10871529961888982
0.17002278683480498 0.96034396789163301 0.11979577953009013
-0.40451443810731069 0.65670393696180385 -0.031922491800254527
0.57621490193247282 0.35177211008497311 -0.623790814520226
-0.78550062622448191 -0.19390682872752363 -0.44043596898013337
-0.17481988923881753 0.69512208714297707 -0.47934743950292447
0.14401559362785532 -0.70465162182498986 0.33329512330068845
-0.18230143221069461 -0.2651034772952201 0.49789948775360227
-0.33619698876155768 0.68022830440125015 -0.14691034606615805
-0.99470160750881287 -0.44405704953146952 -0.23751147509206838
-0.29244081859520832 -0.77008674841103852 0.083796761816380183
-0.68334251586256922 -0.36734374281718951 -0.25385275547221831
-0.60260768220771399 -0.87208155468804538 0.25965352560045396
-0.55288830938587674 0.33128947752062365 0.2468824182584255
-0.7841252724628669 -0.52125750835098605 0.074726541834288618
0.94232203921740254 -0.12906360728080291 -0.28049465691809683
0.13280994796256007 0.33222617404870824 0.55663274533851403
0.49137105886090593 1.1463663768623666 0.037927303114531519
0.74692776503563763 -0.50143891681365327 -0.001825214058957414
0.5290109261096485 1.2315527128278934 0.23356679118876933
-0.78010015455423543 -0.42451813439948305 0.022886364728855746
0.8807378311576064 0.051298421654043302 0.39891756146897972
0.57629272820127975 1.2568157616451225 0.26869866738475867
0.23286058330240311 0.64419516441035674 0.36411280984059857
-0.026426067065561165 -0.71485446048704793 0.35580139511943987
