# XYZ point cloud file
-0.040641207200508678 -0.90181795813123955 0.4021541671920037
0.85109118847904752 0.5070481751488416 0.44614067673030888
0.027499157446170042 0.4277838718753193 0.6814102291440598
0.46273495650146979 -0.23115182393215861 -0.5024868939334084
0.21291633851420411 -0.50780447511239446 -0.38061686114170357
-0.42252973543811145 0.62853843845889723 0.29120603977957771
-0.11601810738141172 -0.75309082407026473 0.16608227658553432
-1.1918568547380122 -0.29235516311154441 -0.4495898689191975
0.43116359140778071 0.85174944717166379 -0.18514168623398231
-0.35190062773261532 -0.76746511179386134 0.45569841287488622
0.0077524940353397298 0.34740757195951466 -0.31312468792716608
-0.53500971794469132 -0.83323662781665186 0.2678294401249417
0.66393681754452594 -0.44292970707607138 0.303812472102166
-0.97060537405740455 -0.82958006718286637 -0.13855324504582178
0.28548561454472821 -0.020840003468020063 -0.56912225520364679
-0.01490726316841462 -0.82626382345432559 -0.11884514326899875
0.52517498572254073 -0.67967808429798593 0.37386309435502518
0.042840369676421686 0.73271490014437157 0.63273379549846887
0.50719389464003428 -0.27925925044870059 -0.4605505771987648
0.49160640682508716 -0.42155100791583733 -0.39064396145321734
-0.85588599507755236 -0.76776375009255649 -0.44616595638333401
-0.57132935513504668 -0.32873349166466515 0.24133860649334693
-0.078851114811775869 0.54227849487504398 0.37077237405203434
0.68276626550576358 -0.3703665116996584 -0.33831386216796311
-0.020340521534054412 -0.78590333873863916 0.44615219838114406
-0.46513358785387338 -0.94364152406746227 0.26042670433973747
-0.040560357710876405 0.72461942523293876 -0.56582304742295175
0.61223404919648039 -0.0065853302437952621 -0.53319376366334481
-0.23956965124536467 0.83480135543703016 0.19199100597142404
-1.2212194512696082 -0.26191358338341431 -0.5010871622624542
0.61587119252353695 0.0084412817815842089 0.672415293086841
-0.72422024370995031 0.11359048004783889 -0.28834898861516045
-0.92229299069832682 0.084702963975887835 -0.086835065719132132
0.31602244777213606 0.17138285068104908 -0.58526944873656728
0.078980876807105638 -0.50844656338456362 0.53639988687173634
-0.77924212491830591 -0.90342662273705798 0.058751355807881822
-0.57470518082846445 -0.82202060834044 0.33253450807216822
-1.0897014191482262 -0.034108642460717542 -0.29183258226799857
0.097498431168938193 0.90176067604764698 0.20014676744040294
0.91574346484363289 0.4916189822536281 0.10099626222927593
0.097172564325995747 -0.59457712831501608 -0.34028949408989906
0.85573347915427878 -0.25543753526358426 0.055571493189020771
-0.50511455948751838 -0.54078915328270849 -0.092588346217830519
0.12418216210754984 0.406190878345152 0.54057879216424709
0.73473979006452628 0.16930362509996799 -0.41832624630742199
0.84347088809281878 -0.16564060129731617 0.030616606446797867
0.087521551052292867 0.45500619314093649 0.50794839624627919
-0.11145375161270277 0.59329620379597769 0.20078610381724538
0.83918468697265158 -0.14281398950238611 0.14927430749620196
0.34805468065787548 1.1457278914618563 0.2105452751599417
0.79113497324207138 -0.14037492068938917 0.35799947847135893
-0.013334488575871273 -0.29670453274690045 0.56080364305107899
-0.6006750757510142 -0.75350845235277886 0.1936165440548443
0.69417996952098049 0.90612084351722366 -0.2285237084691385
-0.069347421499974082 0.73283109574040606 -0.53847146929907819
0.81974441842383605 0.044816682173052236 0.57747204955576859
0.090749425748145596 0.66304672594919067 -0.038090594401403166
0.12924952501694009 -0.68749487175430701 0.49395093647854971
0.3782032162701916 0.32071653921987897 0.62029075129324518
0.82843361244922908 -0.015346574231225318 -0.0091206343624383734
-0.091615359365084803 0.8978237839667671 -0.11078820389012467
-1.0279385966284638 -0.84559187050296147 -0.38998260459923983
-0.32847808165423897 0.71172122410771677 -0.21057549390598229
0.59889077784967415 0.95119744083200364 -0.036724475397543976
0.17726410554233341 -0.856686472466194 -0.074371156560500751
0.45939833802252972 -0.68063326796928836 0.23541622757865444
0.60206195856775269 0.77636195763121951 0.4584318938806442
0.84532517638287752 0.77683489852607335 -0.12448273935843357
0.77899617517752295 -0.21591482103195769 0.32355360352817808
-0.2267220968099577 0.85563155662375889 -0.20517357362696664
0.848170483639203 0.072924695745723245 0.48225418310662693
0.93354899370849953 -0.2777409601927161 -0.15735766319491873
-0.63281579904850771 0.23444460196784178 -0.18711679220704092
-1.0355471961054037 -0.77981962974374008 -0.26261873669497149
-0.077712322491658936 0.28775578291636494 -0.30822042144476214
-0.99317078626481381 -0.48664832567103877 -0.10855341490619708
0.52249521527162957 -0.04511504128138899 -0.56267501037222889
0.69104909675079274 -0.19125342753345675 0.55247182093517644
0.10185858581731866 0.770020600929051 -0.52894317707927119
0.048994462754745616 -0.73103170232267445 0.14560092791294466
0.062142383097270049 0.65318864831206735 0.16171142066581368
-0.9598764667485149 0.0018354978321619697 -0.11087979229954747
0.70678683794820651 0.92196126320391181 0.26958260252824484
-0.050223146113145489 0.89508034829427729 -0.22732031472031533
0.80743254401915676 0.72944900067038088 -0.26321521629470457
0.82579710131393202 -0.049793304917721048 0.29290455835125151
-1.0060721075895176 -0.16650885149994199 -0.54577323344113182
-0.27240830188003873 -0.37455932820278237 0.4743439966523546
-0.4283198504480128 0.3354225477407814 0.35354225574305609
-0.83276198769582721 0.058042691069461361 -0.0047986619703390687
-0.036482118526301122 0.91474849612255316 -0.17946525140618874
0.90568751671717695 0.21951424428506217 0.42004317126988333
-0.83482820080044218 -0.14229157182641528 -0.032770738870652849
-0.041306390608007337 0.5388120494384796 0.48070413367990206
-0.12269024600848333 0.17806131197786712 0.53835859686662779
-0.07233138674909334 -0.90001481058670407 0.066706309885777415
-0.95169376581417842 0.049201607279385273 -0.11605303868170047
-0.56847068312302018 0.36639521564385769 -0.060617726634676572
0.38547044437275857 -0.76048979796178973 -0.03909155967437794
-0.620788136554137 -0.84265495774723265 0.30406884785931787
-0.76692635767166117 -0.36988401499691315 -0.28446375492346299
0.44088058616622328 1.1335926733079298 0.041415248078642719
0.87515358434206636 -0.29965976344235168 -0.36790514066106184
0.93355955377579591 0.43525541634522824 0.28511254616997483
0.93191936025513855 0.45944855106665416 0.28430881375190165
0.06114580385809476 -0.75421729182771546 0.4723041048163612
0.80388982577368751 -0.44581116289954936 0.064274624683119619
-0.4056477035570516 -0.32431766632638093 -0.26971418905030653
-0.2254928343542002 0.75367857026529117 0.1529385588573593
-0.38637256976182055 -0.74583875317344095 0.34707620097365144
0.55665115732234649 1.2483529652647825 0.28292233246046106
0.69804562869469589 0.65713765185886386 0.52328171929882661
-1.0844192070497951 -0.20564793846938345 -0.28039871549183637
-0.32472573802297555 -0.43323259246991785 0.44779402861441753
0.93729237723134462 0.29983519493476996 0.21180307522095987
-0.81001851969267613 -0.14480143922832966 -0.45205887131342237
-0.4847851381347017 -0.62521579966498164 -0.19469014803539686
0.58807340173799205 0.051217107363870973 -0.5442405804706274
-0.36271890535416595 -0.90253120632227679 -0.066812486549684635
0.66594521845990728 0.28573027358559067 0.59609909178033149
0.69906200908627025 0.95473110202092437 0.15320632454068406
-1.1641694398924709 -0.14911179105691974 -0.57895993996577211
-0.012640373718373343 0.45184526459642349 0.48404687415436776
-0.76163650805398797 -0.66095342736284524 0.13149381236282665
0.44265973876855491 1.1674744480696917 0.05450704475672552
-1.1464354915761075 -0.21004815711976677 -0.37160904775679526
-0.0059784137851299768 -0.82038292989973538 0.4346443773759141
-0.96272887799732398 -0.7680510693678948 -0.24773335550750097
0.45773101935450367 -0.59313770630278473 -0.0066061052634376338
-0.42524508525948401 0.67038110153385233 -0.0049276413436629696
0.27199033877522494 1.0733659339457955 0.070460696880831897
0.92929215922545572 -0.28262091038511317 -0.24233249089816145
0.11197662428792476 0.85862865212233297 -0.36215164709581593
0.63193478657572477 -0.069811201113489485 0.64149466633156393
0.3020264394061063 0.1166262425530733 -0.58116537010722702
0.87944097297289958 0.71303863280522073 0.28041673359598907
0.43403393692038139 1.1779838560902598 0.23752699137812172
-0.98690104387665167 -0.1313669307757328 -0.5312481521783905
0.40146620804941824 -0.70605175808610499 0.22449188785203411
0.22491121974303718 0.80073784045204366 -0.48966566890012597
-0.78001469745034302 0.26192062012378381 -0.12506599863498202
-0.95287204272368187 0.080836045195921358 -0.27724490279975278
-1.043576454604652 -0.44516172022428258 -0.25028534838223315
-1.2075342440887686 -0.34347462309202514 -0.4909312915357873
-0.36782840359676539 -0.62304370130029074 -0.21286004530590041
-0.62035222091056497 -0.83536330197343434 0.30563326252834777
-0.060481733004608795 -0.83059796300623789 -0.13569629727416377
-0.39962819137004457 0.53585281062866785 0.36563084122157008
-0.28734293295828817 -0.76170388284245583 0.1825018551208295
-1.1628151232633237 -0.69970843935755145 -0.53205332727805299
-0.1148379346948003 0.85192165400774966 -0.21361839755447232
-0.37215259009220336 -0.51283686207077395 0.43024106921564176
0.63206182033426317 0.9123381023560555 -0.23056853351425133
-0.76566693436544675 -0.20295703941875631 -0.41704262163788819
-0.22472562598564716 -0.48241386214573811 0.48702791279311697
-0.41411111377182741 0.30665942251679557 -0.18060765146997326
-1.1355804915420631 -0.72058949294349395 -0.45080001315240814
-0.063731438948783525 0.8307760648041167 -0.36575127381724215
0.44712646537194045 -0.032239173519053921 0.67922065331069881
-0.75507660473451121 -0.35976096786098255 0.061422450253857619
-1.0704330643686815 -0.45774948218441214 -0.26451271985239266
-0.038635379369017508 0.83102957282877243 0.4282817916971311
-0.28416562196547046 -0.0061880068473449956 0.47894437249800248
0.34718698993503572 -0.75188707795518361 0.12533661310575983
0.2459250777081492 0.030540227369825645 -0.56848176567315711
-0.6935242820492844 -0.82322079228124734 0.1663203129386801
-0.30934560651401055 0.51309590887809553 0.44760394906177225
-0.65769474392080207 0.016593504524843983 -0.35514193523429682
0.29231141082726575 0.6793614659982512 0.40237210584412963
0.65190033568480232 -0.0057063434820032732 0.65562934083793856
-0.16822930067938646 0.7576501968477467 -0.39403091435472604
-0.063046200788206441 0.51179591451229778 -0.161015590780762
-0.11466950973495349 -0.90966235371451143 0.050717787743000287
0.8425935253614476 0.10001219664750538 0.51400315307461053
-0.090470787541795383 0.92729268212309002 -0.10977660510221554
0.48418898486099482 -0.47756818213643193 -0.36584303755858816
-1.2010840567855803 -0.3393086593541863 -0.499057562083566
0.035214154213789373 0.23399484658354308 -0.46869104687648289
0.24014947909723627 -0.66355137451443325 0.4657484862668646
-0.1926171136859125 -0.28617224467741309 0.5069417260720499
0.39780848021673609 -0.67262263592134097 0.35046864692398838
0.67315210589952823 -0.5683302585515464 0.10341772226676227
-0.35033752078692704 -0.14015856550291583 -0.40137348528995886
-0.30126178450205332 -0.21607541000602692 0.46082934918727325
-0.90703851981318651 0.071454411703155252 -0.3152236092353089
0.26237635326476894 -0.54308966940416825 -0.37116170584708197
0.57369527773809947 0.8675078713501494 -0.29026332696298773
-0.031805210492559244 -0.60316050608655747 -0.34857011515454772
0.87445228025179578 -0.10718213815926836 -0.5109109005759942
0.93665295586754915 0.32904970119655985 0.28029844157878703
-0.88010743143442949 -0.7707727865297036 -0.44963916579157548
-0.52489841985215979 0.30295886996620269 -0.16236882022371724
0.93870381932129909 -0.26907101536687028 -0.21257404205012076
-0.029921436066148166 -0.83230095945757121 0.42391902644475721
0.60417829537867118 0.94709695796205717 -0.094434428112082358
-0.079606099728995572 0.54643617401814504 -0.079723368957584029
-0.69811074176663235 -0.49602192050391292 0.19203585825914438
-0.17444542026937593 0.59695236354478043 0.20932687037415931
-0.49272054790925957 -0.75259084678670529 0.26085859598096839
-0.94071818937551166 0.063095418067898645 -0.10522355200205347
-0.042047200901841331 0.20861519401811646 -0.44832264373278718
0.86201090590706708 0.41992676224488212 -0.15097659665240037
-0.20021580627316382 -0.57102120344684293 0.48540548852919585
0.4613423815485187 0.80830066318890514 -0.30590621767691584
-0.24236705973879502 -0.0090569137883274031 -0.47601619679193163
-0.93833161157376699 -0.7341336241160259 -0.12482392471296855
0.33319095798455423 0.75780723186446219 -0.2407365653258049
0.57101169724721657 -0.23129497792837972 -0.43213171698008246
0.071680396228521737 0.53774960217138956 0.71749181883482827
0.50134456187651821 -0.67068195300996747 0.1783751224259742
0.66090812824782397 -0.024193493264297761 -0.44851789772282569
-0.38273148979555138 0.43728876584769028 -0.059506149058453417
-1.179889431618957 -0.68504852029987262 -0.67058883108803258
0.70708168506254321 -0.37957813645907734 0.2741960060372719
0.64047846638000139 0.12951774622388523 -0.54171726029242162
-0.11771406620401215 0.79473323947605512 -0.36977883591105787
-0.99139861793180994 0.076366897430288017 -0.16828088803580421
-0.7032472347906249 0.20077489072150523 -0.19047441750270799
0.42284331635084293 1.1588352707853751 0.16930486008212675
-1.209242350196766 -0.32445199467726082 -0.51279634929683482
-0.023127355159960894 0.58731921185384439 -0.064709462973485898
0.78379695074037126 0.37652341427934144 -0.37021889955064236
-0.61704731614725983 -0.48982973787316597 0.25768271408908205
0.67563447128432763 -0.13139800969897752 -0.37852854497955146
-1.1553354610920832 -0.073221066595003048 -0.44190514430968442
-0.29444071968046659 -0.97767291674168755 -0.20383192406184136
-0.8389090113447859 -0.28055117288989617 -0.38778347417320269
0.36288285235683948 0.2989143217664656 -0.55825348586955936
-0.23973604242197588 0.42149413093465216 -0.14008015892631676
0.79482955516696285 0.53476372625934898 -0.37341912363682983
0.50037033034527112 -0.0074014101643551378 0.68155022216057759
-0.24717657523690262 0.61749555844191928 0.12417387279491798
0.019283676459528332 0.87252593090845754 -0.29129323053673861
0.52687697019096857 0.92064389789862988 0.096712253364811929
-1.0307117761365203 0.036975584302126441 -0.27559050124292916
0.45978139838162257 0.89385287351924769 0.07541279451914118
0.39536062576309239 -0.025921864833965413 -0.58400877713723442
0.8565335698304779 0.68059308571379096 0.34503223592011079
0.80171450248530274 -0.29432855116258949 -0.44322462761217274
0.4140756752899204 -0.70610375106936418 0.41726261106450924
0.342241241155675 0.72911304918820052 0.37824967871924642
0.074881365400667255 0.85808714534559982 -0.37481804555595755
-1.2152428195405742 -0.27592204549732369 -0.56985193813297919
0.12938725852883048 -0.1761792125729853 -0.53455112715805964
0.0082189799276335407 0.5283002441227147 0.61953461507794927
0.71876890090989143 -0.39078149306361176 0.19714175695712743
-0.67470521705023323 0.060394482353997248 -0.32253239813898382
0.89898636987239122 0.39894771415722996 0.016796007230178489
-0.8879881643684655 0.14442604890129429 -0.16346062110041615
-0.055539550208012267 0.026224529610944458 -0.53510805120358462
-0.66922780947969951 -0.25549191143256045 0.070224754542858037
0.54187460994342751 -0.64175648064691027 0.070182515639463539
-0.040699880978877889 -0.89678826681580492 0.39899265619703783
-0.22768663297819081 0.39168346568663504 -0.16513457241190466
-1.0206261209345699 -0.3233376624307529 -0.21825540143929523
-1.0015778624952116 0.055288133026322406 -0.21403441194430251
0.27123857612562219 1.057893195560814 0.39657020701812939
-0.25856960190599132 0.6305122856922627 0.12010723288577374
-0.15578031136211345 -0.72191444964717499 0.46085019433954244
0.78539122381181325 0.22660182563157427 -0.29525845824155894
-0.72099275880892666 -0.79501346415229435 -0.32177052913601933
0.7230592154827109 -0.094177635931759429 0.57766253519436184
0.049465805428294818 0.48595973912745594 0.48388972537240527
-0.57651730927855693 0.34058468394965824 -0.066641132480620868
0.93696679398771821 0.00061455934300536086 -0.34525539307023667
0.51478602058661127 -0.60582788867601511 -0.0021300835676196783
0.89761444597647522 0.15116724010150717 0.18006113416288105
0.64331285629057011 -0.4237740261175218 -0.26135903410430483
-0.40023197538028032 -0.8075340125793069 0.41953401135175383
-1.2100600040951603 -0.15688877169188231 -0.48068078591625607
0.85318455976056118 0.14446123867507898 0.47220473452307754
0.91535870892399074 0.56073370709956238 0.20902442606130123
0.7419568608066105 0.56944748076219254 -0.50455145503114096
-0.49373283935345391 0.31510563322631446 -0.16211432204626419
0.80126691366304614 -0.25456716745677932 0.20696731990281503
-0.67829850686714899 -0.48579426776290369 0.19032779374752984
-0.051131844156916628 0.80329898264491861 0.2010373671554806
-0.38039558006215324 -0.94806960774922144 -0.19252440838221752
-0.036393464743931236 0.78776181573162285 0.50935764451384635
-0.092661741890785798 -0.76553362995231344 0.443942008652213
-0.91157075396302201 -0.39460506838488785 -0.31189853806549905
0.78929491076330738 -0.14320871726415696 0.44701343877190958
-0.37793888221138872 0.58477916247999429 0.046791555117273731
-0.2323154415721973 -0.043672317212749778 0.5050695877342477
0.50755660710398098 -0.43865634571384904 0.52307979157805384
-1.1168723262970681 -0.61649655197517594 -0.81365306215707101
-0.035879418153243581 0.5800587774209105 0.48805396549067659
0.88998539671716936 0.79462954522559581 0.077463124880426726
0.02158767428535957 0.7362339039291893 0.61515626277444824
0.16379074077112921 0.24411595916858531 -0.51994430799627445
0.75675957192103716 0.65401130041361899 0.47662456093935202
0.92549305835271944 -0.28209616919706937 -0.09569490667574243
-0.28142192085412354 0.72429153527687506 -0.37174366795982028
-0.080142588002701576 0.8318427754695481 0.20837327025927621
-0.87191040292710653 -0.34105906757005666 -0.31009231626374856
-0.97932102904918539 -0.20762817424101976 -0.14476577504290589
-0.79745100226919541 0.093567282171245658 0.031828414122038851
0.50345950486402713 1.2244874902549658 0.27891252821042212
0.42957692846993978 -0.27050787530844644 -0.50899219238293902
-0.15093583593504345 0.0060421488377047083 0.54309701767964391
0.2584449246155569 -0.82368141493231706 -0.094979704778278773
0.157068309954985 -0.81572879142306176 0.4693382135508628
0.82466214367244528 0.78286520804332138 -0.17493438110755832
-0.040085668385871465 -0.67847204893409607 0.49259415168208776
0.06532703556481767 0.76218306947927084 -0.5386720191636778
-0.62944046096653983 -0.79435108310167957 -0.094308169668588349
0.60913659401097719 0.37798343219874164 -0.62934006266480758
0.52343546750080039 0.59349460182072233 -0.53461453686466598
-0.4278124076777079 0.63790578562938305 0.021223841612455274
0.90921232533981478 0.59731803926748528 0.095962854253415664
0.42676470679706302 0.81572326845090126 0.30690529166879443
0.78662458131433977 0.73243680412248002 -0.31648197220073104
-1.0039988988661332 -0.58075117447294566 -0.17509741932350131
-0.21186441289149793 0.73179010400558209 0.17511941203366632
-0.46873071458498838 0.57868224671835833 0.034497499413596699
0.46602963963214306 0.39009366522466404 -0.59268962490804444
-1.0713727649681237 -0.77700069874186362 -0.32895764776604786
-0.81394587812863461 -0.94547359301181899 -0.078466073006676851
0.55415314626274226 1.1913615269350784 -0.067151597367314686
-1.1011384506727266 -0.57448274136519606 -0.3824221039168183
0.7619684683616379 -0.29955342748647107 0.26247469201763263
0.62575696204139253 1.2543821561706012 0.087363457810870848
-0.94408865379143636 -0.30798713329674365 -0.1230100021430669
-0.4926199628079857 -0.65090027211867163 -0.23569553548072086
0.80931238216877777 0.66227975486548973 0.40513347806345923
0.33480691349773339 0.1898690363648845 0.6226949175176415
-0.35660244155534238 0.660106758915739 0.032286399080621919
0.3462638686936983 0.46498375598525099 0.5854372057249293
-0.048302380533600919 0.68465067421016468 0.59805694867138293
-0.12268539363568198 0.71518810601040306 -0.52523714086786999
0.75329220076692582 0.81345939012949997 0.41028787918671661
0.32422577349400017 -0.76240764623027157 0.44780263706290491
0.20979929284079857 0.81600418764445926 -0.45140721290390839
-0.24341258460390391 0.6855771377716311 0.14000256734213323
-0.43018627012527144 0.6884283447063384 0.051515170278246813
-0.011512045207547672 -0.85208891550491384 0.42298665152209303
-0.71870977076326215 0.050993881804219487 -0.32741774620415853
0.16523575679100677 -0.35379303445346633 -0.48557470981941897
-0.0063457886210542824 0.36396901866767983 0.66850120600894058
-0.29435288729736353 0.74006749858941068 0.29322502889890067
0.23418538255928567 0.27491178200651589 -0.52403475216664308
-0.059157921802706959 -0.76275790281424438 0.50111473884618363
-0.032835712945916917 0.48020248669528298 0.5345127232552116
-0.1217604933260068 -0.080569315164349842 0.51003993951805882
-0.72739170721966073 -0.20022964387762809 -0.38291700886793478
0.87794722073397402 0.088478866024357394 -0.33250782140659751
-0.13816226370016049 0.4627351862923228 -0.14457183948076313
-0.55140002771894503 -0.33826951391283511 0.25543231391510268
0.26724319895292581 -0.72987711277686262 0.46803686107167941
-0.92049718777803835 -0.042849515172170172 -0.45352789590066855
0.85358904680059577 -0.039642471607084229 0.14223318684838038
-0.027628633753317366 0.43723052041831645 0.57355435016319589
-0.52821390654331912 0.46458640228967729 -0.031153798049789572
0.5654022315103151 -0.6360351556727033 0.19691298720491179
-0.019522730559125456 -0.89063501963674563 0.42362439073439973
0.28589241904884033 0.38723015470436173 -0.4657480826379139
-0.076924243235597434 -0.6241664340931159 -0.32876479886609467
-0.51333262171847216 -0.22863048734597236 -0.22196724741607454
-0.17199186426347679 0.87239348591123345 0.13398196690023134
-0.46978875490159933 -0.63093582222635458 0.37508014588257055
0.61150430886392915 -0.11865539233846745 0.62876790450067688
-0.25049811091592122 -0.79408657759823864 0.46944323014215605
0.67599432977807883 -0.46992737338939738 0.25161619326515439
0.62783207703049859 0.43939498590176296 -0.60713127222547936
-0.020094084816607793 0.90592958805828849 -0.21967436531351314
-0.046181967315042538 0.7163985793247003 -0.57401935322648612
0.1214108742397757 -0.7881470226813958 0.46524384840915722
-0.57364661625534219 -0.19209821211512246 -0.27531022885697531
-0.32456776344876959 0.10737725883405003 -0.29414927468935659
0.38214263006407556 -0.60381024415104134 0.48140105203091643
-0.70788624636123965 -0.38434856650101401 0.10911386337678941
0.31984043683387853 -0.48558762888125173 0.54372249102804915
0.9003768408873718 -0.3246407083713172 -0.25397529878263292
0.76797947667747746 -0.20493295300783521 0.39763485259995246
0.066284148964246281 0.59949839357078516 0.34520330855072778
-0.051308512293177788 0.59531570054284999 0.036757064906971948
0.2982908733547478 -0.14055842833890697 -0.56232260249598909
-0.78200033676116254 -0.18949375933683399 0.011185469324017205
0.16699171396175716 0.76470380580289887 -0.54157618512399619
-0.72067979873872634 0.034159199740297685 0.086786501367820179
-0.26164472799507421 -0.51198171160348682 -0.32928698660262334
-0.32144775119164892 -0.85111004306820837 0.3423477965466919
0.030568657888821127 0.77061592315502847 -0.52304364219419153
-1.137610156203761 -0.75619073142371329 -0.47853903723246205
-0.99797995106757331 -0.52641068747761155 -0.37806943693613349
-1.1549169701926516 -0.35634135502205888 -0.47838715994036463
0.7027380872465534 0.15720024664747534 -0.4879363824206786
-0.80166268748223946 -0.80755462222224894 -0.30284015047702262
-0.18304911872325214 0.37328189095323694 -0.22080970746289807
-1.1245586097136429 -0.5557159099240736 -0.6745130016241383
-0.71055499291334412 -0.81693257716632894 -0.10313167876258866
-0.20351650773310848 0.78376584658067938 0.31620465378939322
0.049342537782857576 0.88055270974550393 -0.30395872885549036
0.13387445179917856 0.39496547434588103 -0.35068711941382613
0.41153377401968161 -0.55905423593733605 -0.2907012479208646
0.15995497255038815 0.71723300649121513 0.14051315246782003
0.60160115601004205 1.2586862108344934 0.18681623211906295
0.52752307149236044 -0.62374348882298492 0.29662901597281266
-0.065535044459395841 0.3317114261148405 -0.2877039386378808
-0.40043937174102018 -0.18305758110809744 0.26001081613350685
0.046229364245613525 0.5910087088753283 0.35810777476275746
0.092578386106575428 -0.58376561480127176 0.51863447022399178
0.92753022542126895 0.475676451029303 0.17914527065958286
0.61527897670949505 -0.39678658569655312 0.49743967645007459
0.49432888023458332 0.59465247199245086 -0.51052543600752376
0.38345850806624693 0.12704495981431219 -0.60167974030335802
-0.19208841126926424 0.24181447940406264 -0.27697746763002051
0.34633161094429332 -0.7547653351529009 -0.14314646467166714
0.44688989455272243 1.1582988500251208 0.0016219748899830577
-0.20124989933398885 0.850170967524573 -0.24274087183817716
-1.0304563736450774 -0.57474554887438378 -0.54142498899701863
-0.7752525011183149 -0.6994888259593548 0.10653729550781676
0.58282371601547589 0.82138160480909517 0.40692730310486258
-0.01176814581058272 -0.20910061147847658 0.57047448496207842
0.20901006961236268 0.68925885649780949 0.31258382699306964
-0.60766922391735845 -0.19304206099029053 -0.28554159102333898
0.89321753573341311 0.29061192706217565 0.029280831558926579
-0.49746861759148864 0.6121998874792991 0.097813841237789134
-0.99379461368478217 -0.36566693538806971 -0.36038246131767337
-0.028812674016091222 0.36039225739021774 0.65342342437230805
-1.0430237772716837 -0.47201744971532555 -0.18591433451046591
-1.2339876936560281 -0.24788594242622186 -0.60176292232066331
-0.078493243375583832 -0.14039620801881547 -0.53458895448451216
-0.7561622160417949 -0.25842786423304176 0.08486566769365389
-0.082856671528115822 0.29580856919498055 0.5764506337656865
-0.33190844570440659 -0.77371247920122554 0.46309606260871838
-0.69450731026701407 -0.20610045318573778 0.013720083742104094
-0.63894240547700543 -0.92088799250427167 0.18579305447076067
0.70795137901396488 -0.079021293452438801 -0.40322690646359582
-0.27589339025793524 -0.74295200015336826 0.45816851395472646
0.88787737924124421 0.78423755190383693 0.18869443602015945
0.012447441813572713 0.89941473405242911 0.17567188823620938
0.81423373928936504 -0.31443525772104719 0.099888395503338501
0.74423709248949055 0.36400097493445061 0.54714246492632057
-0.78945874208369315 -0.028694938864489927 -0.39534131383904558
0.021033462170816364 0.55732897686366301 0.4029121090818002
-0.26272623063742384 0.53126494783535161 0.020778236996932264
0.07472153180325658 0.8184410037259805 0.51712765162496943
-0.010383602783479162 -0.72745171017625143 -0.20585637797569056
-0.48808679595383264 0.17626668823583325 0.28870895492414306
0.4246594719796255 1.1521025539624117 0.023251726788056537
0.12654333209726398 0.8496952647518019 -0.39205409170881911
0.4049741646084013 1.1524242235403455 0.19606233770336257
0.61269817311533514 0.22559088556554752 0.638876251476308
-0.010627894143502292 0.47374407868626045 0.46905431891091176
-1.0400766470278073 -0.85731684458710333 -0.35243604864074207
-1.1651286129924066 -0.65223597939721323 -0.81107291394583747
-0.56189151099678392 -0.35565719906674076 -0.15961641839104246
0.22315218995100983 -0.35768221356886354 0.58884168970969597
0.26341534094623897 -0.78122976279045497 0.16948311894451074
0.66611611597082421 0.45078933685322342 -0.59603387724178614
-0.25091002236130766 -0.27076624153518214 0.48575379604003999
-0.37931471912283188 0.0097749319132311996 -0.31485584565292157
0.76958790478827677 0.93871507410720678 0.14098480237226152
0.0095486277679059928 -0.0061326108890928932 -0.54374731709425284
-0.12751862685033011 0.93119004937505401 -0.028753267515368996
0.53489311630074132 -0.61491235186752258 0.0062811105770181896
0.67780745589920333 1.269855278666463 0.073914619885450783
-0.065906200417791272 0.80735811646016109 -0.41048212010118146
0.34307133974690274 -0.63207847946605789 0.47386597476369907
-0.48392133119516001 0.14207368779199903 -0.27200592346277297
0.39847157343998352 1.1208547392002521 0.22965326866625979
-0.16318487094772061 0.79687740119543804 0.3287615309364309
0.53414629418711423 1.1895652688096439 0.025852536116627967
0.92131302123481662 0.47324575045282669 0.31361301314609502
-0.73752201047942023 -0.82018758679751524 0.07217722079543698
0.55642635786587125 -0.62374895229432337 0.33557364588010685
0.9093689649391794 -0.14032840512789146 -0.44212711791554504
-0.19004044085906702 0.83025417152411718 0.15582088590851662
-0.04850572164245448 -0.88544847526257264 0.4360722003581845
0.91364938919524952 0.39360456695529855 0.41753851559352739
0.37694957907292981 0.77886837530871977 0.32850708586917321
0.15208445065753673 0.70884017674557864 -0.041469990980075977
0.28721491792147424 1.0621964332027072 0.30086620453605128
-0.92151743324246338 -0.51022934021298072 -0.029888160349120341
-0.11160979890791101 0.17795654907199032 0.56513489564260411
-0.47931730064269162 0.59857537313919118 0.04714681204526272
-1.0783047854341739 -0.46008626889587223 -0.24517736084090735
0.7616056072373909 0.75343975987884293 0.44166112514298206
0.80101970737054873 0.63766440982405048 0.41985739850540416
0.61990040385672063 1.1954446326044188 -0.18804371737715364
0.055428801523823346 0.43718192851324233 0.70648901458955393
0.40728796016659063 1.1367021130337305 0.011730795723084775
-0.42856619761254056 -0.8266814290374831 0.39011613799169886
-0.38871962815649352 0.68996827398347538 -0.12765589159417878
0.45003216868542495 -0.67015046293884017 0.3713467868706708
-0.20681161858918085 0.67591342582926361 0.16078637749527758
-1.2035945065844547 -0.30839550878534916 -0.47154070226667599
-0.074547327914936901 0.053974314296152515 0.56416545938042262
-1.0887422861253211 -0.11137184655912225 -0.54458182211865669
-0.09942499901038615 0.64368655613421533 0.32217847205917316
-0.26999238233674117 0.68213425995413823 0.12589478334180626
-0.17912885610322826 0.75614351199560681 -0.42270764533560534
0.07812705070554582 0.95335828456963112 0.38635749376872042
0.031699492359709591 0.37042126126970709 0.69242679509903482
0.8296572762736083 0.81304698246216467 0.32281564684065156
-0.012166588133206702 0.60033361989299616 -0.048796491096286587
-0.52521792151431268 0.34086991825723634 0.27331150757365741
0.66056620993707793 0.63587197773525106 0.54484809450194582
-0.93009124439660895 0.039874332141469626 -0.354930020093704
0.54299277840693527 1.2175383756143887 0.078570076287167723
0.8323440626717602 0.1679554906237799 -0.14383819621223903
0.53752327378208209 -0.47256002579866241 0.47871451684339306
-0.25162811512998351 0.72478893902282437 0.12756241195032736
-0.093889204140034987 0.15059045795361059 0.57130452284460986
-0.5800588483557001 0.52913043310521801 0.03699973882664942
-0.077566256870779338 -0.11512240995980338 0.56209077611501712
-0.3371142375368823 0.013844162953868366 -0.3500464619723278
-0.058158628321266059 0.59761062894081141 0.097328187979591974
-0.22962599590651323 0.87021440565516572 -0.15249802548043423
-0.025671752164528217 0.058404668669373105 -0.52425169397295512
-0.07047276904771449 0.08622563200024258 0.56235749849640726
0.7170232726174568 -0.53728117218582527 0.050993336080246365
0.66702456662283138 -0.41804056986906701 0.31998937626927848
-0.27868388889063667 -0.44727938302178405 -0.35741051511336686
-0.23032905070518872 0.37867608866463287 0.51181541438567457
-0.15831107003259959 -0.72623825833523004 0.32356544098675677
0.42578793751009858 1.1447286385967024 0.1710347654250377
0.712094931001789 -0.54007458318097035 -0.055180365157141864
0.44776576681317914 1.1795880282968949 0.17644082927985849
-0.95509006371860972 -0.015091160503513334 -0.43390004947103122
-0.94337930448374596 -0.11868621000543467 -0.086426200151477062
0.76781318368391194 0.94307780198115676 0.058406087405460383
0.096166839706548046 -0.65036766673425372 -0.29366949969050893
0.91623691944070806 -0.32147443473124548 -0.16602702011284265
0.59057735597383632 0.47803874526307721 -0.60926493497200784
-0.6984588475358724 0.42831605543388629 0.013860386467333896
0.80993214724890783 0.32505558965665315 -0.26053965529671252
-0.28286821852049204 0.85520279492376172 0.035360252727071995
-0.21305340374828718 0.70464319696458144 0.16447782989081183
0.8295820754310661 -0.43212663407526319 0.0068074544724066044
-1.0205559373521371 -0.67941605657227555 -0.18643028321674926
0.0031947544157828744 0.72967340872234954 -0.57621241686401881
-1.2294232465557826 -0.62808751374776106 -0.86055712332930057
0.77813880383162815 -0.3628774488882538 -0.37743365284152475
-0.93897525524654224 -0.9142677293863315 -0.23884015592592256
-0.10755318886588161 -0.56076855141028936 -0.37041303754359944
-0.83359716027064557 0.29634132306363203 -0.11054246001995338
-0.86559777685941075 -0.52195296108670153 0.056999847610953225
0.55160180033376438 -0.62966987004414721 0.24037057295276476
-1.0875778127437377 -0.74887218622661633 -0.39430952913339468
-0.03599879371182868 -0.62877820774799797 -0.32282202790747938
0.13284655651062205 0.96303041683614587 0.42796747461305706
-0.42117889371514705 -0.47251897552117583 0.39215272719839334
-0.074741337298701582 0.80977851570193171 0.42715902698731156
0.032682254214371431 -0.76735665311223 0.34359874247917155
-0.033872378688392102 -0.73115481308634234 0.46390295772511081
-0.97192353722759339 -0.45935297143965892 -0.31677571851699859
-0.25683498293631635 -0.17022948214666256 0.48656169368074664
-0.40388749942639413 0.66348427306517155 -0.042595902446283418
0.70905589729577423 1.2387304367184984 -0.15387322773845913
-1.1026570867613839 -0.13484224458063943 -0.56309052547891092
0.86495434180188191 0.86072215960459575 0.15351655001193176
0.74794413598136167 -0.13108100422281987 -0.475430569038096
-0.068204954213161528 0.085299220193087111 0.57622066294554841
0.81495744205371867 -0.26945931010749735 0.091176395939650767
0.6981229982000714 0.57917487453308092 0.54185134389428846
0.53861453712620078 -0.35648467291956276 -0.33249028299892558
0.41895841416520896 1.1814928702961751 0.2224913406388378
-0.3852649854653607 -0.95188908935227801 0.28723076632876321
-0.37676001032506345 0.26307286884433967 -0.21523233692530752
0.099475613937577423 -0.81840736947499559 0.097500595992019434
-0.16951564614158388 -0.61154939131625285 -0.30593866719362772
0.12758019861931658 0.56139418166524657 0.41888306135756004
-0.79407783043686475 -0.70284916086533578 -0.31357640586752566
-0.0088131885861426618 -0.74899134163026915 0.36053174413849476
0.69262515594077878 0.89130553262225098 -0.26103521218536763
0.067118098929751735 0.73437074238870359 -0.58927711964577778
-0.11545255894416595 -0.20115966835525212 0.53689561632538307
0.13093364414944286 1.0169076474966514 0.24707891731796483
-0.50680595843360932 -0.79434663955439966 0.30186337582078338
0.087127921040752732 0.815818940143897 0.55711446984801682
-0.32136985552688557 -0.2308915891556691 0.34246422360603113
0.89712949935354946 0.53552173594006458 0.32150463354554937
0.22873652203404848 0.72568964509403888 -0.14892665150614448
0.75999221548295515 1.2489739317532083 -0.11663249494166994
0.49598828108262316 1.1907342652108956 0.052591665860378889
-0.25001673826712234 -0.84913194347186005 -0.25502065656694484
-0.62180550640679644 0.4810589256542056 0.012214142349613155
-0.22720373568158014 0.74120054647174094 -0.40339419700857526
-0.28621262563864525 0.71308969486041063 -0.33511721816120588
0.021136430690877006 -0.75845812940007207 -0.14337001158090246
-0.32612633031607929 0.025633179110128967 0.45455954931113851
-1.1850496865513864 -0.65344607894241058 -0.79617504178005305
-1.1473656430616397 -0.41485860739754532 -0.38462188030839251
0.77423422901772798 0.70409444275892374 -0.37104393623795229
0.54294072272761218 1.2030280364490507 0.025645511577470081
0.90043594944397443 0.56470169387674618 0.0082503732044907352
-0.85381906462485002 0.16283482523023141 -0.15176625190263948
0.76197199751450206 -0.15356779232845286 0.51435859960836794
-0.059870220068240165 0.62346589163410382 0.4092396067889883
0.55056257018804633 -0.31442412741274772 0.57740566842049645
0.68625943719137217 -0.4477225929708033 0.23426452300757106
0.61244285720182101 1.2267293702304352 -0.062418153887550787
-0.58935352612819236 0.027787328292155689 -0.3296235125732796
0.77241357352498408 1.2687775006497124 -0.019512640580867213
0.24534721519184277 -0.78738011566483701 0.4567780522529894
-0.66946455206844346 -0.2038684032157585 0.17557271755227788
-0.64476959201447448 0.47218617160724663 0.036451955725310015
0.62696731452002552 1.2360305894560504 0.038850535262059616
-0.39484431066621561 -0.96332649138457649 -0.33554062474163437
0.3059533644478063 1.068926170847273 0.058973362667486207
-1.205175942204459 -0.11639958733249989 -0.50451372267083627
0.14397907455659764 -0.48352077131281446 -0.40281509688471751
-0.054502571399223321 0.41230293634615389 0.61559966767245555
-0.69977786077173354 -0.45772646780682136 0.12270302919051623
0.95477884266417767 -0.18640901286051514 -0.18293799773509711
-0.65752742662623143 0.42457957064228369 0.12550965629058553
0.87297967210373506 0.41005616327632488 -0.10333040943232064
-0.048403260308532037 0.92476619589425901 -0.15302003554503685
0.91649965299926439 0.61319186907814993 0.25064342386084082
-0.42389944171602356 -0.2297802917373275 -0.28454880731349519
-0.8917980971932602 -0.48027163266794526 -0.065479317737015208
-0.53574104951787271 -0.1852531041099823 -0.2487265327922934
-0.57851986424870727 0.52046390056126257 0.16652836560827389
0.95092387734498507 -0.22042764318325769 -0.20148790837759467
0.57112550691416342 1.2169723071532756 -0.001712138444046829
-0.050252659668013511 0.81909216868505319 0.18690133007544674
-1.0294364417436599 -0.76458624675107956 -0.30811642160753294
-0.10442016099576534 -0.57908728625431038 0.50178399426869191
-0.34062464835444661 -0.18570288009222358 0.3209348197577544
0.68844849428458788 0.84540023493032512 -0.34709657996535181
0.065052295678557304 0.52352185603055024 0.45296375346982387
-0.88964994134445297 -0.85732399039655016 -0.18460807234437837
0.094595145528396651 0.98308845746328044 0.19472678226916962
-0.76819316255864978 -0.30980470236504631 -0.29365823187378304
0.34153352377753476 -0.4811956969442428 -0.41599401678422243
-0.023680169814610963 0.64555634307245702 0.63359992968428891
-0.55909007700596458 -0.2663722887776796 0.12254110455303291
0.5892565252086106 -0.2206545668297939 0.60507624787337555
-0.18534876626022001 0.8052593779866164 -0.32335028271460331
0.52282987247067902 -0.49843884440058073 -0.12119123792828113
-0.20566558909780652 0.73479005389316954 -0.39875756669892137
0.44240728298887877 -0.46293689750324818 0.52841387344236246
0.78048602491565111 0.68190575193171421 0.43703845093887583
-0.22602102107424615 0.64485137427396688 0.14902594345002207
0.18812256712612818 0.18187677927342327 -0.55065860698259161
-0.19424603554933073 0.33668447277437896 -0.24299227117346867
0.034881783484156381 -0.70353420943900513 0.50133314525461614
0.73908799409180914 0.51293513021757109 -0.51061884578289973
0.20707197596844962 0.98365575027103691 0.36641977491793565
0.30503038286405948 0.75549408745946744 -0.19409944723343653
-0.27233265222079872 0.73116540489155635 -0.27974425474017117
0.55008881462159986 0.74515759690376338 0.47378650510375131
0.06614091283376311 -0.6217213995498172 0.50830162789705646
-0.038383296457244143 0.28390035913935352 -0.35855535575354835
-0.70837774033383316 -0.82840520505512139 -0.32999931518548919
0.041220221893094156 0.63110929123390147 0.21142958731864425
-0.61232925493540868 -0.54837029006585558 0.26385507235934291
0.88071047861628227 -0.34719878995685249 0.010968013142298005
0.63855871338940351 0.79069051068554663 -0.42812929459685467
0.27780957158534303 -0.059666951842442195 0.6532091218040712
-0.36931806211156659 0.32791018516446735 -0.17660567559401308
-0.5160398528739758 -0.82323644515979399 -0.1008828724197226
-1.0277507251905651 0.020795589135906178 -0.36660268928117112
0.28344201641623168 1.066276197259926 0.0569943633785579
-0.12492129866602042 0.0094300019819910652 0.55470521682290297
0.79866352942706742 -0.33748869854052943 -0.39752379723895803
0.20347759714834956 0.60464753720458564 -0.3013899882248019
0.91842604694908569 0.25496452294250149 0.33943834085662239
-0.38126640373034615 -0.75784326734898189 0.43241776299675294
-1.2279942731568114 -0.58937335269033131 -0.87426617300932108
-0.039951153346053481 0.86996308632242458 -0.28271115448198891
-0.36372807006698049 0.39695717472262204 -0.12147333395799897
0.12365657161521271 0.54775116794832512 -0.27942236382691732
-0.53515763330714461 0.38057210408866948 -0.047479593334287529
0.81413492452028891 -0.36587173803604411 0.10458687170897729
0.84796445635370787 -0.21534334408643874 -0.47605918995606977
0.80439075726120013 -0.25032179464125059 -0.47804812690340803
-0.22601068990471518 0.078507955005075125 0.50622234327894589
0.72594953443161092 -0.51757048433011166 -0.12039734774587085
-0.088315420336141148 0.60276483289833249 0.35715344334613519
-0.22787862620074906 0.75097761777769045 -0.3124865705608979
0.90298997891776978 -0.22708432813410973 -0.38233767010283959
-0.83079256843187554 -0.85426151819191709 0.074060949957026168
0.11340260028695814 0.10714533647574687 -0.53666771835619809
-0.83636759771809954 -0.79411788913446113 -0.001674475877740278
-0.76125066253488072 -0.81330769528859514 0.010470475879987617
-0.45636990901225349 0.29128482626609697 0.32823858367241954
0.57288124579115718 0.92093981084813126 0.18391543187336712
0.76989366356023647 0.8562556647735966 -0.22818417590185813
0.49126093120283554 0.87527277105389378 0.22657175890183279
0.81122035864385822 -0.41151032111064501 -0.27263842017932038
0.38809586384652883 -0.69204681688869396 0.0087998521055423495
-1.1745206043109546 -0.6221930578778796 -0.88491841014577055
0.42365643459745761 1.131336805165631 0.20617553955107404
0.55714763404373713 0.032998021358827234 -0.56035727768396626
0.088651295010881759 0.78165170739253076 -0.50367326322904216
0.38461017598071501 0.087068634444331217 -0.5965852999860779
0.53072079635050695 -0.66101062621779461 0.13302398587170927
0.35487131774630032 -0.73133890557734826 0.18179236162144541
-0.10194084780694457 0.06066495820238238 0.57614233344969357
-0.26730360105609785 -0.76382913493307214 0.48242947954640769
-0.69371712041753453 -0.829089853107011 0.22873912432629417
-0.48988146104591634 0.62404844195872633 0.15288039431968059
-0.9456936323917946 -0.24950778630707049 -0.48217158431436857
-0.89048735640842125 0.23635988887606374 -0.089031265907305368
-0.81143373641992023 0.32578071179819301 -0.067830321537371674
0.12985105882663128 -0.74593505909132451 0.44234885134987323
-1.0695438968837716 -0.75370411381932634 -0.35573862117729149
-1.2060231963871129 -0.35421744572675262 -0.47881374713119662
0.02153960037224989 -0.27031431903330816 0.57376881565913429
0.77510529300883002 -0.2840453508091545 0.14829575536203699
-0.15882670177415048 -0.05755133902672771 -0.52617641835951545
-0.11193089941744505 0.85436786946572085 -0.29512920388228725
-0.22361283208749927 0.069218875406405367 -0.44926923136535812
-0.58151556606401456 -0.65332743203018762 -0.25833314864137336
-0.14237742984944157 -0.8748393467965343 0.063157422618939307
-0.43061816343055592 -0.18433438287924786 -0.28898204028642915
0.30627097640387246 0.69951531384135968 0.38819726298611634
0.64048737352319796 0.4865157114855676 0.57477999222946163
-0.10697477508304187 -0.035840050539714063 0.52173825193948709
0.05288883603183181 0.62143431183842524 -0.087125078122523902
-0.95653919648258867 -0.62281602778999767 -0.062752104140614051
0.015014112214042363 0.30760762410801812 0.6755852419543622
-0.066630306836091613 -0.56765113962314162 -0.37842226291112091
-0.99379439571598738 -0.81465856322884234 -0.17309732224344465
-1.0981293643543586 -0.54335069257203905 -0.42226822006233711
-0.39176555894499687 -0.92233610450672332 -0.11313449271160003
-0.94815906545435436 -0.50307071932568048 -0.084151824580681378
0.083633327129416735 0.57929893147522671 0.38769979072311145
-0.83105460146470844 -0.10093973838530435 0.0062382231580322411
-0.42486751666164135 -0.0065862532667404494 0.28861479623639319
0.83243183213173633 0.90439689343664664 0.12755358811128836
0.21217113146207756 1.0361489023462533 0.087904190219806111
-0.4027464622871233 -0.77525541473810833 0.43622055972562102
0.26947496230779588 1.0267507883904703 0.33100926709778733
-0.32960190348480811 -0.49140638693245076 -0.27922942849789933
-0.4838626086365112 0.221295945955714 -0.23393361949618097
-0.60112848550985776 -0.21442209258718914 0.23356028217500935
0.68886065964343324 0.87700027053538188 0.34638261166577067
-0.11072180638685847 -0.87017780889681973 0.075100747002199597
0.94936892066059642 -0.19575443967697792 -0.11281914068753629
-0.69128507403341 0.40494634073880642 -0.043570668450783501
-1.2172995633101342 -0.13141869002382744 -0.53026206480974913
0.93941652570999024 0.35210273684444626 0.21246098323520535
-0.40149131655492676 -0.27220721260268732 0.38854527932807059
-0.082488509348973782 0.7362573525794891 0.26578443960366727
0.76455377020917559 0.33952431154293672 0.55113436236633895
-0.16628562569418648 -0.13880196760721208 0.52854992612256702
0.85494915226049351 0.87072042615248746 0.061735561301189179
-0.051314938808856514 -0.024475603079290975 0.57338747208137519
-0.2474015443477775 -0.74597251369234741 0.47855236561455428
-0.015307484388324299 0.47747162501098461 -0.22108942073762705
-0.46137069558973853 -0.0062111451143316287 0.26247408452843501
0.83400399811559733 -0.016753121757286493 0.025235539747961333
-0.20294288334067856 0.079153228536806397 0.52712407349413049
-0.08084944915225778 0.32693116161578695 0.56319773916878724
-0.059691641472920498 0.33461237310909442 0.51974270612283746
0.26227539814032141 -0.83870867968561491 0.057701364650012188
0.48841481057824754 1.1626345478022571 0.075396957348297988
0.72667188527549875 0.71506358364522749 -0.44864414629256899
-0.17844999421760699 0.70844593009439538 0.17750260545160401
0.61210949569069717 0.93856161353700784 0.16351916509424225
-0.16357071175557847 -0.84935072571323778 0.38654960405861338
0.79639476903974993 0.094766479691984262 -0.24449237561228276
0.52387987095653377 1.1868923891928485 -0.036565238217025176
0.10648729145411728 0.91651744590212114 0.443018789325345
0.70496572475533092 -0.50746168207877096 -0.15641409690973518
0.61919126966212534 0.83953406949847631 -0.36136457863815341
-1.0581837818065702 -0.2454826741574514 -0.53051463642385777
0.39515135330593898 -0.71170743812074289 0.19383140150864264
0.59914385078565879 -0.38347510207833224 -0.25213250467928727
-0.87709322076709251 -0.49465106536284198 -0.037732451619852725
-0.28616130820276942 -0.1863230296509093 0.40479275576350204
0.78144473121386726 -0.45926977337299979 0.098033024949296887
0.79029268111819007 0.80202636546119388 0.39587191034133884
0.13026688853225155 0.91382344846713826 0.40442716216615793
-0.62759930948748766 -0.83076082441522381 0.2956635813692845
-0.17973650417946607 0.87975670349378743 0.14187060146217512
0.84891407406781982 0.59915086717799504 -0.18309466110131289
0.91759545279697874 0.44328979546373448 0.09811327172921569
0.34080053691151369 -0.18309759599951514 -0.55723442802722012
0.71988766930067372 0.94049326374481401 -0.096712095150615518
-0.8964914377151556 -0.24317736749245622 -0.46858119733474624
-0.3489197979087646 0.49213190360092829 0.41741523845550077
-0.20249294019956476 -0.9097611310304563 0.34349662258695091
-0.047506993712871148 0.79041674529209871 -0.44359819903812792
-0.14826681369650174 -0.53167836384366174 0.50121071397478723
-0.89129129117974859 0.23792461212356475 -0.12515603502878037
