# XYZ point cloud file
0.46302038706277282 1.1458136134307706 0.13707723494869506
0.55783559186440423 0.54645762227295669 0.12999947857089511
-0.87169921336980161 -0.33889429418122963 -0.23800248611611186
-0.19508480389421828 -0.43094024289609001 0.15209056223946638
0.70955892954220923 0.28724014556321165 0.022242779197922946
-0.69394710823784644 -0.22704513844097163 -0.24090198691483056
-0.48138883020418821 -0.49005646517700585 -0.072007444385439712
0.64117841172989554 0.055995482792447593 -0.063597825898326299
-0.45701542022785524 -0.64438967113913881 -0.03076669623359507
0.51611924150426991 0.22050402372301847 0.17702674274315999
0.60740578550873181 0.80283857471449993 0.046549226300522495
-1.017566961361041 -0.28998286009512186 -0.41097662554109626
0.14257531970306792 0.29119891392009123 0.14166274001816892
-0.62063309996645755 -0.61503431983266088 -0.0047686839801035497
0.43170377417504008 1.0412995051268892 0.10018729159791051
-0.93843628679709468 -0.34977082839701945 -0.28854023668410567
-0.062295984423249795 -0.754925579658971 0.28100067711572008
-0.97149159224824611 -0.62257086054105271 -0.26613389559418366
0.4642812435676793 -0.4367386951803216 0.069932725918123495
-0.1557926695520826 0.44626960832775509 -0.015461606647260373
0.3470011671737579 0.89905138083103453 0.095347097676692805
0.7870785016669426 -0.22522156961564144 -0.093331651573760555
0.09719094445270518 0.8736461029039515 -0.054885459224807587
0.44085666583972116 -0.10031404192857796 0.2507818622738589
0.43181810090133665 0.07555706138064755 0.016879872902202608
0.6696564110497748 0.63660359009136336 0.031972463815371999
0.41882755912121761 1.0254579904083987 0.12543185557271075
-0.86955339576909374 -0.24591403374569287 -0.33868409778916142
0.38780868371006649 -0.53014023115329389 0.1245422093217825
0.14292116027803214 0.87936398147827743 -0.077225810126490213
-0.47497532000443587 0.061736626111390303 -0.11863292914783008
-0.68516046705606193 -0.095923749306404682 -0.21767024360508036
-0.88285922072513756 -0.50796784820460594 -0.19891998450332804
-1.0516184990310087 -0.43470336996288106 -0.37023624200540373
-0.37052903921659214 -0.4805312077005508 -0.036633356377992365
-0.51475901368033694 -0.66367854823822203 0.053547471404028268
-0.12546497042369176 -0.59117106610499026 0.049057937341290936
-0.25801981790086448 0.37354148105432494 0.053265739727559103
-0.22055219073538113 -0.5533508663245702 0.0824957662193051
-1.1623958895686395 -0.63692995589712897 -0.39465482167706578
0.047868877220889283 0.68849440036710918 -0.0072267397523984034
-0.23208220999896551 -0.48406188303826059 0.14329659178204901
0.6215931334444631 0.75454272200617178 -0.0078441485953388845
-0.65966045274121865 -0.25881543262582851 -0.21380111003631064
-0.11320741814783231 -0.45715250079443548 0.17851912521789481
-0.1415701156155616 0.14325767023631641 -0.011932162178046601
-1.0933467519910738 -0.67309125917468771 -0.31452402055229278
-0.006084963144229627 0.7667413809588346 -0.072645550303703121
0.32717996183356379 -0.075861440356721044 0.24998175448319104
-0.61158780227908505 -0.42167149794481951 -0.028124655314870406
-0.90504517880917112 -0.51224993005781028 -0.21930543499346555
0.097286817153300953 0.63596672246305386 0.11998437989700883
-0.14564924102595539 -0.10038533912248893 0.13164644176245188
0.34377364204375715 -0.54338774704131332 0.11280808748504656
0.37216309969149264 0.006803174008087165 0.026422838502029311
-0.61751897941555156 -0.62809084289937467 -0.029641896401460421
-0.21369600045618778 0.37087904047089948 0.08952935566871667
-0.46671773313742221 -0.095197855221953898 -0.13682251661777922
0.36955163832881005 0.50897957141378858 0.13252362997853417
0.45612979629976114 -0.041428677766555566 0.24441529562445874
-0.02835885854582873 0.6122618520707277 -0.061044081528070171
0.17889489099362038 0.33725310504595019 0.054648358228658322
-0.16161241399143933 -0.63650872997802388 0.074556745751410247
0.60542296239985915 0.072793063853529905 0.1705536835537651
0.022932390253031981 0.81401073475288888 -0.0081251273808200519
0.50327585841167455 -0.34720983426658125 0.021056412283764647
-1.0536138231354339 -0.42596685163008263 -0.37923872307634299
0.21877441397834113 0.13788018829674042 0.032114927142420591
0.22882598707342644 -0.55791698294404213 0.21531716442231641
-0.06851678098546099 -0.31004909188395868 0.17043422238406514
0.36386117979828814 -0.53955313701112417 0.16712210695322671
0.58388736401179653 -0.46435360210363819 0.070538457372766761
-0.22818598029602161 -0.16734434050465374 -0.045101250817967564
-0.18127853702692345 -0.2697340489490665 0.14330694551831868
-0.65993694892821064 -0.094120164834967435 -0.21464358626565772
0.2775437331596099 -0.39647715976844111 0.057520374982218625
0.60161821656486303 0.70580048019644348 -0.0032255564707022177
-0.054798656317189387 -0.45006204329185739 0.026721820140175767
0.79873339703183555 -0.054453188726536927 -0.17779999649835387
0.69881302439154358 0.30898457782698907 0.044554959094405433
-1.0307493504452805 -0.61357877852446152 -0.35644242866391718
-0.24125198111630475 0.12721997955107089 -0.041772705732162851
0.78520969437767052 -0.21553929674994832 -0.082842776020169762
-0.08577465131328299 -0.76596176865888532 0.27945533509625298
0.59398062286720221 0.77819188881863877 0.023478943943936903
0.16725734103186884 0.36198829395302612 0.061600576360649306
-0.52726167157254067 -0.50195547275641639 0.018413157092151522
0.071710164675816063 0.39297126977480668 0.08164227237053101
-0.38410461333640517 -0.56738663191275995 0.056069957646932789
-0.69524823391593726 -0.11344852821809304 -0.15986399717139954
0.14594575647223146 0.11183071824212831 0.026037622590749043
0.7237229301689474 0.40130947148401641 -0.090261881324758875
-0.11667894169001908 -0.52717085921890838 0.19421247997277336
0.54581715307638434 0.6379789800906055 0.018578405884353
-0.10645059474498286 -0.064842472981948562 -0.027164405952954107
-0.84120006581802054 -0.68497063972041028 -0.11772198718383309
0.46642296328580241 0.57880272405761279 0.044412309214726386
0.60791629673109049 -0.16406574724217671 -0.031464309510587984
0.02901703747049833 0.4304437397961216 0.20156959490911408
0.46397320597527458 -0.51497441264461175 0.10470242630457927
0.67726132194758915 0.0030925672074408883 -0.081171265089816869
-0.093010750435473993 0.24515974742944002 0.011307067015370764
-1.2458654982134665 -0.6194731049946961 -0.48369033015231078
0.56439448108960855 -0.34880128710629887 0.1438069822153718
0.67411238118078165 0.12438187838239045 -0.088524708443281419
0.010986463384623224 0.65968964038748701 -0.048167393264153313
-0.70928686709864852 -0.11098529728275031 -0.19554907092375506
-0.42154609876200022 0.028297935841493205 -0.10457577181772493
0.42718502447539819 0.99445127303521907 0.11423616879991161
-1.0595200280545465 -0.41859922693083451 -0.38583974497932294
0.21149932399256161 0.40012093783601532 0.067824623792766658
0.71994038409347949 0.35280074580486032 -0.12089958871361794
-0.45535698458625551 -0.49308184611498906 0.054827581720785279
0.67747903347367688 -0.083179894082419992 -0.071814337234827441
-0.93202260379127944 -0.24092114677837095 -0.34080974741115999
-0.49921044846217005 -0.69207029393436048 -0.076266238614724813
-0.7380516933826905 -0.31803137654224678 -0.23603716552403742
0.49592103930194764 0.22001031983078256 0.0039085062009511784
0.027794506250507389 0.24883617843591366 0.032938072261385676
0.71718993236334294 0.48767899864035513 -0.12149363468848406
0.36200600080042455 -0.051258500099365722 0.24888608533060808
0.016021596237260294 0.4050130667652907 0.056673558434280125
0.027279731848565775 0.87115967596934163 -0.061914716489366084
0.53701153446930405 0.74262322636846845 0.067077574268902707
-0.75971100228053723 -0.14202383601338453 -0.24208139447759902
0.50607849405468031 0.70962025344388158 0.072419156305598253
0.49323687432442109 -0.021844526234820361 0.0029701608763434972
0.65346168032892271 0.60084082518297954 0.05602685180235345
0.75392835280597914 -0.21679650051722876 -0.12025133621412887
0.32336032332252196 -0.6195344553197899 0.23221680143795265
0.40258253418733986 0.55640744309551904 0.12673882227731825
0.098684120895338706 0.8268303513705193 -0.046419799293975439
-1.07777162838308 -0.38462972398111073 -0.41800037241726806
0.22157349188984032 -0.15129366185585358 0.033988971185796135
0.076041482614848666 0.3766461615404153 0.16761434561808786
0.59178392743829056 -0.34577269169137148 0.1063281050219711
-0.4597936760242623 -0.066893311918593268 -0.13148584979285349
0.71866679316120763 0.38245647912084246 -0.046778485344431742
-0.59184490299203885 -0.041547486871859274 -0.16152720929989828
0.078940573872410602 -0.022063651702755038 0.008954244546567125
-0.58982339339974277 -0.32573690675506151 -0.0038574380280986809
0.50864917513033425 -0.48626104464665121 0.072201204761713544
-0.1103686368023955 -0.81982500280775594 0.28813937114488164
0.035276418092085426 0.22742167631599508 0.032975704746347034
-0.83899028184923252 -0.42013697900364344 -0.18726729962206523
-0.71892004573184454 -0.12552443936498503 -0.21256189850580665
0.31273337727709705 0.87564079254797189 0.14148269892524468
0.0045180633722717856 0.41584041631657098 0.052796689924360818
-0.05587213247227818 -0.5567997777415532 0.17020846741483453
0.71799752146031393 0.22482812247395301 -0.10407616483080684
-0.85530508827482943 -0.61136914143043741 -0.24740714343925596
0.50779590764797089 -0.1173479753233988 0.23329235545369453
0.18991844060054452 0.32476190414352013 0.1450763152436465
-0.27259895281841695 0.14780720200658748 -0.040410049822800609
0.79799072778849123 0.044515271849937976 -0.15423184612716101
0.50250066627682199 -0.45094200548452057 0.060890612328113214
0.69895567043828677 0.1481732122799333 0.029900520021728827
0.63096495895501981 -0.31517176150966986 -0.02320292600127738
-0.31393929280946764 -0.67776817032933889 0.15502673766375796
-1.0020575314146825 -0.31505835112940705 -0.3605887212746417
0.62353251777903917 0.11729692586074836 0.1459334077458001
0.69616466098532404 0.51669464881094207 0.0063189011298954156
0.70781245114073488 0.50237472151617291 -0.12117522556719407
-0.21152736655978888 0.14015403722827635 -0.032520786282356218
0.63557999986107772 -0.23289790735329752 0.099105291931670614
-0.52040974385119831 -0.49952107103612375 0.025987349678233684
0.14818176653439938 0.58861164092606821 0.089385064888819699
-0.56361763746869964 -0.67693271668637345 -0.096847693482529751
0.071313296100271956 0.60618118614307459 0.13405384069017257
-0.1100246649511617 -0.70323346258962682 0.25269996100068726
-0.80619483091001443 -0.39773510116558575 -0.24037837643698068
0.57536051381990794 -0.15378296133109348 0.18933697777787284
-0.095370643099581848 0.36737794546493219 0.017276134328806592
-0.10530513087660587 -0.12671715149303497 0.14769980489054468
0.34876128987773347 -0.43732738109490454 0.27908596388261131
-1.2854233655475811 -0.56502799208739263 -0.57191799206261007
0.11344254450930585 0.39957091080586538 0.13670603918534741
0.69289186365302236 0.71756491445461124 -0.028510636751685858
0.071953385547098764 0.57816750709310138 0.16188496503975425
0.33029121473385031 0.15755282983698637 0.031040203997658056
0.5926402154100876 0.55447242509979322 0.11001591083285001
0.75551027235983736 -0.23639180186692688 -0.030271659034894149
-0.1161240841636674 0.55867562230158474 -0.08206713212746175
0.11564579438497766 0.618365149509287 0.084171708529040989
-0.75292558226782824 -0.35920283977323053 -0.22090388536170003
-0.76966528497628206 -0.32753927851531328 -0.16380109999717196
-0.59629718845252033 -0.063695519891109775 -0.085280079531051989
0.43581889218109876 1.1129484892405341 0.13551214241932907
0.48894063654409836 -0.1990983254215033 0.011613789062955959
-0.039043544717179607 -0.080572321370879552 0.16282201649742722
0.21940273457462611 -0.58103986885268455 0.093187734937215438
0.0884783400824527 -0.73024451896185605 0.28162246615133135
0.69648874432057173 0.69712370696444692 -0.073996688318183734
-0.03273714415486173 -0.62021334638462289 0.24317464900946462
0.043816640766350251 0.76221406800588332 -0.100062158776417
-0.66157392834382556 -0.59768378052448723 -0.11269076513476728
0.66070583825499496 0.3167910710798314 -0.083079540022896747
0.60294620544812427 0.47352233115094111 -0.033776163855108399
-0.15128403046712807 0.41377999951543387 -0.0071939074886737675
0.70583142485290074 0.55359692454666631 -0.02956483518193509
0.45991619395575123 0.63976347899528974 0.11016427314892852
0.69925778408679695 0.64707193437487476 -0.094381516366394136
-0.87810938151191142 -0.53382318191430789 -0.21514902064532038
0.023837993073741098 0.5138582916100134 0.062013860055023962
-0.18124658452012626 0.35584277694620159 -0.010465235583014598
0.57144253247233667 0.30354719075255465 -0.025524710346582768
-1.0491674348371574 -0.66959324418169264 -0.28729363799655405
-0.80061207610136986 -0.83271392471668559 -0.029454246468180401
0.52433463997176633 1.0393597992866117 0.078984955224920661
-1.0297180261271066 -0.54230767637028721 -0.32882251647280869
0.59989071300032482 -0.27923189639399237 0.13034619399459135
0.52194865370950216 1.1623414604865321 0.10653094514789796
-0.76311626588989712 -0.40029472385517439 -0.13719645551704418
-0.52127628000781634 -0.50777815164354556 -0.094622739228694241
0.6263854044685534 0.57329072111756441 0.081710891024270316
0.32191970094177591 0.1077063377994254 0.19659122827832043
-0.086953814173563404 0.4384177182321729 0.012886847296841308
0.35578304671325767 0.33834193220098618 0.17178617110792893
0.0079559662423555055 0.53359502589978347 0.15226794622089335
-0.041937950973879479 0.61040213333047988 -0.096865514623438953
0.59959832702700522 0.69133119019560851 0.091274744347442205
0.22367548234220713 -0.69037201240446067 0.27587279272717558
0.13455893505627792 0.89189070250115376 -0.072438955774351221
0.0079420634688480152 0.46745449390995031 0.054387288024221547
-0.16650175552650373 0.46454493667602481 -0.0098169000154662012
-0.074157262746373687 -0.78144192147755587 0.28514435198317045
-0.50388550200982707 -0.079597003318102377 -0.14964956657836415
0.2172764837560528 -0.27260222981209514 0.0420945528902954
-0.071935320069792058 0.28666899852336036 0.19893646335121384
-0.091420319956946189 0.53581199530111068 0.056363429645009067
0.39353434359118111 0.18768294186186685 0.02644107466747414
-0.036796824052533927 -0.657530361171763 0.23347729104681703
0.099895913855221563 0.317212277746455 0.14783363303939323
-0.20585038189507199 -0.11221682091327723 0.19567349490394714
-0.60889148554982186 -0.251413529216302 -0.18478506763139113
0.76709403819096111 0.11805470028221388 -0.13917186248810154
0.11665347521315728 0.29103316924531253 0.048692944147254114
-0.43021626066921315 -0.38699037043783169 0.065375874019542479
0.18234864744007373 -0.6679473882027902 0.27883923115795595
-0.75411760769685743 -0.17509422357450866 -0.27589954604763212
0.68387240189337217 -0.027634388655357611 0.040635305581365078
0.081330966420456313 0.2853437142665618 0.15746354034276311
-0.22703412961203923 0.25200928633194963 -0.02850146107466589
0.50038271889019348 -0.50852498371308197 0.10869018416816623
-0.081236429613758321 -0.80475623735582702 0.28478398778442138
0.44359272564391983 0.27904555479090942 0.023809150532286161
-0.10745485323160797 -0.4658747392780318 0.018382864262066922
-0.35266903636999258 -0.24202619902411016 -0.050812919674408485
0.023545413796118686 0.67073291354199704 0.049402041571224631
-0.33819908611310334 -0.57285885485209409 0.12218646537491828
0.42687800863823544 -0.14532203609304606 0.25473273560537324
-0.18988180256712939 -0.67370239421607969 0.19764443354730776
0.54827212559585448 -0.41994092729286847 0.14058292258082039
0.66830511228080314 0.36979681446367763 -0.088016086091607493
0.079309503516069496 0.80047017285460664 -0.011414859675763056
-0.011468524320759482 0.65030024595480462 -0.1055373666052708
0.053903353300549017 -0.72114623745296869 0.28650182054822793
-0.41792390663579015 -0.22553078181617003 -0.086729316868112694
-0.10670200825879617 0.0086803469775653674 -0.0047507828727610946
0.26164335134906547 -0.57818696594357943 0.28453834151266033
-0.57150328201105449 -0.43614665240232275 -0.0019856104455888701
0.21839226378189719 -0.47683770854847141 0.27944657061216871
0.77668900286990972 -0.25977380799615313 -0.091962193252644875
0.5734252121726201 -0.20759560697569213 0.17813775715169156
0.23537198463056286 0.41773050041811266 0.12254880168384985
0.18656738826745101 0.40272012892477327 0.076887570074464895
0.39078741848352661 -0.11353598793340436 0.026338625017027884
-0.63950597872690174 -0.28938790629978306 -0.059781626498604856
0.090752600850685733 0.82771777814010106 -0.1006757537278935
-0.56660594255675156 -0.096563643180251013 -0.045438149186498134
-0.25389696599245259 -0.40553622245181475 -0.024226524435781993
-0.31230458087223878 -0.7684244039630258 0.202457164087539
0.055791451716687396 0.72322710817390856 -0.080079865098926506
-1.1316494723272643 -0.67844288201542369 -0.34749177348389848
-0.95434907855715734 -0.48966637248674105 -0.31057028430491229
-1.0291307324949175 -0.42069514476046077 -0.37116122654239625
0.70294858805751492 0.15569223882391547 -0.10989929933970188
-0.91573376083799896 -0.62319354335795984 -0.26655764872005228
0.067683441819609724 0.21880355895289716 0.033723146277233385
-1.1907115671294779 -0.52994889270509549 -0.48939641966636471
-0.74757524252346574 -0.6168553209387424 -0.14684801571707995
-0.013967631604241137 0.57949265535777261 0.077339817705293523
0.072322420372852358 0.85776505346028076 -0.044556242447523209
0.32946085193075209 0.26814177448284271 0.0458037760420269
0.42608301860585929 -0.40445851473112726 0.048605492270906048
0.32605920178512549 0.52398300172044099 0.097049749297084542
0.50005286472720178 1.158052795314201 0.12168571063209122
0.45209904215821772 -0.52028791129785679 0.15386193741845178
0.16230897952987244 0.19969501504192033 0.043796649075911853
-0.43621004416100706 -0.21805242552965276 0.10398693451283636
0.21844820652592561 0.40894622863043795 0.12351567789903917
0.063805515102533406 -0.55338241417635836 0.2595311249847283
0.70682501666962194 0.44618430838524858 -0.0017154703203359212
0.4264654989167892 -0.39936198925126054 0.26701430982124297
0.58476371456486931 0.46970144475690168 -0.022423974566325722
0.49893777934436379 0.091393359515836936 -0.00038470228388431948
0.041558397130985192 0.11996037629963552 0.027582904818764797
0.32239783715266856 -0.53725876420353891 0.081243304645764347
0.4451759172160753 1.0218333035369744 0.092585873320108147
-0.076522430787095225 0.72794925920029607 -0.062464589550567551
-1.0800809474040576 -0.52402220094140572 -0.40685213892769645
-0.64784311975532227 -0.64409783264372 -0.010815826321735056
0.52301344271460826 0.66814055511145742 0.11397910012905377
0.04855585053371736 -0.2449208241102101 0.20304929010794881
0.33462642159965261 0.5068238082508556 0.11981335517508285
-0.45446176035097546 -0.23031693813255849 -0.10262832251345655
0.71812668144700254 0.2843402316319168 -0.035821155027267571
-0.22313038262869311 0.38797484220926504 -0.013920557425457503
-0.87778755287148336 -0.39333964530811771 -0.28358050662040868
-0.090003172917369256 0.28348980679837066 0.19338507169133567
-0.86374647034131913 -0.50038100351774273 -0.20207082068513715
-1.0937102364265558 -0.37129619206493181 -0.43411835951545541
0.010659079265550653 -0.14272905223834575 0.00041829231871548522
-0.58637654236963788 -0.34231988070157082 -0.034112894978388653
0.020498725863641737 0.16450846103106675 0.15940160181930052
-0.23238445978221389 -0.63082983480488219 0.16273487782954232
-0.63521093215546931 -0.28042718314307158 -0.024207105843224275
-0.59189507808414632 -0.78944861026510771 0.072321350454982447
0.698899469232798 -0.038926841723836203 -0.0907292156806776
-0.16369933539568288 -0.57933185216571503 0.15603434532585281
0.68090290353487759 0.70347707505881041 0.0034470541882214434
0.18308590874627864 0.69028434365294289 0.090090522930633687
0.66333683271028931 -0.27564663310956239 0.058294738307653748
0.56898812703037493 0.29942901738071526 0.14966592736873929
-0.61429707518578835 -0.14506814115121025 -0.20316178424175146
0.19046630842904552 0.37944918747259493 0.12903077809675789
0.013977561185140153 0.33127411279798435 0.045466712510731977
0.16815673956517221 0.63063939763309196 0.14731982706511326
-0.042237355349552863 -0.52568131777668825 0.053732865536919805
-0.40773666339072279 0.06622853565575415 0.046064835532550141
0.4296351688056132 1.0143096524252433 0.095133684837933385
0.10977278889049288 0.86332818415358092 -0.055751569945873491
0.41351939301752577 0.9869854449026545 0.11783133208922125
0.47214852641319499 0.16170011645806892 0.19967055466133488
0.14907829158324468 0.30902051561405552 0.13876394449294605
-1.0285566355985338 -0.76444358622669961 -0.22213474761795315
-1.3116769707122071 -0.59288486077172942 -0.5709382903494018
-0.42164644793453188 -0.32842638249597311 -0.056596333838735191
0.16245373683339034 -0.36604698958449355 0.2598768705814507
0.26907505943905607 -0.55969480373926439 0.12707153270529714
0.68665832316388831 0.38703352257806234 -0.10410806287438001
-0.13222774209352389 -0.30718216153619493 0.15967117187728741
-0.1858209974630336 -0.066225941240167341 -0.025726487900563422
0.6375997043035917 0.80505550617686028 0.026393293412220187
0.13739311102170781 -0.039846034045311285 0.019454108577818818
0.015060071606331105 0.78649569839207167 0.0093587882100920616
0.51428001353475583 -0.46021370287741081 0.059173790130204296
0.54414677991105698 1.1999860311250812 0.10447620680581116
-0.0061602323285085137 0.73644997434981252 -0.078184721423399273
0.25185357872288433 -0.58818554654147737 0.26775127971799861
-0.24793643342652316 0.015346430578134784 -0.048933570308314023
0.41830024629129359 0.93686260268204236 0.11973692948777903
0.019578305064834323 0.59254256317410392 0.086598850226367041
0.50936333153090785 1.0255869909209303 0.090709730657665411
0.68653422158875821 0.43424036167474789 0.045474570260842562
-0.66574676994241866 -0.74188169903519707 0.016160246317773908
0.44391265526971135 -0.5501908503899684 0.19095607015669769
0.80732977922116667 -0.08466931578887027 -0.16923051376128018
0.020355851687082788 0.61926990691603256 0.054318256761489048
-0.093806960357316616 -0.79054502685214256 0.27333673763717581
0.66758787507102302 0.35510011246547646 0.090149395883036165
0.42992779044896001 0.60219005637108913 0.11687092844947111
0.33638492531174435 0.51685590861128872 0.075835275104980227
0.34256835995700308 0.87276357560076612 0.12757425170301939
-0.73741155186264884 -0.48561864966856816 -0.1319450298037812
-0.19022360378506559 0.12724147709719458 0.1831480620627719
-0.19571040532643927 0.37380184688635731 -0.014089185652423453
-0.90456256095633059 -0.49895571406460371 -0.23118259951834119
0.59939428770843528 0.64116330568637148 0.098189118080199922
0.62099383161627741 0.55008834207691115 0.087847756781609831
0.54721710732011042 1.1026150998194879 0.066132774838319364
0.0088751564452293208 0.33871532997156395 0.20419797292661634
0.42904904561579527 0.98251937166749648 0.092716733591358569
-0.35142639949611876 -0.7020871844369283 0.15072782525100203
-0.13537353921561623 0.47362282722165294 -0.032385620181120567
0.37904414767033234 -0.56513829466997156 0.19025195043185317
0.040266068853123144 0.4603013112985912 0.065438949848463546
-1.0274935149709057 -0.4237414391425105 -0.34301820546197637
-0.18027646935182029 0.020156778097321526 0.20278924240694773
-0.94191904379948999 -0.25030674676224329 -0.37441723287340878
0.10834023182640057 0.44158583626900594 0.10430806470277854
-0.014539709696044817 0.46299449405811832 0.046742532456519381
-0.063857319807442386 0.62952466014035013 -0.084167998732866955
0.18470918515637028 0.76261979767443666 0.12511966670428176
-0.035650942723095908 0.28919719148235834 0.20681119053112051
0.6426327706293411 0.70893515368479965 0.054261553261759632
0.21945088784905503 0.4115302173460722 0.070234240616533494
-0.39096795537980988 0.19505987757103438 0.019646471349367811
0.53601212128457654 0.52222165468315507 0.1401782386946322
-0.70013867993928791 -0.1197341728200827 -0.23744940469663889
0.49056525905156267 1.0897347122555807 0.10398414575383019
0.7201986537166909 0.17584823945512085 -0.073700394139314618
0.38186391290525845 -0.46397805146046145 0.26570890744061071
-0.0061479976731523556 0.50527163208152936 0.047279959966525453
-0.18421722296325829 0.10570712218071665 0.19070661663465138
-0.28646886856695242 0.30386294745450781 -0.040713199696474245
0.0086970339223272908 -0.17317287403072412 0.18524598932581648
-0.15427857574765641 -0.058756546968335099 -0.021863186564092585
0.17763484577151556 0.40345716826458666 0.083250242498854821
-0.079474377391221984 0.72670720826405066 -0.042681225723923966
0.11994499824505184 0.0037305117193449089 0.017106291306802968
0.043424937970812399 -0.009542349005849271 0.16876760952145187
0.61994130450209406 -0.44090445868801065 0.04809133356957096
0.52675771670442295 -0.38799070045406059 0.17055360517009754
-0.25394498960192613 -0.36551391915736398 -0.031488072115829491
-0.2114319654039658 0.27710019106996575 0.12889268120506436
-0.062459047498276243 -0.53267509048509487 0.13635765682885514
0.43664429079373901 0.96820036114560271 0.11265034799588802
0.63918306262661129 -0.4267291736217842 0.010808071022607724
0.43447710806133727 1.0276217761491051 0.1166476734779569
-0.76552591797579905 -0.16171146763404387 -0.27866116355840864
-0.71011862224696187 -0.25455319045010238 -0.14482700042117735
0.64596097126666951 0.80945252138486712 0.0086125845855224981
0.080752888140662726 -0.47328548978539775 0.058527366253162905
0.7662262015586524 -0.26560800400360018 -0.057765090188104162
0.64747456495114442 0.39325545580687749 -0.070536333784326777
-0.39847064370075491 0.2062197365437739 -0.075513249277040506
0.72034048457834543 0.31250274292179792 -0.10415304024218663
-0.080722842141948664 0.66269197416791981 0.0016621309748687807
0.029426955559758189 0.48710043728286689 0.06255965931649432
0.68662843680055508 -0.37108923198918409 0.027422310775054193
-0.90915434171811915 -0.63103980096163437 -0.19031521017904418
0.0070793897786549931 0.69515851646964411 -0.10921999049643505
-1.3411483191029607 -0.59623848739087881 -0.58519667050975754
0.73082928217799248 -0.27349782274068879 -0.093223458512925239
-0.93072404363236827 -0.81202566323339365 -0.12681738549914856
-0.12648813085130284 -0.42753754394146692 0.0055338378933256216
-0.52701382536276498 0.080965113187067228 -0.13755675806830259
-0.6750210150345658 -0.51387416282953691 -0.072730699274644373
0.48199084998703101 -0.51219058794164884 0.12703503289035245
-1.0369933057314031 -0.7062714710343827 -0.25227981045748993
-0.062367669165020789 -0.46635190579631502 0.029672337036247276
0.21820207627605684 0.77391658933358176 0.13684098919487653
-0.28538432705549033 -0.46828733638308329 0.12728997942903009
0.067609577708232588 0.61549535631773744 0.11515319117839673
0.0888787188546456 -0.5573845086500181 0.15688632826951165
0.039132676146393264 -0.56144791446002962 0.18282422463708681
-0.87887191018167243 -0.44604824734206383 -0.2673986158561541
-0.14458135657328669 -0.23033207942649137 0.1519869654723478
-0.1348614938075666 0.44126773066979696 -0.014817964798815142
0.58329997708410164 1.1731608239625859 0.068727239585821165
-0.96722355991908671 -0.26841366278237611 -0.3883598755099944
0.67375980391417156 0.76336521325046869 0.0014563829957672247
0.72816093987650732 -0.079767182041645901 -0.11567234102730017
-0.17096332436557823 0.047746506952636381 0.20247408634123332
0.66834324025765512 -0.23335151053305436 0.048547142281744726
0.55386154991046155 0.47943790861984792 0.13768184324449217
0.5683089317080815 -0.25932035550936794 -0.0026817531892304736
0.39683502772699392 1.0566811333786856 0.12410234710278045
-0.39371613358939872 -0.84112350489009746 0.1925758456191895
-0.11703189614891385 0.11539426665567198 -0.0064416195132028786
0.1038629292505302 -0.57669838195011103 0.11823069336197545
-0.19355899527885045 -0.46269669355522602 6.1010554389229199e-05
0.26293748451041771 0.39331093618228596 0.13615270905600263
-0.85950606161032539 -0.56484321580794428 -0.24896713540498094
0.060405662278360639 -0.5479858116494758 0.15784573710424654
0.65138144295583456 0.75075876457811819 -0.034297217196727514
0.040030950224172052 0.73218508106872204 -0.10884983378072755
-0.0081151549809408974 -0.24102574078549521 0.18011595011011616
0.23624261358246482 0.83134062575869772 0.10901816355671157
-0.43078166134970441 -0.70649886756849123 0.1248839246991218
0.16166867726946535 0.63524253052081914 0.15537541471835992
-0.34944914840851365 -0.26441848697622627 0.13889787500679573
0.6751737728522782 0.48428017322571826 0.047455668820086228
0.39420134405075646 0.53969771658318644 0.0621798712775119
0.59387179316555083 1.2238402186954742 0.074186354376452712
0.4569296567182638 1.0815956297161202 0.10132391455172396
-0.3934136992327335 -0.61528224681869548 -0.049970057676668844
-0.32114921907063154 0.25750328384573185 -0.053785934109552347
-0.088736675678932231 0.5955471984384384 -0.083921640468777037
-0.097383875036965689 0.53285718762394163 -0.063744286841797448
-0.0042184609359421366 -0.54269567397281704 0.070321486747456863
-0.17095762654618107 -0.078215339509336568 0.11707735878655523
-1.3080860250127757 -0.59842351588909914 -0.55904180419577809
-0.99511951123971798 -0.46510137341069069 -0.31891511358911817
0.70131048015069841 0.6208572322170598 -0.10228313980832948
0.50737682709112364 1.0521411140251158 0.093081641712057683
0.71367134114127917 0.52798157702134607 -0.054208654352660757
-0.55584954919907426 -0.022744144587872661 -0.14680989246761866
0.53906524841029591 -0.16918231107934578 0.22170331422923883
0.11906422244141052 0.43049962931015595 0.12123206917047757
0.37408295950807502 -0.32546362374348337 0.27659587129832808
0.56101510242833541 -0.39807115884230604 0.12916824831659124
0.54405979176057295 1.1011008756515706 0.080890329657881122
-0.3902082110175088 -0.078454911512743752 -0.10244680398244155
0.58733091559553596 1.2542794114941112 0.089144306540850815
0.15186304335920886 -0.71842817878014364 0.2891743636796309
-0.50093606267853019 -0.29089685081202177 0.0044015953745437653
-0.3476336664597674 0.24895683433852045 -0.057058001800416092
0.51751143901892505 1.1725430456855919 0.10080230954713354
-0.66557441459167899 -0.69334396744436988 -0.17217631455702831
0.38024528489518622 0.88320253160704998 0.095276791631381919
-0.99918309980394771 -0.28164076227977919 -0.37702040521710334
0.17021856761534615 -0.36147027313155089 0.05105720633654709
0.0024289128437688656 0.27894381123191936 0.16686506768871912
-0.56683891735797398 -0.49025084276758957 0.0091832894837935442
0.78528582348206344 -0.14038439641525668 -0.079147410459513345
-0.39363959223344147 0.21648974692804179 -0.045753899723942837
0.72277403627247783 0.39307282764428786 -0.078937427275397321
0.049325018533454529 0.82542242174486358 -0.010263278586573277
0.68986817335528317 0.56035838571628616 0.017817061257834554
-0.2881811085518074 -0.23407106370546904 -0.039374827945548585
-0.73916268745340996 -0.52033013932019689 -0.093636807967134583
-0.36956421603831358 -0.21628697280789133 -0.064403493208463392
-0.32614277052460944 0.30983822476943379 -0.022571910238006199
0.78766473955342287 -0.17129716534411044 -0.083313703336803657
0.51837640033414245 1.0827416445675466 0.090579787230448794
0.14759995549060134 0.60436195735609322 0.086911507865223836
-0.96989585437703429 -0.71900716755314376 -0.19476650536769524
-0.057617939893798709 -0.53908576263215946 0.2184827889186951
-0.37878907882037893 -0.21988500050704629 0.12792771996351249
0.65963134981351468 0.71223989804250487 -0.050972117858876675
0.21035690693776804 0.35652342453602492 0.13996675694307381
-0.85728481177655569 -0.79016561478126468 -0.082626688663840486
0.22457882564714265 0.78821280861710141 0.098957533793899044
-0.6464218570627579 -0.32563902848426574 -0.17430148495598807
0.36768850297411992 -0.35188511755258411 0.045519839586086075
0.0055748908414739173 0.50728912386652958 0.1647893765052848
-0.54441288938209309 -0.31385031993011325 0.043661538322023796
0.40379036289183912 -0.23906768622853702 0.26777238502561751
-0.051273301724697684 0.66883181172699757 -0.062620223653857554
0.53108769951666113 -0.36826910641657329 0.034626735356568794
-0.055424807694080841 0.58069560987077362 -0.06766001256325449
0.30567014453155245 -0.4577093265259411 0.279641596599153
0.60917954631419835 0.58366580619138575 0.094803353275604074
0.028975014505280478 0.43083491169308208 0.062263440805950587
0.34194126603588726 0.11333313856466187 0.028462137213373984
0.052604701143207755 0.19021781851374575 0.029492670657621289
0.078326787572820411 -0.5756575212727465 0.21041680260798623
0.70976936893427456 0.45550364375572405 -0.12400100792850344
0.28892148835717268 0.78651246752882509 0.13266461068661806
0.4460035824268378 0.57325991154332989 0.052232069680207216
-0.069955837881770538 0.54306479063995328 -0.044112461269785852
0.49605838682386716 0.59869620459193529 0.13134257313556819
0.041948505509515954 -0.58324447125208589 0.25899724436013605
0.17354907558954824 0.16722869518574335 0.038538510359318323
-0.86850739441522429 -0.62944930847946756 -0.25472102483543124
0.23877630141028333 0.44040131730078436 0.10335889629614425
-0.45864040037537607 -0.53242553088758116 0.061370032571822275
0.71064524363008508 -0.30364822236775901 0.025286466642954419
0.64739508846394112 0.65575361612942529 -0.048984313927653345
0.23183917698614898 -0.10818650240827532 0.23472156772058606
-0.098053465263008677 0.16420400092479182 0.00034552558988631965
-0.57650758784285583 -0.60702754549443116 -0.081546501626816426
-0.78769428770092309 -0.15029223897805233 -0.27496989450162279
0.3619713495668907 0.88461888563572777 0.094285776553171274
-0.13146794797404895 -0.057906477227591457 0.18268481658762581
0.74603135829951861 -0.2536944092515554 -0.10670242699400645
0.38436091847733028 0.43940244324911237 0.047028955191151356
0.68153353432029362 0.23445958210354712 0.076575567145330314
-0.26052332997394534 -0.59543879376764153 0.13359455959280409
-1.3392541538806115 -0.57257865354905246 -0.59653152953461364
0.071451474956434724 0.75150300549584848 -0.020979912402374623
-0.08229233594001617 0.21673732765148523 0.0081742379495000073
0.32510938839128128 0.38548235032390354 0.051422633123036299
-0.23179065355047704 0.18352659221611067 -0.026488519443344627
0.65862827832123583 -0.32361781678869961 0.067462879619766269
0.78371741886372148 -0.15069258004953512 -0.15159820764737431
0.75988830850670153 -0.17936399582454232 -0.13141519005683677
-0.082059829321953326 -0.027842863654669037 0.13932958658850403
0.65909294600391388 -0.40510959770431798 -0.010920741188350291
0.11287931487223946 0.40788063500597516 0.11153016656864789
-0.045915757634437976 0.57594196473329906 -0.045715127325052896
0.7982919883406715 -0.16545003106032441 -0.14315482935165158
-0.75165265817036708 -0.70719015712654743 -0.058189229821338007
0.26455263508927118 0.051338451552894071 0.03072814024913173
-0.78194293969043771 -0.62502734593813547 -0.12807055088111663
-0.73241206369293754 -0.62167248217124926 -0.11069608745346127
-0.36275225159708774 0.16704922827680391 0.05129284478506424
0.54849550326418206 0.75058046742417672 0.074455054856444214
0.67934373107977541 0.74213421099095278 -0.059535745192071943
0.50401516206995645 0.69896742958871738 0.09144169773345423
0.73466897120068742 -0.32186764183913907 -0.076244397904128958
0.38987345849062238 -0.5002135553876943 0.089270978405901147
-1.3437175363312694 -0.57878763619267803 -0.61110267172198052
0.43614216476221102 0.94802018201725757 0.11612518898576729
0.62073594579887503 0.038368183607488504 -0.051286603494552052
0.056079112200645792 0.79972266569275297 -0.094692688868211583
0.49643246656527729 0.061503676606781355 0.00074720346709811203
0.49055032170729151 -0.50616846742153698 0.089565729297280239
0.35338036986617094 -0.53554973426045083 0.12033592950976457
-0.11047658697289059 -0.012091598349899702 0.18540355633440608
-0.17497738666724832 -0.62185001081361513 0.17683527495977636
-0.59487604926418214 -0.64912001087652427 0.0021957344577661075
-0.23130048195556724 0.40467930147539732 -0.0055345082111348809
-0.85663405141282467 -0.31513424186274741 -0.31256334993354784
-0.59529870352709957 0.026956971886858083 -0.14997311667150481
-0.50607787306801488 0.10772019167365143 -0.12265210623374112
0.16091589061205946 -0.57256665628365311 0.18741894987230845
-1.0651315072650465 -0.64214493753532509 -0.3172967353913303
-1.0455795328691559 -0.44667989235345584 -0.35740449626748183
0.055269481083386168 -0.29498659955209083 0.21674474635107233
0.63712323352288358 -0.24971433013042765 0.074018547242841848
-0.049116604025251864 -0.091237368394528451 -0.016787391774897742
-0.051642220382187326 0.79533784190122536 -0.077773361844491351
-0.059497516185482047 -0.0070825048136875512 -0.013496099328742295
-0.61937687653604656 -0.5168767971145074 -0.13784318971651821
-0.16750507120277702 -0.61587853937305936 0.075365787111942861
-0.28135022119323044 -0.2045150142058898 -0.040503181005663524
0.38027098199737414 0.52732994978470371 0.12971142477696218
0.51774987459463362 0.39139272854967566 0.15597729395999971
-0.20913242847117899 -0.063607457294482472 0.19857927304669665
0.26961665196130652 0.43540077233649166 0.069497770241131018
-0.80955126363567065 -0.56994335110662442 -0.1472331685205055
-0.062645650169054129 0.23696706258263767 0.2080271173997299
-0.087607127718790312 -0.42965301105399334 0.013813331835321074
-0.94585592936999852 -0.68842456639922167 -0.19916808532458496
-1.0391091002069439 -0.51986320741057346 -0.34977179215677645
-0.51973450545118183 -0.65891466383024588 -0.062513958282499837
-0.77684483921398706 -0.52812888706149508 -0.12588801360491253
0.23913043798332995 0.40328284493623401 0.12971193535765169
-0.63672448957724059 -0.22711386758646346 -0.086264164785432307
-0.42237776035631264 -0.070109092528334083 0.082388214144127003
0.66346929620561912 0.79217066646935463 0.0051903911656412394
0.31291753494074448 0.85035785045646417 0.094295197170742195
-0.29011847074060171 -0.62521346578936754 0.13900518923024441
0.33339626533351796 0.83146384413477215 0.13044240211277147
-0.29507176804989077 -0.39615767614686914 -0.028553402988717114
-0.22640016227275062 0.072520141180778319 -0.041517420823202755
-0.44713830784019715 -0.29285692344257419 0.035382574180689463
0.58002615210008812 0.73374381283651968 0.087060374260080842
-0.12972837492361944 -0.61194994110547407 0.085148882967856832
0.76965179780224346 -0.15447425978501306 -0.04782831936932519
-0.38350741668182625 0.18568109829481672 -0.080609112237795655
-1.0206660269134304 -0.29398044662654255 -0.39126634859270837
0.70961998789071656 0.33519312399145451 0.017255294069420168
-0.28223638729487743 -0.32247568787602465 0.11720574222419788
0.12260756143178808 0.52462185127126792 0.096065411429229197
0.57622452896238707 0.28017966369705372 0.15249367628209942
-0.055090916172135129 -0.19760518816822392 0.1688286464130857
0.67950710720651974 0.77198521417234844 -0.019631505488690193
0.039159073039888248 -0.097928406945858804 0.18216542872146801
-0.14449693956231557 -0.59148729333688876 0.16937580506198735
0.21573407839972791 0.31565459674167573 0.053145565284528073
-0.44229052981121775 -0.076602313499905428 0.067661425408081843
0.69719491994184912 0.0019995071579061996 -0.00562781076085761
-0.12511621459940228 -0.018076988999489618 0.15136700718651563
0.037157564541390853 0.18836925611816202 0.15482608929002528
0.089584222674463615 0.19212886162464771 0.14771192570918767
0.24060100260695039 -0.59183237777467879 0.1131444477105954
0.48440145307991611 0.98738370550593335 0.097345572618948273
0.68999576085069514 0.61649696310030322 -0.094574493840610341
0.05816934586636871 0.49221052844417068 0.070813813739906362
0.56875974660275896 0.77235031509784013 0.064970228125898588
-0.19398319227122979 -0.77657494431369256 0.25125575142903189
0.72028235825932208 0.11156123689907482 -0.091109125766366983
0.48518094806928402 1.0731928198178966 0.088513465275346981
0.20296072470977536 0.72333546039359664 0.13724957610308652
0.65255173238724928 -0.39104624503340668 -0.015798963407519739
0.63071644640121072 0.69160593688573813 -0.028952542804228099
-0.9592591063239041 -0.3310570382239586 -0.36948277995756329
0.38566256900021179 -0.52856665669100145 0.11834124177572969
0.60475822731298745 -0.28253239781346062 -0.011377376277424744
-0.72186615874541182 -0.52705448188107717 -0.082708799103945685
-0.28565822875931501 -0.23255166939101524 0.14808904584734739
0.6403862012604058 -0.40019588424685471 0.070915297657592635
0.61729647997265813 0.6892166303154641 0.081368375699535367
0.23434283179665155 0.71461027186709969 0.13337446895468208
-0.52165058538455156 -0.65268571280042764 0.043618736360664379
0.011482398580806435 0.68171692323501332 0.047304965833479651
0.71416886780322786 0.55191977264628833 -0.093482912243689764
0.71417932865672062 0.42056539413492744 -0.025562000771272908
0.42211541308170364 -0.14130241150771727 0.022366104984249624
0.6440370355048648 0.79722411124176285 -0.0095037105565471958
-0.80931921513869642 -0.30375372944521561 -0.28875640831559113
-0.24511402303000532 0.34876972624969427 0.077021726118752243
-0.24585050939112146 -0.82853735911357962 0.2516693694078489
0.03277978564346784 0.69545636362415664 -0.062899495841106212
-0.07438484821064506 -0.49854828390178207 0.20242803936044362
-0.58885865971154727 0.027407219133361416 -0.15821032761012721
0.52023837418554142 -0.32743598482735159 0.014021856243935371
0.78880152013993909 0.057391093477910715 -0.18077696411739974
-0.011956318361605711 0.083647431107649384 0.13994842151639997
0.71868914456239497 0.43255143329415646 -0.1276512208207623
0.36790377902342886 -0.53860052516637003 0.26386163307223054
0.55347979525425761 -0.086060952356999953 -0.015271887673629081
0.16800608432719444 0.61300118036210316 0.15574999324097449
0.26553665598564535 0.87846819040642643 0.13423829509134166
-0.78928800484912975 -0.35979243409581496 -0.24387246184688327
0.44417685907290644 0.57386850260369271 0.13238736293617537
-0.40684023695375016 0.22119285662067645 -0.014744421566861954
-0.41204790076540115 -0.1761014860760568 -0.095247310145523123
-0.94916747756805286 -0.45922223931034367 -0.26129077439208204
0.42224528326368171 1.0186266652057447 0.12058332705217367
0.1800557208161033 0.76140614233151105 0.10752325267221963
-0.61549049563925795 -0.57075747819726586 -0.016365220749245069
-0.90902324368012133 -0.30897076338016305 -0.28058036465731373
0.31012617790483876 0.474773644616997 0.070982442175874683
-0.024708422667884727 0.32209095977516267 0.043215285458330976
-0.44325036623025327 -0.42762814052779641 0.063987112321711948
-0.23399371035984964 -0.045511050839174505 0.19399858332165953
-0.26388488856362879 -0.61506551877720173 0.14335966739701256
-0.81584745525605418 -0.47845410998527915 -0.15243933187532677
0.10673725679532781 0.66291162166865303 0.099202121445218561
0.28427031005613057 0.74050029423283359 0.10093120862507043
0.40575151693145683 -0.52633029698915523 0.14757166225778118
0.32745676050368933 -0.01836785543542474 0.029590336279609275
-0.0038102953402000816 0.62432598634649183 -0.033150777721569158
0.051382246965111456 0.86585592429680025 -0.049633485922055964
0.54496433441485059 0.62681165692086838 0.1200591189285658
-0.45143765744912445 -0.28193374450159348 0.082201771851836192
0.33691070266201306 0.95519488448648704 0.11045848541388881
0.26248352229655736 -0.4725897714921603 0.28329686749375727
0.60047838163292877 0.74387693725441606 0.0063063286634581495
-0.034405705606018688 0.79819262402165436 -0.047145439855887261
-0.56674998119100506 -0.017269253768324111 -0.15110637371960167
-0.34796944133549812 -0.067175545080009558 -0.083247479706118899
0.14451836769415083 -0.6093891198761725 0.27563616985536443
-0.6727367370399544 -0.066205307546425951 -0.1619514607581356
-1.0795374325400044 -0.36013419757727916 -0.41905517290374328
0.55078980951548129 0.68818403256301663 0.026410657793484393
0.41903726493665677 0.58767577902518786 0.064423330944247237
0.20338896241916224 0.41549367647598112 0.11490155900693955
0.17265190704790265 0.072661081934498162 0.18568812054789152
0.30656210603306311 -0.39146956012463474 0.055128833437555258
-1.221289130952397 -0.54426677703991833 -0.52033893803720765
-0.16063432056331417 -0.51846356602186017 0.1753527250963729
0.6775120025431054 0.26658868463890895 0.087171501982729716
0.0037804247050999551 0.34700592681129816 0.053808065838950148
0.65335096983359608 -0.36475101391685605 0.070534368691513194
0.60036094106199633 -0.21622906801314357 -0.019780021257990832
0.69118264187054779 -0.35772920956531862 -0.045650583056607408
-0.57949943174809948 -0.45202746939650817 -0.10337090587379749
0.6592100020496594 -0.34759102860717617 -0.033722776421446499
-0.43971079974864691 -0.1837602271153469 0.099669830202214316
-0.6479494202709426 -0.52559363874576537 -0.044186365263216842
0.206468027447131 -0.35549175379746778 0.26687300084204368
0.63277333013577319 0.77223891103401354 -0.011696654621181635
0.46044389168613808 -0.52569322099716809 0.21678713899391111
-0.21595643634516848 0.055112979681817276 -0.039105436525552539
0.088190605528358085 0.85170877377527043 -0.044253383090447018
-0.68404372904427269 -0.38471555358549092 -0.18130098556512531
0.15686217219356796 -0.32059769505880942 0.25854283601417372
0.009775419966840504 -0.28168490258328593 0.011750560284560674
0.012133956733739931 0.69770845669766013 0.044262909142699813
0.55017389938441708 0.099445870309946116 0.20434190239522732
0.55586891137876715 0.657084693449552 0.016734757903898778
-0.5757626258297821 -0.22383882767159857 -0.056553380049982449
0.44747169393096076 0.61737337379777202 0.061908353023395923
0.38716573450941433 0.90418622043945063 0.09421820087666033
0.10016100119737142 0.13155700973058937 0.031719777162600105
0.1292836384462715 0.19313938207161541 0.1567845755848789
0.5622130311754211 0.70897755406416763 0.097747369211790724
0.17955260829977435 -0.33911185773815022 0.26263941163707027
0.13199286558174519 0.48986478963336255 0.17049527142497967
-0.2336794316501368 0.35669601602194967 -0.023091591104950515
0.5012712236677318 0.41031809593124957 0.15906868679032549
0.35262028740751761 0.86133274335575072 0.094741243711831125
0.79546307887612011 -0.14964946680256364 -0.15457654766721829
0.11683409725771726 0.21353868840780632 0.039864466977479251
0.020425678619588827 -0.10706475951285244 -0.00064326780046375376
-0.35814577315904922 -0.19916803814338002 0.14776676039520553
0.13723662006886367 0.39733609417927251 0.097685562564565398
0.03863359194581395 0.55290839012612181 0.15899442079095838
-0.38900004517810172 -0.64753710376681684 -0.041489580424951988
0.62901667756543955 -0.029496923879894998 0.15325472271677665
-0.47784642465907912 0.042756761601047577 -0.028483650121566617
-0.19920940013086902 -0.14204129324086501 0.19505262290571124
0.59909114376114236 0.3617562436527535 0.13185413910776589
0.26781202323355247 0.42054079502814523 0.12938436230794226
-0.33437043042679798 0.032086307836741046 -0.079372319513293155
0.609359687099573 0.2767838349152385 -0.048065796002552563
-0.53721167247231461 -0.61836457946263546 0.043710580619791273
0.70610580265234824 0.13115925961044139 -0.0023045771517575808
0.076138852599003076 0.60004191002503582 0.14509172761692324
0.28245953567255233 0.47724420529635658 0.081469041052066205
0.32534320368229491 0.9198407609366468 0.14521723977106671
-0.39657569348907096 -0.56643702020266185 0.031552993112370142
-0.6042992213071785 -0.46494578949438226 -0.014836576461784823
0.48969376077557325 0.45650508804592893 0.021078384285922791
0.61543254436954675 -0.44494474277118778 0.042519045008373002
-0.66187036522011078 -0.53361354004507233 -0.1598627532046315
-0.072568910915588758 0.12732437036637601 0.18015494810112687
-0.80219338231966009 -0.52866708374975802 -0.13677876249799348
-0.46997966229824212 -0.18017141762034239 0.075785053949557479
