# XYZ point cloud file
-0.92767620489762237 0.28629127487001682 -0.0014020301997135221
0.67670685869474312 1.073667901561457 0.066728931649187473
0.72208431289989505 0.064192725470533674 0.65204371495898528
-0.0090556620475439331 -0.96701378569570551 -0.03521099325245558
0.23431938629204296 -0.62196794204894701 0.47233482567944662
0.42972651966465492 -0.5333057877052596 -0.059538811275778869
-0.27067499869382061 0.01189825554651236 0.50929838200774213
0.85912753427658117 0.41968505407694323 -0.2019428947240911
-0.25108599131301901 0.21700848514279869 0.53713221350546547
-0.64169641633040442 -0.78122106223598564 0.22598498716886439
-0.98083521654869799 0.36851128910539188 -0.048135188503785287
-0.050688261950284641 0.32376953857617963 -0.52840164435092873
-0.16906925692997277 0.97570627303019819 0.12484077122451964
-1.0735694578418986 -0.64226257267748821 -0.91652364909586481
0.77826651321434781 0.071985527067752741 -0.4150597896750341
-1.027015610927478 0.01800831260481317 -0.46303349232126578
-0.49972781997124116 -0.75888549481313561 0.55640582424202734
-0.06210344884871688 0.94539180147867796 0.37103461149099815
-0.21570956772698935 0.68358446086648428 -0.11799999557435825
-0.67621170783273499 -0.77401925304610586 0.47006944586195942
-0.53652807884580511 0.72922414208210284 0.20813135550469042
-0.15145236780939797 0.43866858305707268 0.56706438156604833
0.55762437578547974 1.0789071662053331 -0.14149096397188288
-1.1182003833571486 -0.17786890725220417 -0.43345885621078395
-1.1005498527996025 -0.20293087849685776 -0.29128958811261896
0.31771729864898646 0.61510996290191855 0.60148744559019462
-0.0083838120787902426 1.0236063594161564 0.16265088450371934
-0.56151678976357289 0.70497872590270561 0.081881403922089646
0.89433394333262584 0.27003366421718766 0.51147056100820265
0.10334647570027755 -0.0079123607994660006 0.57060204239873258
0.25053040245110481 1.1546628943874708 0.03235440478142948
-0.083488742472695776 0.25110088739784686 -0.53605341607380552
-0.45884069047968978 0.69492319405485148 0.097046985689146936
-0.67538139943557951 0.0047494192985126915 -0.27945795073721058
0.43178868017966465 0.59218931090895666 -0.63721727744113821
-0.9813157064206024 0.2929972905099163 -0.038238857707440843
0.090310966871498977 0.11053683055210684 0.62739509255737858
0.59301663341459232 0.37362255164579494 0.6081027012432827
0.933257394735449 0.29831909100820297 0.11178365154076175
0.7528957758360022 1.2403610765325865 -0.20823102948251204
0.57876340183422315 -0.49859506622954086 -0.17013744419550392
0.85687622855255086 -0.41547582746738243 0.11949908565129164
-1.0542263344073035 -0.77879930005875053 -0.18980211166255145
-0.75671065158506678 -0.10420581722574696 -0.26836978698352709
-0.64621604452173642 -0.81243532396608487 -0.029105602118264073
0.011170070132564547 0.77845553395588496 -0.23716914498308483
0.57845339062043877 0.95520275844482683 -0.42677419919954218
-0.55092095355200854 -0.28821985742474965 0.2641866491407967
-0.032216528404674705 0.9079555771156862 0.45745134664987575
-1.0214287699615028 -0.049338526104151015 -0.48170213566999109
-0.63500270012762883 -0.8343171760701793 0.40495637854591138
0.67301781491291024 -0.17651044897907298 -0.39089136848293293
0.66534415668613178 1.2734789890574305 0.078092074109868292
-0.37807814795209538 -0.79097246261842713 0.56688564749723724
-0.9427402310594033 0.18000669452768392 0.023776728238537714
-0.49131254838016503 0.68533483938301032 0.080821541942498243
-0.38675602666505426 -0.16336019089209231 0.3855380813468372
-0.92358742595929755 0.40888581979901772 -0.038268827862808052
0.46834342739474266 0.44357620049306945 0.64337891766093236
0.033238656461179517 -0.13949449490085897 0.46347084384906623
-0.36087657882906399 0.12671465359854039 0.46677396220356115
-0.097470532863596304 -0.82043729806188992 -0.128755477936636
-0.30398726025265432 0.89396079083992674 0.013100816573192731
0.45870562540679316 1.2149811336069121 -0.031281470771496345
-1.2071463129675948 -0.25038875434640318 -0.34512409699753732
0.77974251695543728 0.97712399484325374 0.33081121364211441
-1.0666536352733971 -0.84911893146200867 -0.49661769825749502
-0.60287628190661735 -0.015783579012179416 0.2460028084198953
-0.50819984082376379 0.37676705778730479 -0.18894856134516402
-0.95392680085073778 -0.82140416545408357 -0.026007071631575229
-0.82144206673530107 0.3149370056711831 -0.1684548191570201
-0.45552692331428091 -0.59913609740416973 0.46663222535300974
-0.6336875446503285 -0.08125014958029908 0.085436676888193119
0.48312379904237446 1.2368327433864224 0.14692636039782769
0.95273117220241943 -0.41887093851357093 -0.18818218913332174
-0.2222561286646112 -0.27152098347462328 -0.48479714722798661
-0.98077183524385703 0.24104824989112927 -0.038129233030588239
-0.90508203270235299 -0.37163160461529543 0.0056751083782131673
-0.48005852536972782 -0.081470940142445158 0.10926159372251476
-0.13462957432864187 0.55088340216445886 0.51692171947166088
-0.0036275781339583091 0.019169561302973648 0.60617074004187543
0.13182266897253214 -0.30780275812741564 -0.50937947258093175
0.41534671958628167 0.610250185890159 0.61827244996673159
0.60217019268635852 0.96879023235141659 -0.39919146233907554
0.53742899869561711 1.2466579974617389 0.2145818627489291
-0.24116426647890421 -0.88358718279428672 -0.27323219776553032
0.87054881543309648 -0.084498929808994205 0.25868126501065092
0.75121972235945123 0.94734778362811767 0.39568733566179048
0.90843409486004134 0.17257591236807457 0.52000100131397886
0.87652269937480298 0.2744161672228671 0.55722487217654759
0.54438336004780297 -0.25529537815904746 0.56662945429845735
-0.64964676552010303 -0.79969852809214359 0.047291931831239253
0.079210156992388647 0.90778891642268889 0.028577175605178695
0.35591021762611774 0.73874825972085745 -0.52620824561808632
-0.6149551679811367 0.67640318036875158 0.16875941423883489
0.76813831754202511 -0.30663925657568569 0.45295358806188801
0.94040608876538556 0.050878115372363197 -0.48272080751431901
0.4605997733902143 1.0759111413681737 -0.049690322163627343
0.83040820822614592 -0.23176784902999259 0.15933305442153056
-0.20875731417244481 0.36605691484717084 -0.40280595267530117
-0.31760903790132033 -0.34861971783860213 0.52294311212416744
0.76534948307040906 1.2732280691432578 0.10814498919680915
0.19371788452329497 1.1305788902025213 0.054025000737496498
-1.0564681320758638 0.034116974787146148 -0.47033876379268946
0.75471364212005199 0.83824431590051063 -0.37059596485492818
-0.57735377198979165 0.70063403529661628 0.18939956510409672
0.78592414013054679 0.98041826508728036 -0.084299251899665251
0.64133151250692322 -0.50599043186883108 0.40444639867186538
0.42106736660873878 0.76236560640982276 -0.55607829481260751
-0.9183875372986563 -0.46943121568696 0.12823521166784246
0.18334441535252211 0.013988050447444778 0.63409381046284352
-0.14911397088123124 -1.0055784537135963 -0.15452022037005264
-0.22339998436495989 0.90431339579341596 0.2864259845874102
-0.47691849418669108 0.38190119122555899 -0.1974976237816719
-0.82360606873157849 -0.41308988945645808 0.19668941259175199
-0.22397864666245937 -1.0377942572191117 0.023388738309186863
0.23985208368809197 0.10043081280862509 -0.62230973029754466
-0.033483227303463536 0.042205957012086515 0.60317178372261537
-0.59444677107447319 0.44775493480016593 0.26833882170493695
-0.11661686741756228 0.69916259315655083 0.47490471505394538
0.31369388967574707 0.91516214219766567 -0.38252006330959176
0.09492662808725072 0.91294608924987841 -0.099572899739939658
0.17812886021910401 1.1141774513422504 0.10763575302085826
-0.2517537087098134 -0.50892996583568362 -0.33701001576716294
0.60355418504884994 0.30414432683434711 -0.68436752540274881
-0.65121493626395477 0.5217510510951513 0.0007684636330225203
0.02121065824833579 0.82287723627942455 0.26094471410658571
0.67318218502057903 1.0719754882838899 -0.025338577243381621
-0.11809590288230254 -0.72733711318440442 0.60207529889952127
-0.52745483023628026 0.69678972937114736 0.070815126287769203
-0.63264468622683978 0.65670986553257649 0.062085912511797403
0.10673732897949151 -0.73418875478479606 0.56286858997888345
-1.2258982163076553 0.094848806973701016 -0.45844648942777155
0.43506839896740246 1.2029100927277341 0.098015216383075199
0.6860357058763924 0.49800088014983146 -0.62176626126905177
0.56122592114539316 -0.70579091085726731 0.39626827942609566
-0.43690516919708955 -0.11536025590226018 0.12054723536590473
0.99137141948925489 -0.17101249288278098 -0.083793307954557861
-1.129826558752427 -0.62119514419519817 -0.31763886867850033
0.36347221603304547 -0.22030071659555261 -0.55969996011941703
-0.94744264933324018 0.38781698256596542 -0.043536058824713564
-0.63105974616199489 -0.31503599061301912 0.14288272275732794
-0.12633735730229034 0.51143397341968466 0.55831397835621033
0.91985948678527052 0.089551373059315154 0.20206188193463959
-0.32602813645875983 -0.39710883492284665 0.52006802692402232
-1.0304031866649126 -0.49161317039420993 0.045834656264517548
-0.48682365219626433 0.59514087793180437 -0.042999205065235913
-0.96990723643003207 -0.80543217597210059 -0.15578088807706791
-0.14880680975919347 -1.067069001976563 -0.12936867132474816
0.84673505718564002 0.58967212446329142 -0.25515912307170652
0.43590583959704077 -0.75566481612774794 0.44484062608064789
-0.21551091051075844 0.24974563890250323 -0.47616891568876696
-1.2558078721271926 -0.00086739239027622261 -0.47156069972064074
-1.1353997593701877 0.1385105591169733 -0.22023654846928764
-0.28296841541124707 -0.7908494253586511 0.24552982488798847
0.83779761143097176 -0.10451531893728827 0.31455357073276247
0.33453671460623013 -0.70574708378049422 0.00015538348410615299
-1.0648981353982521 -0.31549436027456323 -0.17382116632990829
-1.1374340429387217 -0.044745849127565407 -0.53989920531090974
-0.012697811570149042 0.54230379189098699 0.63395694500027844
0.3607914476267382 0.6738351849849451 -0.57667207638924367
0.40687671040785744 0.2131396797441738 -0.6618711448117125
0.015603352330046505 -0.89876930095076091 0.500605654428945
0.69486278172603022 -0.58361885751612874 -0.090645978432753793
-0.65356391756415633 0.46751736770379893 0.23230451902117011
-0.010400085914355373 -0.62181435538419549 -0.36880698446561411
-1.1970789249884461 -0.23222467315736139 -0.37625613312783202
-0.44080066726353095 -0.054569862198505348 0.15578118325485946
0.86585151701277141 0.064539771747284647 -0.19139885982082205
-0.4294349105637707 0.4461182629288345 -0.18528213237561175
-0.86690274752274377 -0.35919462885748743 -0.22735197407381236
-1.1069065280267836 -0.7404263777008353 -0.3873078883007679
0.17838503993300492 0.62514717458445546 -0.4783977220509783
0.2995741258161928 1.1605132322625451 0.24909699803719576
-0.11616381239910822 -0.20429163934196026 -0.54611573588291407
0.43331045050310024 1.2250094913934007 -0.076805780120274392
-0.50537673320194187 -0.60262626092747951 0.44365176985066768
0.17210716416101945 0.74574312513495755 -0.41888205649159715
0.40292594312697361 0.13434955913203339 0.66697392207362327
0.32763774569738757 1.1589476058018064 0.26408879865523716
-0.30593937133151883 -0.74238327096884404 0.59918129655983421
0.7795068155878937 -0.38341159622910226 0.36005260573547559
-0.096344883167830631 -0.81557471926806357 0.52937814973645914
-0.3002773451951839 0.93401425182666742 0.070459536539914325
0.32853342241638472 -0.73240923902758226 0.35606971034778212
-0.34087488598500215 0.60142863831745075 -0.11851269282902166
-0.26664019245200166 -0.7941038580291746 0.56559315568875235
0.45167357578567646 1.2445785166933447 0.060481610651137885
0.68896748816918318 1.2671880257609871 0.20165781580050179
-0.20805260762003286 0.084210069255078679 0.50934642916806183
-0.79260535122163844 0.38929800921370372 -0.09346580586529285
-1.1799566410015103 -0.48936205014511103 -0.4261309210602775
-0.47716623612031128 -0.29947037468762971 0.34793468246193981
-0.099851362138693389 0.65999464089013316 0.58492860361283761
0.088913705042514835 0.22122340562702192 0.65034348717433943
-0.24307463170828214 0.34936530399850341 -0.38556385558742079
-0.74175247235957897 -0.13683520384328318 0.097877225387200895
-0.066304276628173398 0.53882540979532934 0.54965117479770242
-0.41550427498759746 -0.33388108425909735 0.44052333863751159
-0.065951787794276129 0.37613895797953489 0.59372092094118756
-0.10209979750905518 -0.045222568444131639 0.48551889470683562
0.75139185308286471 1.2752814911986121 -0.012428528522285376
-0.83007484080646066 0.37747258474406209 -0.092952328096174597
0.11913183195915167 -0.36027357349596656 0.54037684454048218
-0.78683364503598341 -0.85593588108113039 0.37028469934644903
0.23799155503766656 -0.011808754188294301 0.63717498011688178
1.0042256365497906 -0.016877705232182905 -0.34667343134206163
-0.54902639989936119 -0.017862348441084919 0.30806629514687955
-0.3409473996014043 0.90934728444188551 0.10370173677033989
0.74780655652283201 -0.17457505507412208 0.54781882919835567
-1.1866707332017228 -0.19548223392054354 -0.35757635500915086
0.051564374886012843 0.86838690274502994 -0.14180311511672272
-0.69513898645848826 -0.79196243335637462 0.45526424112809849
0.93706889749479672 0.11896790272103175 0.30009897625337345
0.6292162927492484 1.2759204632636596 -0.097237920505051534
-0.2829079746365295 -1.0656309447328525 -0.10556780701261914
-1.2138948348458882 -0.22369204140055388 -0.36381493012382293
-0.80315720495318033 -0.17774068189804382 -0.2442377793196826
0.00074135608262793085 -0.063145969809973224 0.51386713841717579
0.26760057496875334 -0.13572840925633045 0.61185566996361729
-0.71512753126457085 -0.49141320337454175 0.25546473658070568
0.81353769388165631 0.1971228994504699 0.62904274944705918
0.23468482908339183 0.46535386242225485 -0.58011573068766609
0.5832367234525293 1.2344670882555846 -0.05394758913967479
-1.1393979369351541 -0.23612830451153144 -0.33955023687923358
0.79593160752040149 -0.23798126375174888 0.48467377083644436
0.28869975572123963 0.9602713060767627 0.23514814336178347
-0.49791373770904102 0.14180194249701117 0.24435966034400991
0.79229681796903151 -0.54957829528040492 -0.048920470078634537
0.48026762499098652 0.56177137084837625 0.63334745958908911
-0.67524074023134517 -0.78194029836824086 0.18619389773248685
-0.73802532104080854 -0.96583011854744427 0.02364230071354001
0.038258920468493329 0.85461567137490846 -0.42667873084806018
0.3716966605262968 -0.096522688271932111 -0.6055789283354045
0.40524895828860963 -0.81402824064160484 0.43508319112366678
-0.81773852353798304 0.43732175441167698 -0.027332913238957701
-0.01045656775544046 0.95300835105877724 -0.26094209766858967
0.18626924127815414 0.78471496044023326 -0.58609368072293222
-0.63490687195104556 0.047994440974903796 -0.25524938775029682
0.29086719266926764 0.82067018482477039 -0.44804493105924337
-0.20737819845778915 -0.012685988097288714 0.54600685713228359
0.69084239365038513 -0.44036842257992248 0.33218632857001751
0.17893836216239833 0.8336557434610512 -0.38560027562036581
0.40485250409199125 0.27579405120097533 -0.66675362415747941
-0.0771350489079623 0.81982747939810707 0.44514117633013228
-0.5215272448591719 0.44848782191704117 0.31015863820979916
-1.0267949043558389 0.074416023927852848 -0.10003915629708615
-0.78288777461874304 -0.38834344507735352 0.14704830451976392
-1.015804618474121 0.29166954147983404 -0.10443688800350515
0.017359750723599632 0.4915048017565411 0.58053988075734964
-1.1657585780488802 -0.19914681090692454 -0.41241656125698256
0.74201246092388828 -0.41101910771162409 0.26592217863878176
-0.06338166324866279 0.78803198386622597 -0.13709025159265309
-0.76920746366559456 0.36134733442989386 -0.13337765334165397
0.18379023562694385 -0.78795124634537217 0.35351007986328398
0.3078045840220085 -0.73736998107109031 0.21426894271252195
-0.11265931984218014 0.95560677385131498 -0.20453423062039633
-0.12969699609413965 0.8546812396620922 0.34098075736802969
-0.40769145388793504 0.84669006335401775 0.16825003423120677
0.31023141837630419 -0.80253603222611503 0.49795849997045138
-0.13237282086377888 0.92526763537389201 0.31976946373249149
-0.24143095901885658 0.95662077821143043 0.0043253770562543536
0.48290539064247184 0.97771327034569566 -0.38196628994343484
0.57975119688984478 -0.55639103541918189 0.4298583340411426
1.0148459309478852 -0.26585146181652419 -0.14616518028456937
-1.0040544390585637 0.18369211864620638 -0.033285452230067847
0.61377171760457827 1.2372349667292326 -0.23450377657721333
0.64320845080111155 -0.50979242329039209 -0.19357373800307442
0.79911140788291846 0.12694757017907676 0.63575026626083542
0.94263107478997199 0.28079606377244914 0.17282665194488089
-1.2116652004338846 -0.011584175604248514 -0.5359720611631289
-0.85669933206152393 -0.042441101374137702 -0.40969356162512582
-1.1937994945954102 -0.71024314085448736 -0.54790036174424017
-0.38577018371009331 -0.86008457854842391 -0.34141585775825689
-0.68599284252825043 -0.58650401132088348 -0.12054856173886463
0.12355643926534299 0.11779983792186499 -0.60463176696733001
-1.077936152698399 -0.42627139108006418 -0.10142427316618807
-0.8959142988487514 -0.22514544814151805 -0.092451411172824294
-0.30856770666370892 0.74260561440000572 0.20572280465011517
0.83329284943671666 0.62614582613804259 0.46108804076037302
-0.006848811577555125 0.88979309612706459 -0.30614430991723651
-0.51347636295811583 -0.044746609360814205 0.27401877229434746
-0.20819148317654879 -0.51495820195324171 -0.36276089373963316
-0.43653934616143886 0.83994743734283617 -0.044510985397380409
-0.063949226702476381 0.45737485777489439 -0.42232665241941447
-1.208883701103602 -0.50644108440979352 -0.84936656857581738
-0.26738300489900269 0.72984583839988915 0.050689345143872799
0.20455431170755389 0.81571771070573362 -0.3936625899360422
-0.24636653829382738 0.37539491314556273 -0.35172777656097765
0.62073724141849596 -0.66890114388267818 0.36104187238132113
-1.1002347356038058 -0.55411047516581391 -0.11888310577735695
0.24723619364651483 0.77031581087791068 -0.59335653318961334
-0.39981940664296189 -0.058087108446223112 0.3353977159926913
-0.23546750806795558 0.23603229238207035 0.55024166901299765
-0.49235965855277186 -0.68982003577795581 -0.23621704756874351
0.92949362124466006 0.17584841855234146 0.33352433406636095
-0.8589597258358026 -0.82156766082849941 0.29494409125479137
-0.16225974140139954 0.70519437908260585 0.41516201170374245
0.72775566289870142 -0.4020558035087376 0.32192082461278204
0.41115414811278583 1.2200340492618622 0.12661143599080305
0.75482755661069234 -0.48660228489987389 -0.26281434896668543
-0.26229290597989063 0.13217225675544597 0.5065187793633612
-0.0065763063555976942 0.6233792355903347 0.62087628192549715
0.18410624283130517 -0.80357556286489995 0.32091662113165143
0.48275310309311692 1.0116909956446349 0.27399456340420159
0.41377009203699799 1.2258160470037751 0.11401624701150581
-0.26110150904146678 -0.037529051914233946 -0.51006263994485579
-0.28863711261179503 0.8844377583487173 -0.23222976364826309
-0.45888508644027581 -0.4361483572536855 -0.17758592163108489
0.86505559714476021 -0.18951113041987355 0.22507808625255166
-0.0021761198577365803 0.7104736853400837 0.59055027128075466
-0.13315385846053118 0.82601509957539321 -0.45237744554907522
0.17040231601903599 0.42577853899102536 0.62693717650969205
0.4226025207862989 -0.80045917255880994 0.44924044735786595
-0.10913152467774978 0.31810273133198308 0.59077965397860766
-0.39159467406696535 -0.74323074409920054 0.56379460373117496
0.074056792106730995 -0.46406972813026215 -0.42859290768325309
0.56753805233579158 0.72604809163428996 -0.63030293523948444
-0.58431556718564082 -0.96208604961670829 0.18656149263751587
-0.99690586671519554 0.26979257604293849 -0.049550106775384961
0.0065641584940294706 0.95513019594058335 -0.25279798392411834
0.003672034453970241 0.27107765977436316 0.64044626622054324
0.65212924792594151 -0.60590296515024278 0.34251398046566806
-0.76889375294867079 0.39927175512360691 0.14250585857391229
0.23515790855078933 0.35172037143474455 -0.62057996075542832
-0.30698671345037098 0.68013621359135357 -0.014158657459766744
-0.3843648867147067 -0.92105145799389732 0.018070040081433092
-0.029097924583652457 0.98029704669299633 0.21055821161899502
-0.76923855742680303 0.57537119831020078 0.045982739298992215
-0.64251507143407594 -0.78252988860067063 0.22589796415179819
-0.35588972588250556 -0.33586269422401216 0.49201317266622624
-0.3303325424820116 0.92009610320943835 -0.025443512016323666
0.97544233429907479 -0.35880346575493149 -0.28834988609762746
0.64542130772839812 -0.61494686749226446 0.24360553707325749
-0.21379270071174972 0.10498489324548643 0.55110321143286001
-0.030536913139542321 -0.028689193261655532 -0.57086570787598845
0.46288098076526296 1.2260651749381708 0.21139296586249401
-0.99728438202457426 -0.38322105726999922 0.072436364160751054
-0.77448446311107944 -0.26492702548819125 0.020330961429195327
-0.071412515868786386 -0.27847072076642831 0.55295007357114656
0.76581023284037997 -0.098677992671653669 -0.48952292718680468
-0.55301121483101667 0.57972779736447677 0.28615886788251288
-0.2030124423085482 0.91284006849274135 -0.22885944945436165
0.75758082842334318 1.0304214309753092 -0.019924254078837578
-1.1567632390253095 -0.29379012600019649 -0.23761784159992061
-0.56422084597863886 0.11364935941617915 -0.23308587384443769
-0.13314137108265811 0.98220649386718151 -0.01773341813707674
0.76104500680968101 0.72644450306487585 -0.46043153484234267
-0.26690412382295392 -0.060159312338292636 0.40503888308967362
-0.37148678123928391 -0.87666069561300475 0.27067202735972273
0.46281370564607016 1.0692003471911491 -0.14668621030561724
-0.27728638433690378 -0.72901299924927088 0.54039890608655838
-1.1685096020371333 0.033015649661706448 -0.31135657234177216
-0.11536865804109198 0.99383709074650994 0.02430359547295069
-1.0459747150715657 -0.32093656984076802 -0.21429873240916208
0.59875352898318113 -0.15544137118675394 -0.4430706996916598
0.63043521187235285 0.3187367169982096 -0.66399407121777898
-0.43742405005318119 -0.7511602687457426 0.56265217604273232
-0.072459614169574138 0.93572518515128422 0.26022420177099548
0.24412888541547773 -0.84036648462044639 0.16423921570199695
0.37437931287084325 1.1599063490126298 0.39622911446471676
-0.35450434986431389 -0.84523929578851664 0.11120636995699584
-0.76539560972385345 -0.93707218329706166 -0.20873973065422291
-0.30643440142662826 -0.74757014195244409 0.40247767462238215
-0.095170492026099396 0.71849916748142562 0.39495148561562132
0.15964809951620396 -0.18746435217071422 0.58750582351554925
-0.95405334903520611 0.29390509011595611 -0.16854848409502665
-0.22559205071129895 -0.15934817090654008 0.28952396035558792
-0.79090797067014762 0.22963459676817877 0.079848286495888487
0.73283899979618639 -0.41771917631048439 0.24889488002808946
-0.24841682061496329 0.8736114952477223 0.31930649536148792
-0.56716929204618793 -0.6447283477718031 -0.18499640191434708
-0.56508575141808137 -0.29215962393117678 0.20607164833808866
-0.47830377484366693 0.79876336100914358 0.068401904403209812
-0.28453317168067827 0.88549057677101217 0.15234886321903929
-1.0412424737855019 -0.0052040631315577457 -0.47677638305045633
-0.74656480111988799 -0.89055001315058036 0.32924138182170992
-0.76462624953079228 -0.023072190971475948 -0.34996335441297077
0.30700167976661419 0.25428221069476109 -0.65557326318085529
0.96226300475088067 0.39816304881613718 0.36328705494612734
0.47600063926034863 -0.33652218711559101 0.53841252602487799
0.31409877069070546 1.1702090984367075 0.22825376389189955
0.025620313629289626 0.44547698947394565 -0.49315623621470905
0.86081910918545645 0.76010234817811551 -0.14591062807167532
-0.4563886548064886 0.43001132691684063 -0.17798233235096461
0.53852915771675214 1.2438156175252644 -0.2003638875414282
-0.014450306399737656 0.35371399219432931 0.64745924741332317
0.18336803451067851 0.66163101483979858 -0.45402362881835501
-0.0696981050109855 -0.73559566854755332 0.31868180558503667
0.95423298069363227 0.41134670189636324 0.39161372701660468
-1.160912160354286 -0.76802925698838465 -0.58227924666005748
0.49238565258453093 -0.17472209614911804 -0.5272450367145467
0.20618492811706801 -0.41232725615761723 0.52505871806215509
0.58827707211581526 1.2691610903701331 -0.20818154243954723
-1.2038549659144451 -0.21679006378865751 -0.34713222691427603
-0.25017177912428679 -0.3410968419141156 0.53323152433873844
0.7209730914669592 -0.44004953634780009 0.22536732809024329
0.70375711993352752 -0.44680664971817663 0.41051450179644178
-0.33890545971486574 0.85753560620834435 -0.24453974493747666
-0.13427223570096203 -0.76763780085602207 0.44074399709189294
-0.83951292867642735 -0.34924963895289807 0.0087247205280007734
-0.62323339143105727 0.22419865588866372 -0.24314161303528437
0.14157033769829752 -0.82296287255591238 0.3040210938016159
-1.2001185373801491 -0.59178351661258688 -0.94749395763695077
0.76261997055436836 -0.49389286064711513 0.18563245167230491
-0.75367201774176351 -0.77022072202804281 0.077464265818150579
-0.33856241000930254 0.45616865033067455 -0.23836769467038721
-1.2294538775705774 -0.6237669499292835 -0.80037863533440401
-0.37840767489883831 -0.095413528261012459 0.4170657018695465
-0.9638652417758351 0.065314826312345531 -0.031825394172109611
-0.31448937993181403 -0.7583345281569791 0.60311297663772478
0.073060905284123123 1.0678266732963877 0.11327959033500434
0.76080193400999008 0.67515168057919084 -0.47953292642360879
-0.12701345305430323 0.63888504370503796 -0.26249001316817555
0.076101553682036638 -0.99085063923444494 0.011773876945227357
0.2117680040203993 0.89266789058720519 0.30954204084483905
-1.1447312064190953 0.16020301594799236 -0.35391143277053061
-0.1610391137939331 0.76807477675591684 0.22075429972151284
-1.0179361635686632 -0.56686890200013806 -0.6409152309695898
0.7176601646066274 1.2421262819044117 -0.096473282906735847
-0.34382417072126259 0.86539508240395691 0.22893294674265974
-0.20349535312803368 -1.0966445355405625 -0.26132475605999872
-0.18869877552683079 -0.14692676566669149 0.31228449417299942
-0.84231311031570044 -0.22196628567120769 -0.039871750294345532
-0.85904274858837937 0.14788793221140395 0.05180098723308646
-0.67154942643422544 -0.32029448545458905 0.10982039027888391
0.72625591341359552 0.4467796909329067 -0.57778277382225696
-0.34832877862413625 0.51435036330650519 -0.19575981378410034
0.17412105339670347 -0.94333366310925015 0.070780744989725974
0.018030830500151751 0.3551436144096769 0.61266287859712776
0.82596726194019254 0.25012511190484332 0.60238293754549943
-0.99892853517658864 -0.17453639500273255 -0.37674704812499726
0.17010361747912839 0.34023854247108432 0.73560767420589457
0.56480069396134525 1.2684587880372646 -0.03896453926916621
-0.76710744760089256 -0.18226718596492475 -0.22072642098626005
0.82256919359377889 -0.11363946932172553 -0.54769894514461015
0.11115954548169782 -0.8616568092550736 0.420682076542505
-0.12279693265665514 0.99662948389807582 0.027996981288474387
-0.61327234880168646 0.45303434288827304 -0.12937515876126326
0.19416696720749371 -0.81042231246478735 0.28177172872562295
0.083259695528766997 0.61064114398252656 0.53842657098320501
-0.083035071877077371 -0.95554028990365225 0.27290957396591864
-0.35464427218983019 0.52589970912226391 -0.1779805700824113
-0.036951883609674496 -0.90411356921070762 0.49865019486193063
0.14552976408359086 0.19844096743226203 0.6772806535609206
-1.0691012218419331 -0.70691063122443865 -0.66925593635743041
0.3791194628033594 -0.61098048953414974 -0.14206540359207054
0.76724302417464685 0.84248717265117534 0.47456584979267546
-0.033505513059139957 -0.014019278604415319 0.52928903133211946
-0.46067838606018086 0.51163787404945538 -0.13330386201836575
-0.78228816437463422 -0.85804627233849828 0.38406690682947442
0.64775215224584315 -0.036429974089273287 -0.43796548379305023
0.18065823827882355 0.77135667573859479 -0.59109954568431178
-0.0087819787847678299 -0.98012624559467554 0.32500832062353879
0.86123321612069503 0.55488471821956864 0.49318736364405424
0.13018645347263202 0.42855404520681617 0.7278118336270154
0.41591234165788649 -0.18614322612025092 -0.53837112383594388
0.1590006403739892 -0.50763604061221201 -0.39442306531834248
-0.36787859163293035 0.71322743716890358 0.3797367938795162
-0.24178407648641098 -0.78252933344190723 0.2561757488765366
-1.1953343145615918 -0.085753366743347215 -0.37329347578712202
0.31708550745030095 1.0037307540944482 -0.20853144099061183
-0.49645731932213266 -0.78207472037025383 0.55655961533871334
-0.13699108661583637 0.49766951264901849 -0.31904142900862098
-0.5684696826268123 -0.83257784189230222 0.25462512742463872
0.66556164483493774 -0.49403590836347178 0.33922738492685767
-1.0540619623736234 -0.82878928043980693 -0.12265130283685011
0.19200748212938379 0.065145187290966078 -0.60961987820722641
-0.054602302050241747 -0.89365977959776899 -0.094432539103600277
0.5118686183897978 -0.77399690116667585 0.41185494578972026
0.10766091958589641 0.73987229500027496 0.68644023135485099
0.4720678539484453 -0.24580917143837411 -0.4906997176296386
0.45917339515173694 -0.41278838286381614 -0.41102586762369242
-0.8245887506145948 -0.81296316745936537 -0.46480818409424529
-0.51955138361590514 -0.21252135604199651 0.26308294925183162
-0.16413730697473738 0.68311469394608793 0.41150254242159434
0.68960011950785827 -0.38074216835325103 -0.35046307111378638
0.0099025364076936739 -0.82211151268604254 0.38599781714990655
-0.4791748727552374 -0.99159124509939289 0.20943613214310375
-0.0098620848327328758 0.78871336760392552 -0.54609084265713648
0.59532581440265631 0.055973468071471189 -0.57283530549457851
-0.23495495999695493 0.92305613904861872 0.24008641391775143
-1.2277668181413617 -0.049523511997932701 -0.42124575459943259
0.67664174585844705 0.026042572950053966 0.6535625232810176
-0.79150322225414982 0.28372123270703753 -0.20656211998124263
-0.88174823484040132 0.27513685154903555 0.028268154384370803
0.20974707141148485 0.28423178769162405 -0.63126539013843797
0.09564136613555263 -0.48476283907309181 0.51160959582884402
-0.8381840886997054 -0.92126937950005328 0.047872318688142457
-0.69780033678141251 -0.83702573170030803 0.40324061926297361
-1.1111428890476134 0.18371064212733046 -0.17951296194702593
0.025997746127174537 1.012066081215238 0.20693316898228886
0.94253250619732398 0.52872802048072032 0.1467214790565663
0.054646723710206402 -0.6128249965586221 -0.34585469390101053
0.88441729808570813 -0.31082844757756334 0.082591255334222069
-0.59073719223175658 -0.50784208380341056 -0.025452040666429809
0.062958128075166542 0.52354273229801862 0.57704182492869194
0.74782006040308602 0.22390333804412421 -0.43734283399783891
0.86872884899143799 -0.2009481233717807 0.057495488514824444
0.019154847500615801 0.57818371704600935 0.54548856440678861
-0.22127778268784937 0.74935819579095408 0.23302196629454386
0.86600190517165743 -0.17208431101285981 0.17718942817339212
0.34567250410776751 1.1717421167322826 0.1965922328817058
0.82698023287171907 -0.15588329864220185 0.37172733370572075
-0.017627352943691221 -0.2277489605935159 0.56378655568010316
-0.74093847012480296 -0.76203806064958712 0.29811011723657543
0.63728631126012658 1.0396268559400283 -0.23140079282431003
-0.042531737242597956 0.80265322711295539 -0.51754884637577447
0.88482942184353419 0.042556043890364492 0.57170882821036884
-0.044773063571639682 0.82435910940748869 -0.03883496656912655
0.028911202915182344 -0.72289903636877284 0.57991691208316354
0.35039706777975255 0.40719470075265463 0.64697602442486613
0.84952928370731229 -0.020948306987747856 0.016321411877449066
-0.10762588526823436 0.98471044656766793 -0.10117331557319886
-1.0203989407323633 -0.79656187230646225 -0.45799468909513052
-0.36912272375097643 0.8471351928463875 -0.1729088697242176
0.5190807175417973 1.0864897579170076 -0.036678798663551504
0.12933821794180744 -0.93263969516242184 -0.046454818037950929
0.37339233278764539 -0.74176253021235539 0.33403470962444715
0.55647058688589368 0.87284187222375209 0.49449085676877047
0.84694353559943636 0.86714386246634945 -0.093276633641558249
0.8115935627651254 -0.24237739548552639 0.33934364073420653
-0.18948787427476077 0.93619833803219876 -0.16625258763472317
0.89713005575677585 0.073944154217087998 0.49357058567235157
0.98561828164378085 -0.36106983918985947 -0.15201081600098121
-0.7195855292523845 0.41168991871065685 -0.11025364013680417
-1.1155576201774835 -0.77597482124481587 -0.24267858405377751
-0.2180643940659337 0.43450091167527205 -0.30462769020633118
-1.0708624245308442 -0.36423180578198355 -0.03363921917650714
0.47993104062845759 0.024542377335080801 -0.6071906728438492
0.76179586899735341 -0.20037053525602744 0.52197393489486643
0.15671067266769967 0.8030573599331845 -0.51777755189685948
-0.0707968850667271 -0.76044828445581203 0.22983610670610943
-0.059307515891092066 0.80911674583260407 0.17853705658275487
-0.94967334109244916 0.20172009808921842 -0.0023588761595689789
0.66182615643910481 1.0258853841880011 0.30526113827769308
0.011380641584437967 0.93833812546741768 -0.20686807624596071
0.8052637362713142 0.82806495193899821 -0.25028267332721299
0.85551947045603072 -0.058468216078075841 0.31680104593284852
-1.0068108899153714 -0.015368193174438716 -0.47594348740080505
-0.32077969423905017 -0.28651919724635633 0.50882022605534161
-0.28342421739930046 0.37442581581745316 0.4518410456119355
-0.75886424313654288 0.22157069948323738 0.10103402970428021
-0.024565774954737662 0.97916735685006273 -0.17387487190897843
0.94681118118171526 0.22672650131389815 0.44972438615301513
-0.74781285349236271 0.017249753273986812 0.045609901110431394
-0.091751299404180031 0.65513019533599959 0.52293076824207674
-0.15234878370267779 0.29156287198163966 0.5799310328656091
-0.14688135119862977 -0.98050849936701212 0.12621111448784461
-0.91872322062366152 0.24603699353897213 -0.0024036996320120352
-0.65685272302833653 0.54718321610373266 0.013430137327553382
0.32724415183396616 -0.81712687958567898 0.0021431131487474886
-0.75552444592963752 -0.86731153042341447 0.38433581027588559
-0.81607416444339265 -0.28365315318609419 -0.21849702260114867
0.37951028882268645 1.2145416486364056 0.016625998349311999
0.93361341386508911 -0.35596371248578862 -0.39177146022317544
0.96305126531078145 0.46078723349514661 0.3338778630539494
0.95980465379349766 0.48799564069712886 0.33436956677922325
0.076199416818653276 -0.79410551048292888 0.4325498722632517
0.8127577315304535 -0.52501976322007238 0.10481592086811276
-0.47832717353219323 -0.2572035698116153 -0.22497803400247562
-0.27536405537188102 0.87883758693096325 0.19162462762119503
-0.5509775334538034 -0.75641090626996998 0.46982678005218048
0.57823638621205475 1.2409309128876345 0.27144554874622173
0.67705567613305107 0.73350078865124857 0.56578183734404064
-1.0698769565731823 0.00057671464039543707 -0.19060600969365282
-0.36660824294742156 -0.35019845822209561 0.47742893504707951
0.97456370288932703 0.3085293833658298 0.25235577570479961
-0.82764491317610123 -0.015594512498381619 -0.38493071090753972
-0.52440349699695332 -0.62588206071050934 -0.15085364713555549
0.55989801863925948 0.12624227920186826 -0.58510953444071134
-0.38874578781293678 -0.98862331380828294 -0.031633438969592476
0.67305153747273039 0.33749739149929781 0.61999232934830673
0.647059399286249 1.0686720515226753 0.18027676944775095
-1.1752082725923003 0.040931005094869022 -0.49761459563670485
-0.079388935411813577 0.57867319165080744 0.52559407951186898
-0.81391810077471405 -0.58745461961220968 0.16289291235295877
0.42321471202417627 1.2038346319095226 0.023562633512142384
-1.1381276877221183 0.0046642592566996655 -0.28087003633070395
0.028521193616057872 -0.87047983298054987 0.36688174793057016
-1.029644267722702 -0.78267103462344068 -0.21727479794219562
0.39111238913359614 -0.61861036025941729 0.046984562772472316
-0.46470272547115599 0.81652344581576841 0.05442339770718263
0.22656995584016215 1.1438189045048048 0.050215784684347398
0.98649519328532165 -0.3632442024225 -0.24803913804640842
0.171754750500412 0.88467558099967647 -0.35924768742476942
0.69892351172646272 -0.059864261707978983 0.61494358941252614
0.19824477016526032 0.22257338793487236 -0.62535234143448548
0.88209749522867753 0.77823240537181704 0.3367700590924585
0.41993181300773585 1.2107943287231251 0.22556502010048973
-0.99057632178931954 0.024448197764868951 -0.45721618112334994
0.30565565849374821 -0.76213765515860388 0.32393178698308134
0.28835026666405383 0.81280969556726035 -0.49203425607294449
-0.84103391860620036 0.45742715722485627 -0.025632760508507602
-1.0012787107641969 0.28215675526497108 -0.17018197591722384
-1.0336403414934665 -0.27747713787977801 -0.20406888960312841
-1.2375865980889955 -0.16383322644841769 -0.4238229300270433
-0.40603158800620065 -0.62982337703752478 -0.17717802822539142
-0.76272604753904716 -0.85978855850305536 0.39533066608564837
-0.091772600957639838 -0.90015158301072518 -0.11397335908856121
-0.29581228772275381 0.58573582240351385 0.46273821571831775
-0.41736761321945437 -0.78790013765441813 0.27918994871932767
-1.2103712887609959 -0.65613494146008122 -0.54396009137552426
-0.13729460490752388 0.94755952730412929 -0.20406300117485898
-0.43994602684348649 -0.44148713317480315 0.47387797259603559
0.55647757872982595 1.0532612319323533 -0.24268585143708776
-0.78947034451486786 -0.088968986332140787 -0.35424854019753127
-0.28486237814318827 -0.41901721563798588 0.52314630977704724
-0.52793008635954664 0.47248083365893478 -0.13200781114508686
-1.1759401695025247 -0.65407316360844447 -0.46318028768024533
-0.020759721902521733 0.88961565303814893 -0.3451853536949443
0.4970170846833355 0.0014388152756836803 0.66061003148528386
-0.69876408991373751 -0.22015257269304556 0.09572889883653346
-1.0827635481890923 -0.29587178807745573 -0.21409266253751724
-0.037380880038270448 0.89578715128708097 0.46869324396161716
-0.27813992653346986 0.10311293771447794 0.51729455559940618
0.25757682808085747 -0.80641837701665509 0.20470747193107997
0.1435055392601754 0.12509550520938006 -0.60760297392201323
-0.829109916361503 -0.8531071256959919 0.26105119324272863
-0.18771997752003244 0.53570599046128109 0.5382707650055778
-0.71645357206575966 0.16122792029381117 -0.28688107236113325
0.20879503809166522 0.80626347896287598 0.42838085742231868
0.71485967250552562 0.0074041540838294395 0.63614776785926352
-0.18101923064722314 0.85822039509106673 -0.37550840220430359
-0.20467910241573861 0.67490517305378717 -0.15544858708292253
-0.18182383953109138 -0.99363665160183956 0.10641619360389853
0.89215318434214907 0.10425156082739306 0.52464955335777574
-0.052092716367596381 0.98240493661113959 -0.090493179560134251
0.45314415792805107 -0.47926758330964248 -0.38308381758639598
-1.2344469032444039 -0.16702317771893149 -0.43216552260444985
-0.094435133692712725 0.36234447534230441 -0.48741455447023441
0.15127183061308358 -0.70548249318328971 0.55034290418216614
-0.23813235665690513 -0.19289639724437535 0.54024514575688443
0.30524602471001572 -0.73286733650783731 0.45477597108831702
0.64080551589117363 -0.63967051676436171 0.1693330248323619
-0.41796362729277803 -0.050783917078874197 -0.371188192517522
-0.29418535657408995 -0.11476612641818917 0.48264419351099974
-0.95612982964701132 0.26136510269672897 -0.21585330644126799
0.21467691265037558 -0.55147258024869927 -0.38643048269749158
0.48391215335419702 1.0149589447728715 -0.31346462177281609
-0.060745146296440566 -0.62382642189896131 -0.34970956407327236
0.95012459537268512 -0.13551503771795126 -0.55431425665580036
0.97232861829624539 0.34193047985654346 0.32271915530905204
-0.85495367916455223 -0.81561672271416796 -0.46911055152240522
-0.62406587126008617 0.47625433893761482 -0.09857085144845712
0.99598628992777094 -0.35214017266032016 -0.21466220294495741
0.0089942325975442827 -0.88229447053285526 0.34974416748735138
0.52360874920077549 1.084859396564994 -0.098729555415886239
-0.21770757602551782 0.71144240127258485 -0.067948804438408672
-0.73164402707723752 -0.38559272112688348 0.23241730178784081
-0.27222438047101605 0.74998570779033713 0.24729168989947681
-0.64454761171167263 -0.76350712975501267 0.37411762608821419
-0.90464139442235592 0.25759946379976384 0.0090774997291518389
-0.16725857512703612 0.33579661062121602 -0.45753079928770291
0.8902149544593243 0.46413271902250841 -0.12866630456597505
-0.24970270844001163 -0.53015425584695919 0.50941896719135826
0.34873537725545134 0.96228990792666025 -0.33759824115283976
-0.32071640078559938 0.08995821137154536 -0.46210896910102406
-0.96699968904303546 -0.66261441800178744 -0.12442623821767285
0.20456204812106193 0.91520882232200051 -0.26840694380230445
0.54786922108092995 -0.19699641089017916 -0.45725357870411187
0.19758788367067837 0.50272051817951535 0.77398803332470578
0.42618009900820653 -0.73183598702120634 0.26760215816827326
0.65750640017607509 0.024659058665029931 -0.47479121979294803
-0.49429780781264299 0.60896344655493095 -0.010828865138392985
-1.2055061804689302 -0.65835911191781094 -0.70740641315116903
0.71442651210909958 -0.42449166171861918 0.30779230705647365
0.62661599558094849 0.20523967309259916 -0.58097336096125218
-0.1276799256527994 0.88629883674752818 -0.35771014213403163
-1.0074691120334762 0.28798034624984581 -0.051632387840882643
-0.78266296071700481 0.38268062304519646 -0.10506211732963067
0.39032534046485523 1.2105885331770949 0.15267365058221571
-1.2398739421404201 -0.14674572167716349 -0.44468144660618236
-0.16128201827434907 0.75135238630232948 -0.057764538965066947
0.80211481714425759 0.44204664369704005 -0.37729136826933285
-0.64776475307732539 -0.38653150207657916 0.29250596417801233
0.67644825685088961 -0.10298995560503954 -0.39453708830131973
-1.1788862282260908 0.14277776626892091 -0.33732492145628612
-0.24715144288020952 -1.1003250305481274 -0.21203953329994363
-0.86717620762492231 -0.17140712543955772 -0.32274614219254261
0.25423015092920309 0.42716096907132339 -0.60404123966927159
-0.37132785897028953 0.58682890691942191 -0.11262051873774936
0.80802565879049837 0.61653823023075915 -0.37652881572184072
0.55194109849145434 0.022514828542078646 0.66402867716406888
-0.33883107061279816 0.77200670028349805 0.16381940277614859
0.095993822843468024 0.90221709789502569 -0.27326913551893739
0.44093734382157379 1.0538090348571387 0.10225450759265442
-1.0689237781705287 0.24880430887893823 -0.16259966073067034
0.36303076705981141 1.0328200044643907 0.075604094277515799
0.32013647680066981 0.05551026291672656 -0.63005439866292079
0.85551327415721801 0.74571086736431624 0.39929515388646308
0.85026870191255455 -0.32049107762230022 -0.47743534748978789
0.36899832247300424 -0.7899237410781268 0.47659508986959054
0.25947908050648039 0.85473250514151289 0.40190038930101935
0.11030696128092643 0.90026267340572019 -0.375230074566133
-1.2381957162059791 -0.095061024798297922 -0.5009424424140434
0.045601359135361008 -0.11531441813756516 -0.56111635520314707
0.036938614124736091 0.5834931369130274 0.66444863318921676
0.7152865132782722 -0.43976058897338532 0.2419532402765725
-0.74038890819765868 0.21561023561637427 -0.24941619446501306
0.92862361041375152 0.42957375033541467 0.053284966329869121
-0.94368014153509705 0.34634837730248336 -0.055514406534932448
-0.15130625785654672 0.121178985212957 -0.54661135055758336
-0.52994820653601948 -0.13985239891903944 0.11048436874323642
0.48335625121806913 -0.69498233334157078 0.13900833955162284
-0.0022748349614261087 -0.97137907032436033 0.31594895858545868
-0.3618213416448981 0.55508708310196653 -0.13965650949032238
-0.99276100012441759 -0.1384481198805787 -0.15276880237183832
-1.039372910692606 0.26647299740621833 -0.099918368149239711
0.25898863860123811 1.1005753008801236 0.40758740246331371
-0.34482570356230724 0.78291336607313866 0.16068958065450545
-0.31695258843060969 -0.73743656406153946 0.58599066249473708
0.80563947310432127 0.27115798758403287 -0.2960783472881019
-0.70037544306356381 -0.84943328933241702 -0.31941343936845357
0.79038160612461184 -0.096252888548917781 0.55584614170606983
-0.021712644218908395 0.61228139020276018 0.52222691731130766
-0.66767566312159943 0.52186488378733742 0.008250227300713675
1.0120714631890735 -0.044964056432078792 -0.35978871627420972
0.45830082388397386 -0.64240761147561187 0.052192380370186697
0.93106103358213943 0.15200271690248002 0.21281901986583307
0.63437446814185705 -0.43752883908771878 -0.25869953348117036
-0.50355700429616945 -0.8263531263863797 0.47554579364428662
-1.219783125085371 0.065887710964467772 -0.38383348935679606
0.89400992095907839 0.15380155465625478 0.49213427060021075
0.93537350910037276 0.60515837859327348 0.26156697915605776
0.737022259908656 0.67250171425765615 -0.52803477708098967
-0.59656037659549099 0.48681243674166552 -0.10249808256869386
0.82465112031574961 -0.29464851728189956 0.234722744817212
-0.68977129623463895 -0.37350270086000847 0.22014351414024702
-0.12251946621721288 0.92605040911555392 0.22205026078881218
-0.34639167031494367 -1.0589462411190098 -0.19257670656055126
-0.0079747037822102129 0.8316551273420103 0.55845534821542486
-0.072941797470562619 -0.78601993282727278 0.39443160593125981
-0.96000831583762647 -0.29713949361438097 -0.24311489822346743
0.84434165137599848 -0.15972085657335811 0.44231191958448335
-0.45568013729551637 0.74463388503785666 0.099191194510225955
-0.23368601556235546 0.062410385394365164 0.53752094120326888
0.57944591031998982 -0.46006714019937078 0.46969373921737656
-1.0694022428593399 -0.59965803903090631 -0.87640471522007601
-0.076771564013242255 0.68815765857105049 0.5301512539913702
0.89623908353179615 0.86997924382491476 0.12923310340136851
0.084193023582386672 0.7473560466404976 0.66956072682496171
0.035919106871148188 0.370449751773684 -0.55329168775085691
0.74180933449135011 0.72679488166650685 0.52290824727381846
0.97274535613976809 -0.36392232007792558 -0.083342663332103939
-0.28869747185548533 0.83902013828743094 -0.33591130542708214
-0.13256455266247258 0.94224592620947334 0.23276925545779648
-0.92060755748318002 -0.23554367286379829 -0.2385032070211679
-0.95540306346687487 -0.018597538110348921 -0.061788369853772451
-0.72014996059577641 0.24878004137547549 0.13809263047018305
0.5216256098864136 1.2222456368118699 0.26677501923579428
0.37996530975840415 -0.23114453093429432 -0.54592062562576871
-0.15598088360913209 0.10787887311295918 0.57317023924935739
0.21056719870563256 -0.89241472929361265 -0.070056764997467269
0.13731035003294778 -0.89882306923109923 0.46924208626969488
0.82082884542010959 0.88036850537179134 -0.1510224232558528
-0.054796589976618293 -0.68330443131697649 0.48273542540928815
0.1126216385592187 0.80360252647683694 -0.5259279733543778
-0.6801883381567535 -0.8360946131246294 -0.044336031448700908
0.56780854712847884 0.49050117981464325 -0.68051664501473397
0.4342464535265691 0.73716529126874519 -0.5804140433209426
-0.4768216240430263 0.78924492048782469 0.081155267892945915
0.9299022057453783 0.64812359318148793 0.14514368509016151
0.34410418309614954 0.94142073697145179 0.32577167643417937
0.7785299872126501 0.83790013200799507 -0.31177149372513213
-1.0900463155614375 -0.50317002705386216 -0.10756510793385843
-0.27014618411580216 0.86138540627139548 0.21327518542416612
-0.52428118586772143 0.73860242689229949 0.10042812111550603
0.37529000782566868 0.52094260172781759 -0.64403479012921849
-1.1426190952562223 -0.76490654206209285 -0.32342172985585194
-0.8243937939708843 -0.96125252318297782 -0.14586207152788688
0.5006445240317845 1.2610098860468781 -0.10233301013228413
-1.1588563896111452 -0.49581426633440628 -0.34088644573765237
0.78283279671229877 -0.33919653365872904 0.28841130120184033
0.62496350364055786 1.2687699778124184 0.06003633788166951
-0.90907538766356311 -0.13346034117173389 -0.060222019735192589
-0.51274142929466393 -0.66214881424119199 -0.20103164692325493
0.80027883923557397 0.73230506398766693 0.45530943966166149
0.31197934220817558 0.27306507223312337 0.64516269605318399
-0.4177270883937183 0.80869489831855645 0.081456409160708176
0.30175724341923171 0.56372236106954432 0.61680375710522384
