# XYZ point cloud file
0.42017059855081662 0.29600022172725038 -0.62927398470434959
0.86778405332703468 -0.36712294883063912 -0.31407352282903034
-0.87805318369124752 -0.084948521865683801 -0.4677263827354512
0.061843051560741102 0.49496218684020166 0.69132743600838431
-0.71888207249311087 -0.85467645526992575 -0.26259676772153462
0.8210683254037443 0.85797241754680664 0.33737353332006137
-0.17030364445481538 0.78324799360554564 0.41328407358899
0.36661570747750183 -0.57343601718256809 -0.31439202791168519
0.078335291774311422 0.63805317751062907 -0.2020923770090004
-0.92300395486247755 -0.68223062070059248 -0.02463341304850708
0.73099472641232399 -0.4161703116933797 -0.32552764987957339
0.11442322660043303 0.74254184275298707 0.10631983410844548
0.8724702205306869 0.4738613636616838 -0.15955289576041842
-0.47514501171671597 -0.082513201071230391 0.3467835504131731
0.67996357281718645 -0.47983197771417907 0.27826645703915176
-0.28978291353941632 0.071271406368004886 0.49522707311497349
-1.1045966120869126 -0.2578991036305629 -0.50129249375340912
-0.40909693741866793 0.75144466802365306 -0.11455993869057046
-0.76081204231319077 -0.66843971367971522 -0.25432240276342455
0.85684851128229944 0.090320899215920791 -0.01918163623405178
-0.68761399767252485 -0.48542567224305599 0.23612692574072724
0.63841111104064296 -0.46778981242899764 0.34170471266153157
-0.41631231811611702 0.48114273178696765 -0.02777412603308882
0.35330630022008247 0.86348994958482894 -0.15505478373782644
-0.16703228500978451 -0.75814640903180297 0.26931725112520155
0.69221113819529378 0.65560545576541118 -0.52638456350308793
-0.98284781788813369 -0.63549497094923368 -0.061772010314358639
-1.0467852923511387 -0.45038731657944331 -0.13937482233537324
0.29827646487784154 0.24403876499453947 0.63729386122772169
0.86608995202234151 0.41477973115761346 0.5137136494108212
-0.26646874080378247 0.58109383361821632 0.4726020634044108
0.13955104334578294 0.81025473712964935 -0.42782341706280391
-0.49649467210150444 0.42716315747925915 0.29986673354746607
-0.051822856414794671 0.54861527727683113 0.42760885349565392
0.57986535405422979 1.2076190643109714 -0.13616476842623548
-0.68139727942000405 0.37665948992492959 -0.06930465253284801
-0.31294710697113448 -0.08103416715648315 0.4339390464290247
0.22725862883551251 0.15851029746051948 0.64105980511854455
-0.36215212031690136 -0.76957256280902397 0.32255736730157203
0.54920766325358183 -0.66345899924119589 0.10832263446658708
-0.12523169825848335 -0.73678112003705309 0.46194584188415178
0.9057284595752817 0.75767205025225759 0.052756794893891623
-0.58257011296323391 -0.65595592963504634 0.31267087061765864
-1.0225363455209644 -0.44993157958445518 -0.25682166812375229
0.47393986947401601 1.1825480599473495 -0.034812070786758298
-1.00073865126868 0.028319828770677846 -0.41738073864650005
0.42139214580021633 1.1733354663375715 0.075295210224252784
-0.87775808823335044 -0.68847092512678421 -0.44208792615539316
-0.13358868803015511 0.31599606246528156 0.52493625974529579
-0.17479347231467646 -0.17577375316335786 0.42578046268288539
-1.2480675204958693 -0.20439288049688398 -0.53036030242500409
-0.21048756243948397 0.52185943938024959 -0.085831227471885541
0.17651110957029825 0.81622414061464266 -0.40487239471013758
0.22961090811069829 1.0919503792344836 0.17607903330079999
0.04709808574078167 0.55699230088995622 0.66356491106220794
-0.87932640424322805 -0.81156260453575246 -0.13440179859211732
0.19734256543147133 -0.45427671471056552 0.55753630942004229
0.91954769629320499 0.47088818329299076 0.40064393199392256
0.4758609580937101 0.32246699099010567 -0.64538292110707651
-0.83648595802957537 -0.51613585409785601 -0.27263682836948
0.12709202092476435 -0.75008426291184371 0.1559292446976972
-0.71074947911621145 -0.52082880770018758 0.22564739305622084
-0.96332841101002931 0.13009871555510433 -0.095606041240925421
0.71822265531906648 0.98338373606214047 0.046427069543739208
0.67471892310030324 0.056059123361627883 0.66635079758949622
0.031873771280896079 -0.90798611128859497 -0.065821152781563086
0.20107528491964288 -0.60506282818917245 0.5133623189770038
0.47695150745926096 -0.52915144362556776 -0.090892537016024733
-0.29006719279826676 -0.076036753769512355 0.49089510105480905
0.84273832809606919 0.37910521329345576 -0.21494462298355899
-0.26820563520036877 0.12767303344024183 0.50592787098769598
-0.61761572735535442 -0.79843056010678515 0.24095398969125803
-0.97756196066857814 0.20361230032830679 -0.1415737044982297
0.043181930998567708 0.22895331006836028 -0.5165534601528563
-0.16663857568465446 0.90656171151167175 0.10424212758446672
-1.1060127711494809 -0.63563855125999313 -0.86634660937782826
0.76055371213270284 0.045539766059519815 -0.403626290529429
-1.035447951290017 -0.099157621013265196 -0.5259170091540657
-0.36800720400891418 -0.76836411624779211 0.46152598471060458
-0.057286890780997801 0.88560303710701316 0.34817808254361537
-0.1137346998145512 0.55080981616317048 -0.12707012282445973
-0.54957212150382251 -0.78639466678337011 0.38239949629081238
-0.54559893879317123 0.61753353782395592 0.1416808677321395
-0.13410330307898821 0.34266478794659827 0.53525259971195283
0.61695395395293318 0.97279483004176903 -0.14218655942595326
-1.1071704842722108 -0.28262418183996152 -0.48780421911187588
-1.1192155288899572 -0.34698155164544398 -0.3341301262609484
0.35345258243829125 0.53354240614001336 0.58134686723237827
0.031275144708328817 0.94504818313511763 0.15947351950995525
-0.5276746634888001 0.57322966521580065 0.028146078930953777
0.87259584900301235 0.25702286398435581 0.49055816460486845
-0.053881101697262679 0.0059404063361530035 0.54992153694180956
0.28774114320573396 1.100776762526229 0.050315987044408317
0.0042443919874619596 0.16419609481668074 -0.52726500015878841
-0.39644565797912001 0.56091603842135163 0.05801164921876456
-0.63894057461007403 -0.088195103244075979 -0.33180444142386278
0.49258505132575525 0.48818323516971796 -0.60580779704070231
-1.0011202901907614 0.12963258166291602 -0.13267990223309134
0.10031336215929709 0.034788175234742091 0.61722567299805142
0.60077205154066338 0.32096626983261345 0.59106023903165195
0.91474381475282485 0.28367556772868308 0.082919737255833681
0.75980776565854624 1.2328851759628261 -0.17694997089302689
0.60040596634049148 -0.48597690454507214 -0.18630725967867612
0.84340888707882833 -0.36154553163208902 0.093300718992772147
-0.98725701346717276 -0.78019055543058902 -0.22277770108476069
-0.72816219237561075 -0.1908174575843371 -0.32448936071305923
-0.59953954192436054 -0.79526187952945515 -0.07971402798653493
0.11699847947405928 0.64947840731784368 -0.22758845727212673
0.62958142599834321 0.84582842985339002 -0.41455110022271668
-0.58697279282696435 -0.38040788767743927 0.25676346581874121
-0.036642644251913659 0.85684909814099264 0.43013517339176666
-1.0319280233471391 -0.15660401768499899 -0.53877016086199703
-0.55259531399167816 -0.83315882202327185 0.3695954784784039
0.67217252397501515 -0.19317904135661412 -0.38084080340336435
0.66555118442945238 1.2730053019593339 0.098522716792711407
-0.28209555311843459 -0.78535098255282232 0.50793357400471351
-0.9566879889992066 0.023831494717141855 -0.059232997632577167
-0.43264622105337658 0.5505398132610142 0.038576973466859954
-0.43101922175545493 -0.24902788953055 0.37661531574026874
-0.90356248952788842 0.24890160256092919 -0.12520542599864726
0.48381198849743257 0.38043529069595405 0.62671148237739693
-0.13213436040684368 -0.14122709984508619 0.45812488319946354
-0.3894291337765079 0.032077486340961192 0.43249928582942587
-0.059309225623740858 -0.78431957927271512 -0.15401519629415716
-0.27197103192947303 0.79216703392856136 -0.011493573814714608
0.48039127801319159 1.1874481952480829 -0.0041531604544520206
-1.1780808785671049 -0.37137429987500925 -0.39658730781165019
0.80441094392827761 0.91002857842795892 0.29257813635337548
-1.0502484495536546 -0.859506375317036 -0.43066391173016427
-0.65559162627339873 -0.1265319042877433 0.20295294674223108
-0.42899114448990883 0.25249793368417839 -0.2269073371140351
-0.87592269404748979 -0.81480447950625057 -0.077539686002438657
-0.78175722247666801 0.17594773668919039 -0.23890155094563603
-0.4031052127270609 -0.63859022475299265 0.44273373710391617
-0.73379627889949894 -0.18879459658619568 0.039375719991141978
0.49724298136437373 1.2175710966727951 0.16404431355498872
0.92247120830124008 -0.35412081733228185 -0.19361400456745592
-0.19648563778788741 -0.29756958069630346 -0.49386643300464073
-1.003034053340647 0.079046313408493774 -0.12928218900533217
-0.90589728566869265 -0.479255413626405 -0.018590684439777405
-0.6311759933537564 -0.15819148162056962 0.053065238640247259
-0.091460844498896243 0.44294631676469676 0.48623477556717276
0.00044497654141384402 -0.056913496038618283 0.59791949450344895
0.1838337339144438 -0.32961136387670531 -0.49597993710116306
0.44442937026467444 0.53706624301508121 0.59786297964730117
0.64968708276397891 0.86122825397085534 -0.39026754500452654
0.54077389586800884 1.2407772386862064 0.22862686517299835
-0.25768660782209096 -0.82780707090819128 -0.28245922974006454
0.85043717151093645 -0.072191594004884396 0.23863780099444121
0.77770415126101788 0.88150432296183778 0.35901597093836557
0.87678094575707455 0.16960420298998014 0.50701106254298445
0.8532504727649286 0.26072747791973366 0.53947024544329913
0.47881455664516714 -0.25646598851471575 0.61108362624750434
-0.58593054366775021 -0.78916139446361799 -0.012843467155114752
0.1718803661059054 0.78370055634110614 0.030145215421288896
0.43520929072585535 0.62190251682462216 -0.50022472729862066
-0.61493443952644 0.55057380002040146 0.098253158419460362
0.71364932180780194 -0.28079246143239889 0.47696651489734876
0.88942653745072064 0.056928089925885494 -0.46429550804839614
0.53044872549999855 0.96777755972230395 -0.04814622642339117
0.81934132543844562 -0.20776775459991947 0.13434458382629089
-0.11442567966916695 0.260538910728356 -0.40690592731836084
-0.27605050512531726 -0.41843976319315984 0.4987825700728834
0.74922699956644179 1.2894816396112478 0.12649556990802147
0.23339140993489682 1.0702706406051319 0.068450777301137578
-1.0646367323019126 -0.088476912468455682 -0.53490980366057705
0.76595748897520988 0.75157000695294074 -0.37418799248564483
-0.58115293733965867 0.58116290517686631 0.12097225917369947
0.80487840121174159 0.89732435849002945 -0.10875963002398947
0.61545476813810929 -0.46518602204395254 0.4081137691665937
0.49113835356205904 0.64821465592528549 -0.5293319821115503
-0.87015572797001894 -0.55532938623124051 0.088652045228805321
0.17190439875954056 -0.04444442157487849 0.63703521380439199
-0.14695479638353781 -0.93366862426709929 -0.17012152044496531
-0.22944219273617072 0.83329780186881663 0.25103781730029695
-0.39419238875261176 0.25861641556369275 -0.23204350697709764
-0.78934719069278714 -0.50563062681835613 0.16246050513990795
-0.18667077812856281 -0.97084142007590746 -0.015962759423477024
0.30805247377252076 0.031924632206045356 -0.5952965563074244
-0.033665730004097227 -0.035405731299974486 0.59393577237819351
-0.66089733520288796 0.34580802734073979 0.17952410296078192
-0.076288403239384905 0.59778221461041836 0.44642343093611458
0.40289456778945354 0.79323855689686007 -0.36101302165700133
0.19200932868825049 0.78787592316639854 -0.091201191740129417
0.2285593092402225 1.0411874788978661 0.11739467968284778
-0.22907284734727895 -0.51265880473949177 -0.35436411536626977
0.61803753862752853 0.23470435508550958 -0.64970984794641851
-0.59100168532699549 0.37766590393958355 -0.056081172501910359
0.10276513004088628 0.70191218925126675 0.24838900018736076
0.71508169912608555 0.97773234788905095 -0.041512182226750127
-0.012914434479039727 -0.71977624351340919 0.520134476853368
-0.48021499031298731 0.56344461111717248 0.023519968373381772
-0.60118482530331363 0.51872512721533992 0.0008984995731555756
0.1911271710487874 -0.70719077456584678 0.48763188810997171
-1.2267203606616679 -0.066029207477759977 -0.53505572619333641
0.44279556155878241 1.1868143906406941 0.11948926159123729
0.69075976317515231 0.42179913460208429 -0.59697681322515628
0.55175049647935559 -0.63568890239137543 0.38766179166933767
-0.5951975130277507 -0.18477631647725046 0.070629434676337866
0.95526285091106722 -0.12599364534211221 -0.095481023756974537
-1.0936355317438391 -0.68157495640329202 -0.31928288323927845
0.40367845497609434 -0.24975271977487989 -0.53513556000791951
-0.9304877042810018 0.22611932370931775 -0.13238630349429847
-0.68456842828168085 -0.41236692896239457 0.13702346706877044
-0.10184875083908018 0.41440958950822715 0.52707989196200167
0.89920449851464124 0.091614245518886417 0.17758039531915415
-0.28218735145711271 -0.4608874009852913 0.4957927490978058
-0.95612298181353861 -0.56786203197817309 -0.013770629733199868
-0.40929501538137547 0.4580670657626138 -0.080035013680820555
-0.91121010885199816 -0.79648553344159945 -0.19398246942535557
-0.1493719381781613 -0.98480782046033455 -0.14493533298587558
0.83440345585372366 0.53347944302606942 -0.26782140023203027
0.47474210476688761 -0.69086094211356985 0.3916720034309229
-0.13523355221302591 0.16051724581780946 -0.48045085289489364
-1.2562929204136202 -0.16275915962629939 -0.53932441958339794
-1.1389774297734414 -0.03130133980276395 -0.30684600527876427
-0.18031387519286746 -0.78230790051145394 0.16957938514730841
0.81822080784692375 -0.0949178647020823 0.29716825323582441
0.39113889061694262 -0.68292477473976687 -0.038683233895451252
-1.0589806058856599 -0.4378820832727911 -0.20946442800950216
-1.1457637903809825 -0.16555503578429653 -0.59639928162615163
-0.023322863680523831 0.47817659584851047 0.60353605888411899
0.43695633809606971 0.56092624796107549 -0.54801492269092478
0.456557516789597 0.13857686771364419 -0.62864238670165484
0.046046314890263673 -0.83858586648457178 0.49669957827103062
0.70619328951309512 -0.5435924501709124 -0.11586746306934437
-0.70425005334310953 0.3518613380299227 0.14378241183274376
0.015518778489914453 -0.60299527198254177 -0.37054554889638425
-1.1686972273487228 -0.34672865449082368 -0.43036726449122398
-0.59336249033850486 -0.12350691143558601 0.096904604505304803
0.84415129045537896 0.057636000330330894 -0.19955855519051546
-0.34067114484771643 0.31967001956983632 -0.21446117646400786
-0.83736797260033402 -0.42150721011779124 -0.28236858631422734
-1.0589123643471448 -0.74416930665932779 -0.39958124983706078
0.27550573051062699 0.50663132059241001 -0.45644091300381717
0.32583861229462041 1.1180957567105607 0.25569383442898186
-0.076562484088942284 -0.23453963609319928 -0.54444619800014493
0.47198206959051348 1.1799776730994989 -0.050384550547663665
-0.45217786744256649 -0.64454455010465672 0.41899369582082713
0.2722248825943403 0.62206284138516543 -0.39785537265506399
0.38775645424010818 0.088029657588295507 0.66924658741324983
0.32583223294921737 1.1450369460734313 0.27292325658565275
-0.18098978270802668 -0.74529312382791346 0.50583722875225412
0.74611444246823133 -0.34499562798521155 0.35990426747978788
0.029433032024368089 -0.79679502275143399 0.42435119180017189
-0.3178940362471252 0.85880815439050906 0.032135640427734202
0.40868770046661318 -0.69818654273234482 0.27299481125768921
-0.24541692277417582 0.46846994703072564 -0.13883387583307183
-0.18731199501238649 -0.78036163853419405 0.52000471166934936
0.48945889757705707 1.198856172899438 0.077765238925683988
0.67410324821559753 1.2832643409237878 0.21711246344508339
-0.27078432278275244 0.016329678757046384 0.48691689254377302
-0.74591461521600344 0.2442206085095906 -0.1632150729474624
-1.1420700837857218 -0.55265972930676455 -0.45458948310087521
-0.49789572930480208 -0.38481266762504307 0.34258808313662925
-0.17556316563999719 0.64407356490231038 0.5250251235774428
-0.065109175077033399 0.25658990429828288 0.59246193939767267
-0.15106844578373835 0.24400419114752947 -0.39345790462598274
-0.79193780715938722 -0.25751177145451964 0.059887496926068096
-0.026525547205344502 0.43656420072586721 0.52180046588703632
-0.40372538921289447 -0.4116522219106229 0.42878423227395324
-0.040448121583192886 0.28043209831427762 0.56779101749133964
-0.20975709738056736 -0.086450101712406635 0.47752988122330642
0.74801747614840197 1.2779980648425204 0.010219631811160923
-0.78776337354657588 0.22988371837370813 -0.16650716616612016
0.089999530258559446 -0.39204273574804432 0.56829415089593383
-0.66367295884772393 -0.8519963630178583 0.28748547257585599
0.21687494525082585 -0.062184310455320024 0.6460530504038644
0.95214295313054453 0.01285279659046068 -0.33999120852993059
-0.59156650542027744 -0.12455741834685785 0.27055043003332457
-0.35324689760865269 0.82644182707935387 0.061384377256226585
0.6858713116304358 -0.16397786017387878 0.578764796357504
-1.1834390431170316 -0.337901825164173 -0.40544894036731982
0.15233352122560362 0.74086746746135157 -0.1333580474690379
-0.57763634787066742 -0.80135122817493587 0.37974282014105221
0.91276171315019816 0.12127503240987375 0.27658906321445009
0.65103272026738912 1.2527965296554129 -0.070960609018964504
-0.28135781581557318 -0.98667099504373534 -0.12650301740078973
-1.1925602683251508 -0.35382734499538016 -0.41410677442628518
-0.77347260027359077 -0.2600446278484605 -0.30215211390628305
-0.12755009216900248 -0.084044348249583845 0.51013749738270775
0.22607486282243094 -0.17207808913962408 0.63620532951775033
-0.68840675943682861 -0.5669141260026842 0.2363651614032527
0.78056406141999801 0.18587805096466981 0.62517025192502373
0.32014525236894986 0.36083262858000342 -0.55333412161476936
0.59410427598654136 1.2213058073050327 -0.024762815168521968
-1.1104232905299103 -0.34071579442492084 -0.39710265416843171
0.73648742729580974 -0.21659928438750098 0.51098620841115938
0.36127848575825539 0.85290139091573636 0.22783391296677635
-0.61355535750860035 0.06096552565331681 0.16969134620566173
0.79338027358408159 -0.49501397626277543 -0.076290306334902525
0.50206426221858536 0.49568227680033727 0.61327496065883658
-0.65387561128500948 -0.80121601106688134 0.20393874546640767
-0.71851581860233615 -0.9428939751422718 0.074109284505572859
0.0044026977596662853 0.81949097248530389 -0.44168977137148424
0.41517245733984698 -0.13981563112275264 -0.57710626664593967
0.40165313604475905 -0.73694265500962475 0.43560646762039923
-0.77742137471135031 0.28553625020088047 -0.10214973591412857
-0.020251019857022268 0.90480450852896999 -0.2643070505084637
0.15971113315459418 0.76399471730627866 -0.59334711990262612
-0.58702479822622688 -0.049120804365143655 -0.30565375215491741
0.38111140268588883 0.69872796084652222 -0.42436663531344365
-0.20959695890645236 -0.099542029247951858 0.53090877753037269
0.68634783901944552 -0.40452050800576411 0.30853037799037075
0.11596533609352244 0.81965938127367632 -0.40186881405728059
0.45728628689888406 0.19536006518294169 -0.63317976921127439
-0.046243345726686869 0.73271361729251927 0.41997581161592379
-0.60463212608374484 0.36441524171350137 0.22006704736577731
-1.0460785715500167 -0.085593581638633065 -0.17810733219519648
-0.78026457861462806 -0.48546265578425651 0.12706797253327906
-0.99608134449372443 0.12902050510638352 -0.19367232248871247
0.056279663560210302 0.39343505099491605 0.55590370735307637
-1.1456570982656764 -0.30939989540614232 -0.46732795814896733
0.73840701066410297 -0.37357940428257264 0.23757779691656644
0.040101844348029658 0.65757903283176589 -0.13455320181182095
-0.72118561237081558 0.22169080682081832 -0.19971605397731729
0.27972640718975228 -0.75960559671111616 0.26690490439537129
0.38334039709722401 -0.71038180274789875 0.14593770861963229
-0.1043434015615663 0.88842085670169002 -0.2117478676854212
-0.085777176527348509 0.7560602268231631 0.31886496534661646
-0.41133099986197674 0.75046136557385434 0.11878835257025422
0.35041896536199957 -0.73857372854341752 0.45495633015864456
-0.11963478132244365 0.85198985733265031 0.29514041526569734
-0.26627946074779052 0.89137025731484254 -0.028127258287538481
0.55130839231019291 0.86231370682515029 -0.3663407802752765
0.52858592280495564 -0.51527876016755103 0.46696245798607805
0.97451419865664768 -0.20491550341650511 -0.15239679331040001
-1.0088886418704472 0.021683049874891225 -0.11931425946017704
0.64002198508102426 1.2109693487217656 -0.20037541636516565
0.65438669563409491 -0.48890062423633851 -0.20604134029995436
0.75762219904693762 0.12045927409566348 0.64038691431300343
0.92351979285573904 0.26954084593862537 0.14285233763265737
-1.2131070096309706 -0.14999302605215137 -0.59767307006197434
-0.86040272438311938 -0.1362019044288254 -0.46559549779462195
-1.1540435259116526 -0.74103186180692426 -0.52200620124174257
-0.42383979163138719 -0.80738612824205602 -0.34624789978887627
-0.64673276432976046 -0.60699524688468176 -0.17120205843803227
0.20158978990783005 0.046319248737733743 -0.58253403906919132
-1.0147159235509955 -0.50633077387952008 -0.16297692669851749
-0.9409791469563169 -0.35475048329255987 -0.12554869699472704
-0.23984728340728712 0.61483841878771361 0.17705920762032434
0.8390911843182467 0.5809192881940668 0.42414205833008545
-0.060531731463933092 0.85577926217048361 -0.32955020471445451
-0.58411345990728325 -0.14226597165015886 0.23928457777110701
-0.18707100486509631 -0.51504712639551165 -0.37587064251937718
-0.41927106571503447 0.73062774167672506 -0.085468932263221831
0.040011953527374189 0.34492764898253125 -0.41418623777214059
-1.2094554578157313 -0.54655830928469418 -0.82643122980666561
-0.1770922468754792 0.59588257227139696 0.032050519441245484
0.30283683026326447 0.69136587075812739 -0.37235254329191747
-0.15061373320545357 0.26530756210433148 -0.36063404636156271
0.62226781520847041 -0.59995223654928576 0.33393105355882113
-1.0335175792140889 -0.61492608004165772 -0.16687570027153065
0.21476527561963499 0.75694249485678 -0.6002704618231629
-0.48074440555608522 -0.1407693110060273 0.31018022333018358
-0.23356477339514825 0.14000771385715605 0.51977469247789543
-0.48721608603834543 -0.67747200140155406 -0.26532067272466975
0.90754867993342181 0.17193149698277799 0.30860677209635234
-0.74861727103130704 -0.82729861569453855 0.22884978198084127
-0.10918615850223024 0.59294816149331542 0.38687607721844408
0.71731451416595071 -0.36747768852039675 0.30178830781654398
0.43819059695746976 1.1843103714774865 0.14274154993041854
0.74610601837370538 -0.45526404540060961 -0.2649574828491037
-0.30561605272246517 0.051931762843363982 0.47812988085431662
-0.012782659058497181 0.5606232000437088 0.58958075370060925
0.27759323253910839 -0.77354622837842157 0.23801259803702379
0.54023905681582285 0.91805258681721558 0.25942076581341311
0.45617824976944465 1.1724138260972388 0.12689456688448253
-0.21817603066599034 -0.092045324260759287 -0.52122891766579649
-0.28992563573719776 0.8010937804666427 -0.26111254211929769
-0.41144721985537291 -0.46833239286316297 -0.21868991004555127
0.84492044414067458 -0.16530846611505556 0.20496858984674127
0.00025678508021087509 0.64590145011330691 0.56041197196101855
-0.14887527505574916 0.76707791724825336 -0.47517785357933207
0.19906109758669199 0.34089202044981626 0.60778091755682162
0.44177676641882258 -0.7248954775070402 0.42035525704996068
-0.091165022576305432 0.22347465877421846 0.5644976830549524
-0.25709161671268888 -0.75173302720093893 0.46331146671931478
0.11743434722952273 -0.46723702779245313 -0.42369634776285281
0.6081950412984698 0.62396579424302101 -0.60334065661122693
-0.56458904116512265 -0.93286898181044697 0.22865475061692209
-1.0130264002650389 0.10529491697740934 -0.1426306091272842
-0.0080983660449382988 0.9107653469930197 -0.25608974588670463
-0.077762527004190396 0.24332045247528322 0.60973146536795397
0.65250002238486537 -0.54569851720113149 0.31450011710267489
-0.81430367864914022 0.26510798411279834 0.0496937332506171
0.31556803513660192 0.25805663341797525 -0.59202821855585341
-0.21336286255013182 0.54467659696461901 -0.034092280421170074
-0.33873301693716318 -0.87909824748896215 -0.028446166215152502
0.021605581118627981 0.88914325856178822 0.20343002464234061
-0.75371645678488264 0.42762858514759028 -0.032210405920945817
-0.54304794437931214 -0.78379979266976296 0.14582931956686807
-0.32827431241862826 -0.40956767364951391 0.47456631662069171
-0.34159986168882783 0.8368657733686482 -0.063185696947051895
0.93524289474282529 -0.29930505575026389 -0.28253866129449179
0.67179372155722916 -0.55978960485249973 0.19058772785530032
-0.22115957949058362 0.015515158113372784 0.52946300592988216
0.03616069064492855 -0.082359197844580567 -0.56052397827032685
0.47344140486960251 1.2095482760679088 0.22483741199815377
-0.94133431472990292 -0.48308915302941891 0.017893445593646362
-0.82570343645570343 -0.38002442837703176 -0.0011001100198235747
-0.068294854945200711 -0.33679957701903368 0.55483144969366904
0.74453273018944799 -0.11154689661403006 -0.46832191238341458
-0.61145114596368266 0.48460331705606441 0.19905000330291323
-0.18669137577361017 0.83193270913238448 -0.24303912290298513
0.78461772350360448 0.94481963860775098 -0.044716811851079896
-1.1135741858697239 -0.40134812524622732 -0.29550313563259145
-0.50040344703516126 0.011272163884728847 -0.27816050724183405
-0.1643892460788261 0.93283158818722978 -0.039829603627485
0.76329043370485561 0.6458824541950775 -0.45620335925670652
-0.35876575395583465 -0.12535749217785663 0.38925517646928043
-0.3831962918076961 -0.85912967586242051 0.32537398541265361
0.53418884851691129 0.95808710398942987 -0.14069875054809344
-0.14427446754715056 -0.73561864669942389 0.43842334217509915
-1.1819736890502384 -0.13524089630944491 -0.38677217439728295
-0.14099092670665714 0.94507420048925805 0.0052504798472430281
-1.0033128882617177 -0.40670508962367824 -0.27565714921796491
0.6089674555865745 -0.18263518604262896 -0.4282338201854472
0.63997366491818308 0.25037910229645777 -0.63161401684197926
-0.30316287158414923 -0.75992414966946575 0.46353068845995082
-0.023639999524777799 0.84102766135336626 0.24717983972309554
0.31771086067058629 -0.80198245375261723 0.1032539294719399
0.37386292910078023 1.1491669813906631 0.39649229287859278
-0.28103703716524731 -0.8221812353199951 0.051253600232126217
-0.79093266154442876 -0.9318481147690556 -0.11773967559778065
-0.18090474131555112 -0.75188132170992628 0.30858887384854228
-0.029766682735191452 0.60200605889039815 0.37127807761357623
0.1263360069098578 -0.23085069924213941 0.60889909587295499
-0.92729797484907994 0.14284904900711037 -0.2506109708495412
-0.38255730399091892 -0.19997238435355169 0.26897617586070055
-0.85785425558459316 0.095607124297577784 -0.008776696359509728
0.73363234427473145 -0.38085852384798646 0.21704850082092797
-0.26215750874526123 0.80378813724181652 0.27770006927881319
-0.54676181017725067 -0.64619985186024587 -0.22350532891136865
-0.61910448701108223 -0.38520511354365494 0.20118705659109182
-0.45675262106692927 0.68173935916512463 0.021177799983755463
-0.25444344048290368 0.78541945169483052 0.12447724837911522
-1.0504321947976241 -0.12071394160110627 -0.53777706755880494
-0.65657408654095839 -0.87971989587932087 0.29327814647730399
-0.752300510155262 -0.1144157479461847 -0.40483957991339459
0.37376913541427115 0.17241850210609067 -0.6238654518713922
0.94472053677244094 0.38307118522822498 0.32777280335889714
0.41584292755715246 -0.33720083856048472 0.58411830002456888
0.34330370027139523 1.1258883329757259 0.23619445052299781
0.12654709479701864 0.33740463203565851 -0.47726910439565273
0.85580338057848326 0.69655924527492852 -0.17043461385723546
-0.37007701285601602 0.30335795386179631 -0.2102497391349889
0.57533831680727898 1.2049803883575816 -0.16855220557431494
-0.071396007169012066 0.312361994418902 0.61620782625266202
0.28098614466060745 0.54088335128925813 -0.43286995027649589
0.041022411490042821 -0.73177222165644928 0.23619032534349316
0.93790156635305966 0.394517525970356 0.35623912723120554
-1.1312688347221025 -0.79088719127420992 -0.53405822502240241
0.51721033216427958 -0.20624219450384651 -0.50431144569911979
0.16508817821890176 -0.42994037181112615 0.56391322668685007
0.62544514399673679 1.2299089332070827 -0.17853082947769749
-1.1858817169833831 -0.35036909767260971 -0.3974271053299141
-0.21723306572388346 -0.40696513924397332 0.51573579087134469
0.72721895072463738 -0.40200223784541511 0.18919148716710232
0.66037510548343903 -0.40872123536307803 0.428193447698483
-0.33710465102193732 0.76706593443667348 -0.27774284205065847
-0.010997372092864666 -0.76151072439217504 0.34389188174674956
-0.86374853347276392 -0.45854521329180531 -0.0084660785973280639
-0.56798972167831163 0.11036137459719031 -0.29282862381454322
0.23643515008893434 -0.79297014193523818 0.22321715088572525
-1.2028550750091522 -0.60801113517464389 -0.90009509707802948
0.76486480551761282 -0.44184572192600235 0.149705349159861
-0.67788281878000234 -0.77052207497839376 0.011277076297032451
-0.24304338799614822 0.33350317771416194 -0.25735571397992274
-1.2072574135636467 -0.6469264178938674 -0.76869523463527933
-0.41475422304072751 -0.18470748392110381 0.40112736610522326
-0.9874553110934956 -0.088352301844264902 -0.10628744710334104
-0.2006151150786426 -0.75697573473023061 0.52183952062890882
0.11811774969627908 0.99249106373184137 0.11815457100519389
0.7602921851351736 0.59751547127802418 -0.47281561305892694
-0.019958030421358686 0.5114102809081662 -0.26103738878884108
0.1239934581199833 -0.92820785877644552 -0.023452597265286812
0.28362740800513375 0.78405096352243175 0.29860344429373242
-1.1394897599499503 0.0031821987662044027 -0.43686776713207642
-0.0789256926698787 0.64043865903756281 0.20196831568236639
-1.037022010492084 -0.58457760901507594 -0.6381785700908349
0.71784936269038013 1.2407747662603699 -0.067092392015741353
-0.35626425752721458 0.78241454269916133 0.18160088092369975
-0.24544096750111244 -1.000905815847698 -0.25739390318378597
-0.3520086983235089 -0.1793045336614747 0.28880500058134295
-0.89216539589030219 -0.34712695188221909 -0.071044700681387241
-0.90187693299614757 0.0030873643089412983 -0.027021738893798997
-0.72271068392615057 -0.42081888094788278 0.10204720695179503
0.72141734609427743 0.37954584859398904 -0.55696585808575172
-0.25267321240208052 0.38684770196189566 -0.21582558663410367
0.23400752333301966 -0.88900421782229966 0.026012829265606996
0.044516852081613933 0.26364110941533769 0.59058435179881918
0.80111454725288134 0.23411142887045583 0.5908843432437525
-0.99008920367166198 -0.26794541420269091 -0.4329922596081559
0.059685505759084378 0.36052219693179 0.69601548322929219
0.59039604213109786 1.2401780391326831 -0.014663448219577546
-0.73150029776625747 -0.26281548981314451 -0.27822038814648664
0.78754767099952883 -0.11690644520831883 -0.51914172894617394
0.09214030637581061 -0.8052273684072988 0.46456736362852524
-0.12175317142321163 0.93322080133687857 0.014953868673433846
-0.54804836414239499 0.31829728261619383 -0.17917878900912676
0.28354582252617355 -0.77930315977688625 0.20396322104566877
0.13383438109513701 0.50936600774507701 0.5156692510612384
-0.13213490398684336 -0.89940149164115413 0.3653846746462488
-0.25905583720252778 0.39695800312415397 -0.1989637091930927
-0.0040943028459956565 -0.84717997212163154 0.49594706325638427
-0.0081129041057153017 0.2387261322932388 0.62724621069884989
-1.0688547895643419 -0.69899189721589616 -0.64858957447886745
0.4238873826159093 -0.59819925557557896 -0.16235830150024988
0.78742485794004669 0.78430679473631582 0.43689450137454067
-0.14440708855614481 -0.045124044749470738 0.52134359468985991
-0.37570386883842222 0.37961686470729461 -0.16597103757684373
-0.65990550326820419 -0.85404843265972219 0.30448886261675234
0.65152686284556083 -0.071120017699077054 -0.42396167193941636
0.14907894400331845 0.75180542928872818 -0.6022132543233969
-0.042868561114850934 -0.90759063765657055 0.4014626839277522
0.85994414242433859 0.51863841268383704 0.45771706847355631
0.045703945551446523 0.42971632319062802 0.689742468343022
0.45164733959929748 -0.21948968701813615 -0.51529918711116274
0.20310221735226008 -0.50619669801819656 -0.38939455306090665
-0.42124346021821157 0.64698544616600584 0.30941106403737884
-0.13700379221335979 -0.77482511137548449 0.17949179146076766
-1.2021786491909507 -0.24369859046546805 -0.43340071833729787
0.40400071377312319 0.88448391963855899 -0.19432000990403253
-0.38195347896622778 -0.78543502740651339 0.48116194185560524
-0.030049475650923085 0.37696745474435445 -0.31922635884209427
-0.54812255605243276 -0.83443786427156608 0.27823334431878699
0.66493885612302606 -0.4524426439255349 0.31281410482298178
-0.98330314787606632 -0.83443417199413039 -0.13204457377894663
0.26283314653906231 -0.00025693795362569105 -0.58514462635665154
-0.017254760706145511 -0.84567749555972838 -0.12062981812997364
0.52244249748662952 -0.69488671076246433 0.38427565122202623
0.054017564404194474 0.73653278644743914 0.64552294645003272
0.49906819263924618 -0.27054462546868685 -0.47137924877942083
0.48544903947967377 -0.4180437424150556 -0.39911885299223115
-0.84499210838379923 -0.77904341840412594 -0.4611423500931231
-0.5740263183365153 -0.30664384303604786 0.25075369675783676
-0.10595624079775856 0.5670376872513101 0.3831798296984843
0.68555448447636991 -0.3721067795036912 -0.3433730590695081
-0.024381328818657622 -0.78677394512130061 0.44762327970374294
-0.47293907778870725 -0.94994115044940808 0.26543899642826929
-0.034594189498803107 0.74745314377914607 -0.56583504555566044
0.60656544966877401 0.0072323311067550022 -0.54611225911435923
-0.24738227992953687 0.85483372764885424 0.20413873529777504
-1.2322077467858952 -0.2107992859805905 -0.48489697712672708
0.62607578705449196 0.016863425514855757 0.67285403209315575
-0.75267567575936667 0.15178447163726938 -0.27315149304877728
-0.92863651041815221 0.12596169393774437 -0.064935849536817969
0.28963874198095407 0.19705376144663433 -0.60301119999011554
0.071825129240874475 -0.5027313181035995 0.54189306383892522
-0.7909257980230695 -0.90906812652034141 0.067089170331694703
-0.60047913095794581 -0.83703528290090801 0.35334798064885575
-1.1089613086029342 0.014698527875890655 -0.26900088592564941
0.076705486774401699 0.92549771794403934 0.20341755942014927
0.92882857784148154 0.49833345140662999 0.10936210603161101
0.090540342953817188 -0.59739771302215172 -0.3476052341792446
0.86650284721192783 -0.26763627066200057 0.059946686864419618
-0.52473264181000356 -0.54334175991922151 -0.083936820532930057
0.1048962649958245 0.42605613509331941 0.55355743749016639
0.73747874037836336 0.17850046635303585 -0.42565324717049791
0.85338803356968018 -0.17516283044773084 0.035287945373502438
0.066319191587131066 0.47605305092722738 0.52087046048661279
-0.14439153808116689 0.6216952150551518 0.20983627405714955
0.84867086597774133 -0.14992387120343209 0.15492997670256159
0.34897698406994859 1.1542928281406972 0.21026178001583418
0.79967159491948792 -0.14159380523581222 0.3627449698928551
-0.024992554135137013 -0.28580550532653259 0.57035449386873793
-0.62679219509096917 -0.77365314129273677 0.21132167834504045
0.6827705318661339 0.93659229723526982 -0.23453601114160527
-0.065237671028209654 0.75677498591146453 -0.53784870590959422
0.83468746883978007 0.050128471268596098 0.57867628875915855
0.054874842214564623 0.69416294462377026 -0.039380100951529329
0.10805724024446306 -0.70312588532949372 0.51640695161942674
0.369359963592923 0.33654825609222239 0.63135931441382098
0.83720336729638589 -0.020132064341194633 -0.0045130390906145124
-0.10099925921497732 0.91919370906763298 -0.10887192406977597
-1.0241155368755042 -0.82765775610210857 -0.3931247627115102
-0.34814583112247011 0.74500118646519686 -0.20370117478375782
0.58231298865258641 0.98185552718044899 -0.039332239641225897
0.17435457048831626 -0.87729752259111315 -0.074786359077469555
0.44788920829543066 -0.70195488649671067 0.25322270749571096
0.59521504514985946 0.79799491828702518 0.4693645297030713
0.85021530663594014 0.7966194566244329 -0.12167712507781125
0.78669244482724032 -0.2194132031443069 0.32851756872857152
-0.22446786863287382 0.87797259165569974 -0.19618817819985246
0.86116837667374124 0.076711777668953429 0.4864684419967471
0.95097939367335638 -0.29506702562301501 -0.15890265907979284
-0.6656377701509415 0.2717070313930301 -0.1720692676033817
-1.0461026465998344 -0.78460200860768992 -0.26061937627564724
-0.11516522819317743 0.31674104944200732 -0.31210634352034106
-1.0160340656701194 -0.4667847804481069 -0.090730648736544239
0.51106663952222409 -0.028633993616361986 -0.57767664514360817
0.70230002001109071 -0.18652653673200273 0.55042908000079294
0.11852225337274369 0.78170633974980852 -0.53022640241851882
0.029456991553600709 -0.75080646099785364 0.15834531576098065
0.029059597132460091 0.68196724617441662 0.16687580986577366
-0.97280709962781664 0.044247097790519607 -0.08868461435072561
0.70154588077118163 0.94677785402107761 0.27805260234789841
-0.037126937459671883 0.9069217986794138 -0.22190481481424307
0.80953908486802817 0.75050421243003296 -0.26544023579350018
0.8348658946513563 -0.051398572705984802 0.29897510390669702
-1.0181241832569885 -0.12533964299196354 -0.53514703353598136
-0.29364571770157966 -0.36366003065965796 0.49065824208759068
-0.40523396197743899 0.34384048874910933 0.36726955327455002
-0.83087218216415337 0.092880932430830399 0.013946710003303053
-0.037073412694736074 0.93135749731196915 -0.17849105188538594
0.91996558896230329 0.22326889553096502 0.42714100809827116
-0.82948139933684129 -0.10831877926326494 -0.018635366091094951
-0.06008182043612198 0.55976280971372727 0.49370244914320516
-0.13912475300972549 0.19637090540224245 0.55227369679314897
-0.079865997708191472 -0.92859542853970867 0.071578209181474506
-0.95968222351424703 0.091920408258384878 -0.094050760522666366
-0.60195431320480708 0.4028112995481461 -0.044873852312994345
0.37937071719795146 -0.77685987426452452 -0.03517645231007549
-0.64691092146845453 -0.86146990905923426 0.32470152599393032
-0.78418024633411942 -0.35389407289745201 -0.27539874908286421
0.42803925363095807 1.1547213423231266 0.03508805956738037
0.89115150395175569 -0.31037537766472179 -0.37508470689551743
0.94782287642748475 0.44112062127763091 0.29520590423330972
0.94593614835379025 0.46599430864618113 0.29468287253871317
0.055123084388544186 -0.75702524305056018 0.47652212510624103
0.81106340927282616 -0.46242902694496868 0.070695270841063973
-0.42597204629572616 -0.31280967139498039 -0.26535019856582309
-0.24633800495825842 0.77987169802002576 0.16279867817848448
-0.41742469510314617 -0.76809718195174304 0.37053692041092035
0.56701181052050575 1.2514011166923051 0.28408790685917396
0.69810530092541168 0.67486258779665653 0.53553457256013814
-1.0938444404436458 -0.15970199638409954 -0.26143911148557741
-0.34475176161845411 -0.42273900040573209 0.46350721737706557
0.95251101619365031 0.30121675977686979 0.21972027132949634
-0.82533713652443019 -0.11112006631264126 -0.44187644249689306
-0.49328290631887572 -0.63118821320274654 -0.19231102523735188
0.57965783209327526 0.067536884210316672 -0.55791371982766158
-0.36134537202251593 -0.93074706234582383 -0.068703069688625718
0.66886139548567147 0.29746709747059663 0.6050928317227946
0.69145537803590074 0.98165357775385198 0.15849228346370126
-1.1782810735827409 -0.099420411179869106 -0.56522148325984212
-0.034897832975789633 0.47346229732306533 0.49751055647175413
-0.77969147456289178 -0.65087351838654206 0.14693813532691991
0.44092694678940259 1.178100468674157 0.047984630029450415
-1.156467248828811 -0.16063337859768656 -0.35283702897174862
-0.0088871220025552589 -0.82254360924703185 0.43490812714522953
-0.97092149500681302 -0.77945716283392674 -0.24853768454495828
0.44814809435637759 -0.60493066800136486 0.0015153287993587838
-0.4465519853694726 0.70281012102754881 0.0082336930700499522
0.26078097484657414 1.0908837795736992 0.066497449711501844
0.9474166567804021 -0.29933164982517124 -0.24611674211369916
0.12942186445463832 0.86530257136174615 -0.3627890468237176
0.64269852444225606 -0.062272588057493194 0.64047998695667552
0.2764012103932254 0.14096973233582299 -0.59837173244930497
0.88783468555696032 0.72848908807631729 0.29245470053851008
0.43325211241373163 1.1892354966047081 0.23743229411946487
-1.0002391983276357 -0.089216543516888347 -0.51946496181263768
0.38813378689627243 -0.72769632015135621 0.2419828910988624
0.2473112100712358 0.80349540641908757 -0.49381737457810893
-0.80928085945760575 0.30341448802110582 -0.1042258897812296
-0.97891822411161566 0.1261048665161697 -0.25585706954032794
-1.0508483569609659 -0.40823197345963713 -0.23678728450149755
-1.2212108463349409 -0.30101243430316615 -0.47775522182110919
-0.37555152336094277 -0.62907939662905887 -0.21202211704608054
-0.64746904584213816 -0.85562826989045793 0.32684737107466155
-0.061240751678100835 -0.85017559864052017 -0.13826185341014252
-0.38588668485608313 0.54692776601344795 0.3828213264379734
-0.3097467154179272 -0.78445277541546499 0.1970337480979385
-1.1665710715720161 -0.68858344992087017 -0.5368266746344954
-0.12595486178227722 0.87620970936084941 -0.21290432066419385
-0.3960039696251858 -0.50641272058555931 0.44884659135283833
0.61568615855550668 0.94429949650667888 -0.23853169039530719
-0.78099273136959546 -0.17443084048944368 -0.40810069162631102
-0.24690670597141384 -0.47675986058586262 0.50429482775831502
-0.45044269087450761 0.34002796677461111 -0.17219570559098329
-1.140376491794231 -0.70354518617880379 -0.450056236165711
-0.055459529397324125 0.84851253784960612 -0.36247745763084005
0.45240687298854976 -0.022488284844748074 0.68084822680224022
-0.75630086638276506 -0.33139915942367804 0.072253460744096998
-1.0813481188575 -0.42272995984749961 -0.25026904821227269
-0.044198013425994276 0.84554661231633377 0.43984251509050409
-0.29507350270254662 0.011918252647926231 0.49164458118196031
0.33528965404972855 -0.77253879865886699 0.13752459002938799
0.22092463317653621 0.052830677132761572 -0.58448003186927622
-0.71667090378631215 -0.84723866037787432 0.18183152451461204
-0.28999519395549633 0.51853929268181886 0.46265333960271171
-0.68249610699575136 0.050486713793638671 -0.34394267832018954
0.27134091731904242 0.70346460490578933 0.4117242439538451
0.66290907701363011 0.0021793331303690544 0.6557369701251492
-0.1773611578145835 0.78625399881993419 -0.39301207532609617
-0.10183676711883827 0.54345890626342586 -0.16239328377779394
-0.12065120907600502 -0.93886943856928595 0.054468794257571673
0.85575954954837563 0.1047696345358598 0.51824612530208114
-0.085418662592442463 0.94164140489617942 -0.10429557184888161
0.47893500998435101 -0.47615165615499211 -0.37364871210697004
-1.2153343173214459 -0.29846480773983308 -0.48670312354824041
0.0017423674987000481 0.26206303154788735 -0.47961962942716774
0.22203882090372318 -0.67919324145545668 0.48696447018437006
-0.21318430459075444 -0.27402838434827592 0.52253929753273987
0.38335949680910275 -0.69347083976910051 0.37138289945430714
0.67233202044331009 -0.58658011600404025 0.11470064287131976
-0.37164549738429464 -0.11900630495711439 -0.40028181198685608
-0.31252194803442901 -0.19955532951348687 0.47219724061788604
-0.93277238190511014 0.11517693941478502 -0.29596296448117876
0.25437568448149417 -0.54298945100248508 -0.38002885789643948
0.55307953021881318 0.90039257099043191 -0.30121256569396415
-0.036160060706461827 -0.6062160738280995 -0.35522022268166609
0.89225529639542778 -0.11219900826856088 -0.52265662494369458
0.95164566788492344 0.33210766079511916 0.28900168671718518
-0.86995257715325192 -0.78231053163753328 -0.46490019985782283
-0.55957105977180444 0.33857855667853931 -0.15009040776933169
0.95715983863803977 -0.28636295899642428 -0.21568311656670325
-0.032163294875994453 -0.83401632646811374 0.42332325611530663
0.58717775150862384 0.97834984743271125 -0.098806973730216185
-0.11802659889423683 0.57789056418795859 -0.078597649268608905
-0.7161852050855666 -0.47851785671446845 0.20849533128592412
-0.20561452092739607 0.62523301097387085 0.21966286890386399
-0.52100167348767279 -0.77434063473510395 0.28084522219824848
-0.94804128595551163 0.10529090771461735 -0.083253912752166315
-0.075178759431489439 0.23659797917013803 -0.45679918501983607
0.87270867512058636 0.42647129699143427 -0.14878188194307462
-0.21974704504332365 -0.56820952909939904 0.5009747974066201
0.43436393137820772 0.84177487436910514 -0.31860395116811802
-0.26603908157717626 0.016035915284572155 -0.47909558439594768
-0.94775308794811775 -0.71936051968078707 -0.11602886519506228
0.30148801199154551 0.79080248526394792 -0.25129657621431178
0.56538920104598489 -0.22366357251841484 -0.44110605072286191
0.097522282335011035 0.53352373882155435 0.72688555892875151
0.49215425183065964 -0.69101052693999288 0.19393868213205145
0.65917035538469548 -0.015013480869765339 -0.4573782456463622
-0.4191134542563395 0.47087775923766007 -0.049549205017967779
-1.1773040215726924 -0.67518755013992238 -0.68454522083923486
0.70984573170012055 -0.38828424323960298 0.28242249573897027
0.63531122232229098 0.14544285510404165 -0.55487721851122096
-0.12508259256509602 0.82044099405964177 -0.36998441089425071
-1.0107667136235934 0.12221813097253387 -0.144312152153244
-0.73502888093443808 0.23930042415588915 -0.17347687337323059
0.41716396865647898 1.1738660413410442 0.16705195055866184
-1.2232254711005996 -0.28188010981532075 -0.50020010789071989
-0.060934231371920333 0.61864061761957601 -0.06451350078475393
0.78890963427460203 0.38799626900668782 -0.37556815353323714
-0.63495522201623 -0.47401354018754982 0.2735724439603473
0.67582387167774449 -0.12706576763380639 -0.38445676448914412
-1.1739789835404784 -0.021447505790750387 -0.42172310753838538
-0.27701098404109192 -1.0075832509135516 -0.21520179738460321
-0.85404239258732861 -0.25512375601929937 -0.37862750945072854
0.33567487094284854 0.32685426331919398 -0.57574276586703377
-0.27829914403424993 0.45355777716852108 -0.13610193904448842
0.79903368644733153 0.55076861433846447 -0.37895474801026197
0.50693868836743849 0.0020783144838492085 0.68305917012832928
-0.2779710115280789 0.64738921619455336 0.13404022129541637
0.038844848770969609 0.88048812654108222 -0.28666105138842646
0.50849424257451492 0.94992566948549806 0.097416325302932094
-1.0544077588596288 0.084323875496304712 -0.25272463716461324
0.43785128324449829 0.92362676381783171 0.074925528293784183
0.37675508617358933 -0.0062731516642637875 -0.60071208237527429
0.86374881432227024 0.69599549515110881 0.35737663969184474
0.81324412709678118 -0.2976132926506927 -0.45269901395277934
0.40537187461675295 -0.72314969872606571 0.43245737551891494
0.32229722673895633 0.75373619025769489 0.38674243163783473
0.084436850317108902 0.86991260626226019 -0.37712414006110073
-1.2284526150128237 -0.23061036869506335 -0.55820426235392162
0.10947014079388762 -0.15990252475031785 -0.54747229320017965
0.0086578855720125247 0.53969310672754967 0.63126785937243568
0.72096249380494903 -0.40220381718565212 0.2065290046361703
-0.70166906687509822 0.095775606976522543 -0.30984202070484024
0.91172692111829168 0.40313718344029409 0.022961420851210335
-0.91601407663202039 0.18734848518003977 -0.14102334909050995
-0.08108839569955606 0.050369306998866437 -0.54486664219770553
-0.65171461606824277 -0.23053619570034511 0.075579175299976598
0.53556084773830293 -0.65887806137546656 0.081393896887240302
-0.042090792955193024 -0.90144260542391064 0.39732496672287176
-0.26644498256670701 0.42333085398646908 -0.16198143472158222
-1.0263438252049797 -0.28286988229954524 -0.20271060519305095
-1.0254203745803938 0.10120018004824249 -0.19051642082557052
0.26810834112259663 1.0704347587191361 0.40275332785529905
-0.28831815770002045 0.66036378101954929 0.13013244632282905
-0.1869228117099837 -0.7428508282431967 0.48788677508330558
0.79161985578374949 0.23252116613709184 -0.29796990625437836
-0.7127792290684436 -0.81094845740625732 -0.33164399821928292
0.73513761989414483 -0.088627591919256954 0.57685448315881871
0.027190270705499842 0.50774328424910764 0.49672980246555198
-0.61054175729788174 0.37686074829377159 -0.050791557225334572
0.95815224526061815 -0.010703220396778734 -0.35106282587671167
