# XYZ point cloud file
0.017670675009828135 0.73384659769726301 -0.23670762925215305
-0.013098202898807587 -0.2425691971699202 0.28508652281641522
0.21074962802225283 0.87694640625509956 0.15403705464173756
-0.43313297671187434 -0.73801461219628217 0.16543116708687267
0.13271061206758455 0.68237122710279907 0.2728061336379648
-0.38598475958867584 -0.27546129708412281 0.21957936698264913
0.72233431371202372 0.49328437242756595 0.093937257415874331
0.40148485837622494 0.55511237361805676 0.041740622274473616
0.62875472764001594 1.2248196658506696 0.059784634344684839
0.46410433420247965 1.1056078728541365 0.11421763423320153
-0.36696677366187797 -0.67652075488779628 -0.041283422899453193
-0.38285001329719892 0.30745327891341545 -0.063778677406860051
-0.12960866323872339 0.62668743425518536 -0.17811233219794009
-0.13935172811260446 0.56926397651116578 -0.14135471042487291
0.016281931090869062 -0.6066567225546422 0.066194348145104609
-0.20261443692148118 -0.062890006680636046 0.21168718651719098
-1.301370994087697 -0.6105654577562164 -0.60250297106023387
-1.026065850719672 -0.45958187252679072 -0.35921940656179308
0.72969780683373187 0.61379232699926334 -0.20913396582662225
0.52552590515504216 1.0772677943487614 0.10948584899050617
0.74906718019496521 0.53158097493922396 -0.095974044991342655
-0.61008266325789762 0.015076254339711603 -0.17672651234244086
0.59034662382305902 -0.17424352598836479 0.3221689287251972
0.093295125950018931 0.47106506010289673 0.2076725439475382
0.41772117542004922 -0.33972117608143937 0.39685238689514124
0.58218563200623907 -0.39661468829917945 0.12439855705555791
0.56898732540283548 1.1190660760205418 0.080592497967030496
-0.41382104488652149 -0.06687891012505176 -0.15035479750278213
0.62083430451084709 1.2571820056901857 0.091059828236468077
0.18148894685135908 -0.73954815195638668 0.3387119032296666
-0.54629967068338614 -0.28501875089166306 0.039735336647136243
-0.41274771612477684 0.29978712423001541 -0.063382584789593466
0.53577721063690242 1.1875697948757709 0.11162761883759487
-0.63221899356406741 -0.75417365260874125 -0.1483140603745694
0.37806279739587789 0.91738791483932092 0.11362712938202435
-1.0495703864749508 -0.25331371232654964 -0.44760483550228169
0.19132069235084248 -0.42248443337554253 -0.0035598835581458488
-0.030409436436878545 0.30996579379197864 0.30245750828962015
-0.59883101891941504 -0.50229761326185252 0.033742732004975462
0.78589288632799725 -0.13036260842568104 -0.19462763316392317
-0.46548360351748735 0.26544824647609544 -0.035630387078021908
0.74744371862928582 0.39348409170348142 -0.15368939574195117
0.0053189001565044081 0.85752680515584756 -0.069343333219938685
0.73653995913711545 0.56915316547401185 0.044531812805491899
-0.29323703342197072 -0.24857275171667303 -0.072015123171511153
-0.77504652274506913 -0.53004287900039082 -0.10202218643808525
-0.38250460095106364 -0.22083332851071535 -0.093023030783077942
-0.39801023342876757 0.36181063873464658 -0.0066120019054953794
0.78510355315350167 -0.1611275504178582 -0.20315886799910388
0.53823407224637942 1.1048608976459193 0.10083632184560631
0.11874845552734725 0.64916981970321119 0.12323593865513471
-0.98363238990810564 -0.74792611976899481 -0.23457509219114669
-0.04950803913726709 -0.55982569117982495 0.2997926465459182
-0.4217131433908714 -0.22869428152444338 0.20276915150327435
0.69321001597989906 0.70990989107949454 -0.13006784665543636
0.20035653321252023 0.3873412012962667 0.23861684033751596
-0.86553634622540099 -0.82978368129650537 -0.11266067945102343
0.19924543112190773 0.83311995708456887 0.13454714771848941
-0.66295716004434579 -0.3261286809334224 -0.19886605329395168
0.38556840780329493 -0.4156263329853398 -0.025646349716251571
-0.040140513199853622 0.54938031671500731 0.29452112508641859
-0.59426798168176576 -0.3238318546947867 0.073051203571836254
0.44831841474543987 -0.25035005837330959 0.39860428023401839
-0.094828867575437126 0.70172204690962192 -0.14673759779999451
0.53094494030649986 -0.40275163156202654 -0.02373312127568461
-0.092676775303789899 0.61111886473081101 -0.15732611518727357
0.34418526199526012 -0.47496124307211873 0.37652955108904562
0.65316040202849668 0.59933873573868901 0.18495860741225112
-0.0065453993930825183 0.47377649364878649 0.088880937893961232
0.35658774061855858 0.085482978527014364 -0.064769453896162954
0.039931039239171073 0.20085490662000827 -0.01132082426052472
0.088305382361007934 -0.5955375470651898 0.26868434646195194
0.72762386957025338 0.43973973173192449 -0.26429210995136598
0.27407219080255485 0.83168823074565923 0.21172823633541382
0.45888576218012278 0.58526792579702192 0.023228678291377314
-0.11182513314003273 0.58127708976870185 -0.11084409918656402
0.52280891054225376 0.62323614395439275 0.24014563280761791
0.061538343646096061 -0.60712795532618069 0.34119378966440594
0.17362996478875176 0.16261715834514057 -0.020611274388141254
-0.8513641052640073 -0.66607674966235586 -0.2373758119903564
0.22858320681227173 0.47107859192935897 0.15046729873006193
-0.477853778380809 -0.5476059368234012 0.10515641846551738
0.72263864410638678 -0.2936545723531474 -0.037777026278642989
0.67800301855319955 0.64964989305874532 -0.14088929306323994
0.24971463218550377 -0.1099887859739429 0.37933646869147708
-0.1237746685550549 0.18603129553319486 -0.031325129429014442
-0.56336631868891263 -0.65003123317026534 -0.05451567762192866
-0.83754416699442524 -0.11663735076209791 -0.33015654593811794
0.35659818370211638 0.91940427123495461 0.11023959066870459
-0.15934865120727665 -0.052689563481373436 0.31078675993137717
0.73056227527445528 -0.27223196450302156 -0.24367033923061721
0.39301135136661736 0.44407390406231873 -0.0029099830601868604
0.72892267557883761 0.24008689465654354 0.12190628680156124
-0.26224413777555167 -0.62108875257879204 0.19359633000920162
-1.3358466923157966 -0.57959543105331424 -0.65301027009176038
0.036676446503351418 0.77972212341426128 -0.094405508946437955
-0.11157904116003226 0.24419408963915523 -0.01516773880863953
0.32914409338067863 0.39137584855360941 0.0053181480692572336
-0.27579886533842857 0.22128375473629625 -0.040269940833677076
0.67603127332862978 -0.3169458631371499 0.029913838336759202
0.76578145043034607 -0.16429319695643341 -0.31420748759934769
0.74459574778069326 -0.20015865930188026 -0.28506271595310695
-0.1073155622905807 -0.011390240469516644 0.24602043065579071
0.65028217580143188 -0.41812358198638655 -0.09046750988886032
0.087421247007472003 0.44721960368989344 0.18616818879217067
-0.08559244669386093 0.61138120717970534 -0.11913598369203093
0.78095687753461451 -0.16628264741069865 -0.29778580368972962
-0.75714852118607401 -0.73704690100089287 -0.039845218165724727
0.27765327648812427 0.022672586078859025 -0.056720100525105455
-0.78528899906489968 -0.6503908847307116 -0.10102364108620909
-0.73182907064360292 -0.65079490743464574 -0.077556225469948892
-0.43302231732703061 0.19747000226761979 0.10834391894568274
0.57737055428794459 0.77258363797124119 0.12013805441873737
0.71601672738095301 0.74298708028715432 -0.12430181533187934
0.52646755981492588 0.72350989203817551 0.14717940944141983
0.71997131071042864 -0.33145361506344329 -0.19296782438430249
0.39497823301032875 -0.54571023501371663 0.068157131984904584
-1.3334881217031394 -0.58862773627331444 -0.65647000565062719
0.44279393861586264 0.98396511773763917 0.16781155722873464
0.62971019057702904 0.00073908847558112889 -0.18195387736952195
0.029949955916058257 0.80196646022356299 -0.21348292741146691
0.51325468328163648 0.021581285316736531 -0.1130855090815821
0.49073718940656241 -0.52607536822617451 0.067871807897155634
0.35702731148902933 -0.57015113440800158 0.12145879117183478
-0.13888022149755597 -0.0039296301158897595 0.31828821577684874
-0.17217684338514436 -0.64667989810998383 0.2393948482370325
-0.59939153413964674 -0.67714787780651153 0.045400478257874521
-0.29757368255775613 0.45895832260592639 0.0073832616492115477
-0.87888899681041255 -0.30435074033210396 -0.35939393287754839
-0.66468733629135912 0.071295244711766959 -0.17553438671189037
-0.57300519441216047 0.15529482519992766 -0.14586112388259886
0.16816211925153279 -0.59587651739121184 0.2316559932251252
-1.0681290693831107 -0.66235692004765823 -0.33023103826236921
-1.0834671310805482 -0.43720263851604702 -0.41699178023881567
0.061062949246342091 -0.30334806883936882 0.33264006217216124
0.65781078781629843 -0.24596138123544087 0.05097514405596737
-0.042849209049456771 -0.1149803398972884 -0.091386186267646163
-0.099600756888183983 0.82052379853140001 -0.17018507001607808
-0.06209320125006812 -0.017138708713287043 -0.081059125365332552
-0.61140394542695331 -0.54873247712712958 -0.13616565518600066
-0.15111832537259973 -0.67349536657410236 0.10612813004903776
-0.28840844244426744 -0.21575626407448556 -0.075549989824911457
0.38825907329945097 0.55594130540075448 0.21851437107277594
0.55382122631201458 0.40627967007518606 0.28361236385285871
-0.24480263296978932 -0.067128103096060765 0.32166778746841729
0.26487932000692527 0.45540128910936595 0.05856052151192781
-0.82933981276019209 -0.5822852553448965 -0.14475943276419434
-0.10014081953932102 0.25584646799493482 0.36037080438939473
-0.065941710042859647 -0.4866703042733076 -0.021382896406152874
-0.95138622130142125 -0.71465005034753859 -0.20367691596736215
-1.0536766659763508 -0.5237751815300371 -0.37623005846994628
-0.49786879341044182 -0.71413577486967994 -0.030254060596296206
-0.80942302159155433 -0.53582608705610346 -0.13555004996728082
0.230735354889818 0.43457102105335843 0.21446282010420292
-0.69641828117143145 -0.21098428981934148 -0.086260616874371365
-0.48130486179793186 -0.064258916274843036 0.14215247827515354
0.70871214327662235 0.80426454056041452 0.019633442915033328
0.3002256570205819 0.8883917601574991 0.1132868790856425
-0.29135329170219176 -0.65093048891637773 0.19825260088462082
0.32468514501644063 0.87458624820934183 0.20401039209390071
-0.2862082369270767 -0.43237971331486258 -0.048776043207331199
-0.25447140116212841 0.092624223902463942 -0.081579265275171675
-0.48849318699826283 -0.28924117244365666 0.082945487281148367
0.61733166909477755 0.75529700262171673 0.16448945114317315
-0.11377714930626731 -0.66965978384791935 0.11504695187946101
0.77671032513219551 -0.14395601066750796 -0.14455573762489049
-0.44415879772255262 0.23329023528601778 -0.099244815057400348
-1.0695511494138499 -0.26649293733630064 -0.46385928976760127
0.75187174236471987 0.34118723654353178 0.02409970174434628
-0.30727032305827995 -0.32597771340562232 0.19652231023108335
0.093356318525147364 0.56879231108511097 0.14971870734354686
0.62194166863711642 0.28838640432204432 0.26841244154321853
-0.066857475209389228 -0.19539575760639272 0.27689921663786032
0.72396760125189175 0.78097628349219228 -0.026085188249104885
0.031825858778620209 -0.091367752204405961 0.30324423678007983
-0.14277734575287429 -0.61606491070108516 0.23172587446537118
0.21111659628118445 0.32615111153278642 0.01676331814969334
-0.5026211331595094 -0.069447920408380215 0.12101703609736614
0.71592572794756093 0.0050510380927117904 -0.056420825130612862
-0.15560765909677826 -0.0039115880515924184 0.26776548843079162
0.013592906982001829 0.21574133867723289 0.27770874982499638
0.0719374391458385 0.21875314713969107 0.25892793333843311
0.25238449499769178 -0.64955653212982789 0.1170576017058309
0.4992086123035584 1.0169147582851501 0.12458468433124059
0.71822200551724924 0.60667638896475529 -0.20830908635829903
0.022734409457484284 0.53718734550289793 0.10307610013671376
0.60066296361591331 0.79296108815802402 0.10529291559641507
-0.1776325195993772 -0.81426755377987603 0.30188775777784471
0.72561495354491956 0.10575307548228929 -0.20185112578685827
0.49827793053413805 1.0934943997983573 0.087600406512499784
0.17627705478730382 0.77186319500112477 0.22810653832029182
0.64378259020773565 -0.40953583843195629 -0.098503160688532265
0.66215353674375188 0.69009460762288377 -0.10303724516152712
-0.98596969080502661 -0.31547023510127703 -0.4224534325212046
0.38846485730073932 -0.55784917857133232 0.11669455082131863
0.60227253647301227 -0.31483667716626451 -0.099103414963496839
-0.7558616217860058 -0.53745435329393454 -0.086509639390554671
-0.31825290833849074 -0.23874777272346459 0.24158489601396127
0.65209518878293782 -0.39412224786979833 0.029447395007741406
0.66193089329575006 0.70700374714224834 0.16383184676960783
0.21320132355622745 0.76126508874715348 0.21897486090250151
-0.5256954522925561 -0.6810079235016463 0.091632932749147855
-0.039483419674080811 0.73320367608597792 0.057296076084794034
0.74257964937698129 0.55045031842830872 -0.17623722325215452
0.75104027019221664 0.42545422030197022 -0.048454221830013466
0.43987527038925434 -0.19426316020106982 -0.077367738561449073
0.68245487388465653 0.80582865426659001 -0.0338990428059458
-0.83001159134284386 -0.29480706033108262 -0.3347387148922798
-0.31457201260019185 0.39000650569500528 0.14858517975489072
-0.2284352941466139 -0.87017316888974472 0.29136559782053206
0.0023014564210496191 0.71536017407772734 -0.16361217225650271
-0.070408027777200899 -0.51632109304078433 0.28494728033650274
-0.6546336151608112 0.071950192245120448 -0.1888903658852441
0.52801001309234852 -0.38173296987242522 -0.071920261405788111
0.77715488822851841 0.046726225669222909 -0.3577850147926811
-0.035983081873127487 0.10671459678266793 0.24821977988329591
0.73489464436798579 0.42063888806859095 -0.26070311633415288
0.40647908829649393 -0.55077243712488266 0.32319924675070544
0.56510940487460737 -0.13339763988426356 -0.13202510606371876
0.14115652625858172 0.65910235051752752 0.27454225449721603
0.24290336826454778 0.92520436634516012 0.20680393972976541
-0.80939692860624746 -0.35563907994415922 -0.27129536173821522
0.46197976430825616 0.60074626314274737 0.23318325919276095
-0.4837726404441145 0.26449980740839052 0.011064961785575811
-0.42894872050435373 -0.17431730614825669 -0.13349250010453417
-0.99472179829332841 -0.45579666455095647 -0.3151185003254251
0.42419571797519506 1.0535722761829129 0.16662909456910535
0.14822781290814835 0.80995137237014259 0.16022269824899515
-0.63714572719573659 -0.58631066040031266 0.005546602383300403
-0.96520093077521785 -0.28748828183455399 -0.33506752380865246
0.30879268136551685 0.49447290064523752 0.061393519811241859
-0.059144613700498783 0.35974545894738208 0.054333407262491917
-0.4729969776274644 -0.43707501748579136 0.1131015969895306
-0.27374011967235323 -0.048839927985548592 0.31213525173780932
-0.26481296040164487 -0.64053982084401506 0.2037154257506959
-0.85935656000771199 -0.48236537769406784 -0.18020278525477851
0.068114149310926297 0.71329447495867759 0.15541168645737935
0.27043948601437523 0.78110776380705005 0.13771591028559449
0.41333458215038055 -0.53928695376445779 0.15547708140327865
0.34447196836676686 -0.058111877327188699 -0.064969179381721975
-0.041848487213336311 0.65869659463018682 -0.10406258570564719
0.01281055586749355 0.88190426579185344 -0.13808030608518407
0.57959831518266702 0.64880740423900884 0.22613063202231531
-0.49612897983846227 -0.28975666796505051 0.13565706848870995
0.32450801397054507 0.99304059744572726 0.1429785446725047
0.29842375474472621 -0.49169242440431771 0.38344674593815897
0.63169966954284784 0.75114465600216862 -0.032757430140702759
-0.085271619606523102 0.83058836977710992 -0.12097036656310278
-0.62311122677970066 0.0218830456759318 -0.18128325231415499
-0.37056236970958334 -0.056617123093579136 -0.12867804207426081
0.17197424676378359 -0.63134156816469544 0.34856718732035263
-0.74368971059509881 -0.029391081513476802 -0.18799893506024823
-1.1218272256275685 -0.33898109467563542 -0.49235471581014068
0.57565696942753442 0.69696461972204626 -0.0099915847442599848
0.42852956045559559 0.6050535731534501 0.051594742307693675
0.1895474614071162 0.44891054224354732 0.18211333788509787
0.17219053445601828 0.086496192160903762 0.31682817625421666
0.3260612145516591 -0.45699407136842263 -0.0046903025856228631
-1.2174573117985186 -0.55209158293338167 -0.55565466094262761
-0.16211376449826043 -0.53631811691909892 0.24897253481604764
0.72750677987672274 0.27259966714049577 0.14575910041163542
-0.029483491261014239 0.38533681133598741 0.072251760811855359
0.668640925100638 -0.3577078999730493 0.030655625014526233
0.60095727208201666 -0.25362692806472098 -0.11883590228714125
0.67961496357023221 -0.37423743483706473 -0.1454564433152874
-0.58377756383247981 -0.47153763649816727 -0.10004480029680485
0.65064880402939029 -0.37316176739792806 -0.12922577451731465
-0.49135748637222593 -0.18976720983393369 0.15839333698242841
-0.676982561078317 -0.53608687844211977 -0.031003955157935525
0.23322379176102209 -0.37125523116027959 0.39016034227790142
0.66810915896324463 0.77840225071064562 -0.052393277176449704
0.49328694040402843 -0.52929719513277906 0.24433947821692392
-0.24104921562805992 0.07174445991934908 -0.08144454923201172
0.055571932278730307 0.86553751358144027 -0.13534839751758732
-0.69613424750309749 -0.39092002820374083 -0.19827848519339852
0.1771708448597068 -0.33474927123084752 0.38821650035799671
0.028726010455204509 -0.33062183058025552 -0.051262103709661222
-0.039261647296972679 0.74878693430017074 0.050079981446940369
0.60083924905270969 0.10101983521266655 0.33991800360793478
0.58071486784571136 0.6619260338539632 -0.033944383953785628
-0.63113023523719991 -0.20781156491461594 -0.042411632928603726
0.46013594550692444 0.6343232339603293 0.050374661640639307
0.38564465426432487 0.93738948672220213 0.10939446131182073
0.09613355488994324 0.12968061687746757 -0.02262745113318676
0.11672808019114445 0.21778167079193556 0.27337314287701853
0.59709898989036048 0.73155709735056096 0.18253706886598442
0.20294825214569223 -0.3541710039860102 0.38917509897965497
0.1061419863536654 0.5304370561447953 0.30784366538584607
-0.29408909503968694 0.40851470811487034 -0.025725550205606407
0.53479374672638258 0.4269148768362403 0.29009917370493721
0.3463131375203935 0.89705313378917895 0.11311304869708527
0.77673009623809741 -0.15651136676348942 -0.31683561719647724
0.10843005983615789 0.22129574808518759 -0.0023069723793414099
0.031324620894074506 -0.13794242616502306 -0.078077483804663839
-0.40044624575117771 -0.20985204639977151 0.23003601082380642
0.11584667885998384 0.43297485335430297 0.14881209452976973
-0.0049472823802148014 0.59808976698469762 0.28367393921553052
-0.36061353139365082 -0.71244786685857586 -0.025414723313235577
0.67904814778508638 -0.028338781314741768 0.22225348831977909
-0.54848252569901734 0.075378462092730802 -0.0049971657877780906
-0.22849294052216496 -0.14819439019212 0.31576218378937648
0.6456084353425311 0.3717537685891128 0.23899238171790405
0.26261583017789836 0.45084365040291496 0.21279508356462085
-0.36756294597407368 0.05566159390458425 -0.12121604268437691
0.6276518426118014 0.24730508683446373 -0.1800680119922351
-0.55219345207102477 -0.64057179883403537 0.075669120565421633
0.73379697684300282 0.13525883200135302 -0.03570603341797618
0.035432074478192077 0.64845408641097335 0.2558155953472947
0.27720579813959584 0.50217829052059648 0.090852534657450246
0.31221018722828175 0.9647817304750852 0.22933188392500359
-0.39423994105678783 -0.60159478019893009 0.072449700013422103
-0.64128815612896095 -0.47433562657148531 0.001562980208442255
0.50728973983516612 0.45133943406625043 -0.051791917749095973
0.61370798795025638 -0.44962082771093381 -0.0095879159611924614
-0.6522741516532593 -0.56623661023006189 -0.15736088472928733
-0.10548674561776367 0.14583617707235186 0.31808901026036329
-0.83791527492066198 -0.5370168457310841 -0.15561060812172522
-0.52472634950678732 -0.18320833234503797 0.1249959714334139
-0.69527363880602411 0.04016210839009271 -0.17752789409358272
-1.02619664536161 -0.6479139063978786 -0.30125825320159239
0.039415626302319651 -0.74445717892076069 0.3434877355762147
-0.79378551131455155 -0.091909204993656179 -0.27722907079659542
0.72934076363264677 0.56662691084189554 0.071474905128391164
0.75607108998381178 0.10321142821089846 -0.23151240555275887
0.27044166054037705 -0.53997211440453829 0.042344343962857689
0.70353638160811804 -0.32764448407403113 -0.19432429740089541
-0.95430423250931096 -0.81883807726478663 -0.19184056775911484
-0.45672991331841806 0.15692484346970137 0.093832731097746702
0.19706829281311461 0.34267738961146943 0.2577969333902943
0.59854197188895097 0.64524297984071688 0.22046151277288395
-0.72271052126363722 -0.2102240589975447 -0.1043073698982373
-0.76400196290993061 -0.67874474385654637 -0.16529777509651211
0.30267042750959339 0.46572988776920887 0.2247891211596289
-0.14499859254676423 -0.026899326774995957 -0.05838541261284691
-0.75499084044891285 -0.21620320393966042 -0.31585561871211221
0.26392112458980771 -0.58962999667977256 0.15730932172734846
0.67639268115957851 -0.38943153101390249 -0.12733178673028434
0.46740556587892046 0.2501325918694508 0.31335131971568098
-0.7313655668287492 -0.16715838767856206 -0.12040939075811652
-1.0903840426546689 -0.4328514129559986 -0.42450572498118211
0.71295263590520075 0.46899748152760834 -0.24446724310358059
0.20925274663152849 -0.40774720175972901 0.38302781074322789
-0.62329039078076198 -0.33026827452516827 -0.17824157676382857
0.34272695956537436 0.45452732098554938 0.25713283607911963
0.6533215545050699 -0.41163756353563974 -0.025199420259604643
-0.5271230612090092 -0.52366916800211571 0.069129566414288579
0.12540837721711423 0.58961854513749379 0.30023145970100495
0.52141976808916213 1.2153812906866948 0.18381817702729886
0.31290848386698633 -0.43086831624034905 0.38315163569325561
0.13530828042472509 -0.6932992950504373 0.11374978072764153
-0.72629504989393301 -0.50395087911923431 -0.17646739497885866
0.56398520866733293 -0.39058562271642061 0.23582439512013842
-0.28982412610658026 -0.59219234565315948 0.12181389956740585
-0.066653169088172537 0.84783719446761641 -0.19391018627769951
0.56207221453760903 1.2094845420227101 0.10330729551624684
-0.23142696741872787 -0.63316804771028079 0.0027335149958740423
0.69248158528256631 0.33342400553555951 0.20490219273692123
-0.28848991814626535 -0.63629662121885977 -0.017823877662064724
0.13866561091486837 0.36402473598066321 0.042204317953072668
0.70286159526464231 -0.2950383647609246 0.0027259148679914524
0.70213194998822281 -0.35034809292464875 -0.17584803566677421
-0.37952526603663012 -0.61866341751015441 0.04193757732576664
-1.2507310765209174 -0.61928230099677206 -0.54204414529158673
-0.22240473482795192 0.097341019063264644 -0.072942309067111299
0.48477497365493816 0.60357626006939835 0.013515973511111223
-0.69436429632317798 -0.64582142530213349 -0.021287150818352973
-0.14803134321391861 0.22473461121102911 -0.025824225115848254
-0.048608832361863807 0.28387090089289546 0.0076261315436405575
0.035078527457404474 -0.40084825919148626 0.32202679168514647
0.30714329527949819 0.38432646431740047 0.0081607383343000883
-0.24207378690071252 0.28619689574369245 -0.026749455210952622
0.29819077112339454 -0.62557596559130846 0.3180000969450778
-0.066162032613468758 0.53862078406193237 0.049047994983292931
0.74230561199954059 0.5243144871905161 -0.18583655374695329
-0.66075505770254872 -0.53000008930991793 -0.022488064903949834
-0.71781267721279773 -0.30811011570477354 -0.057114488184995427
-0.14567870810293304 -0.25388056568629858 0.25011811485157942
-0.6058975597421753 -0.22291217455201962 -0.017345149227386614
-0.32443622683280948 -0.22621907477353309 0.22505589225839673
0.64315534470556956 0.25460296652509173 -0.19458732426975756
0.7370672265929652 0.45836609990398625 -0.24556481851975853
0.79473273399372391 -0.07824857459068002 -0.28489100394651423
-0.049567939763055069 0.80902458260640975 -0.0090632869095925717
-0.92696715082127967 -0.89959942131902837 -0.14796925398974592
-1.0270768442469231 -0.47938274803615244 -0.34574685905938418
0.59295859707846865 0.14058671295106318 -0.15820170603951089
-0.011723753083124677 0.69881880536540075 0.058007336514202645
-1.0082676012020249 -0.32519939826448474 -0.43104642983031471
-0.068166980088441187 0.23709259638381974 -0.0086094243547583105
0.24066548558851028 0.79073426576821393 0.12050461304112581
-0.78717006090385488 -0.11854305876009597 -0.23574964239248697
0.78032395151444578 -0.028552860827713245 -0.35909984526848504
0.48721477289568188 0.20715809710967958 0.31309617532605305
0.50917478925409165 1.0227709823875129 0.092247056371110414
0.74180858568773456 0.26665318457469844 0.078653805997791704
0.74357085044517757 0.30722818487372239 -0.16110857286840607
0.01118038341031341 0.72117990542071952 -0.031640765023592365
0.73279615692941014 0.25301850695709693 0.10025986680505161
0.0059143326027383536 0.72451432502485491 -0.14289772602891904
0.39507530970540894 0.60357967227940867 0.16859315650872686
0.55339926115916382 0.03935923319604151 -0.1353375168673554
-0.11921570686252203 -0.067477487593214924 -0.091383678023489345
-0.80304177306160984 -0.49548797968123481 -0.2276143617047266
0.018733168690627827 0.89336533083475778 -0.20133338777591536
0.095444795541925642 0.37369938326436292 0.2043674900193162
-0.32243180526371595 -0.59462561214339005 0.13230851980323433
-0.7913168048661734 -0.2703094115968554 -0.32404585432137978
-0.53142956096719396 -0.19808037463889572 -0.18789753212666893
-0.89445611269122005 -0.52363183362392518 -0.20723030558059508
0.094383441135618001 0.79512674006793094 -0.23094526761976675
0.01090745730403106 0.71438867003382578 0.0082931225099791561
0.53461057910032861 0.56274507971496401 -0.040177002143616747
-0.39092909632204714 0.11011011603732501 -0.10534190148049216
0.74015799804670235 0.52771766370784223 -0.20293391068691635
0.40260669361298307 -0.58074340811820391 0.21961604212975949
-0.6086481068765478 0.045593548372451553 -0.17738730209576437
-1.1279562824267009 -0.33451298667650547 -0.50578296676521672
0.73353293830096022 0.21679601444205665 -0.18801999294567651
-0.018699545331848977 -0.66523969978829045 0.28934642426423185
-0.9773256199451229 -0.48713469074720467 -0.29312090890309062
0.45240776809570654 -0.50261838013109872 0.28940111622829123
-0.79388830469546745 -0.70057445429828402 -0.083683124299724021
0.41099185513828163 0.62351509331447841 0.15097070691667724
0.6658409444241371 0.12140139851070741 0.27376427035980688
-0.69783892498489253 -0.17627969297562307 -0.064624722729740736
0.019904287752027239 0.39612358621770261 0.087177265019140915
-1.0709675490150112 -0.31011022083172257 -0.4428179194657238
-1.1216568202275459 -0.35064114076969255 -0.48375282841537515
-0.13475450822547519 -0.20719533988628513 0.25851777667320563
0.017570756179332847 0.85180854756211177 -0.059003378352307401
0.29035839693405202 -0.35169267795849746 0.39722768182344215
-0.60335166283771069 -0.2267092153476401 -0.22106418083756152
0.6533446454511953 -0.13132471361852405 -0.17315114663590592
0.53125722965423172 0.21528913367575631 0.3158199574599494
0.53585062334604761 0.16438724610838151 -0.11787480048042376
0.74039450645620852 0.68305616821038417 -0.023803031317572554
-0.86121234564727722 -0.53372921728142919 -0.25892716162190466
-0.84624782062566617 -0.12307695268592089 -0.31222573387215125
-0.076314501629419829 0.75752928692879373 -0.14689051907835138
0.19046130825316349 0.30004118303913807 0.27130744424010178
0.30653833944588732 0.15673079568275972 -0.044967463774868044
-0.095036409135110883 0.62247037189967358 -0.21751535362193808
-1.1120404685432075 -0.37128275772514036 -0.46960049361551004
-0.99617948601346651 -0.61224180949400353 -0.34806180160555567
-0.74235152130444682 -0.33598117446051534 -0.10889053267560556
-0.35900119127371322 0.4023042513506826 0.091854867875426294
-0.068228882209351416 -0.57203293986974524 0.20906392066064594
-0.26604919301294289 -0.3295805114953545 -0.076960279394832298
-0.0061638626938394503 0.77225816948836212 0.033828509483529334
0.02875140845152635 -0.24505281954019908 0.30626931346962705
-0.060563332007857879 0.59454441004556546 -0.011423296193449506
-0.81478123850458917 -0.19391079003077794 -0.35367392209849013
-0.59632848087918633 -0.33056232144683928 0.05636436496556918
0.0596134420385665 -0.57514445283222648 0.14435723437081815
0.70761472478799903 0.76862078171183867 -0.097530787400402108
-0.45569305595942422 -0.82005571304225255 0.17009953659758725
0.50987612174678509 0.45612486141433362 0.29151907208823635
0.68983337534913658 -0.37091625511283133 -0.050155900279296173
0.620780848082779 -0.19128076484478607 -0.15094625295699471
-0.27787324894674059 -0.14664218723947187 -0.077703269449319379
-0.66145623919166197 -0.16482628027792812 -0.023841830360920024
-0.6987168837740122 -0.14708490754181236 -0.080726308276186654
-1.1178230123308883 -0.79928211799690618 -0.34747910790118608
-0.49642840168960611 -0.60135105089275176 0.047976273811461301
-0.62933164935706221 -0.023339818283669489 -0.22084003667965213
0.047396200517448916 -0.056141766850983599 -0.077153130038679851
-0.84084161713178962 -0.5216825343392657 -0.16750488255912632
-0.38885912504684328 -0.79199029356089268 0.20061840078581517
0.40569076226881989 0.38412176145354171 0.30274289562923595
-0.31799449063322066 -0.71725673199410367 0.048741115411492508
0.042799763223818066 0.083294092558338306 -0.044427996673463976
-0.82115980718193526 -0.6756959258694285 -0.20943871902843414
0.17319722032674287 -0.68680459360221391 0.11301671073511432
-0.59795390374843604 -0.051924429601518662 -0.22222315938513537
-0.5216049931952309 -0.76601405275615009 -0.084391964203866632
0.45615622861295613 0.35694606923111039 -0.041253116308012761
-0.023915351426953557 0.63491530143033881 0.051147936340804279
0.056673917189084988 -0.0046472880802446159 -0.070890431956802669
0.61945449320105372 0.44731186280408597 0.21997864044582949
-1.2441141698266558 -0.6105842173367011 -0.55065747012333666
-0.16911113579108394 -0.50335664565116289 0.24022806804859442
0.030755529914819946 0.80762810221839687 -0.024065117622805721
-1.1077112765891259 -0.30308459278869937 -0.49309541334270568
0.28941043323078053 -0.68332492734680639 0.30536802508096894
-0.025918206533602051 -0.18572146097674436 0.29252772685295003
0.49241011541693358 1.084212284539835 0.12672445378036867
0.47758728498752634 0.22438423784986639 -0.077150736307848966
0.66829304845092508 0.79708892405193721 -0.031622857463910581
-0.15018222390013458 -0.02590863223249007 0.32455986477987375
-0.27725908248862086 -0.26253582100243722 -0.076913432976854601
0.47914242515291922 -0.4741962160912494 0.28832629688879807
0.0080460113610595907 0.65441005608724123 0.20127355925177826
-0.32009344844500665 0.39243952096038703 -0.032626096658273873
-0.53290024964019633 -0.11698748709142592 -0.2050441884538885
0.74839565908476857 0.4765198033802549 -0.14964501157614052
-0.30074959370566856 -0.11890185956806421 0.17186563533795285
0.68559878898134707 -0.3815857922050524 -0.13370497196039599
0.66270717179684535 -0.10738362263762147 -0.18286744744953021
0.54431403251088506 0.4711810517106334 -0.069129331232649971
-0.041839842508229308 -0.34308508176316499 0.28113659189852092
-0.93299260091873648 -0.29644481658938893 -0.39871033969870506
0.54146415719640739 -0.36517378456340599 -0.052060502542611076
0.72946327741154682 0.12554811712799685 -0.13226626808153252
0.41929880757156152 1.0312103661839149 0.10661635205120623
0.17224455768252384 -0.45492674572978853 0.0060292917812505564
-0.2915689799740161 -0.71587207854550461 0.23276063738117614
-0.35370406230432988 -0.87884216025967277 0.23328834379383245
-0.97917607799869966 -0.61818469168651469 -0.26194232724878441
0.119800641398007 0.59716996765833308 0.34948501178496816
0.10889459782204147 -0.21335836982394096 0.34108018827671538
0.79091779811154628 0.0077165314237865879 -0.24224026981460423
-0.17971827027073717 0.022618176131919743 -0.064107744557800217
-0.39883930609758445 0.18891442023967508 0.15078498060633327
0.5480823796499128 -0.44618393301013215 0.1868901474980964
0.14901993503943867 0.68330161451983429 0.23080033011049617
0.77183617323986986 -0.012695615572170027 -0.16642984935256733
-0.1318807727130008 0.48923993791195164 0.25995994769756292
-0.7619875938637557 -0.29634480214768755 -0.13663372608652669
-0.13374706415591475 -0.84198989692603055 0.30938179726076598
0.27365009241733929 0.79636478989301329 0.12869978942677296
0.66085886080658673 0.72413739590357395 -0.082501749779250844
0.45918335474203242 0.18669713468277171 0.3219963794345162
-0.87036152369193998 -0.90931467765998275 -0.097336726297933218
0.52750497918146388 1.1227778939854087 0.11200310308830908
-0.71803443971881908 -0.25852681808358691 -0.054098792824431197
0.60180515198069318 -0.45701671479109929 0.013771804046537106
-0.51998111886443443 0.19598350912426188 -0.015217157078413646
-0.0089016845756821894 0.79186215568039819 0.022131045531266658
-0.70957430989760528 -0.73160568354253797 -0.18739742956021521
-1.017665456250693 -0.2516614772520106 -0.4106516797824642
-1.0664570103510294 -0.26062261987924018 -0.47906343992414113
-0.40333383334673928 -0.17792854022670634 0.1241159395145961
-0.36842615310355176 -0.58609755414087461 0.1703114431861108
-0.48922347245126563 -0.24662912507505519 0.1553767273526474
0.78054604503965397 -0.18480976516693981 -0.27653989407120338
-0.73421425833911402 -0.65957504825636804 -0.20054529136610633
-0.053930751416351258 0.64902593554501076 -0.22033165789072395
-0.4978764548331765 0.25317084189245254 -0.022556325443485736
-1.0717115358193781 -0.27300751903246534 -0.48147558770455423
-0.19457506414567483 0.13503237935025636 0.33487955983066531
0.36728103013657865 0.926716439297536 0.19755281439566552
-0.78604333671615034 -0.61061090152912656 -0.21134102418405876
0.37162697855258819 -0.56672239547879155 0.093695512855718643
0.56504473096929408 1.1591933123074265 0.094644085952765078
-0.039708878735915443 0.64390454329624158 0.10185225301001344
-0.57780427474529539 -0.30053461687741567 0.090102697164716972
0.52232083109849925 0.55016456943492842 0.26943327939818618
0.50647877498702409 0.10860055746700992 -0.10708949653889688
0.54710887827059129 0.64897637515266182 -0.011496185759276578
0.31037706187050684 0.8316905844487672 0.18405134800338274
-0.056858016299740854 -0.10554451825784672 -0.092963914125090863
0.26198598400805395 0.93560116135780125 0.15323351282766895
-1.0435296031124226 -0.44857206830168123 -0.36925820364135209
-0.1118492353998749 0.52089863037838957 -0.0028622942380533978
0.63895591425836828 0.6541750037099181 -0.093333542341572429
-1.0832442654559089 -0.68049226114336048 -0.34066499103464043
0.44858044222561233 0.56283373214452959 0.018313520721464638
0.45152721113874916 -0.44679747940344527 0.35048973110825798
0.35361848327291234 -0.56274695856766643 0.35278625311566891
0.61650559001198035 -0.17184614136934551 -0.15228971590732643
-0.63756079586228898 -0.010945313134040124 -0.21234708068172559
0.50918041475294296 1.0411145996667612 0.12701686970878834
0.43154958427355328 0.10990135789293332 -0.080646666027430314
-0.39846823455177766 -0.42870645389654083 -0.02853771729552923
-0.11188166595702309 0.58840175662697769 -0.13262278619861601
0.53011323266480659 -0.15089557049931579 0.37239114662074746
-0.894888122675355 -0.48204462991141439 -0.24698968143967948
0.29388519388489948 0.91537163146233169 0.12102645383957888
-1.053637880894756 -0.33116535051417884 -0.45966260206445986
-0.098146268184713364 0.31188328352710215 0.021433730241050331
0.58319708398909431 0.27863263911155745 0.27557175045230098
-0.32725766937922046 0.051037609362481362 -0.11242326115174262
0.62922529529409732 -0.14666108091434293 -0.16520330275360173
-0.66643137339059955 -0.65814048778309975 -0.010289735233393937
0.71154030525016809 0.12076186469678563 0.17056804747582177
-0.1796787856056894 -0.016813456241526525 0.21558892655017292
0.70544882781695151 -0.30846182695680546 -0.0041488263821358728
-0.99433575253933204 -0.4652368804123197 -0.32770880527501767
0.77091540248578805 0.10734139660412367 -0.26787525879444862
-0.4511357535116941 -0.54215695776392103 -0.071878080719203652
0.36239936204380585 -0.59397264382110793 0.23552059791541913
0.30318344405280684 -0.43225323539163008 -0.0080890506361317449
-1.2576710126471384 -0.63679810453529373 -0.53702246556664801
0.61881391187635459 0.77915130322287229 0.0051874516217638167
0.67526023468913288 -0.057255928823541247 0.20557175546491502
0.56720775047100358 0.72129934955916664 0.1896015796804047
-0.66910739966870825 -0.60322907481667853 -0.17290494367499232
0.28526589428130689 -0.40778819465283411 0.38385590807522663
0.094059353928314937 -0.56647263614659527 0.039483100671886096
0.37389249418935155 0.96036798721477346 0.10857381540676769
0.19892065860061126 -0.29436807823655109 -0.032151648979922509
-0.25910393087390182 -0.83729275515284507 0.26371238000804764
0.2985377044407061 -0.69270996128778128 0.31399088354540661
0.26643694599503931 0.49891664975657801 0.15064565478510517
-0.20002418379233672 -0.82195723494376416 0.28163889526390573
0.51880100199284696 -0.49842997557389657 0.024111906512189751
0.28587336126250118 0.8397666196223692 0.211554958320046
-0.66521499605257006 -0.38501527208196318 -0.1830779398113358
-0.11889427438043335 -0.57884949196871893 0.20202961521641472
-0.35573916674500683 0.43522831278707719 0.054954847347910007
-0.44101124889583931 -0.098657024174578112 -0.1604486725682035
0.43487253188687164 0.35813664686825097 0.31158007912916164
0.030540228808577569 0.39537687763550222 0.072826274136931879
0.4877306800707169 -0.2270693881814112 0.39030939962688294
0.59834583169386146 -0.19166028457431383 0.2988883650582892
-0.24651829118753632 -0.18302298488616042 -0.090507936905340536
0.077954740897531349 -0.47142706768157783 -0.0023098349518591021
-0.72784593576959511 -0.4514590120583718 -0.070824179248770047
0.50460063713463421 0.41891261740590591 0.29818948937718082
-0.53130045975690332 -0.66897924661688446 0.094520920754187721
0.59883081354296908 -0.46220860201719471 0.0018940340793336397
0.33205917288553671 -0.2703590836420906 0.40688103261030006
0.69003816676722085 0.80226024188873657 0.064230308613138387
-0.49242805263624206 -0.69149077300428075 0.12219110830372282
0.63730037558353947 -0.11836696615395659 0.26781377606075063
0.70334012277414248 0.75982920209758475 -0.10468465506032665
-0.088736703649244991 0.60293819455978448 -0.10664638601842169
0.74054467855850858 0.68151272995684997 -0.11807294264747803
-0.49872255369792301 -0.62101926005693198 -0.014342897674863408
0.096144278431216673 0.387798946302224 0.068548416449769611
0.067475716282823311 0.36162867239274044 0.053858639505067529
-0.5893219993597425 0.038946313846723979 -0.032129895378599116
0.11689926544995566 0.68802285037744193 0.12255588495471148
0.60369542349791128 -0.11844220982811904 0.31800184512322227
0.37577443301434876 -0.45214999846365356 -0.011621950369395506
0.13535818670476052 -0.16470696301704202 0.34284436124879569
0.066100013016502035 0.70293162493922479 0.18789854103911585
-0.3863566028830735 -0.84039061447925789 0.21169936422552205
0.42884191026998542 -0.31855145988866806 -0.053331896956480218
0.38041341175210819 -0.25158862374436508 0.40938805150311586
-0.0019980656611219005 0.6949610918675726 -0.20365517022025359
-0.24273901113598051 0.46450469277710815 -0.0082450959961919423
0.28735414597744358 -0.58305481687553118 0.22443395888569295
0.76536975653934802 0.046348270787700319 -0.18987526720814696
-0.91955590082071526 -0.48922503831268549 -0.26720329891766115
0.093205752610277526 0.43847770298621391 0.20354935043833899
0.26753972872570725 0.13548131725390222 -0.045764341482861681
-0.063190759466097951 -0.6761960720610114 0.28356293858982706
0.41261624762681126 0.19067120512955116 -0.0606829567415339
-0.76082461445267602 -0.66898432581708489 -0.15089412157745441
-0.68963226254438903 -0.82646103112799751 0.023701122694165022
-1.0406668560202597 -0.85710932195332012 -0.2596727964558303
0.26438501832942174 -0.61328300650927592 0.071318315577201918
-0.0052885236114733336 -0.5756625623755296 0.2328258353435837
0.079749452635619111 0.6716782211413912 0.26463688197591884
-0.089357795891436165 -0.34249269528220472 0.26084548593577983
0.13522927990130557 0.67162906564848779 0.29373938383073872
0.66978104128741589 0.39300393668823297 0.22053549385631754
0.084378562111927374 -0.57947735663192335 0.24834324183707945
0.63917641089752264 -0.21459439571712657 -0.14751595191533706
0.25703310757946174 -0.57434407479494132 0.25652468980417042
-0.71832082464703606 -0.022263214116437169 -0.21709724554033949
0.20789620535019809 -0.59267573506824967 0.27895143023746094
-0.99235702320825103 -0.20488453336089552 -0.43176099751652242
-0.79077748846335738 -0.28740959739130556 -0.16512025437499611
-0.55293784884041708 -0.382490993823003 0.054135268641358536
-0.61817759437965702 -0.67068771071650579 0.038474121253425864
0.1620843069366491 0.6758356501831706 0.12947945711929432
-0.66865075334125579 -0.17941086426012642 -0.26900005841988195
-0.29197995923877929 0.43031287518431871 0.14439117064502538
-1.0752442090789549 -0.65243904006769493 -0.34251273546438687
-0.21404574520030767 -0.14264852975188669 -0.093732314642624548
0.35857698448356151 -0.57171646079310501 0.037161586475868535
-0.84039980364077538 -0.82259143727896178 -0.087939398409631941
-0.95899758075407449 -0.54700949088556172 -0.32941286258960378
-0.49604832372273394 -0.57679875497973943 0.099090495376445098
-0.17793144812659584 0.4323194930295513 0.25416880179470391
0.084550508244654599 0.59762852090033136 0.34684600957214329
-0.027190073460085895 0.29022414087061987 0.014224548663635872
-0.63244558614737001 0.10526543663979382 -0.15511339194265217
0.64154887911547176 0.79888201639492928 0.0011623376508795857
-0.62306089698921474 -0.60926904461854148 -0.058779768150333034
-0.57985612239391582 -0.30521397583364651 0.047908908749288326
0.086200807165434101 -0.43100059164715576 -0.01109305533524374
-0.31515562734707359 -0.89197576065172246 0.25570796304911214
0.20085813687462514 -0.71244523688696981 0.3201393716626888
-0.58248652561958458 -0.074445891830643873 -0.22220154724874952
-0.40426709336089484 0.34509390329231049 0.079851185515048329
-0.16690648092822358 -0.052751876375427775 -0.065203134477937574
-0.5580406231696583 -0.6207450929695465 -0.041992459696358786
0.15991928848728254 -0.41578438237958049 0.37237932464611756
-0.75752369326290903 -0.13083261987958672 -0.19092894313150266
-0.98271064529314256 -0.51533076120287225 -0.34684725864087085
-0.42954880951622998 -0.40233841948204907 -0.037627639816126379
-0.31989300113596292 -0.20380200938978421 0.27291554996524159
0.70450524780702284 -0.094033040902124387 -0.0014026204485526605
-0.011679847737859461 -0.56089018246641997 0.18652795450967918
-0.60366889959571013 -0.38005421986684174 0.016201454514167324
0.27618124693874246 0.81016000880732131 0.12345402593269128
-0.2061280627939186 0.50109461015715162 -0.037173839868632097
0.6549370391535575 0.27116909509261355 -0.20434733336380662
-0.70643925349127012 -0.23830411874134694 -0.28034973166989641
-0.097900807453505767 0.60543591581067768 -0.19333404654566055
0.18620985082044544 -0.56216185882813496 0.19265259674189394
-0.08120901613537912 -0.29478766324536687 0.26640854834830785
-0.15044890206491573 0.53006940551836346 -0.06509266569342298
-0.87910750655383141 -0.44003131167232767 -0.25025448168707909
-0.26132287610394955 -0.61300209122445071 0.08525872375760768
-0.59467982232165251 -0.35544481617833701 -0.15386888843739266
-0.53780124214163405 -0.76864976183189115 0.11202347401605994
-0.47733148296123884 0.22687160420094976 0.047668294597796645
-0.65785686543643407 -0.53600873573152208 -0.015368188549422346
0.79533102331102079 -0.080081386235697938 -0.26456718343942587
0.21008402320614022 0.23645626804750153 0.2925126778267817
0.50190996649566155 1.0128926871194142 0.11105567551235751
0.64738622050947758 -0.41990503773860932 -0.034815812923199019
0.46140661494878277 1.1636181754998118 0.17565128581888545
-0.68220510972852244 -0.47135011643501734 -0.031126670882386964
0.69909087766836786 0.040848896981880323 0.19771879362875211
0.48767602958794792 1.1929469262689627 0.19020256281536674
0.3328635671024654 0.5115268225088947 0.21213990818620942
0.044025689369553089 -0.569823661120755 0.20164794885927328
0.71821847862705279 0.26197578287554313 -0.27204904240082284
-1.2945455090522042 -0.5654143288167377 -0.62207857808816414
0.018825560616343384 -0.59850312690754404 0.25943780186302012
-0.73490457024539957 -0.49239879377359796 -0.071252237377330552
0.33309504477858953 -0.18578549611943762 -0.05619184851583281
0.61562422870068945 -0.14774038663625833 0.29842692795828629
0.4610249252601103 -0.49848612681245574 0.31108707438620531
0.43834835335974676 0.54054024954466717 0.013389351454895504
0.78832169073915626 -0.12716320381676738 -0.30620384217557861
-0.60297973278099704 -0.52633846416366015 0.021377454111384253
0.55388561842797979 -0.23706180846764213 0.34252846471231857
0.36628813246356801 -0.21315625853480324 -0.053592779068453833
-0.23936977200484844 -0.1332735957993304 0.25398205000181262
-0.69007120421574975 -0.7036724934830626 -0.1856827669379344
-0.5649410286721257 -0.34345870159751624 0.038390315912097073
0.16878602096977241 0.75961000001028522 0.12297956093987672
-1.1737894037862624 -0.61849752603535724 -0.50114515075366817
-0.95801829551049311 -0.31872148057168614 -0.39929600457255576
-0.65428623253297857 -0.23285712406161041 -0.25083680357199389
0.79303254412235535 -0.04142588061176844 -0.23117282006765105
-0.85632890426786967 -0.39361900807901606 -0.19774894007254806
-0.17670229637687609 0.55435680606441951 -0.13827985605505422
0.49014633264266888 1.0104940023785693 0.13331640786734189
0.15367106220815818 -0.56586389635136691 0.16236063410059787
0.28422056799688683 0.51727229523372964 0.13395777359269845
0.034230558184335513 0.81400757415034386 -0.038746578606219551
0.73716793873794173 0.63223734097135487 0.021999007996711839
-0.45494725799753266 -0.58553619489278164 0.1258120899082189
0.33735245792889373 -0.14476384314521962 -0.061505296964405431
-0.89022527025471787 -0.74795687915196385 -0.15221165663806557
0.29477818277823298 0.2257304534636595 -0.014401062992412061
-0.2434068525156412 -0.67382265730320001 0.0099721840066817613
0.22040090974789117 0.33967771703669936 0.26187209276777645
0.73988301433935844 0.10218807632889093 -0.25189081788406309
0.27223675278758802 0.91243254180182576 0.22882205191733007
-0.60924831525730372 -0.25520003394618362 -0.0026017497211192619
-0.83485162399152402 -0.55033516474251465 -0.16358537006054874
0.39387261119222028 0.61270691700423319 0.12202548650675205
0.73557925406791214 0.2651883497301446 -0.19264263085664357
-0.85309930801880574 -0.42734523286149451 -0.18656076454333181
0.7777743324262919 -0.063652098305971183 -0.35326841599521419
0.43096546424753412 0.52730933061702889 0.26144451173011207
0.63929806774769715 0.27742034186253406 -0.18721328391879544
-0.15761742839289833 -0.67906434266767191 0.28169520919706281
0.44712749709581179 -0.55505823429547074 0.20035060532963334
-0.49124971342262075 0.18139628431084831 0.039571316025542647
-0.12033456116957861 -0.57400608878112525 0.18443636356168591
-1.2649121857949326 -0.5680818480249632 -0.57315282530452993
-0.11677968514013132 0.16772327087694805 -0.034675277289384354
0.21462477588958515 -0.67945617852768025 0.10813496491813712
-0.4232614821011087 0.36986410347729559 -0.0027216990340290792
-1.0818895699832811 -0.62022168387208465 -0.35842979695133792
-0.15382182105941022 -0.19743868375032969 0.25536675424981237
0.58969178292048252 -0.28714428637934986 -0.096002443106380841
0.74392722922200005 0.6312877251944049 -0.13613090694109697
0.42007014045638569 -0.51648300708484562 0.071247162225818172
0.71909155864208718 0.78440387852228133 -0.059399116634642812
0.58737411892922575 1.1067926345027477 0.043046373350568601
0.72451328934186088 0.12007570342447682 -0.19450423866427702
0.087017070278595066 0.37332539088739947 0.20905624347286178
0.22064042351849172 -0.68318960207937329 0.30551371850626596
0.04264160963331165 -0.55624585884102162 0.17613225596741389
-0.48613882340011305 -0.10804093141869775 -0.18428150691651979
0.17080085346089724 -0.58452823424416822 0.16380205729396913
-0.022597953930365122 0.43065867796177359 0.074420454094012545
