# XYZ point cloud file
0.1488162136466803 0.48238404237811588 -0.017570096072931474
-0.52717786571265668 0.27792914029231125 0.1907499339235601
0.63159016289423542 0.57836618727739275 0.46027128912620974
-0.81259906989062003 -0.061058876253837158 -0.35225049434841971
0.52462041115159397 1.1594753918527378 0.11720841030483431
0.7657191431261221 0.17727378119340576 -0.18364699870048229
0.50286228413409029 -0.47926050396677494 0.44293051643960757
-0.12310607286413344 0.61553404989108551 0.086662253976806713
-0.21995950546419135 0.13861206481623867 0.52451559776925327
-0.44070659187911354 0.41437695532568247 -0.026145196789153946
-0.0085752994331882437 -0.15564729981700093 0.46098195349316606
-0.21251786266829364 -0.060302958534273518 -0.25558995051747324
0.10047462270522406 0.48529485842710907 0.08721188037536054
-0.19131868486026665 0.79934217869281743 -0.16632763611445212
0.087358067205872025 -0.024768488895199947 -0.35056230971716795
0.010814718606438456 0.031692515762975139 0.45706599454229435
0.65735614115788932 -0.47040978139081313 0.0017269440407332581
0.6287833193092508 -0.39614535843155291 0.26449710052708042
-0.24753483203951304 -0.44353249657231303 -0.22694781254868168
-0.29751404595370273 0.34817045986750655 0.42930875275166658
-0.074884608430419553 -0.62450738883833956 0.24381933470129979
0.44526764670010677 1.0609768755216387 0.18304284809153915
0.65266765976523233 -0.4716943945225191 -0.085767429764596503
0.44614568125952092 1.1133349679461491 0.18717217935239505
-0.86108330600065086 -0.11178194687775433 -0.41046024663573144
-0.84727992535900432 -0.20759818610417879 -0.14475746354410868
0.7331392017901911 0.86471797191014876 0.043939379403264311
0.10493457301806131 -0.60528393183324314 -0.14916749167297061
0.80754546237575964 -0.26631369748501588 -0.19657840293437845
0.63894368550545433 0.38674421652817448 -0.47034639749016849
-0.56087765242096643 0.31351864797734308 -0.05784366031128485
0.75319515472813214 0.31479762377799303 -0.2770774392015376
-0.21049840985659796 0.76787937309834253 -0.0091835085514957449
-0.079591957874577124 0.59527393143055729 0.12170738908888623
0.74609630887460932 -0.37807378669953617 -0.034338878123335359
-0.96172404486713792 -0.67116470811769058 -0.21292020682949886
-0.024928789284312747 0.6820882421664396 -0.47736550816364964
-1.3057789481114306 -0.62982586088889325 -0.6945245485295013
0.71008268704128952 -0.32309183798134483 -0.35108677624331452
-0.94221755494478021 -0.89134666604250645 -0.22656882540354406
-0.1002466978945209 -0.53719355163753835 -0.21308304794120847
-0.68735872124836805 0.17780692824185049 -0.168911323999128
-0.75608610081494088 -0.53081204714294794 -0.022701539402478321
0.52701749953555388 -0.55388982448882396 0.16430435973562307
-1.0730529342770159 -0.7582106954656187 -0.36787453722501118
-0.03287823851016608 -0.58945371491247567 -0.1716462653714026
0.16619373690800343 0.88802995186435763 0.36106522217511294
-0.3295539244402762 -0.48634203573462964 0.28893640521129615
-0.021161494940941605 0.73166849690446889 0.3419357981603186
0.090331392968024116 -0.65529535790869808 0.26044683415108816
0.041811492120859717 -0.63471895244061849 0.33748019215591896
-0.91974604372046298 -0.46154846789876025 -0.29209739723597439
-0.18832929715997504 -0.21374221874192523 0.39166057205672278
-0.26862630759876488 0.54655933512971944 -0.067015897626045096
0.65926452915230649 1.2018653345451535 -0.052504384213146071
-1.0440095546832868 -0.22635297917867608 -0.51828160664635536
0.78812816257902807 0.80897345381836461 0.10100229370103353
0.70308101301437265 -0.12097187489103334 -0.43061711805195779
-0.19486073206220816 0.072166450382395678 0.5371681526931984
0.74709821296252432 -0.23521731439191679 0.041064291626163651
0.65974034627674971 0.52848171726349524 0.45612306828979809
0.5476234787521207 -0.33969203828120043 -0.26163374970588649
0.39909150699211915 1.1367576919852349 0.21658466236119622
-0.37156752253143566 -0.91618496069202893 0.23017979202828842
-0.21161042653378886 0.16096072283842738 -0.1727088410453419
0.11850792537394045 -0.70914854867306609 0.113250982990305
-0.16617165592951855 -0.5731186963394117 -0.16894008132928029
0.23169687619946933 0.47252310402965181 0.3460374812389615
-0.82955491228083345 -0.63562421123315527 -0.23349208721144787
0.058292705569504888 -0.64104492956607628 0.27009617369723582
0.70035100936735062 0.79334985501220623 -0.201580069582044
0.02031005113230544 0.7028137433088395 -0.4863605832184692
-0.028716694635659512 -0.23291460088991414 0.42857491447368057
0.17856361038475022 0.93760007514355215 0.21609706977579535
-0.44714297716559781 -0.76563191237086559 0.21334437617889801
0.11087375432737667 0.74615412273855131 0.46518509872620584
-0.39173188493990641 -0.26726087775060298 0.32518672151162864
0.80824818225345896 0.51384827132900535 0.24074351586081821
0.35999669567739145 0.60246564765646804 -0.079462281142186342
0.68341084751118841 1.2376086934914126 -0.02544496374326366
0.47799253415927367 1.1435681269383831 0.09257072582138548
-0.32272065907452174 -0.75456963911357167 -0.11562504074217239
-0.47643241265593411 0.36499258415646357 -0.049479846015737294
-0.17584762467075832 0.64753853185371657 -0.34863913191726592
-0.19880951961291382 0.60375627471412208 -0.2898560929696381
0.023815989618075351 -0.68044494820040879 -0.041167287038572198
-0.24476768637078627 -0.033576438206861514 0.35502985289372502
-1.2661072679829886 -0.63799713442900818 -0.63635573408143786
-1.0735052033468935 -0.45926332560498817 -0.38294131127763809
0.7434765948894182 0.63988842595276962 -0.33137943646563217
0.54237765998449672 1.1264904462944609 0.078125328700172858
0.81024546886287463 0.5493703534942227 -0.049938621332421107
-0.69951245269761109 0.055602488322092025 -0.19621118654761194
0.69178592096469371 -0.16830334205798195 0.47534235337047681
0.046788502633915097 0.53010746161254052 0.33051311224096347
0.50200124468644236 -0.33671066197699551 0.5445656850515479
0.64367192436770093 -0.40945919023440619 0.17480643728120926
0.5956479171768494 1.1601583719559156 0.014278034781697091
-0.46896629649355964 -0.053905542626534006 -0.27730918849015662
0.68029070906952693 1.2696528012955888 0.04640193318517527
0.23763703443946937 -0.75731664428138967 0.39623352502317122
-0.60318013506930601 -0.26668528201723002 0.10586090631024492
-0.5069591570949683 0.35813942960300105 -0.033956112126572791
0.57107367284641697 1.2137906100550777 0.08682627618632166
-0.5503281506062575 -0.83942104086026559 -0.16713493369405974
0.36076606133283523 0.9739829372969866 0.090285570595826758
-1.1170062580229687 -0.22635802452956444 -0.49901754006786669
0.17924327060787892 -0.47517815969479626 -0.23659950542302033
-0.047936914790603191 0.35682211446686407 0.51812781010391662
-0.64326965485467291 -0.5019452230462127 0.066676950099372245
0.8372645733579176 -0.13521729960539397 -0.21850579975998397
-0.55514732283001278 0.322889204840967 0.037764587911295777
0.79263661603437985 0.4050258152064824 -0.15002770046267333
-0.033708767151194419 0.87678752756066325 -0.14660134340212849
0.82020913712508636 0.59109776630771127 0.17236452197851015
-0.32858077292114685 -0.26277059898296029 -0.20645550090713494
-0.82810813827240348 -0.53072609526814907 -0.10671560171483518
-0.42640875850463444 -0.22643706735492042 -0.19801936970586542
-0.4848338221491148 0.42222017160952641 0.076884318937372242
0.83307394959293923 -0.16723110494949456 -0.23424542637104784
0.55975451161763612 1.1492777681423487 0.058462287719051265
0.062994245376520042 0.71249981453496414 0.15682157929080764
-1.0094774097926977 -0.77364292844395299 -0.29718887412463602
-0.044137429986520815 -0.57298324497205455 0.40263262501169939
-0.42872865049700737 -0.21918441597698923 0.30824910659523486
0.70020833429230556 0.74734571447251119 -0.27176959780902843
0.16982947659065439 0.43728271520259421 0.37087351296741256
-0.88369849094890707 -0.86035389676083585 -0.18039571733000681
0.16087933600711279 0.89419617306509425 0.17352443621558811
-0.69450548346103691 -0.33518574752202862 -0.25473900500605096
0.36744656690642064 -0.46934752743316188 -0.26128913037326651
-0.058631489873307352 0.60449055842401644 0.52917537989987551
-0.62037949935626746 -0.31626165670911704 0.11870266793917761
0.53547423291476703 -0.24484151324021641 0.56645505724805512
-0.14143318716468434 0.72346065565806206 -0.28670467631462904
0.52134640926775688 -0.44793043779557101 -0.10843334241494729
-0.14084987810942051 0.63559502393144551 -0.3344692959161395
0.41548567402252079 -0.47696618016482628 0.49010051887377815
0.72501630271018258 0.63246725789075031 0.35715889883602303
-0.078690933385108686 0.53341542349144355 0.10964573542147971
0.30982983222734672 0.087782956655592603 -0.36930214443469644
-0.027313436220804233 0.22954024337276549 -0.17272176370348902
0.098832287523723472 -0.63131417507438503 0.37273103219881731
0.72114072650425776 0.45614743322990337 -0.4452315040630288
0.253739150521477 0.89706131610642514 0.31977893085112052
0.42401032908045166 0.63166482911994504 -0.11251850555837883
-0.17485226600119685 0.62067349966388563 -0.24208786373058677
0.55721202262213132 0.66967941018734933 0.40252765610448105
0.091303342882986582 -0.61940778521305284 0.43463532728828724
0.11543264655763658 0.18097239028462947 -0.24147493887363058
-0.79967167411147733 -0.72777390436225298 -0.21594537579568573
0.18024736524782453 0.52453920930407572 0.18040813637582698
-0.51803948014161461 -0.55732423975511236 0.16871528730330798
0.78812120336118086 -0.30151867118728393 -0.027323342524729899
0.67241933730305059 0.6852227014892035 -0.32574508187243234
0.28600817764666409 -0.095801755519801607 0.57173678432850306
-0.19894455312571246 0.22041094032073233 -0.14549092021380572
-0.53939625086083431 -0.71626804136897326 -0.041046881197558616
-0.91067662827995388 -0.085414191239589321 -0.37628685667885575
0.33709036535904169 0.97477406696576407 0.086425393830973807
-0.16071647444398884 -0.029754008001679183 0.49292482396396675
0.72458130168631296 -0.29831915899052108 -0.37312860231289635
0.34480305559972979 0.48163026893710603 -0.19338220073261425
0.82477750472944578 0.25114837570687543 0.26692516258198218
-0.2812111589505954 -0.66592894999361063 0.30053569725220486
-1.3049916287671477 -0.59954250059783409 -0.70571054995852656
-0.0017782682422814444 0.79994501556841602 -0.23351428474320279
-0.1899869398098547 0.28502399767515346 -0.10615009012884391
0.27525572618608385 0.42734526169362808 -0.17930836143776041
-0.36333551233941025 0.26846124676513006 -0.075927532609767479
0.74164199201613168 -0.32593430028816311 0.058590909529728563
0.75978981911281807 -0.18136643869608859 -0.45457837550420432
0.73239811983976522 -0.22210742753661256 -0.440749102059105
-0.14273130817101309 0.019474167244294183 0.40305411521603984
0.66407114802519618 -0.45314505217940587 -0.13900504408181558
0.034933702491954044 0.50519970204065756 0.28565486548134578
-0.14282086812835537 0.64589568734590086 -0.26499182623309681
0.7944648404311746 -0.17860796589671563 -0.39128743409937616
-0.77542919859620563 -0.7795163620119735 0.0060276765168669755
0.23271928071169029 0.020227711037178908 -0.35652258289889271
-0.79383255011980791 -0.69836428714016385 -0.033547329279343341
-0.7320820552731887 -0.70495825079850627 -0.0075861452559000675
-0.4826411529181952 0.23924239206751513 0.25173045214690726
0.59718791615655253 0.82444005275421051 0.16954211146058817
0.7425523631687927 0.77836546760338909 -0.1996140093879486
0.53576783141915119 0.77665054507133846 0.2057985333884802
0.72891060093868942 -0.35785358000059825 -0.27588104180963002
0.39199761404181999 -0.60922567063788458 0.017255609991070564
-1.2840810995270449 -0.61437305402497155 -0.69290601923926998
0.44563666300280119 1.0442146239384897 0.20973417796239113
0.59360531793100846 -0.011186769056807044 -0.4367206256655205
0.032147888673130953 0.76805847366112889 -0.42637739262163521
0.4706938154866866 0.013508601400323172 -0.41991293660095508
0.50839676579907311 -0.57412153979427427 0.079617002756850574
0.36287610438677148 -0.63141624846410271 0.13538374649080476
-0.13961319277906864 0.021632683773329484 0.51043651598916773
-0.18031776210958544 -0.68568862777607742 0.34597194171147994
-0.61777833107772828 -0.72634191124686498 0.13528123350722376
-0.38322643036706022 0.52171850786357954 0.073213267539426585
-0.90325146376009169 -0.30343462842208863 -0.42242523842083379
-0.76095475304580007 0.12105093208411918 -0.15775121261270275
-0.67002559742621359 0.20821294504403864 -0.13396847153157099
0.17860220966359724 -0.64556159132188773 0.32426016363767429
-1.0682515556268235 -0.69908754624842195 -0.3190557669821863
-1.13758026280112 -0.42877822837654656 -0.46646056312964257
0.069680595434801873 -0.29785804674146699 0.48250348129446907
0.71880948569123138 -0.25338563388751079 0.093881361578431299
-0.073076609211433941 -0.12690594001477085 -0.35858366644697037
-0.12985642938067526 0.81833673208215618 -0.28561605221443531
-0.1070277049451076 -0.014908025514547341 -0.31620064401299031
-0.5954773228794501 -0.59745257667337914 -0.17284091259776169
-0.13836764470225948 -0.7533105829757335 0.099694193659079833
-0.32771898343084416 -0.22566256976340754 -0.21311132268242439
0.38088319767625178 0.60779625048512353 0.33049547720453454
0.61474860192818426 0.43695731047914321 0.48737665185269385
-0.22944700997768658 -0.052864673320189959 0.49717783450482278
0.20849634213399798 0.50192810813046129 -0.041623465830617601
-0.87002998157650191 -0.60333219443666308 -0.11620211493840582
-0.088493151645571755 0.28945522073511848 0.60390126411459288
-0.060146670174748118 -0.54362228894905706 -0.21561241483322036
-0.96434122124035038 -0.7540359538559448 -0.18750849883107312
-1.0697980395556843 -0.54088983220084519 -0.38277524907175753
-0.4552494078314635 -0.79424359963844759 -0.024088554961333219
-0.86433352264647823 -0.53969020843534066 -0.13443452396676481
0.1969114277735346 0.48641775234774415 0.31954355176170823
-0.76751098616583946 -0.18397853933339559 -0.050547528362269833
-0.50576541830048605 -0.043601562276969819 0.25698292583141935
0.76943581013695195 0.84230739332505955 0.087385639215755262
0.27286398658022037 0.94504990801837563 0.10336839456794467
-0.30805745479857133 -0.69213229870821291 0.30237317763066773
0.31068660098927592 0.93915780783986968 0.29672947490753865
-0.29279000542487887 -0.47399435022099418 -0.17427568122268866
-0.32636869113315731 0.12054105347020364 -0.2003702212954046
-0.53937827248826498 -0.27238406207422539 0.16135306513421765
0.6660122189121761 0.80146620675021951 0.29173143789073652
-0.10294949585335478 -0.74942840289005308 0.10750614022695304
0.83675697809979588 -0.14807157381458302 -0.15089101432142149
-0.53891677567843499 0.28732305559437182 -0.099842157495500405
-1.1341266599879756 -0.24073805576176099 -0.51852677135899272
0.83842644588566262 0.35281248952741628 0.13764588787521026
-0.33965763403469296 -0.31526340424738047 0.30525374406355521
0.036794138516560104 0.63175372352605697 0.21529968483465556
0.70613698419437032 0.30858681866661775 0.46931579524853895
-0.087287236296183957 -0.17995069052464455 0.42552973381247305
0.78416601056483826 0.81540734654885805 0.023531831627584321
0.019577318849376413 -0.070595073839305383 0.47057495382474768
-0.15415480930309994 -0.65883062823937188 0.34130181579792307
0.14913783970352401 0.36161744873542534 -0.14365863588303895
-0.53189563717025812 -0.047703139278031215 0.22878201482548333
0.76722960912588622 0.0038870156936485767 -0.029091577578933325
-0.17806310761866501 0.026378718703654491 0.44107591948899039
-0.014106102526456943 0.2593203364999645 0.46130916957950108
0.038865061555988512 0.26154531625823113 0.41868443947410583
0.25844012002470407 -0.72882750414320085 0.081576956658607092
0.50751080465661935 1.0728767163613799 0.11304688902204862
0.72060496947947028 0.63466734333864894 -0.37509739210159054
-0.044780690654603439 0.59910739449458494 0.13624865408268327
0.625773127028737 0.84387174674544208 0.15101949843143547
-0.15442928559225089 -0.83659729037511887 0.33523093248759528
0.74056455325116199 0.10419532151468913 -0.26555320324456488
0.51367296446286215 1.1306107508210637 0.028467736283355638
0.14835927566726725 0.83771004093956325 0.3719248594284279
0.65034396970649189 -0.44691100728207361 -0.16358592377161241
0.65884751871576486 0.72972508594897945 -0.26632569622714142
-1.0145405992414154 -0.30937306035686896 -0.47599298613785024
0.3980165526875119 -0.61477022628004674 0.13780738620480193
0.58791384996803631 -0.35123441382802728 -0.22067911425761455
-0.80822097810286486 -0.53955654962248856 -0.084964201556755548
-0.3270644996025226 -0.22624356283886571 0.36701917537178463
0.71146644917915547 -0.40877976644118785 0.050333464598788957
0.73206095880089606 0.74510365472265472 0.32272716413859381
0.18556024798447079 0.82710919798305427 0.34378527817047644
-0.54481138512301097 -0.72945550809581106 0.1868131945744711
-0.1033013094187904 0.79232201989663864 0.094762928558013382
0.77955935051459013 0.56987948031169733 -0.2066033930930864
0.82259198874711292 0.43913418111221292 0.028753962215766204
0.4057317193459542 -0.22372051264441167 -0.37525720987935118
0.71059025029287615 0.84928032459653646 -0.073221283354755862
-0.8534769234571149 -0.29545274054399173 -0.40556564671490047
-0.36499758494084983 0.44150926848918104 0.32136117056695701
-0.20359926270650752 -0.89482958006641533 0.30351133102170724
-0.026077525421888625 0.72080097646128016 -0.36329102625063214
-0.073850463344692696 -0.52769401145398698 0.39379277077887576
-0.75054399868087684 0.12073634118171195 -0.18624585528541981
0.50629422297450044 -0.43018848890764205 -0.27124946768507208
0.77561184317176657 0.040975014905803797 -0.49622398054390615
-0.073839809752052288 0.14468131520738428 0.40789517299581224
0.73822459966659582 0.4347056921660315 -0.39698857095457685
0.48252705833350701 -0.55648154951984918 0.40175955349562908
0.52858755089639764 -0.15743108830177527 -0.40408647322221158
0.119672241199689 0.72242304865861284 0.46528306846287171
0.22429814203998122 0.98709709801618772 0.32216875365385089
-0.83962490626134145 -0.36178697156126316 -0.30748039207336131
0.47627765456199078 0.65056050386390629 0.3726907893065543
-0.55901334704555539 0.31700120703123824 0.12115598532067162
-0.47443279923378112 -0.17335628947864071 -0.24886243440628242
-1.0572145892509093 -0.44615690918991591 -0.36566312066326256
0.43017291393812712 1.1073022610004213 0.2088117546510162
0.10788831431111129 0.87352884972680123 0.24229757351143189
-0.6823075505071774 -0.60073650956552427 0.046145262842979928
-1.0422367695052892 -0.26196343703804958 -0.36725138933626722
0.25737877025685235 0.54224488540069382 -0.036548668282920804
-0.13794705550513514 0.41300857022469267 0.041519079183148566
-0.51183468324556214 -0.43269688078255258 0.1787682110938289
-0.25878293835851818 -0.035056916662511095 0.48541838994065012
-0.28127067703833453 -0.6826458474669409 0.31017469301296252
-0.91799800680447396 -0.47674616812165471 -0.20502236638851201
0.017396426610087057 0.77856599147947225 0.2496773690921783
0.23483915269069899 0.84370723049894314 0.15649932133510802
0.44224867524616474 -0.5793286825491708 0.21269325610723921
0.30398969996936404 -0.071028994070412188 -0.37656247507813667
-0.095515278245336233 0.69182767446383164 -0.24641312027913553
-0.0042687811625970462 0.86867693869487428 -0.26213548244304463
0.63018955307474978 0.69189883265388274 0.39603973991464292
-0.51811363850901948 -0.27974017560728126 0.21255648894635248
0.31138626331913732 1.0453444944545018 0.17217284542223688
0.36437193629708353 -0.4944043031650206 0.49741261869501718
0.63327017816486086 0.79723098442620355 -0.14352574183943823
-0.12605877747864336 0.84358382799617992 -0.20345975087560753
-0.71396606673102259 0.063963921834267967 -0.19647370009146004
-0.42777138356779343 -0.043380000878568442 -0.25694689858470676
0.2185295240910663 -0.64385448788507338 0.43245452100117632
-0.83468847179639771 0.014348925165166782 -0.16627395283941437
-1.1766621949127996 -0.32030600061855852 -0.55208408597097902
0.56231446975145971 0.74395547935109263 -0.13908998482160273
0.39327492304255973 0.65490591633174522 -0.050940403480639773
0.14357086059776258 0.50322444833718039 0.25551326141866948
0.16917595200889746 0.11559955820386363 0.5007160073153063
0.31296328325852107 -0.51532618307019185 -0.22690112617812019
-1.1806183830570751 -0.57706421189859691 -0.57839193772439357
-0.17766308321031599 -0.55131989657999725 0.35151521242810535
0.82763339618062925 0.28513219019058761 0.30585311430363804
-0.10572454994140718 0.44012326649459443 0.071737418836969713
0.73328804473871267 -0.36863511493769058 0.055184797679256103
0.57788880136757648 -0.28643895543552034 -0.28304927439666416
0.68452773581869897 -0.4075135218326516 -0.22633534387021204
-0.59937661802033282 -0.50509255209187576 -0.11864321867046801
0.64666956436896927 -0.41081784530271909 -0.2300816349583088
-0.50439285276906176 -0.17885594399541782 0.25286178693989303
-0.72871009634323547 -0.54153154174219142 -0.0030536665426694753
0.28372301711541037 -0.3697330137174889 0.53823175840114867
0.68225428581924286 0.82245814844185339 -0.14055033420984664
0.56975449020406133 -0.53844522224214342 0.30674395759081285
-0.30981212290121724 0.096255166391800137 -0.21126003742755906
0.040922799907865348 0.85332485623873011 -0.28475158882326901
-0.7180780196802945 -0.40835873650819299 -0.23878073601570238
0.21814038027783778 -0.33108631698717067 0.54536759260709822
0.017713675554262454 -0.36997333834689911 -0.31251226155907164
-0.10222845841336342 0.80636248745400674 0.082738824680644196
0.7006710077789029 0.11504469130430361 0.55122854663998133
0.56331641885864991 0.70611242256820517 -0.19219819308856145
-0.70180306407336557 -0.18111053464222793 0.0088183978207347913
0.4305630595786758 0.68465449015620372 -0.046333985241290065
0.37069842086800314 0.99221409498599744 0.080683106462843934
0.036259112715986752 0.1474316961808646 -0.22809076374024606
0.091072769258341735 0.25876440250683891 0.43910886645444869
0.64206585932869342 0.77831299651523478 0.31690054696545467
0.24821934322031103 -0.35168717371623148 0.54176777788283914
0.091713634405665878 0.58783497839529564 0.52573898919045448
-0.38350895688509384 0.4689097553406979 -0.0028067212616584847
0.59069661325239919 0.46009420802256207 0.49513490076162947
0.32396753771373193 0.95404442388112209 0.093259101895881713
0.77955178179220586 -0.17068753347103427 -0.43503976287610469
0.043364195056236066 0.2497249443877671 -0.17336971089636499
0.0027720335325694401 -0.15444007392633174 -0.36185272068683272
-0.39891931333313912 -0.20207107380374789 0.34455903001470212
0.057186765926570182 0.48847343668049148 0.19666098544780386
-0.027428031596344105 0.65672413476841884 0.50835409274465704
-0.31115817292991965 -0.79629651290044545 -0.08457285157134109
0.78138350326140149 -0.021555424787404243 0.36655002776824874
-0.6209319967037934 0.1188340900066493 0.085291446096376955
-0.21690222633562561 -0.13521832240366369 0.47821434429678655
0.73024718989366499 0.39412133117768017 0.43545576927808893
0.2323767554894548 0.50231849361547165 0.31424034805136714
-0.43991959713377071 0.083831561362920123 -0.22442276101768766
0.59021870864785464 0.25629976414840105 -0.47201121294340309
-0.58662690134393292 -0.6596325382376691 0.12152548563465526
0.79790874208799256 0.1394955817611796 0.020576869039011569
0.0049907979578552863 0.7112113840467168 0.45287937447327797
0.22559695485307574 0.55328211808465633 0.036889180921580778
0.30699682153651514 1.0269507853073314 0.35630332610888349
-0.40503352183673896 -0.65962885085843581 0.12470292422919416
-0.68896373205417005 -0.4708021355075499 0.026441080292401331
0.46802001605673932 0.48390309464971082 -0.27581410744678747
0.64522426541329836 -0.48080198655213802 -0.011445391387677528
-0.62947306316854101 -0.6168823732918024 -0.18912152778660296
-0.11118103715234728 0.180561173835423 0.53007801654421138
-0.89256496217076375 -0.53839499399379021 -0.17102143950632476
-0.54569088067644156 -0.16994608289598229 0.21140101280581636
-0.7899926151494433 0.088375243483935162 -0.15404258354427114
-1.0207673490678719 -0.68826438894316355 -0.27181144685123382
0.079452062160935588 -0.76238575333598446 0.40327367857969243
-0.87833473767462411 -0.055729454038181803 -0.30113455814249424
0.81453740557454823 0.58947863653118404 0.21118265540140202
0.78292790404795776 0.10194694060106957 -0.28127498402786566
0.26450904117456636 -0.60755940855108159 -0.11337877225304815
0.70087095314250381 -0.35845635681255716 -0.30541664552971737
-0.97264406761335376 -0.8491892657105865 -0.27545541168653198
-0.50804128826281714 0.19733993585471477 0.22760353642255904
0.17214909291473951 0.38953513152611197 0.40759278561231316
0.65519364891454956 0.68633965239221295 0.39376961239162123
-0.79371156822177868 -0.18310921957032678 -0.075189227037576689
-0.71997113052840944 -0.74484886307489562 -0.13573448869323945
0.28151538730516523 0.51626851430799015 0.33880169867161136
-0.200962095144605 -0.018358815794166608 -0.22730957163891352
-0.78670191588290539 -0.21051603767489069 -0.40886999919930656
0.26737869580126494 -0.65400023787467743 0.18925685348302812
0.68778912186464436 -0.4217558370535528 -0.19009440386654353
0.5140507876818361 0.27696765443578064 0.51375215106398819
-0.80603925233351426 -0.13637233764720258 -0.090892107351779661
-1.1454316441552166 -0.42328813276837229 -0.47755852548013777
0.69904647060849023 0.48917410230405767 -0.46414959645217158
0.25610778940062096 -0.4079598608690983 0.52221537963998621
-0.65350255326263895 -0.34181681580122392 -0.23885755364085126
0.33798494157847003 0.50203148662520991 0.40568523638379395
0.69560016222840049 -0.43432075030194961 -0.025214928187302199
-0.57336531650068068 -0.53070233777171083 0.12720561026636457
0.10988497924997281 0.6496096842238912 0.51258655620038684
0.5619894453466967 1.2540450240793208 0.24612389674520729
0.37745432808374979 -0.43179597493504651 0.51162728493313114
0.14971255723374305 -0.78011072858287944 0.059249960419237802
-0.73050683906783442 -0.53824431504459602 -0.18503564759845759
0.64787560163696689 -0.39332858511642937 0.31693918264344889
-0.30544229522610983 -0.6499220530709966 0.18332074879112348
-0.080949304429471014 0.8257424042459145 -0.33004475670221467
0.60468967364379678 1.2303767026373391 0.069261840077683434
-0.20513087742532671 -0.70696162124342821 -0.092978376812547836
0.78946448309396855 0.35080047574068168 0.39195679741520095
-0.25774070392635923 -0.7094951161175268 -0.10910206569278502
0.071659141133343429 0.40750946812414579 -0.061576026239353876
0.77114108468217335 -0.30241019535168923 0.025668189406694353
0.70696066566442683 -0.38053862901724422 -0.26394147650827149
-0.37588522915555372 -0.68329393771035307 0.05653995960717273
-1.221607982248998 -0.64955032828820614 -0.56240919791363764
-0.29328639744436669 0.12438666979791642 -0.19899776443690032
0.45329364883465983 0.64974093236395047 -0.12833289143357574
-0.73360285554993543 -0.66615428847965752 0.0054798448797988009
-0.22736574122431952 0.26498611443322984 -0.11423016207089276
-0.12556900600804582 0.32677769393540335 -0.079316964972527604
0.042936093657760743 -0.40215156516507977 0.45378741459759198
0.25169392223145931 0.42058176642058775 -0.17246506825735164
-0.32960255301782609 0.33754078867752357 -0.054433872257473315
0.35727613718444984 -0.63958269818034463 0.39250261503929185
-0.1415328226184569 0.59974537779145864 0.058765872443822698
0.77637324906555572 0.54246155899527748 -0.22343516244085793
-0.71309808325777635 -0.53642265447267667 0.012768122037874807
-0.76943768280704294 -0.29263682603173236 -0.038886482474453476
-0.17275997279436539 -0.2412443772064829 0.38455513073424052
-0.67269482246510681 -0.19812759987889067 0.039370972204326726
-0.34061684685424498 -0.21128566828164008 0.34978011155018196
0.60707920448228503 0.26350719440247894 -0.48414776565232165
0.74798377418821549 0.47413537637719239 -0.35776330174322402
0.82634509729112371 -0.084073931271086422 -0.34608134818838598
-0.10688689902822351 0.85310952786814953 -0.01777019076983688
-0.93402854446824291 -0.93622272248181759 -0.25168031750505993
-1.0843824296722158 -0.47415914915859725 -0.39187550585988928
0.55212887254329335 0.14162052364701483 -0.45684729661493684
-0.076444022189380123 0.75890040873087772 0.077536323098967852
-1.0389463376726225 -0.31840378660730662 -0.48073323993811101
-0.14398376328837914 0.27536698382569058 -0.11394090304741633
0.20125146010542494 0.85194457942685697 0.12629686928573847
-0.87603609765909241 -0.081726845884596389 -0.23678595843620043
0.7763012169528708 -0.03772749450163293 -0.50243021077347505
0.54072877688951515 0.23050403795083602 0.5122662129800859
0.51633123931430469 1.0739227717259641 0.037566352995708208
0.83447780072248146 0.27727458008001149 0.20916708986372967
0.78342614567860713 0.31528152203757698 -0.16787815053333333
-0.046264189280027401 0.76543769170261733 -0.11412399328944822
0.82574647988588645 0.26395673106386042 0.23710141856143885
-0.027764478029780271 0.73639327125641341 -0.32489831294453375
0.37624294967786731 0.65800271767154006 0.22187759905445548
0.51157780536979724 0.032023324348894544 -0.44063134138881077
-0.15979000748084415 -0.069408861884848058 -0.3175666184917656
-0.80680309456873112 -0.5253570207410635 -0.23623231596087102
0.027044637708963037 0.84437911100731622 -0.35989979678173101
0.047027685684462361 0.42688927970365748 0.31698995438816269
-0.342611608086555 -0.64794127810400282 0.21478032674338632
-0.81521384265170116 -0.27022109810516892 -0.40696500888417031
-0.56999202781140523 -0.19775473844012237 -0.29945760717954517
-0.95087473136715994 -0.52262490216257174 -0.23666733037317789
0.11234614920117264 0.74584045695570123 -0.48604114675141341
-0.050796334853244363 0.76671618070767 -0.033706248786002924
0.50358480798880012 0.602508366390335 -0.23667576716316585
-0.47456581391893643 0.14855879107943115 -0.16683573850262245
0.76748463004224932 0.54647178620393444 -0.26362930860031231
0.45398776096491111 -0.60719500808490867 0.28866319470890911
-0.70031552238328842 0.089239966369262957 -0.19325327836866224
-1.1772503985629297 -0.31698583751296527 -0.56529307435702503
0.7586652730469593 0.22080354491510956 -0.22861236584084921
-0.0055751016922917507 -0.69597880275410384 0.38626481080234898
-1.036903403198844 -0.48168352106261336 -0.33681543989616269
0.52715052582204369 -0.5089533463098016 0.36948619684584338
-0.82795212144385966 -0.723791467563624 -0.089032658937298947
0.39135559010045007 0.67812191270052358 0.18386209649892482
0.77153476250178321 0.13334946098744044 0.46362993405566932
-0.75903604534774438 -0.15053677447827807 -0.025617642979665955
-0.052695097307945249 0.45039580767157361 0.086443449123263516
-1.1377375320233489 -0.28700525950779965 -0.49610201937058918
-1.1798459991421408 -0.33176479941512849 -0.54564004390591458
-0.15993210663638735 -0.1908241127133562 0.40144892223011208
-0.022904791085014253 0.87465742491092202 -0.13535238710468578
0.35084988511345594 -0.34937804941152223 0.54910089972669107
-0.63689998731926911 -0.22772676114594748 -0.32362416383911308
0.63203643510489749 -0.15224132756517461 -0.33288898043424675
0.59865246553578222 0.2369933245575917 0.52246143778753007
0.49234689235955581 0.16961636699691285 -0.41595376034329812
0.81283531192307334 0.7093954852363118 0.059666173339001816
-0.85310519119092509 -0.56855361824950534 -0.25992602568835688
-0.92750157575016545 -0.088786148024980194 -0.34165294054724749
-0.11630995208424449 0.77140371548000997 -0.27884752343463037
0.16950756720656907 0.34405331574099995 0.43227364045957062
0.2551943744863156 0.16860839456257437 -0.31881780993877573
-0.12361010054398891 0.62633341213621851 -0.43905967564875126
-1.1669127242717159 -0.35585489320852559 -0.52563866316069419
-0.95428544261514014 -0.65817233786990192 -0.33550944437831509
-0.80978285484312007 -0.31842373901423116 -0.092124258554819427
-0.42281827750313999 0.45740232014434007 0.24027553888574538
-0.083079162229013959 -0.62306047885674287 0.30074233454338994
-0.28276239266420278 -0.35817654096068552 -0.23802726342266745
-0.065682589559433624 0.82578062458725099 0.038488828581130896
0.022863346812554308 -0.23585949277484869 0.45626827777477486
-0.13264986126774581 0.64940003757402398 -0.062820465862087893
-0.85194263932063241 -0.182034655642826 -0.440053437888698
-0.63019021799857011 -0.32059277369307693 0.10204171824261055
0.050866618846278799 -0.64136421783911923 0.14098556349203673
0.73508987931803182 0.80670483105039059 -0.16366702523231469
-0.45954369926627847 -0.85163064195523164 0.19312513711084467
0.55756640053356732 0.49279718399380151 0.49340172175238495
0.73888131152397452 -0.38771860979216088 -0.053452191289862672
0.59320256307062869 -0.21910946969999323 -0.34634776467975747
-0.32616579208608609 -0.14738527163204679 -0.21525290646903272
-0.71507959563424939 -0.14100818293181155 0.026679386432092667
-0.76645770705568028 -0.11746740991814797 -0.039892546308683663
-1.1246160680579653 -0.83322214130049943 -0.4426469527820216
-0.51364103755302792 -0.65293156897517268 0.11912400207554796
-0.70630677058052582 0.0089610025368466739 -0.27816399900428035
0.010587270018795336 -0.063221327230355562 -0.35833216264831735
-0.89675422023514839 -0.52572563132076655 -0.16520644385940164
-0.39144849543906746 -0.82030224367320703 0.23487441195585035
0.42965460076380574 0.42290021839161174 0.49546001738837653
-0.28601216262842066 -0.80168104066469748 0.045715232242530046
-0.013089439742789311 0.096045125238623019 -0.2658270988176219
-0.77129337068409454 -0.73986794452027693 -0.18283558947446954
0.18579964368072355 -0.77265690411647148 0.05808847018826846
-0.66378780935112403 -0.027389613376441774 -0.30528334493941411
-0.44791265465166141 -0.85554819697135298 -0.10883602089640876
0.41027750798991625 0.38414286968521161 -0.26998348728283705
-0.093056723198339686 0.69571913774010929 0.058399629060736036
0.013965457370520407 -0.0053887814618785723 -0.34223616753160835
0.68723905484606274 0.47532134318677499 0.40027510936909527
-1.1999804264570166 -0.64380628307569776 -0.56082303646252685
-0.1896570491756191 -0.51614805869621905 0.345408918534309
-0.018756009210170566 0.84561777004729843 -0.087507435880934459
-1.1641026074545511 -0.2814276187900544 -0.55233584315261242
0.35000038707544467 -0.70247234698052063 0.370317995629041
-0.040531819246890755 -0.17046813805900912 0.44694717095276104
0.50689988374870265 1.1324233081825474 0.11631397472145411
0.43135658319555603 0.23782334750193063 -0.35151622470794885
0.68846879330190014 0.84199262373393924 -0.091606023037165141
-0.14644547964724836 -0.0028652469118424229 0.51508230863869775
-0.30714577110236968 -0.28030321999845481 -0.22669241164987408
0.55815403855433909 -0.4785930394636666 0.3715257810568553
-0.037400302859060042 0.71926881954094457 0.35656786792781281
-0.41062899591043267 0.45281037790662065 -0.0057865509840842044
-0.58092215486548637 -0.10653952984607248 -0.32182596586761392
0.7961521218435087 0.49163394931266158 -0.14278784674031852
-0.34773601331003956 -0.091854610753581034 0.29849945896618113
0.69952316536420156 -0.41189006324697619 -0.19345528291383296
0.64268858485659264 -0.12610578097620578 -0.33895982063919572
0.50910694079579621 0.50341524527703763 -0.29529953250055829
-0.05540300991007252 -0.34107495823895562 0.41200975026024089
-0.95887924189045726 -0.29175419117630402 -0.46112262698800155
0.5245508641519816 -0.40866528026016968 -0.17829294698416742
0.76723873531695386 0.12688215163179384 -0.13669482481917372
0.41812355079161628 1.0767448584308004 0.076019982193547442
0.16341586309840533 -0.51137155058046102 -0.21178030955605331
-0.29591538749173307 -0.73970693124668196 0.294644247997085
-0.34091756833026365 -0.91110721766933256 0.24809192472959163
-1.0049607399338079 -0.64369985999319046 -0.25467497612297985
0.12117135978512694 0.65337490135739962 0.6029241065643709
0.1199497830006947 -0.20278973033995959 0.50628072733566709
0.83530169335244264 0.0052302510693850168 -0.27385399086795825
-0.24213580433932519 0.038930523919064264 -0.21489796840506648
-0.43727736546209495 0.22704001305153709 0.30835731751924733
0.61896517617608404 -0.45619787036244497 0.24823891393024722
0.11666793660110608 0.74855324585721827 0.37821109713396783
0.82452128476825948 -0.014979950374484186 -0.17193128373765676
-0.15875807399718289 0.5419687844341109 0.48099144829409601
-0.83459985600945852 -0.27476416530709286 -0.12155794628222516
-0.1042662169457802 -0.86884554836673078 0.34725535240071137
0.23824940981591425 0.85808058658671005 0.1366294958778278
0.6626233033509642 0.76594752015157896 -0.22093752836694014
0.5081537008145004 0.21026366154338538 0.52209382800004267
-0.87656670671562931 -0.94625698712465434 -0.1901690822766211
0.55071645280030346 1.1650293471450452 0.083644039730006003
-0.76822794901317992 -0.24120782153262471 -0.030803172924859012
0.63772397241066237 -0.48691068882134009 0.022168827737376606
-0.59914079845184254 0.24705362193463659 0.07935390581217705
-0.066688367098703405 0.84213754550523467 0.020196148446286699
-0.62990988477642507 -0.81094866210274508 -0.19683604943082855
-1.0905837609394216 -0.22386698417279915 -0.45459999997666456
-1.1203808743898156 -0.23795044526281139 -0.53654086278894075
-0.45385572644698646 -0.15372329209515451 0.22946216347527448
-0.3971816916677916 -0.60227363577675419 0.2481488151408735
-0.50355230190344047 -0.23732232638372991 0.24088655269863501
0.80098653307184964 -0.19662772736515305 -0.35520213795105882
-0.67753950196343071 -0.72502733735919844 -0.21525415201452791
-0.074326226451112531 0.64484416635900987 -0.45624862253574605
-0.58123379307641176 0.30801585711410795 0.069106008259105067
-1.1229300257068147 -0.25202211417772202 -0.53859650968778805
-0.18312968583286993 0.16025951275952313 0.55033017294164788
0.36045069376812822 0.98997156449397217 0.27898676520859045
-0.75184340767376501 -0.66409429045576207 -0.21082536339410662
0.37262419432805327 -0.63124721031925968 0.072007892620353786
0.59802705658929156 1.1942094453398897 0.046176610661070594
-0.10511500359539211 0.70828511276113193 0.17275788624913746
-0.60037935298103751 -0.29290598341542562 0.14348658295077188
0.56594341090975808 0.59182011523695954 0.45821747070406316
0.46221023712779591 0.10934263537396016 -0.41181215652149694
0.52515597457309782 0.69453212750884852 -0.1606318925360255
0.28872704343334232 0.89613216154015607 0.25402634984975414
-0.088465671813412083 -0.11579410437293094 -0.35478472582933618
0.2386160834488697 0.99298665088503446 0.20513563877678553
-1.1038234813828027 -0.43910351864832087 -0.42112367403757567
-0.19037808437049952 0.57854902144353038 -0.032029362681075035
0.62759786916133198 0.69352625465280748 -0.27457736372698571
-1.0996627410268438 -0.70836631272575123 -0.37200256144270005
0.41102164674273328 0.60796269626654242 -0.12749680817839559
0.53721978738437937 -0.44713103446637875 0.45625575134369845
0.42669742911852993 -0.56788585586943063 0.43789397167281319
0.58674622854447822 -0.19833484784602218 -0.36136622809951291
-0.72023965282567826 0.025065781575273005 -0.25427589488858038
0.52156110789758348 1.0959613527816197 0.11881745433418889
0.38542465747042903 0.11276840166940283 -0.38839324947939602
-0.42250857743161468 -0.46212906199885279 -0.073716902670915019
-0.16970651142883864 0.62229244747080203 -0.28300121779448295
0.62614527872804049 -0.14331126391279153 0.55005977589916499
-0.93143357329781029 -0.49577420230270064 -0.23560689604029239
0.26887779726119698 0.97103157766068138 0.12471859682655229
-1.0877900687959636 -0.32170738677938437 -0.5092182363585831
-0.17924780497429454 0.36110341586900335 -0.020355158834864273
0.65516766801160353 0.30057242283116709 0.47218649352729569
-0.39626910239381535 0.07622785811518519 -0.23092630572520223
0.59956362192747381 -0.17075611507851762 -0.37378287873338367
-0.68153412856962314 -0.70811962990860922 0.072440254051978403
0.81173842397372686 0.12975367585707309 0.31966202263034305
-0.22263386178689326 0.015532609811273468 0.36342734138753752
0.77338331727074383 -0.31632839878882424 0.015115505636687399
-1.0426294454705129 -0.46663906487232809 -0.34339787528982768
0.79773515103975512 0.10604580684856335 -0.32647689040970063
-0.43920821160001433 -0.59515863073676489 -0.13707072481795102
0.41013272913671717 -0.62207436805526195 0.3102821023834732
0.2886000777551323 -0.48747230313781725 -0.24146895061228824
-1.2441607219375208 -0.66347844758841223 -0.58025661671098128
0.62491824115549632 0.82799767251786627 -0.068086406028270208
0.77322000230338217 -0.051588626082470446 0.3378944457573736
0.60228194053808004 0.77035237000186318 0.31588614406309601
-0.63134015656782205 -0.66054851153058225 -0.20646188013994982
0.34379875693541384 -0.40809582262146843 0.51968931663199358
0.098414482222502431 -0.6363334395472634 -0.12074114722839324
0.36006035168464823 1.0125519380847841 0.082564162337433356
0.17640733316018015 -0.33162793818577019 -0.30521221245003582
-0.24398973391148848 -0.86915865272112225 0.30488285796172443
0.36377888190563634 -0.70901010619559524 0.37318023041081272
0.22270711299503082 0.55258671905257661 0.1778020895574608
-0.1813366951894495 -0.85286360035553077 0.33107336943716259
0.52688479977930569 -0.54798700573380865 0.0011964452269284109
0.26714675095396423 0.90503512646581075 0.3176700788326543
-0.68810207643727384 -0.40286500471848652 -0.22754514136918269
-0.13569074869272107 -0.62993137239010966 0.29570030674993353
-0.42978119554717337 0.49452156506536621 0.18114895376867413
-0.49209202585997747 -0.088849878611738695 -0.28619066268837434
0.46938917659608631 0.39345929868554114 0.51318085188492812
-0.042400958518102716 0.44821698819711497 0.049872114904113918
0.58094390526320394 -0.22109576471463643 0.55900244570477353
0.6972525418254073 -0.18667154647553505 0.43993014445061052
-0.28242590684579755 -0.19240675471316734 -0.26373791027109572
0.075856647822855672 -0.52886580654056803 -0.21700379587291252
-0.78278377739587601 -0.4446888999723726 -0.063189418587450419
0.55337011671583203 0.45366298656297066 0.50274570071236946
-0.56100008118893874 -0.69112479061382515 0.14103733559618403
0.6288279743826205 -0.49552748829492527 0.0025332297928724046
0.39866103476451831 -0.26490058774141234 0.57781886034558783
0.75008929103020183 0.84275723253337853 0.15213846211984583
-0.51693503332552648 -0.71641563999985336 0.17282820557996148
0.73840714389646189 -0.11245626072136161 0.41201183718222278
0.72530932643919144 0.7983102646091369 -0.19058490122854099
-0.1494277000535581 0.64107627693234459 -0.24092009542629755
0.79106115645594111 0.70798080919869966 -0.11261297363841827
-0.48921311759766661 -0.6830591747131648 0.0020644452949074577
0.026898680118377927 0.43695214448626274 0.015801549120935565
-0.004106821708564079 0.40902154432178894 -0.011236996343999994
-0.6636066511647396 0.080910311012987762 0.046014954528332819
0.062848135608212286 0.75161139728240656 0.15998419340550996
0.70601775412026813 -0.11135719547559342 0.48107305940968859
0.36064896859723494 -0.50993039995298939 -0.22655948629932388
0.14720410609595502 -0.1515893697029384 0.51480845620514071
0.020865104432309545 0.76864547516295278 0.31599004445781631
-0.38174850739126254 -0.87000229256560024 0.22996103243456778
0.40216000490313769 -0.36135783158751306 -0.31340040891898679
0.45612707643253125 -0.24570630814787747 0.58331744250451401
-0.018496417336095861 0.68699828063171997 -0.43783443956745072
-0.3289339810826204 0.52573661347798661 0.01541393591518414
0.31406204438024021 -0.62333342997710883 0.30857884206269137
0.8088866400909569 0.044653469433752702 -0.20712357064030584
-0.95199783857109366 -0.50407328485831859 -0.25848291845979521
0.045140245246054311 0.49577417015700043 0.31990191023570835
0.21635234116748819 0.14597468232506733 -0.32122072532133927
-0.053493659118582171 -0.70760979501153309 0.3792929267667553
0.36380212542153162 0.20289705688582721 -0.33998680981330365
-0.72589885781977337 -0.73252719082957207 -0.11364522375152664
-0.70480561982201517 -0.85810887174168649 0.0026872891952254285
-1.0473126262668115 -0.89374624944284764 -0.36462284501260323
0.26658969253748044 -0.68984389299198312 -0.038093827727498031
-0.013335209147893046 -0.62209604741319546 0.33405731973940611
0.053293363649148828 0.73508077018407314 0.46068574933068396
-0.11108333550906691 -0.34022270735642623 0.38673666580153387
0.11957265823137442 0.73410458470142737 0.50402935291318718
0.75986222097438583 0.41452024107517754 0.41478620374272701
0.087535348235939447 -0.62201240349020626 0.35042273189191642
0.62125915686540667 -0.2419656088334915 -0.28954643915171152
0.28681851787428753 -0.60536872823271126 0.34718531054507995
-0.81081901369996867 0.020461155555805965 -0.22047707427222463
0.23742384334398897 -0.62077882723740418 0.3732265907928749
-1.0537257175942853 -0.1784337583271085 -0.48549238391282623
-0.86569271864079844 -0.26446581862578422 -0.15642786561098321
-0.60085007319955808 -0.37239915149548625 0.10899438447309606
-0.65189059536140004 -0.69268892774978863 0.071718865787246955
0.11112630769642468 0.73906484775955517 0.15897212738084088
-0.70755991028723031 -0.1719357156061852 -0.36993560431653405
-0.34582847972382053 0.48477830849392273 0.31504768215116119
-1.0712258886552881 -0.68961034232836249 -0.32793825853134839
-0.25197705247211455 -0.14884696993360647 -0.28321010829534066
0.35512943628957888 -0.64292054189978587 -0.098497744909690876
-0.85393883431429307 -0.86121361441922206 -0.11085749019817825
-0.94184567410512832 -0.5808596962121001 -0.33009705269707812
-0.53439642716201818 -0.58936307471385563 0.15779233882231702
-0.20374587976863373 0.48137415401922617 0.47223714453799959
0.084142704042168948 0.65321392130008982 0.60324755586221812
-0.10330167163602033 0.33314411418634332 -0.073169469528878928
-0.72894826309394822 0.15675667601916971 -0.13046273421254373
0.65677900135186507 0.84671392957179248 -0.052395164128845817
-0.61999120171019406 -0.66376876093269654 -0.021071842495141269
-0.62306337083724261 -0.29085797862234802 0.10304126716774764
0.079637060594013875 -0.48332145980454333 -0.23901488343136856
-0.29675894926656432 -0.92099491134129563 0.26045008167943307
0.25294605449581553 -0.73419482913769429 0.38848473673441486
-0.64142843202631949 -0.054840861615498337 -0.31851711223660262
-0.46720017152729476 0.39711250779303875 0.22342317136266709
-0.22019493002346663 -0.046875338839283451 -0.23473770139353123
-0.54688001153554122 -0.68092644087320076 -0.021319671034907728
0.19756944160076229 -0.41655020083701894 0.50920774625111465
-0.84566333725194132 -0.094663379741132814 -0.17663334463025926
-0.9790861095206147 -0.5408271744316272 -0.35165288789286064
-0.46047153901405158 -0.42965630244767528 -0.074150580925999243
-0.31329709366894209 -0.19462145204302655 0.40701275807672488
0.76643054877705963 -0.096585569154660766 0.041727458722933264
-0.025992417676728441 -0.61785883982824741 0.24743005125953754
-0.65582580681646063 -0.36894742267478037 0.060047190358500924
0.24139114521749455 0.87113849485337802 0.12530074335340924
-0.28945160992482072 0.55900180398354804 -0.057279230283882043
0.62055994887325627 0.28089005905798459 -0.48725137060304213
-0.73581393701866116 -0.23737214976361104 -0.37456332456714536
-0.13588461297665722 0.61927769486153217 -0.39986988969874759
0.18554431653029513 -0.61823106908096337 0.25509384671444701
-0.10260949838519995 -0.28786270259552993 0.3994682785351511
-0.22646061316349714 0.58139844196766444 -0.13986481866656231
-0.92139295446308844 -0.44802334132092103 -0.24534537152254865
-0.26216583568043772 -0.67952507579389998 0.095220837290123761
-0.62239946136024638 -0.37163783274812368 -0.21037613435736136
-0.55127889972540534 -0.8096117890827389 0.17099283426056644
-0.5418356255593989 0.27419307556550193 0.17144149604306858
-0.70831349078547534 -0.54088966732547972 0.013877576968891692
0.83340558726608993 -0.085151343938064339 -0.31375687598880431
0.19927132195994096 0.2749090851074345 0.46693212934939465
0.50870818367920845 1.0675289774680219 0.081714866851371859
0.68351277614873895 -0.44588660015468062 -0.041114081258833757
0.48602601082864316 1.2042274386376284 0.23063160868363353
