# XYZ point cloud file
0.54751592099279189 -0.24371228021931146 0.081494243039923475
0.37102205971443136 0.30136681943647858 0.11090175065090202
-0.47293476784004029 -0.55054579243090518 0.014709795632590561
-0.58683188919628693 -0.64599356239310457 0.0047641906151670299
0.058889387913094615 0.59180274089220286 -0.08359165086992898
0.38501128474945578 0.047177801239927208 -0.0047335257381099782
0.16202658984094476 -0.45437368827531488 0.18019755362673429
-0.29702897462975864 -0.065963540640273433 -0.068952900898559155
0.12891547273072723 0.58613927821686729 -0.029445049784214777
0.10728083540651612 0.63626263450726972 -0.10655729475556613
-0.29461836049055184 -0.15961596167331515 -0.092824587095113015
0.45157571344138148 0.42140469132560743 0.028461927013959887
-0.043643970312857772 -0.10822028128225158 0.066036500639526319
0.38602713180835391 -0.23003480305140783 0.15760629199365805
0.061262409880489588 0.71294222180375033 -0.10069217097646349
0.45673746027236595 0.20038656722223569 0.005950045023242867
0.18752723107412478 0.35768542815862214 0.060824496034741771
-0.24980193410365936 0.073224398977626115 0.0034749503635775891
-0.59809288605617017 -0.31638369710622238 -0.099817870789503882
-0.47536897393492084 -0.42045742137359088 -0.023592659576868125
-0.49957455757331348 -0.21049884470507374 -0.11342525655918204
0.19034350559470326 0.18395584129584042 0.077438250469646475
-0.81502440507144935 -0.47100653547870441 -0.21100410014368604
0.43201455971504643 -0.20819249718253735 0.1494705290698698
0.27581692013149189 0.33023628705368691 0.031404384958452269
-0.28971181743633084 -0.080954755874295681 -0.078970202547739399
0.21496888293024574 -0.32101874928657148 0.057281013401812353
0.28872761924914858 -0.28414239298135241 0.049200844996040105
0.11923337212797425 0.50894084820062224 -0.016643293299906381
0.18327320691181925 0.35985625654317588 0.051089012886171514
-0.023918703414180342 0.30368768546189939 0.0023945581967904639
0.17207890451476987 -0.4336254302473157 0.15315833721781225
0.15475434986452041 0.42962127302866782 0.046671094161292059
0.026713182057113871 0.46785977467499795 -0.0098501332557860422
0.52668145783365372 0.52924021009851852 0.03578744920187571
0.22358548499035541 -0.30258683805005232 0.18608933412231521
0.6344149989302329 -0.092870447936203915 0.11176071686078354
-0.52957148075104266 -0.25490421152998277 -0.093605728042194969
0.50612966874977339 0.93546949961434323 0.035732499296199205
0.49497107283138303 -0.16919896052315964 0.031410490016086257
0.3858935588001261 0.12007136664645701 0.16029159055776765
0.56860178354430657 0.20899296451340088 0.11728667845281915
-0.85343490695066715 -0.43952385402460259 -0.2341777469352907
-0.59279835830788197 -0.30585172121012194 -0.18352541862755853
-0.96223503166640389 -0.67192630884031035 -0.18650755180393497
-0.52706384762880332 -0.44097333972541741 -0.18306824517891826
-0.50524504228789469 -0.40540692083055596 -0.13160315218947286
0.27196940048333734 0.099995510053979886 -0.0085914875352841591
-0.68604770553051853 -0.48459552894128388 -0.14243063927679059
-0.60570042162402304 -0.40674132909798444 -0.062705135833457826
0.10860396330093047 0.2434532906282264 0.028555940828851434
0.51818711806337414 0.38438228673414199 0.11751120498435846
0.021323644360428662 0.60801515585315791 -0.076566077295491169
-0.31835964257461319 -0.19333295243582882 0.014423075530470508
-0.18096565392556069 -0.23617257673414949 -0.090076278303776958
-0.033385408809857742 0.2827312631402974 -0.022473651643128506
0.23342505608938163 0.19214122212751017 0.0055136830438025086
-1.0931947656342245 -0.63192308755146787 -0.31196282075901216
0.15029355937109862 0.24828843414073309 0.024745713244297973
0.41314241778455851 0.40374434147971905 0.02955993573352006
0.097815065512885713 0.1099061729153078 -0.013322502845156847
0.32606691644879449 -0.36438752509201361 0.17124996592960967
-0.73410493724019887 -0.54002447741625781 -0.14186349779902149
0.11737787794473753 0.6777839267854634 -0.11461370507971011
-0.26486874559229162 -0.16460850537807503 0.033668527102366841
-0.011403774392800048 0.010330617215777327 0.056140696334133433
-0.46465909833303587 -0.39403820589940836 -0.1444313604519778
0.5206015555951784 0.14565107927522825 0.1403540760058069
-0.51221961875661282 -0.53599365376264418 -0.046898170093327307
0.15785581231270868 0.25923264214485986 0.053291842057094252
0.40102645121353275 -0.20712666424515896 0.15926914534181058
0.43354339506605016 0.78580300124775815 0.067288517622729638
0.55604244929736435 -0.16725970530609541 0.032838940295316255
-0.099824097279449187 -0.03707110501486266 0.0528473830538988
0.14700263876436781 0.28141990663645744 0.076214016907854065
0.21120394061598941 -0.31797739199953035 0.049653027678187855
0.47405942454096667 0.54100477344097586 0.079725917816586556
0.45242937325468857 0.74810052501504798 0.067843301074012929
-0.092212454244287201 -0.068083422944553051 -0.075638172326237291
-0.0038170795639114741 0.39013483507984226 -0.044009375717684179
-0.28293425291394231 -0.27530109939449077 -0.086767983033808893
0.49328931983436053 -0.073200447705171423 0.14674998986472793
0.17189035361602151 0.32854379328209393 0.074549743167698801
0.0039393103052422496 0.45002694016257827 -0.083168981546180465
0.23536477629620911 0.17852755913776153 0.092788903219257146
0.20935538697334036 -0.43891614000673823 0.16892050791505148
0.082452596396052236 0.075441841231628892 0.069559557550877171
-0.11600493650092425 -0.38933913716024754 0.040438488807572781
0.088469103197539978 -0.1365919334186747 -0.040115451562640458
0.55568062721758404 0.41955239018602497 0.017003458590801768
-0.45919680203917973 -0.61095368727678878 0.043777371842647184
-0.52430766157141873 -0.21717725920064224 -0.095460151014154282
0.12953736342181188 0.60274492767987986 -0.030024142827088679
0.0079868030941587786 0.13143060707139353 0.085757730978038405
0.3531955240672815 -0.32649016894228994 0.16620078196818194
-0.36631464050691148 -0.06222070105713795 -0.042801388078055502
0.38111502444770473 0.21062290875052792 0.0067987845665565816
0.12423642980739874 0.21583765737459915 0.016032630690481386
-0.34615575560923406 -0.41941311918565916 -0.092640063621356239
0.2519363737046868 0.46399837030249635 0.051116536574647431
-0.2620110398051867 0.014998133723603924 -0.053862429999044725
-0.38653821926328646 -0.4327098358867949 -0.064048543418728676
-0.1457988029188983 -0.28683781998485569 0.058147538110999597
-0.006544148093400648 0.39284619951060129 -0.018050134228364989
0.65571347334026653 -0.13645671837916268 0.074429659687059446
0.42223425633141476 -0.30726674104105822 0.12589239622717557
-0.033661916339956188 -0.049706691553577542 0.061638410747552774
0.11595193640532225 0.0090193022184892335 -0.034924141056706215
0.43566447927678659 0.83047715685560275 0.075020654735727998
-0.57336993857534868 -0.45353028825092356 -0.079614372673161959
-0.52479397620354784 -0.38281779198578858 -0.032108458806413331
-0.0099091946137173093 -0.21481220858728411 0.093888419730542128
0.5916091940214121 0.031581949986727975 0.021214536437503484
-0.21169392253794078 0.1222374573052315 -0.0047089325016462236
0.0774397112938362 0.43386629950018851 -0.024851455456423088
0.58122142506606422 0.59485715933270134 0.063622813395959654
-0.75199888847713448 -0.48377127886416149 -0.16516128617158871
-0.20088600227400183 -0.10357697072945382 -0.06778591681698426
0.070673788445204166 0.54672273867302001 -0.0067654256161015225
0.6075293193585044 0.43827973091035699 0.030841059866765497
-0.20238399755754422 -0.12548160501139172 0.054444485479334781
-0.32718825812550462 -0.548968107564476 0.083087982267266991
0.50905056157883544 0.57359892695196568 0.051555758477246028
-0.039016421944878976 -0.35867236423854959 0.04702287116150311
-0.74187200551862731 -0.39602432836834278 -0.15007940546771542
0.096201369205984322 0.55208297701716724 0.0043182235569975413
-0.69266081259275247 -0.44660109349557697 -0.16836089553790959
0.50796421890593813 0.0091069447319674923 0.016359242134238949
0.56032480984675537 0.23428361385881358 0.0095331762697002387
-0.14869930476666646 -0.40204154046659296 0.035920456897086173
0.22514194611951877 0.4236749110258986 0.050988135558818926
0.22374430400419176 -0.30044151407018643 0.025059106869173065
0.38311965655165431 0.75189318893978341 0.086418203901104468
-0.24254028572482556 -0.37773461999557773 -0.056022024615265426
-0.6800915529474546 -0.67043749271532682 -0.0063922749639759302
-0.077075139654681046 -0.34364874419216995 0.01585056108527988
0.2048630820264048 0.27623433340609616 0.058335617580094923
0.07430292891135859 -0.13112354566511719 0.11698602594099528
-0.46508471662858536 -0.18677206111846933 -0.11914075787029252
-0.29424921689263273 -0.13997055597059382 0.062605320563077271
-0.45057250727792053 -0.15332351115638532 -0.046725938516805898
0.43849192864905773 -0.21012018678065952 0.14389416106480901
0.05861675884421802 0.38134464338389418 0.032856999701958378
-0.47462943749806341 -0.39523445126469126 -0.13702160884961587
-0.38036034650794437 -0.33029922848047022 0.013227386579967138
-0.043560944822934988 0.23939108633046158 -0.011788684940092609
0.090039856079565883 0.35138328943351105 0.020417267080438506
-0.73753249768466755 -0.37043921938199587 -0.21855621571259878
-0.4628859131679548 -0.56402687854275335 -0.0024678299415960003
-0.48142855410634844 -0.25275420052746989 -0.15006560528098237
0.40419633988356063 0.18170744193262878 0.0036126783558442233
0.54780519297469388 0.27867089052740801 0.1309413848047789
0.17646632922464001 -0.17450256782248896 0.16134658306390381
0.39323478223268393 0.70505460055317781 0.071683285519731577
0.28191496165011964 0.20895450906201773 0.0070042226924502127
0.61000656727762159 0.4650643975263391 0.060492329374940979
-0.024391779166945349 0.064967051717879309 -0.024043099107258048
0.49308624261766054 0.87303569959186378 0.041553339474418638
0.042535461532175134 0.15733695388471591 0.081406947351080783
0.39358709632290917 0.3276810079534086 0.023592865417970232
0.070082855841239966 -0.2995213103718502 0.029194350246102674
0.54150773168912059 0.28504342380007186 0.13206180738136275
-0.96282992429533976 -0.69483427351413485 -0.16518426440870621
0.44694805714239183 0.013949847425639428 0.0028262671822329444
0.057508384411271873 -0.24538128361739237 0.13575038104221204
0.51580570273615312 0.89486788524556193 0.042575035940254968
-0.80481613525381046 -0.49523323869937125 -0.16725088587899781
-0.079768537229049752 -0.26895648790776167 0.073618869055316172
0.44596876898065435 -0.21950332218804652 0.13670903851123217
0.31441008833867617 -0.23484862685204583 0.18347934053249138
-0.031528880254712566 0.34779371064500142 -0.049793099128473434
0.036344238194943035 -0.33403963642552464 0.040275367939949624
-0.55427695740530103 -0.43322542839869016 -0.042369890900751161
-0.23082894312379065 -0.083626590433048875 -0.07669524243650247
0.18043042728661879 -0.31811256258580467 0.040427854516847161
-1.145733059953673 -0.66485917993713795 -0.33160888634216212
0.46709787592744789 -0.2481301657285846 0.13781830197943945
-0.52424217232866999 -0.47178466425389043 -0.10960034004896235
0.06127216656660589 0.11431827119185334 -0.011319772484709945
-1.0887524999602074 -0.66589276698217759 -0.28582182967909309
-0.19641275213198528 -0.18451328232484177 0.041690307802356774
-0.55152759306956511 -0.29560517658255026 -0.081481595240177451
-0.097047097229608525 -0.41702700256478653 0.06887110719659606
0.29929038451547307 0.56359929344807114 0.050284633712038507
0.60769286158437708 0.41221545232560819 0.029499040669830501
0.22705030380545288 0.25062045045290637 0.016211019808119398
0.0075935516365898681 -0.33842037527141983 -0.033588648732956639
0.36810098240962408 0.42647647967929048 0.072422972282952691
-0.70028915959172644 -0.33271829327865732 -0.18351692586825263
0.20120402577962282 0.28800875400946246 0.044596115851036178
-0.95912852819813343 -0.57373325712375878 -0.28722207433776287
0.51445183031786035 1.026215065473806 0.045304308000042481
0.0051401389506565698 0.34345340481509712 0.014348932929785452
-0.44706713483296573 -0.46405544791353848 -0.16686734871600942
-0.27972636586421445 -0.11706646259474296 0.068409968158571421
-0.56712751886267299 -0.38683461497647398 -0.049416939109626801
-0.4791753991341024 -0.21977234992972405 -0.058121393995075821
-0.45880640023561237 -0.37474487333181161 -0.0073972462022285912
0.59769555221128579 0.29692035016815965 0.020215315084957219
0.068028237362818045 0.13538571981401049 -0.0069442162583353562
0.12294258767125882 -0.31831913607434098 -0.0069979670485957324
0.15646145795932287 0.11615314254371134 0.081422940430138036
0.43281336478464483 0.18468306955395675 0.15049049939604764
-0.70589657570760134 -0.40093867899655988 -0.19872233232984854
0.059397440737745444 0.2487687170415247 0.10822451795876398
0.49386122084715378 0.89254346607971968 0.05643705791850942
-0.46536037453711115 -0.29706256056769276 -0.1291369213785335
0.6195715356767848 0.028537982280614937 0.01618572261174045
-0.036951372776853841 -0.49263070544036613 0.15851506642027069
0.1350172462988205 0.51762820247875041 0.014178620137469067
-0.14390283655156161 0.01868650180773046 -0.0467819158282127
0.21305336801912667 -0.31202764006534167 0.042975434113763145
0.24945103289954346 0.25520465694628325 0.078835248634950839
-0.20971410367514981 -0.56204929182756758 0.14194546650269069
0.067298180191616819 0.13803652944647282 -0.0057347054530205166
-0.066040310307501515 -0.50872319546488831 0.13423070162925682
-0.029031955282368571 0.19987349212284633 0.11159194482330587
-1.0187616333731528 -0.63121880409521014 -0.2918660675374497
0.3274458526788192 -0.18472845908710517 0.012318410503826371
0.51834814279016528 0.49643037021637804 0.1068249728100239
-0.094134508684260654 -0.029307567335548734 0.086797203138291146
-0.010332164921922737 0.097917919507119588 -0.018164224520152206
-0.44527267570451279 -0.51849450044175549 -0.031164151144461527
0.54020208716677653 0.05671251363508889 0.023928792498963403
0.089316812351075303 0.63000495547067248 -0.11451828607564443
-0.15040913565744241 -0.56641741012379754 0.1553498543267447
0.51280579151581418 0.35123294554557571 0.12548375481374191
0.086523952727158293 0.26676294683650781 0.099968608586790908
0.40016326215042886 0.0097658105477153034 -0.0013737554280137121
0.15365647055065162 -0.13807004947784302 -0.028385302671750379
-0.075449118414044281 0.2670479013377508 0.023690879819605604
-0.077720783827129769 -0.33168758916928331 -0.0049651128061054539
-0.79491480494355959 -0.45510224614994965 -0.16038538182476991
0.45990918511794859 0.51571456109105895 0.045116496881588308
-0.21984562039906533 -0.45383978081046872 0.043147321163375107
0.20245030348880788 0.18771572616234955 0.0087635205250850556
-0.4086165339546981 -0.55017859741752972 0.040994783256835587
0.37227772103676199 -0.26118129277379792 0.15852295783025666
-0.76547496081795496 -0.6326008577216391 -0.11245540816516719
0.30584213410116812 0.090248044602959099 -0.0062596525358603605
-0.099825821805067827 -0.32621082649313715 -0.058163419938993294
0.25601382521020921 -0.4253216241403534 0.17397292732415487
0.16088919389031253 0.43330240461934644 0.091088650444055397
0.42585414525349852 -0.016216139962212384 0.0019971253487613416
0.39220201282002992 -0.084267222223597227 -0.00074717290000353431
-0.85947144597385949 -0.5745633245749735 -0.25709359513947821
-0.33292744764503163 -0.27910114235788774 0.019329760088123593
0.1597553001402095 0.2447645071979776 0.053298785571915086
0.53241315056031646 -0.099740377395080348 0.020302238682751106
-0.10748842651345711 -0.48100594515546474 0.14241816417331038
-0.40882403257234629 -0.61255147456348069 0.069127894412543855
0.024540219050622369 0.50730413840142774 -0.10388303390147896
0.52560494282279802 0.1099522780007901 0.01082673919812599
0.069067988487815313 0.42096188581662142 0.026333085542388446
-0.82029299146822443 -0.4548132667609508 -0.1771639003429058
0.31099121617302378 0.05519922712736991 0.15809340359085305
-0.34966821128613262 -0.12623179115403005 -0.10053164572196679
-0.47787140632186642 -0.16898263647355605 -0.06709962803960412
0.35585820109109023 0.18058627350693357 0.0023849255524801549
0.011501664002099121 -0.2967361843025782 0.12669620665761611
-0.61563567845756195 -0.63175761786396967 -0.025579145580819362
-0.39905617158209739 -0.52649193596289112 0.0077239714574448559
-0.62318965339205656 -0.30024872043377027 -0.13352646653936626
0.28017118286140963 0.4979358159586792 0.054871400734435583
0.58873110542652141 0.34904674699052207 0.1010243236430613
0.033988717961410564 -0.19766382235667412 -0.047957918236784219
0.53573743900460191 -0.13703189235739349 0.1325390723317022
-0.35090752279117432 -0.33398963271716464 -0.084052691538496677
0.21831452486776853 0.2080376761592565 0.080342887900833326
0.59036169101814218 0.18033561206036208 0.033939323326607429
0.5446342019645366 -0.071469308233600093 0.12005547624368984
0.21322789583709623 0.2277341630145262 0.074873793168747149
0.16341466231557145 0.26557531520287692 0.039637589796158113
0.51098762039407974 -0.061145166307057908 0.13792337006337829
0.37623630788045548 0.78253383836874113 0.067420442700682814
0.43459537366656126 -0.058036111946341118 0.16069479780360058
0.012756447062633347 -0.18142824824842696 0.098051362905633488
-0.41810053062157737 -0.45600565442031687 -0.055204478354071718
0.56605990254661842 0.5824748794303769 0.046668016900528575
0.019914523929081163 0.49457506278798813 -0.097410427826715412
0.41175472108343242 0.078616481164753393 0.17105790808168841
0.28497028503819821 0.34814613957279406 0.039080808240318232
0.072920758657494755 -0.38871129092548562 0.11366588546967393
0.29759736554085819 0.19882872523668615 0.1077645229056029
0.55678836780478169 0.03177791362209359 0.10365018183645008
0.13570988811370222 0.52268425913359884 -0.00072017034210847264
-0.8574419739406528 -0.68042356591611031 -0.095964713688461434
-0.0060802586067499331 0.3160660242447042 -0.031850573972369178
0.51899115803747908 0.59045909870341684 0.05953167654946584
0.057726789015218938 -0.3084897891300028 -0.029297991600477968
0.31473412377840543 -0.32732780538141687 0.083529468654533034
0.45722732848839015 0.47962549423548573 0.098477710776180893
0.60462458335453939 0.52015379181439791 0.062178576908641203
0.43012893258606943 -0.11014859055454546 0.16194685296278838
0.0041801755671105889 0.50166222291367646 -0.042246354409081976
0.45063287324845025 0.088622692688392291 0.16191266732158338
0.62772620012206237 -0.15073027870226618 0.10663319674756477
-0.23396838556887917 -0.039433952886088419 -0.064552761257710173
-0.84084490726921335 -0.62610277825793403 -0.16628384331039428
0.13895174610182237 0.14058681602214951 -0.0012107625774901987
-0.64346099681974245 -0.47094196626475016 -0.10950279074998592
0.46530222239570168 0.098152475688033758 0.0040304346955173931
0.32890849636729652 -0.07600408898938571 0.17759028411399569
0.080126125904226631 0.64345002498801629 -0.10565633325315671
0.04624636816075034 -0.29692961610351815 0.012920618410617479
0.26194265997045868 0.33037452219211316 0.050408216384331184
-0.50840260404387339 -0.22865891347017508 -0.08010279006481813
0.52409518578045722 0.57999436336500554 0.086516957607665534
0.06964983521322643 0.6387730859170544 -0.045976429026267862
0.60609969221051174 0.49350959963589702 0.0485058509930959
0.47664953234953866 0.00083107897512973983 0.14824408847655496
-0.7199843067146855 -0.36178211490992362 -0.21657868642329059
-0.11674318629327773 -0.25801898682671187 0.061422688333005793
-0.17821152361878706 0.14388823370781312 0.045333935954878724
-0.43670146343449279 -0.144030178490824 -0.039871995102844837
0.13365581995931397 0.5911558736203828 -0.015908910140497334
0.50313736338129567 0.18049181173582707 0.14997459666727364
-0.48924722298651602 -0.24222010952349882 -0.035413880471715231
0.15758310737497649 0.25609932309715444 0.064104386397590696
0.052125981276865241 0.054145876754997491 0.065277905860658347
-0.12841750728612802 -0.37685609514020213 -0.040307173492998616
-0.50366346049714361 -0.19795372166361891 -0.075276509249129875
-0.14913147606804772 0.043996471419680661 -0.035381978578793494
0.25994014071447313 -0.26915241205479595 0.0093425985388808641
-0.43862148383596716 -0.53841132607559494 -0.010140141123180735
-0.53689422414062615 -0.35273588888556595 -0.14533816358003851
0.44538346830148751 0.73673590104915077 0.059416969488674698
0.65481597655536428 -0.11842317907637484 0.043714789409620702
0.55949056112245243 0.31410666443271251 0.12429201206894325
0.56094015676327147 0.32887061404132611 0.12245024207339983
-0.04726737485821092 -0.45915918015862556 0.14797758804782024
0.50777483977883731 -0.26014852983782194 0.12880583662266026
-0.24789870896841876 -0.2165491443300076 -0.08069905923320525
0.094532043716759051 0.34924972225906403 0.024756404749487759
-0.23475399840597871 -0.40828690709527016 0.0014347397734175704
0.45593896401950346 0.92229945865379237 0.082302554477997641
0.46797463711802884 0.42363672086330628 0.11249505748049693
-0.66636934530609593 -0.36917066656338515 -0.11359378862349429
-0.16230165758535592 -0.29676028099155294 0.056820902008614338
0.56427516357617447 0.22962874892874996 0.12693774784724959
-0.54872036192721252 -0.2803352258908125 -0.17014045503328537
-0.41195407600481082 -0.3689911467596152 -0.11782969925010656
0.51536589302391445 0.13973412098545446 0.011229740647869857
-0.40899922567654556 -0.45059980203081806 -0.11593991638709594
0.40014965039031269 0.20858207456208777 0.13321563566411715
0.53553271310523054 0.60040754096537874 0.076645203912475424
-0.80747685381441592 -0.40388803144204233 -0.22476740638091519
0.16671723403686506 0.21030937043034448 0.066094648169073567
-0.50664705564013102 -0.49623007234101568 -0.024038530757264309
0.42373935808928886 0.82862972700416715 0.055859188876155402
-0.72510744131288885 -0.39597798178111643 -0.13764330758911758
-0.10995978052684147 -0.50556052908356808 0.14996648393563794
-0.8120511298335138 -0.59078547014256944 -0.18746829199967774
0.34856391760486632 -0.21997877096947444 0.039259615677639859
-0.039646556303019276 0.25602241318490127 -0.012667820049060557
0.35872071418103785 0.68538464502022267 0.052404384179987468
0.65127392308426368 -0.14371088025218132 0.085735894998045736
0.12150215892801719 0.70760523270353759 -0.068790527357300457
0.30848977830451169 0.0068424687058592504 0.16486702043325568
0.33913757600300259 0.15378608923695114 -5.5220102764930168e-05
0.56238366213699842 0.47667446316510298 0.10345459479722641
0.42096391842491082 0.79847258772699725 0.07488570255394833
-0.68954681168031606 -0.33846994320370805 -0.20795958503791917
0.28312314033840713 -0.31914721567020171 0.068652495071361175
0.14092292666144152 0.74643689386830192 -0.098466493708154634
-0.31894689668388593 -0.067300459624499154 -0.073030509508953095
-0.5051001770589898 -0.21125521815148773 -0.12597818241372732
-0.69851917057563329 -0.47083063523516266 -0.098899626190477152
-0.84149095980775657 -0.49169882308651591 -0.19245822282819058
-0.32603242377253083 -0.33292325044040227 -0.10267174788212385
-0.43452057563250401 -0.5287484194596046 -0.015757112968037001
-0.14572668156140117 -0.33820083183036542 -0.069686216661503347
-0.10429107946704347 0.24372607603713237 0.039573098106559235
-0.20319632677153487 -0.37205685462476468 -0.02428345351926936
-0.97299341853749921 -0.64756398020198136 -0.21887890923770342
0.1109136463424209 0.48896164003589559 -0.017181716046443529
-0.19643672580369248 -0.34440770201148418 0.049471519427258526
0.54409261451080626 0.57895186888441819 0.045665790340743528
-0.5252498399436849 -0.28891684195188538 -0.16098062325500445
-0.10773981579651759 -0.30871029059817956 0.072097983063671489
-0.069213233667213714 0.058189629108733487 -0.030424766825212501
-0.91134983647977208 -0.64540890042177335 -0.16681894499983294
0.048911920100809525 0.57654064214270218 -0.068767069882382126
0.2372144726805302 0.020349719102616071 0.14289070202373866
-0.4654266708241056 -0.3378429162659522 -0.016751241051686794
-0.71960543883310657 -0.4870955196953104 -0.11330271560004201
0.17355976560233044 0.45045555833180329 0.064364648881188147
-0.079405919596618635 -0.063234848208367112 0.052618299048232786
0.24533796358412857 -0.29879527924536109 0.036230965537458582
0.28686827986314528 0.10621837347583662 -0.006741561417001829
-0.51664616181314171 -0.51755302309923379 -0.073239992749555893
-0.070681038833946941 0.26148768741401363 0.057811998570132361
-0.35118875880489536 -0.15155005398618371 -0.11060790217107677
0.3428061860536758 0.37957462621771065 0.079130705202305363
0.32548466232515971 0.047193649648408997 0.16213910974161039
0.036289100821671361 0.42735426955545619 -0.056281159513921819
0.18591207239458807 0.24468483218675019 0.016812373675943015
-0.17144475445300356 -0.38899844939230976 -0.051267135773670647
0.44531533809515661 0.10745922425058885 0.16172022393303098
0.095659438683381171 0.59899747031001471 -0.014757935692493868
0.37640782466576078 -0.11011188617581857 -0.0028136963155631634
-0.84482021865580115 -0.48980733465444126 -0.20142604161944888
0.18528088351632743 0.14898535845776095 -0.0087387462719283882
0.13884855907196353 -0.37405741184683072 0.12284250330897267
-0.056658681924185994 -0.20012716109514717 0.069241286872418817
0.25581009949224298 -0.35490916819989349 0.10891100497742334
0.44852317065375608 -0.29966346102171199 0.10019072890368685
-0.18387053772456657 -0.12375095985417106 -0.080804048543442225
-0.12844539831230367 -0.17550960053396925 0.056449305420690432
-0.4904499378775819 -0.20425763383792039 -0.13087961476260362
0.18385866433781134 -0.14620770281324758 -0.025964036288650572
0.52462308848873385 0.54825194050205139 0.040510197313082918
-0.08329216045093879 -0.23186039588024798 -0.071723270066127998
0.67801320947638288 0.012770195153992192 0.026069078221487629
0.55282931199909946 0.2482120105011868 0.1316285907475776
-0.87581206715280846 -0.58382248349190691 -0.25859303537716394
-0.14313422668117676 0.024907224334188793 -0.043896143385051073
0.64640107183534601 -0.14052812259347086 0.095316204406832805
-0.12854244516078578 -0.51390846326852002 0.14851624233934213
0.52515950046140736 0.59082463242211447 0.055371370712607004
0.18242956900746915 0.25519998577838843 0.022156358585973757
-0.41655722775386039 -0.39902965403209079 -0.010184382491578159
0.12629935843855306 0.25619803669924268 0.034645877161851468
-0.32672561751691825 -0.42805627258315748 -0.029565918794648149
-0.49393980238841473 -0.18677211959674767 -0.07215186119383793
0.1287642041202931 0.11838893465802414 -0.016979787817029995
0.60840738194193311 0.30961760313314302 0.072250943284127511
-0.1193694987770843 -0.35586354727648684 0.082347763406118824
0.47690209558468666 0.50093088058320301 0.037379962623523943
-0.082415786512204492 -0.034029157397558074 -0.066216693542127059
-0.69412392831788683 -0.58380882871405948 -0.070923886465390884
0.41437789622184806 0.45089706676008534 0.037981986954656877
0.47703130061456672 -0.0035792623074775154 0.010818059838805072
0.1090468629519768 0.35425258967623297 0.10953158745876318
0.34738408959858985 -0.3142974196528584 0.076240506774304051
0.54936449531552478 0.087133817134380676 0.02209091713203104
-0.016413811465665507 0.12837345269235245 -0.010561413543593245
-1.0512016373802917 -0.65875352355799888 -0.27087084319451932
0.40504754679454219 -0.21910542140868539 0.15497514164260784
0.55002665915149396 0.17610343709345511 0.014921610145706421
0.069024997784584707 0.47295041816341843 -0.048815104079381055
-0.51150005482545036 -0.21149011173668852 -0.099374976653432368
-0.28937897239870325 -0.076460013436079666 -0.07585883893304618
0.42442936166848055 0.76991077483749337 0.06868912782228781
-0.84869093452758793 -0.48649212709364076 -0.20324730280970438
0.21829360987491503 0.28739642608365645 0.028421224066411177
0.60786953430675317 0.29314999519131457 0.04222213779331363
-0.36075641264858976 -0.3782739251036506 0.0074727656654587915
0.54735436113399061 0.022359525286291093 0.028255334834499934
-0.71901303197479771 -0.35157980765541852 -0.17774550728974864
-0.45577899569219082 -0.47240154814949409 -0.16074106163740881
-0.59163362253479779 -0.34484562739874802 -0.17057140069839369
0.40169518519596015 0.24337038647577192 0.010946908354044105
0.067995704810806912 0.1582989785051786 -0.0010995803454041941
0.61276073548084042 0.38508776459047989 0.040362994456144607
0.26287720601538106 0.038552136695538475 0.1468887064173548
0.086142591123365753 0.25461213026864615 0.021188203542402972
0.072194021131776365 0.6865113785961624 -0.065759166691429172
0.48097707243849264 0.55803923516134235 0.067445406697943078
-0.56410888794647995 -0.25291306830145988 -0.13103415598871457
0.45646702096437508 0.53337563863637605 0.063954052806075856
0.381186252082791 0.10257685257315052 -0.0014701170498956917
0.54440586255945855 0.45421037045745916 0.10859513126441894
0.62178122443002759 -0.077357529210108855 0.018000737508798492
0.20525181123065747 -0.42615129191590684 0.15602126548274203
0.37005695470144639 0.41515323052845199 0.079929503401553692
0.12828935775260414 0.65387348134195578 -0.058887944824664085
-0.86416303688424012 -0.47295160896768806 -0.22231628727565442
0.15616614556168967 -0.0070131966878964613 -0.028698115579430417
0.13474925085390743 0.28572371829729337 0.08303460031576454
0.43774811441585987 -0.22099788191793257 0.13959414854543722
-0.33977953128813621 -0.13592932266307167 -0.10327781744304454
0.59347971154393686 0.29268677978199698 0.095412386553746176
-0.41991240712243766 -0.15601768691885742 -0.09448063722744876
0.060506818787265049 0.035515551739655371 -0.041794658721352018
-0.43288407821373998 -0.24094358236856239 0.009227255765644371
0.38739834246673166 -0.27831672900554899 0.058884708607105707
-0.15188182858834437 -0.5623782566681208 0.15597186743672564
0.070072331961991918 0.14759620135906604 -0.0023795356346509311
-0.64845132089274848 -0.4016487527065481 -0.089420519302853607
-0.52625261420182667 -0.23132552315016386 -0.11447284546410688
0.34160399283431009 0.65716862152056121 0.081395186787983187
0.079000427535284135 0.26036283645423508 0.019591640705252322
-0.071478465048855078 -0.38455299882788418 0.055001901860130042
0.59796056091856831 0.20098821343113649 0.053062094294748785
-0.72972664702401635 -0.53146323014265362 -0.21556456651724329
0.35338840658519061 -0.011584566317525247 0.17297202140013102
0.20233094215803527 0.23806345827041697 0.070350840449680208
-0.15807962242126755 0.028873897141408977 -0.037419962371416704
0.67679207872997049 0.052036069182314404 0.068161519936209558
0.3818763040848272 -0.23668092177272587 0.044256429954676157
0.54681994916870269 0.13282826263703679 0.12878152143750105
0.49789318458205523 -0.12943368824260443 0.025935784038111309
-0.28138284474046349 -0.50211841629052345 0.051305490426510447
-0.78069319115376667 -0.40379966292577585 -0.17788045477894626
0.46561900478791485 0.13272556207688857 0.15458013579229146
0.57483838963733846 0.38953833438138552 0.1076308828467798
0.60363473162104042 0.40939936838605839 0.025041021716905032
-0.11981382359958853 0.03962377828131125 -0.03921969202218295
0.47045205484825353 -0.13759087851240315 0.15000716792136209
-0.410003934125442 -0.38950269851947272 -0.0034946775555135812
0.19959646973363487 0.40767431919460995 0.044186945475679529
-0.50384601568515985 -0.48397721229862234 -0.16454179469045055
0.15437055667249061 0.43505342409701542 0.072515571622373098
-0.13832199265392664 -0.46900834531734725 0.12657665455077438
-0.65023297858513451 -0.41192856485586815 -0.169306282882075
0.40482064266599332 -0.054486219596520058 0.17322700115971562
-0.00014386119445686241 0.20926163183031132 4.4523482668090697e-05
-0.055392630400988074 -0.07496955852602083 0.059993417933996762
0.21150327242236677 -0.24122659455732237 0.18126495574582313
-1.0922520042216859 -0.62761654100175834 -0.33970542381572222
0.16098397545509568 0.28253027848376366 0.065436315438306469
0.59567171065504076 0.53045983394867202 0.082914012706320261
0.15358401887539741 0.43059796302862319 0.088044045007459659
0.26962549972592287 0.18330357555555865 -0.00038918663402376374
0.49302867530943278 0.42770654557503685 0.11299648884324515
0.60528907738531679 -0.15757516062210214 0.11864244046870986
-0.030683926822634711 0.36482722360051101 -0.064119427675339541
0.1793671476244042 0.42697635436459314 0.042238663790170161
-0.6035448068906808 -0.37577657627254735 -0.15991170233767624
-0.57960735887848747 -0.33232017623632282 -0.079361457794241863
-0.40691551143647942 -0.11440192329278498 -0.032033213278293726
0.43525829469131533 0.88936579381899294 0.080180885905727417
0.36789891448778839 -0.0070098773729959096 -0.0063483928795258215
-0.0036727624119609059 -0.036064503622058819 0.068893629456271754
0.13258259406347322 -0.28545516885423461 -0.019325623512494838
0.0099390227419351163 -0.50426102641001425 0.15927028252570036
0.60332602343913799 0.52311906441106482 0.056374852329957481
-0.071459629740413144 -0.4101044644306292 0.11969760879475877
0.068446728632205467 0.60788859158806219 -0.10388991160811825
-0.5622454900873447 -0.48409528594164597 -0.13902039492056367
0.54561220353760065 0.30927291136280521 0.010737642532466507
0.50650467091060314 0.40565575239847784 0.020705487587019289
-0.037527914486730263 0.23309765313263808 -0.0092532247056433814
0.59189924085831325 0.41305658216406027 0.094482512690741649
0.41747289580228436 0.47772275535357256 0.078726966828274125
0.60402210042569715 0.495539090554169 0.042722133648765148
-0.71345285057904628 -0.51630023249036106 -0.14310259323640587
0.10410240274018018 0.33542001378734754 0.02819786893702747
-0.063813323590995452 0.18691539493010545 -0.011970221466441167
0.46796035756789617 0.30139611070780492 0.012793936376479131
-0.87705528565708346 -0.64203787344631635 -0.17212498000260595
-0.68467869708922646 -0.67454305162494188 -0.021761382637810689
0.49155798775199749 0.82342699635084626 0.052503304408804324
-0.84540909752820093 -0.55693089475654944 -0.19679576632537399
0.43460121261133861 -0.1675521554193839 0.15676973673704647
0.49401188911917054 0.9495117766106812 0.064169880847554678
-0.58323180426984644 -0.36845560238106645 -0.066569641383522893
-0.44763270085116175 -0.38541518777229666 -0.13427762212971345
0.52023556750751732 0.43781192774526456 0.11069769324533929
0.25985356730754483 0.12208029210842886 0.10955277420099585
0.011931113406534188 0.26128881193667974 8.6880534619138139e-05
0.31182953014772696 0.27254057277540256 0.098354989878914389
0.10461238719513644 0.39657173062649098 0.084225754701644062
0.012176336642703567 0.43992785519703625 -0.087685299634896019
0.514392311047561 0.52087988073652591 0.1023261540101823
0.11579597315429965 -0.47432519616683733 0.17233790712466973
0.1369181267033841 0.7532203508866121 -0.09293373247751481
0.087267273850658911 0.29820557434625872 0.022421276623791009
-0.04312788129770484 0.26960671324809571 -0.0068236558928035929
-0.1212181191775881 -0.52899056974081404 0.15342926240342813
-0.37469940587686906 -0.15455701509852093 -0.11136591133435372
0.14277661050568202 -0.076939267991255722 -0.033427745352724414
0.022626333443326152 0.26253073062457699 0.11067033392958414
0.027363609475813733 0.34853170718071957 0.0326351212048967
0.32034633697851655 0.21048289026530798 0.0060790544176441697
-0.073722583990013357 -0.45625019697161573 0.11067247125011509
0.14234480121780568 0.23020408056210762 0.069277343853851481
-0.1214262139079384 -0.003601604538466141 0.10632653563323408
-0.48324532486150734 -0.27252617871816254 -0.14640910016651046
0.64560416690273859 0.11453113842885276 0.059740088329340968
0.13663570909860845 0.20279190009289139 0.010478150996026891
-0.32330294358496869 -0.27958283812475859 0.02349672732713981
0.082396228190589504 -0.44763742191645467 0.16699324960585049
-0.58506492052358661 -0.27034709130385925 -0.17354750910037969
0.52635326564417129 0.0081465078765876053 0.13140857632977626
0.12643222488972194 0.21380254010225652 0.073908375060836307
-0.11104000404177605 0.1060797515396994 -0.026284325460850799
0.37526362044291234 -0.32689254853032323 0.098085895551243862
-0.12682232130982984 -0.55802257756468576 0.15297575871163988
0.367654207192191 0.26734591164569232 0.017095292293356656
-0.12536125143311294 -0.25282965408606528 -0.078801164107235588
-0.27889145625409828 -0.20716546989897477 -0.078508112414083009
0.11289036364238914 0.45870917678621848 0.025766654725059346
-0.28625522997153163 -0.42167584832044419 0.036887963845274152
0.29411910330771285 -0.024819494029215683 0.16620476765305087
-0.18828891552481275 -0.48301546299617626 0.0802627577498356
0.39608992416917854 -0.27585510318474071 0.14873087395565998
0.55610432579700464 0.33991868752073917 0.01369876709497525
0.13179534846005314 0.60087949564158838 -0.023512896783524473
0.029217825101457595 0.48980037466738158 -0.10035899964199207
-0.019324129486366332 -0.48499705683798738 0.15968347743511102
-0.32844742851495567 -0.21256364502671654 -0.096176087208403122
-0.065217389932317515 -0.0059592223827482638 -0.039297325215982476
0.14076158302279773 -0.35988727282610211 0.17826025465740764
-0.43684078756264999 -0.339115053363373 -0.0061529263227564912
0.11695978601219956 -0.27103612428642032 0.16170455889619306
0.6423152208034244 -0.16014567952013969 0.074116635252713448
0.40347606550459025 -0.099532145927725912 0.1703145704539169
0.24297104703730216 0.29954924778935454 0.062112951156858776
0.20328379838800059 0.28193394452446408 0.033561034594788208
0.29171785532816885 0.040210807396269366 -0.011813617850646441
-0.46737646549348033 -0.24917291788974605 -0.021678858692040559
0.097352784633713829 0.6908367449538988 -0.11370227468704222
-0.38625963949627629 -0.11220023582975069 -0.010486987351431443
-0.23142261198050207 -0.25664609877455757 -0.094255068241356932
-0.29430392104252018 -0.53937309985398751 0.094360772133890325
0.085399876958985377 0.5628465023426481 -0.084821254964294629
-0.94949121082476384 -0.66456762147949133 -0.19068113347429572
-0.78364943116000818 -0.50269589423360739 -0.20475139627936836
-0.82873958365112954 -0.48359210893908477 -0.20858606054982445
0.58094551138742734 0.18209790967618078 0.023623383462796743
-0.77728195973289227 -0.56095414026999557 -0.216257015686285
0.090671010720599909 0.15172863451257435 -0.0031811328744764111
-0.99680952710759474 -0.58504574463723957 -0.28984521769285393
-0.63224585407145095 -0.52066311574388346 -0.15240363037722679
0.087177054502015017 0.38967399587893226 0.042026328341305985
0.11070476759199832 0.67585199691155073 -0.054646612744521872
0.28354196046499169 0.23758218031739153 0.017277865424587147
0.30911750067903737 -0.1513738085180078 -0.0042549282004262778
0.31457657049776061 0.3832755038998048 0.055135712746958832
0.48106827235684663 0.9376083956522745 0.07402774548852778
0.32530165851302423 -0.34707984508476586 0.12496327747553809
0.15546065329381692 0.16286024299076463 0.003223258684361463
-0.30212944875665498 -0.1065949341145821 0.069818807252141402
0.23071296005128805 0.2917882819490063 0.061577022823854244
0.0027765960193736894 -0.34361668039007098 0.1355543036275062
0.57870755834684262 0.3390141083575281 0.110910149106212
0.27055560985904925 -0.21700224101405535 0.18887193404739122
0.49177051365184332 0.40128212135321384 0.022259489901505281
0.39352024493326049 0.17057111117472545 0.0027160197443506506
0.058321944031402673 0.0902320234071331 -0.013003412062242203
0.21904464951770708 -0.24861037947234704 -0.0098790795612853088
0.43222295660462012 0.81057711303479063 0.052144359868134982
0.0085440937735620781 0.51310346361169812 -0.048761617308975352
-0.90095723670711769 -0.55082988294961732 -0.25901855762463843
-0.53230517816752909 -0.52001448840833897 -0.026005951356258161
0.46120691673787395 0.50297474140851139 0.092917151008628851
0.032299411456222615 -0.13337906488093731 0.093038330704143857
0.31947039644346753 0.37235352937137778 0.06871526931259897
-0.35722720618677645 -0.2243726145274284 -0.10394878205628566
0.58489626483434598 0.22446742731980129 0.10189723424948144
-0.088043090449361983 0.20755418379363266 -0.0081489794310665165
-0.70580723945628121 -0.42906130704021073 -0.1833525982094984
0.0095845526737627362 0.25873379519371231 0.10870973647533083
-0.68778504749645164 -0.48327158813953713 -0.11690036801783979
-0.87585288249350557 -0.46839788976993635 -0.22720961498446007
-0.0050818991909500344 -0.044279771021466185 -0.059031202150236939
-0.43495888418383127 -0.28859917622882758 -0.020624913680949042
0.070301819617931915 0.13233589177595073 0.072350741580102906
-0.21371630999936531 -0.46180800931410593 0.051900624127466322
-0.46182359032818882 -0.2083332706057236 0.0085509924314450259
-0.51037469997046292 -0.6160022864860536 0.016696050097421256
0.56989736290991744 0.047641960518177984 0.028915872603011206
-0.15554426989967202 -0.41498416597037563 0.042918689874663074
0.58080345331200034 0.52169584526365875 0.093150245312294488
0.23191560503475916 0.49081141960615615 0.046567780068928533
0.50505900507136237 -0.17505113938762112 0.13556643698939735
0.44592370819694122 0.25902363360206204 0.13193289012809262
-0.4716982148597112 -0.21725210445952814 -0.14248716805824843
0.20886504809401119 0.2700340474146149 0.0627256684907192
0.073108226095428441 0.20415246749139004 0.011453056739156975
0.22363084763955554 0.45808817357144971 0.078311502768180052
-0.076078121398362258 -0.28095905080431294 -0.058486041431284302
-0.24565422888931165 0.044647393183416928 0.038510457345222626
0.42108726031131727 0.80205884737517386 0.053137696556063568
0.12992947435596935 0.7015545919805436 -0.07089331002455776
0.41485317290164925 0.76204100298389965 0.070291505981895569
0.36298529031988114 0.17244594724263806 0.13576304402908984
0.17316181758244859 0.2217267249821171 0.06508508589015316
-0.86830458314862002 -0.6862109853495898 -0.11820084245388635
-1.1151752705056106 -0.65621104088225568 -0.32724278588268185
-0.34020393090756773 -0.27438719900167208 -0.085521444379121486
0.091753505006703651 -0.19114279512700549 0.13809943105998129
0.18340130977900843 -0.31391772163844123 0.032960562424144357
0.57479277504042992 0.34700302454985366 0.014981247507377893
-0.10013873617848418 -0.1988846610317786 0.063638009328240985
-0.13457665971735255 -0.065167528699558663 -0.056711680994612629
0.55784275196969979 0.60007576658702733 0.078392946353959214
0.10267897869663012 0.038472948452153544 -0.034687078224986401
0.097560267807034917 0.56522199764363112 0.00017583576597324235
0.39231088607499898 -0.2471680709325218 0.04712646046128105
0.50952408600703314 0.99369982088189568 0.062604443576984303
0.046428985042761495 0.55131650558183609 -0.073901841435586202
0.13823935615714553 -0.38036885445489493 0.16656064446761309
-0.16813222066131595 -0.037794271883307862 -0.059490012236731976
0.41683780929158987 0.71271567487067189 0.073355440150198986
0.11257064899941477 0.40325300282070242 0.04625710125718524
0.48272614767580435 0.80228812791434456 0.06080521833984151
0.55364516132974195 0.3363959063430717 0.12307117193955996
-0.56064014340284796 -0.58134382902909765 -0.0055964011908016809
0.30681763630305331 -0.37497116896155325 0.15405526969825872
0.68639319400490839 -0.024242038583056624 0.043279756374611955
0.10883708580255302 0.4163342056073509 0.027423937264320408
-0.13337426843263003 -0.55227853692656526 0.14281575191174578
0.52554082489114629 0.28853258092041489 0.13707731424388347
0.3934160827326913 0.44890794358987562 0.078084128259041485
0.31880126243752527 0.38428393239850678 0.042718419313825029
0.36064288415865414 0.65431900917629249 0.073965858662417616
-0.5887986130794749 -0.45468552863297262 -0.09954848123223986
-0.07988208073694808 0.15607992907514312 0.10668465021121715
-0.071986146094777048 0.19803651469577122 -0.011930402595025202
-0.72122576281053119 -0.49072819258808764 -0.12829663768959665
0.50806431097513716 0.48650555564644704 0.10709906740629171
0.51354084848119452 0.42239098717033452 0.11229146472134444
0.5028245661681956 0.91055518794480272 0.036728726110204335
0.084887512026701251 0.29238363064242745 0.10879384671819531
0.42016535913384379 0.76923776443512482 0.052931652118443195
-0.31299681663855894 -0.52171600565734 0.051248455316402208
-0.029890151498929651 0.28059905105479355 -0.025351464579440208
0.26024077275607205 -0.38325830354089979 0.13441910902229015
0.11017035497823258 0.29805759099332707 0.027807695830777246
-0.81331776457005822 -0.46831724112288309 -0.16777931933707885
-0.086246404492052953 0.09334792097539879 0.11442074598813262
-0.74350051256385419 -0.3617961462625886 -0.21379851790944149
0.15963689607229797 0.29906664412377248 0.048800406662568296
0.070298169479802219 0.29145458297420734 0.01849651163515359
0.0047716009522580927 0.44075871055894 -0.071805843078188519
0.24367117174099628 0.55533918953318018 0.069234360284341712
0.048240113077159807 0.26503582282883076 0.11241115305231414
0.54827481617406648 0.53019732967613009 0.09977540167575677
0.22549161795697553 0.29573204750980664 0.03054032819605762
-0.22022863009357591 0.11277235583039991 0.025240677435543757
0.45051467144438073 0.40734857510101485 0.11230788566176364
-0.52726344665691027 -0.2284191836661299 -0.14402852099748098
0.47059739669825573 0.87054805609229458 0.063120879229881521
0.59152948746927148 0.15470893601899227 0.07866637194186854
0.23629794791838191 -0.27223806852195975 0.18285781582359856
0.080145305698229197 0.32393466454713149 0.020122518015002255
-0.078302803676759458 0.14567486616082437 0.11026812691805188
-0.14486559511107022 0.13465369685069706 -0.024340924630989746
0.015417092446321112 -0.09056737209089516 0.081182525591260046
-0.11169002054235527 -0.051064960403735427 -0.056034218454174889
0.19840500679706619 0.27986323797214674 0.037224193582157172
0.014975616339765907 0.50431753211170083 -0.031414665828664506
0.094834733064297905 0.05747994199580142 -0.032963771333749309
0.061422941062715952 0.014657029123313903 0.073702838571154561
0.48195627456341406 -0.28367231023257444 0.097546507217515899
0.36939880124693913 -0.2449116445529953 0.16092131212373278
-0.22751566908283644 -0.23447066184710452 -0.094365245266527897
-0.077779634848546886 0.22384941454158602 0.079058654614133306
-0.075315410841977737 -0.34882851328271719 0.022345363406397589
0.43042850676141353 0.7434630582278251 0.069486944979072096
0.50542111658736566 -0.2530664238500383 0.066652004678504073
0.43084168388622279 0.80274383244106495 0.06982587710210944
-0.58923482692728513 -0.26710256308136471 -0.16939082867483038
-0.52305200070154978 -0.27980963855825824 -0.072421630643043966
0.56577777216745906 0.6042026100872987 0.07144801925683314
0.022752659242573747 -0.22292839214576521 -0.04766120413061134
0.62400205488695248 -0.17516932824020054 0.099773366951615539
0.53836111316749991 0.3576198532746131 0.013866916182664613
-0.23702688535604366 0.050533707554748952 -0.040381900766126522
0.6037891831884119 0.2566017882854541 0.0577296989385645
0.028944975537556039 0.44024117371137617 0.0013337539857839753
0.10524661871016694 0.31608177547400051 0.027347290968647631
0.53687502578933133 -0.24871640213060597 0.11972049417610747
-0.74564870171079589 -0.57615162529429442 -0.11442866129047219
0.040423553315690086 0.53819436553203592 -0.10682494680101728
-1.1382196883740101 -0.66809842978917855 -0.31852057900684067
0.59676778771552907 -0.11574450581620316 0.022225585351954236
-0.79058895153327735 -0.68930172490632458 -0.067780171635904274
-0.13739406441360613 -0.23421849642958237 -0.083296549934330416
-0.35258825604813704 -0.061934004159310163 -0.075024367562970401
-0.53643585787210291 -0.45015128849487329 -0.060409023028272002
0.35611250732793853 -0.33570263398968914 0.10991756023135907
-0.86428968182195876 -0.64378035924653121 -0.12931986057612666
-0.089994123741819143 -0.24395795008479404 -0.071055211727299061
0.26896994007538488 0.56826696952705202 0.076050910277377315
-0.23219948531227891 -0.33273672138678412 0.043656787683850395
0.15098692422617349 0.43275632951976972 0.061883037434566468
0.041151712073230706 -0.34976828522311765 0.043821431053088666
0.00086516713465895068 -0.37898210445012903 0.069108063983263746
