# XYZ point cloud file
-0.0041381058381471936 0.47547983429614638 -0.057851720218757896
-0.70672250649100299 -0.487278276745719 -0.1753138763403792
0.2276546682241162 0.50778653849448285 0.099760680350631681
0.023794430951293633 -0.47210793876907997 0.098600133033588166
0.30257391165447123 0.24278899949309696 0.042133486175665924
0.57167667346189532 -0.37026555596049904 0.11739350033749973
0.097018032069281807 0.4620894617430491 0.072785386802218577
0.49528377271584123 -0.29924595365710238 0.15070159565610219
0.1054087360485636 0.25782792646692698 0.089860908830899366
-0.38504542972565581 -0.25714937406131244 -0.0038813723260002764
0.45011985326481185 -0.43088463837785729 0.10802461588987677
0.16998625339277207 -0.38258014932843509 0.035486157665699958
0.63066312601682806 0.56436365801532484 -0.0007996181393049584
-0.62511970205590528 -0.49564117170411726 -0.073751406951760856
0.0946781262244627 0.46332025526803666 0.067117059805010371
0.47427252850707918 0.20519465285729077 0.13725417260251815
0.20061390042313071 0.31152713689708289 0.046855944282314654
-0.92573346507402388 -0.59852459912880074 -0.24030623232062664
0.40699413544577334 0.10933992120706226 0.15263057688290971
-0.29264548641833377 -0.072619705344977525 -0.070388430705037086
0.46183503500014667 0.42619626172912306 0.10515798996206094
-0.10861514336541667 0.26316760455693133 0.062481218079721401
0.28419478368684337 -0.41524228190724854 0.059098033120046689
0.64734528377404654 0.3449312354671239 -0.0017840074940956852
0.37772599156273373 0.82535115339403076 0.069855876156573515
-0.25167632713710286 -0.057480325629229778 0.094890322743232947
-1.1567090192497058 -0.61067300548139125 -0.38967590946705766
0.65061457908064624 -0.32203879393619184 0.069840601327096241
-0.32215246914163198 -0.29331427858113168 -0.052583321005687189
0.37317234084469852 -0.15497761442671243 0.18610022614956057
-0.22637784820621831 -0.5172281780122876 0.067825076603003076
-0.027233163694983104 0.019422872196180441 0.076104422831956064
0.48139738514759628 0.32090865303463145 0.11007256792051479
-0.18276699746791836 -0.36800063338976807 -0.03456915872291122
-0.21020420614249416 0.12458426623307695 -0.034850910387844602
0.3234695043259761 0.27053445542082311 0.10577531457652767
-0.49529366538295572 -0.664596073489928 0.038592073169084751
0.091290163247492867 0.75784366091001143 -0.030343157521843245
-0.49912572689460161 -0.12351530734100868 -0.11467446088089261
0.15879526227192195 0.30328645212843663 0.06055194667370023
-0.89238268162800494 -0.51808513685397883 -0.23784454028701563
0.51214562963086552 1.0495698671077169 0.05728328142847483
-0.27040814856860096 0.12365519757473598 0.0034587251172150113
0.64138123504843281 0.42336354024224776 -0.0080567093580957705
0.057151772232802656 0.64236680433878313 -0.003635173740282327
-0.36573149937898919 -0.37829681012842964 0.02766906935014346
-0.4584870885188338 -0.50109182563494503 -0.11992961434276517
0.4923410282651085 0.33349888780950399 0.023603713164360385
0.4091430505390159 -0.36576277527716383 0.073088429282188949
-0.096177211139673729 0.20210064178759413 0.092984311802895125
0.71055900057091215 -0.21091006879490726 0.01101209168488404
0.30649823960682354 -0.42682974118863026 0.098889567661294642
0.036630293349178222 -0.2164892997541018 -0.0020345068156880641
-0.25529445075606449 0.11953126697522554 -0.028823571334325226
0.53512692974628318 -0.2688378347089061 0.13154368008640405
0.51601339091488463 0.4924366300769778 0.09714557172123417
0.44150508348658996 0.36078494795830074 0.03486805823695871
0.12885595088127058 0.6723789082808953 0.020000240004422132
0.15519156971488751 0.19075469795942457 0.03239023431454946
0.57975874810562322 0.22696647279838378 0.00043337747468830123
-0.45841062706192209 -0.61769626904437658 0.031082355825625463
0.053194978283030936 0.4359672362108975 0.0034921139728979478
-0.15273609463617352 -0.14472554091554102 0.057112566066278569
0.150843752423163 0.68078274475276723 0.002395332832128394
0.52367121489425716 0.46922951510570265 0.096979278277095626
0.002353227831221022 0.046921176938023779 0.0033772878363323988
-0.82579420882770038 -0.52175857587742402 -0.19240977825303252
-0.19348723625618039 -0.18892621176063029 -0.053224058640644056
-0.58619386096000403 -0.21772786722332715 -0.16876647633512232
0.55263793675730855 0.72413977820801412 0.053531122991788971
0.34509635038477998 0.25590532757222273 0.11162689930110348
0.3719723911168708 0.37243155331007172 0.10059513874748827
-0.15163197690355137 0.21554852066436592 -0.014350583660167726
-0.18113979827300949 0.19008489356720926 -0.016802573692944134
-0.63714177028444619 -0.54867495869835881 -0.14427330510252945
0.14031051337988576 0.2280335767813586 0.033540246034544974
-0.72401567364454467 -0.66350957899936991 -0.069894479617878202
0.30518411389495897 0.30032467861270051 0.09678258365898107
0.48271050213392824 0.080484017401481589 0.018085355048496177
-0.22666511259207581 -0.06429506983300981 -0.048696729647874526
0.35552816783666463 0.17152593385813208 0.12048215907493709
-0.5751540860367732 -0.36935270077106386 -0.061424217295794836
-0.13671346187700401 -0.15406993467926056 -0.044996241949955773
0.6968503529467529 -0.26715013537472465 0.044091976322464976
-0.46227645726121358 -0.26366135187275697 -0.11083615882874742
-0.14574695337866994 -0.041787711289379859 -0.026707647638488208
0.5875383579790695 0.34347248986040602 0.10228744602824535
-0.91685296031780494 -0.43032795325781836 -0.24867024596901477
0.46537950499951819 0.61368159824701385 0.066482120443627446
0.35897842986626022 0.74321032664013353 0.083659485574759329
-0.45653496226524781 -0.1259635155248926 -0.041503024712126413
0.53136209604457396 0.64184087580484706 0.077946576659473799
0.27163404203858132 -0.41767062354614859 0.053987241562597488
0.10799090380937407 0.82026315179753007 -0.049758354584268749
-0.57422124914861306 -0.61922923303260002 -0.025528324736263985
0.25220778255289544 0.36353303587099006 0.053832763168348174
0.21279566200372954 0.57956240442028517 0.076272922830045053
0.34949131289808388 0.82252263984298835 0.080914249750691392
-0.038510639285508741 0.01898192816953248 0.083440094119125452
0.02180207766768899 -0.43483428492338971 0.045079394638125492
0.61429306399227079 -0.32502041089364875 0.11147347101815264
0.48743854888602622 0.24953550002858682 0.020876025942680454
0.71083775347196276 -0.22466128012848341 0.019669041076924687
-0.6627018642065079 -0.28132170242944898 -0.20227475929379729
0.12069502022140366 0.3207125207104411 0.10520250921332985
-0.81532215676164155 -0.57719341950512737 -0.21896069952627473
0.57178197771497308 0.65936485098838671 0.069546401835589577
0.09103720939775406 0.46283474211466413 0.061198013210403968
0.32121565557535325 -0.2580274406014077 0.032531579134578159
0.31526423312124957 0.38156997956983352 0.049568429015577231
-0.73167818300147347 -0.5972943764171168 -0.092695295277060996
0.63036343277889306 -0.2172970730731868 0.016795102322939903
0.32881943189554541 0.44689401538589291 0.065062217682288259
0.64666284287458131 0.41053065383723308 0.02260255108908138
-0.26646440573765839 -0.17983739551928013 0.033072818111995916
0.47194829219240714 -0.36853702131171762 0.15748489574387103
-0.073427809209098915 -0.056356487781020759 0.063019409950242355
-0.90119628599145962 -0.429305047688057 -0.27527907243848287
-0.044918362303708936 0.37557993832833891 -0.015729697132745857
-0.7379253090819291 -0.50638461824737746 -0.1887067989467317
0.63388761454034337 0.10609714176704088 0.062689890457511388
-0.45208348474161553 -0.45609391632654472 -0.0033119891885968755
0.42963753737797189 -0.36240911400221842 0.16923203889971083
-0.023285298277606142 0.16992715220472587 0.0092422595113297312
0.46032505285220959 0.58246537951168342 0.051293977749753972
-0.076059963467972641 -0.42833460775498755 0.053775280455236385
0.61532268634302167 0.52032002964418456 -0.0027452286316087537
-0.76625624389139613 -0.57090562900363551 -0.12904529888298166
-0.76829124809316329 -0.49943696790043413 -0.15469414372676915
0.28644092371414365 0.14140918955798476 0.11637597634583929
0.54610443952395171 0.33876269986855134 0.11456272907192355
-0.05403941590681452 0.33417659454298088 0.059338844773144106
0.10661963082634152 0.81251328713738413 -0.070702553970620974
-0.23225398716465029 0.17527102000035311 0.017616844727687764
0.18828315591246839 0.28463393689728389 0.073338116511896367
0.51219461535757682 1.0184933857382994 0.054925843885800907
-0.24745532161709655 0.038118687714753019 -0.046626148392442501
-0.18904457234722238 -0.14042291450633737 0.066059363833032902
0.23661986107656108 0.075043636613987941 0.11742800259564967
-0.2271910207459544 -0.46614027684718817 0.032740623232122235
0.46312472541395056 -0.40025406050825563 0.083630662656727472
-0.13523918570607127 -0.55698650999794774 0.14766204452800469
0.62275237002942452 0.61645702297551819 0.03753511708683166
-0.41143447805578337 -0.53134314345392342 0.033135367042214758
-0.80960860856813011 -0.4790460959229379 -0.20333608837312656
0.47075800628269016 0.94835717179319512 0.063501469947886913
-0.68552888646566457 -0.25697559995812913 -0.20334231584395313
0.43716182893339534 0.94052099211377116 0.071384751280730963
-0.93387080076628282 -0.55439669735703268 -0.28322696880457715
0.087097278661012995 0.12211057357470279 0.075249446760616845
-0.20533936250149051 -0.14396526511236496 0.10156525418651718
-0.96327195424973466 -0.45292507079091904 -0.27647972093865159
0.12589285088061927 0.24437949318000762 0.034836651174381061
0.12383623634127303 0.84835344824068226 -0.067394320553463394
0.3504356774673163 0.80092806837517938 0.073350649403498114
0.14393279610587967 0.34831284803686557 0.098444473711915337
-0.78889552807389651 -0.68148042880338866 -0.07062375659527953
0.10150579421517117 -0.35123474535862154 0.16849764741192574
0.5840032176518406 0.39141823174956869 0.096841135922690724
0.52149151936951998 0.27405875581738082 0.014875977936461893
-0.72463796309944595 -0.45873686977167849 -0.18575103337021381
0.14388130787378528 -0.39396180782548951 0.068550474062008759
-0.47427508878180136 -0.47659237015795664 -0.0094756086352787428
-0.56736665282545229 -0.17862712027205319 -0.10938232449203789
0.57285369873777769 0.73391727561143827 0.044879019183656221
0.39680651021671931 0.055248379257665237 0.16231322389616165
-0.07008380801000047 -0.45553405241280209 0.0054023979082526985
0.090183845964885212 -0.4633100674247258 0.1843179058468597
0.44251592264491485 -0.27124043653968843 0.055424809409153952
-0.10966988876693012 -0.14809963965487216 0.069001920602694722
0.64843603035697628 0.33766814440242499 0.019855846245064868
-0.059390914899037944 -0.01481607670352858 0.064677919077256396
-0.49958390047996543 -0.61993780738557946 0.029070009034008137
-0.53742502465111963 -0.14621620168300442 -0.12354980835095841
0.22400414869545443 0.14111539267753037 0.026295689815068468
0.1243100561093341 0.56272725662253098 0.036702152885868755
-1.2601251466562167 -0.61296183701614992 -0.45630842303732128
0.65501814401689895 0.097289726697591394 0.0065705455983469108
-0.80890676776294457 -0.33771098590993232 -0.256421961149425
-0.21308445663216019 -0.50070358523728986 0.063274472535843951
0.18600701703221253 0.55166110518417111 0.067107106902772995
0.19170327597428127 0.28469131930634073 0.04217629856678573
-0.37302244756366909 -0.53113020825886148 0.019298196610601726
-0.14068258446003584 0.24194412567666812 -0.0075826649038940319
0.080827132576369476 0.14134212274702906 0.075154045941786873
0.55850038249439315 0.70986330141353271 0.037432795417268516
-0.90557695242843506 -0.44027770491448559 -0.27344368699265453
-0.85374364666148961 -0.49228861381124989 -0.17843286935931535
0.35799178142356358 0.34483475663116803 0.10168623629090257
0.26403340720054652 0.60525133633882944 0.062148390967817879
-0.1076815220549045 0.20403686169158086 -0.010391957746703095
0.5418491094850133 0.21947338208998568 0.1268433513034215
-0.10358846946849784 0.0078743206966003232 0.11552409880630243
0.39320793001505044 0.80795123225862575 0.066725178673176067
0.17713745794703306 0.096557557932789528 0.019529930423814901
-0.0017882827081931174 0.22441838172558293 0.016737573096382019
-0.40409470956223459 -0.20517992257161277 -0.10037962548617474
0.53567232478204918 0.37814152714888483 0.015521634377003601
-0.58764540917959729 -0.19285087041795002 -0.12467599135639973
0.15756580396122841 -0.023868864873428874 0.1131853456849462
0.43429732252097086 0.23289045677965281 0.12073223799372157
0.63188120600429953 0.25842041357778811 0.066829145214726826
0.55960009795888377 1.1661155025317274 0.045931034310582097
0.53302102706999377 -0.25234243529641109 0.040672819754475342
0.59949673219581467 -0.27376336343434893 0.12127776702367965
-0.91813528227325558 -0.60932405528499445 -0.22123246911052008
-0.51619189780749619 -0.28129884645108749 -0.1319008525961689
-0.59062370337124359 -0.51627691868671177 -0.11832765644411747
0.33814201074620409 0.39735724602013267 0.049359828677667195
0.58215148840595254 0.6325535972790608 0.015090343668862305
-0.39152474432532214 -0.38610917782262766 0.019166542764286976
0.18396673989325296 0.53621836992838556 0.074058174048033387
-0.83627838744457983 -0.36523329576572561 -0.26650769399247093
-0.41652593660153858 -0.60173897075653826 0.041400630728215315
0.60795323281450087 -0.061301117490738966 0.016263619240308946
0.52375822909029357 1.1134407682378316 0.073871759347617416
-0.17745435842159654 -0.54497589239059252 0.1003233849265347
-0.56614223848277567 -0.23920257162776526 -0.1040280513744023
-0.030126580557014171 0.20960990706694882 0.0094431321457860706
-0.25755241150876379 -0.27800786570600144 0.049690567953580511
-0.45918426377099569 -0.099363203423287194 -0.10479422736908139
0.38658723045749022 0.25989600539804814 0.11645525568548631
-0.17907448127181469 -0.10872361693495014 0.10845456634371531
-0.15989633933133679 -0.096324747871258332 0.046902317036756624
-0.12331955133589598 -0.40826099850379727 -0.0090646167689495405
0.072329729195381637 0.42948619325361781 0.01945598420604211
0.4663740462691468 0.97030933797421781 0.065767586480059648
-0.92467152341186654 -0.50304472137834577 -0.2421484115388487
0.57259678319728913 0.69448162659922996 0.064308480873412566
-1.0227352067531703 -0.72926929031967769 -0.18250895430899328
-0.39730892706834092 -0.24676534665026695 -0.0085424526806676671
-0.093966366401255302 0.036531752101859993 -0.013153136737044879
-0.79927390308764812 -0.58972624846080002 -0.16911878179892226
-0.40371052738051555 -0.10597750819050145 -0.099165877403205038
-0.2524834270800122 -0.49267926530817874 0.075831705343910483
-0.52539222402096164 -0.29544025178732503 -0.030899888143730347
0.46859748243720228 0.9753938471946817 0.079227503016903789
0.71069507795258002 -0.24690438687048077 0.055139194547059067
-0.15483836768147272 -0.20057929237642047 -0.046913254228512669
-0.60309432868174928 -0.22189827384243443 -0.12378098685627292
-0.66018488473452375 -0.50193145703389486 -0.079970071881374172
-0.50153590549408333 -0.23180871273109882 -0.0022997773661792564
0.14160432608346038 0.20969412073159788 0.074548106191014707
0.085010873702726808 -0.096180769476637229 0.10851936431313725
0.20330695630477083 -0.13789911538638155 0.020094367821572479
0.39230587228009306 0.3621461005694071 0.10546862992776884
0.58699653838412535 0.64659631488031488 0.014760927406450519
0.47759441832610028 1.015111450729655 0.085014000906375231
-0.40862996519610972 -0.47146128889829464 -0.10091856200579863
0.57227408409286384 -0.040492929997685945 0.12245063873044226
0.55810305959503836 0.66668930454347253 0.072529403607773602
0.53121935122311637 0.15239110155456403 0.13966825365935365
0.52501674905813478 0.22042897634269321 0.13226453786339187
0.26211850537715031 -0.19132019761188435 0.18095042835416653
-0.54361541889430331 -0.50822194367240359 -0.09403219113246708
0.36385418273095738 0.48784356399320061 0.062402278375085274
0.50791641496137174 0.44906285671915191 0.02697846147977645
-0.19002772818829763 0.17401388497647097 -0.021862730685656029
0.41469907414374274 -0.2163630950072245 0.18776119734804853
0.71962023977485656 0.11043414240909466 -0.0091088243592899465
0.52306233058492824 0.68643409638144215 0.050026900384886996
0.58477907833656362 -0.14522963464799998 0.11256383717104779
0.12382461531457362 0.12182646315943702 0.019454142502600913
-0.11465786858314894 -0.35206127692068101 0.088453452639978947
0.54076578668334485 1.1907884768077375 0.075202578647176666
0.36897250499020429 0.76353780868591481 0.066249443370333672
-0.82809335594852751 -0.34150570428208793 -0.26342158489620737
0.62423204138511434 0.59654691582773367 0.0019823438035398988
-0.16529558462951321 0.20520833956907825 -0.014552532255796558
0.60893914866129306 0.6979993559923976 0.023775193458317467
0.38114206412073137 -0.36690816379216329 0.18898523788506527
0.53499073569642219 0.47738455563863513 0.020588778232887628
-0.61603697659203482 -0.51601174430211594 -0.06763549560759663
0.16591788151508616 -0.066757042339689487 0.12757915117037821
-0.30805382755707345 -0.49510736120396637 -0.061968952411282197
0.080404112628667646 0.48182031927591451 0.043118956098457062
-0.065587642820438191 0.049157384948643967 -0.0067153252969637256
-0.53249139561093872 -0.48041866091626129 -0.035945777142760593
-0.29620895589544405 -0.51525302727992828 -0.037449872388761296
0.38288766182980927 0.078988737238303797 0.027471282848641976
0.064698191795977411 -0.08610928904241022 0.10372736415033323
-0.3164194095918465 0.053549123112830888 -0.021201912058624206
0.16805570576537879 0.31640737285957687 0.071770830152152909
0.49068233899124447 0.55074796594062336 0.037615636624138471
0.3798599481102064 0.49858908684052028 0.056633802311725989
0.37321897844661778 0.7165574626501825 0.069284936943315945
-0.22939483511646228 -0.31318820328300556 -0.050816229038541438
0.5974062415339022 0.23523510835875872 -0.0028106218611845257
-0.17164144514696417 0.063162820958895249 -0.025185297881506363
0.30865339651455204 0.41446413817022787 0.071683058949054468
0.57924025969257109 0.73157161954848471 0.03745238357568581
0.044366702642103351 -0.47929156522357563 0.12664041392540726
-0.068498855023189392 0.20772027426319761 -0.001068714380607072
-0.16865950617983858 0.14917864372485545 -0.025695686948230101
0.17251262489168337 -0.48202381728938248 0.14692680289035276
-0.91218811166009717 -0.37849307200646742 -0.2763083472084536
0.44065838658748668 0.96524285339778171 0.075295793221261009
0.62718772875523565 0.36457732842213986 -0.0089032309797841824
0.33745442568759998 -0.50150545269226698 0.20086995682871289
-0.48919654492210274 -0.23743843912063056 0.0083680870610390867
0.68844439114306943 -0.067338554530904982 0.071548954588377733
-0.94713956939309507 -0.63407283803068826 -0.19598266301001155
0.4080283998841252 -0.071090830026963703 0.023914029224447297
-0.48736107713459476 -0.12013677387858279 -0.11210714665208399
-0.49335248805546972 -0.42473126621041424 -0.0074398954338076306
0.11468273219621902 0.19270607550873242 0.076222212145961588
0.60873561394024489 0.098456429963875047 0.097755497081938536
-0.1267340162538069 -0.37764886956765065 0.089819048288045211
-0.70682042186074123 -0.5200725872202191 -0.1226262962535104
-0.024876962772734157 0.15851344540126422 0.0062192099328204353
-0.87182609549125023 -0.59273253974868334 -0.21189960416636067
-0.33140685457006214 -0.51883054119372563 -0.067213491726164865
0.64433891447886316 0.4524350032762201 0.0093141950425165154
0.32941142864036388 -0.51159666834131001 0.17327540202869285
0.067245715111515003 0.061824479417129208 0.0038905902632142553
-0.95732853461367862 -0.43665307494694394 -0.27486838235798933
-0.75912302150648059 -0.32682767944255564 -0.18959733292254255
-0.12145376848581868 -0.43239498513487595 0.032632056935842146
0.54448265849506061 -0.061963490301613744 0.13299186150790809
0.34811694514335334 -0.34603536924678258 0.056951788591854235
-0.79932263460535391 -0.51551191960795095 -0.15015081572159583
-0.93752000067261332 -0.40532043575768639 -0.30371052200573506
0.12980189647665058 0.26189185282857297 0.087291791732744151
0.50840642361186672 0.41245437337534563 0.024121320461007123
0.49788352871507746 0.15966148878268527 0.017590257040078883
-0.013260049964697013 -0.61471825324938156 0.17750719662940551
0.5908945637399351 -0.326407802718368 0.049513328328485873
-0.32952100772768878 0.038554344932725471 -0.032826837594685521
-0.03904584784923687 -0.30769101762272499 -0.012060678467438635
-0.93116515052792392 -0.48584426105619849 -0.25968739120751483
-0.46715369243808036 -0.19841527839034079 0.0070379235730381184
0.66154998531774845 0.092015943974901759 0.034510903867736475
-0.0085174739551642786 0.097095228853842919 0.0059033147863244428
-0.68452243936654056 -0.41709877602172563 -0.17516815742471981
-1.0289683294496808 -0.61879653007919588 -0.2831890737941607
0.41962906367132757 0.34643923090867834 0.037971347180669413
0.40075820430126086 0.81359411307623319 0.081697887607728004
-0.027760208648497237 -0.13898562243965129 -0.021384593558189335
0.47665077698788982 0.92761150581995788 0.062343991402698917
-0.29017109742201064 -0.50085601573995242 0.064852503309055232
0.42336197618288957 0.41570921651153347 0.040882329155703778
0.28723620615567402 0.048034198282499885 0.13699397347384012
0.38212499156582236 0.883518678229684 0.084650757004801847
-0.067446974471669335 -0.48257120176442414 0.098964378770751926
0.46697256074402022 -0.2724227882740573 0.17629946146969488
0.078786042557559777 -0.46778106230363847 0.10069864741073276
0.010215854434137611 0.50098085779563473 0.0078131714184160872
0.35555693745695488 -0.42948547869474762 0.10835974632473033
0.092529315582250776 0.20546690531135492 0.027116928019230047
-0.11972525197462386 -0.54918051684920743 0.12176037154874586
0.48300916462456078 0.91942451819839821 0.070956355061523202
0.51490760781142741 1.1358199610821018 0.08479954007672269
-0.12446620170550304 -0.075374560788297851 0.069366364465197616
-0.33763260557832642 -0.056685906668183739 -0.074734134184552992
-1.0122646639637014 -0.56715799599013839 -0.28435312593274065
-0.31294483168577364 -0.37242199745988469 0.041985927165641868
0.017511505294307811 0.39241124628449842 0.071807870192503009
-0.069904260267263346 0.19176376659239724 0.10806447325072022
0.093727371785202601 0.10366492206162325 0.015356814364305915
-0.53506664065837639 -0.35712443330051602 -0.044651015329504107
0.17054573135861645 0.21757700784005674 0.081611524048932127
-0.22460933864364063 -0.37046936819404486 0.064703004157113386
0.12891866135504551 0.11530642094431598 0.087013159816412111
-0.15190088062885121 -0.11638171964091382 0.086395208547581315
0.55020720676375046 1.1735235770571617 0.064184546042769963
-0.37505396503445182 -0.076879874318454888 -0.085331352188757315
0.058598237881837129 -0.31182275192869602 0.14711355143619387
-0.51213540524543366 -0.57205448538311798 -0.027282549362517061
0.17864693471455118 -0.073004498110019522 0.13445712087770434
0.72940877657515812 0.06758068041590759 0.01403708885866517
-0.33993502111435103 -0.23260711627450059 0.0081486137192301467
-0.0057867471469620901 0.45700266208773521 0.0085092823611325752
0.38676317977037511 -0.11647616190716226 0.18260929423253092
-0.9132525174270032 -0.50063513260739556 -0.22037615055347126
0.35960994211517905 0.46070289895613037 0.054265004109206205
-0.40500554969952218 -0.55548163093243763 0.0194743848046941
0.5925034776209398 0.11963802731717776 0.11196279726547687
0.5352981529568519 1.0713241941630947 0.059202437740681735
-0.45112085988071648 -0.54213985767721462 -0.095624608388646282
-0.93112112670633695 -0.50338713749532515 -0.24064963468341538
-0.57158362678801 -0.32601306986067646 -0.14484713571732388
-0.12549513046430322 -0.090180227542997926 0.10238974050240335
0.1520838247524926 -0.14577915091017957 0.14632056655852499
-0.47222414030828891 -0.49885724892550143 -0.0012619075272390923
0.47043832269817681 0.15840555506771725 0.14817973585090516
0.43383101030497206 0.26983163886814721 0.031283751996558085
0.50332845100744672 1.0614103458925777 0.063700672728073726
-0.88396285756368553 -0.46247329878276711 -0.24772783387682029
0.42130675378667581 -0.16163985825232596 0.18565050237682112
0.4333257145747007 0.56643978147108287 0.072727031487704097
-0.39654025375885615 -0.098532419198620991 -0.0032752640207414085
0.63175822015954275 -0.33430206682751151 0.067635615428786267
0.40803899092370427 0.34271047040488178 0.11006262190621063
-0.5345653423019846 -0.62704208209147883 0.01745528076096825
-0.6645476470124827 -0.7160542031027981 -0.0027931045200784155
0.083070232798219651 0.68434326971636095 -0.055057647986832325
0.43483685044824394 -0.007201312934038917 0.02225235135339021
0.22284508203619655 -0.57173850331817166 0.20955165389766139
-0.34277454144344277 -0.041977155087607132 -0.0720706720877895
0.14833412183832695 0.68122133351089098 -0.004885166271684116
0.14040060248638819 0.72258916139577867 -0.071005923761154166
-0.33416928786372191 -0.16925161564082791 -0.076987989724405903
0.48142198831881799 0.48613096909254883 0.035045086966939976
-0.04907111371379988 -0.15176999475552733 0.082955817890971728
0.46800612445932815 -0.31189873980411309 0.15891969675157902
0.095502904131423011 0.81053565918382819 -0.068745544305485518
0.5028918411666583 0.19389571867679956 0.017316553085302777
0.19280760050477416 0.42015056222514158 0.071981171824147094
-0.29232639134094041 0.08993929248694954 -0.0072879954825395554
-0.68538671507436599 -0.3274060843455473 -0.1395086920018469
-0.54353735095464473 -0.47763095902386965 -0.033196564334722845
-0.57165211694281926 -0.19428163204953197 -0.1395031950099701
0.2057414430560667 0.203179234437731 0.090232154922487595
-0.92568297005927014 -0.46239380311461953 -0.27142688024043016
0.51600003608423095 -0.28436800291336839 0.14379281967931712
0.29377617315612414 0.38423295652695733 0.051295067950999917
-0.33224624957157373 -0.062416076071372784 -0.075755256701111939
0.26387497326893955 -0.43020085987463552 0.094031316258302411
0.34613301082121767 -0.39381801218858947 0.08107452846695018
0.13172767098120691 0.59907109946954029 0.0049355363700409605
0.18822523337585351 0.42578400271291383 0.063700404079525375
-0.036758550604900964 0.37284618450531659 0.0092844917688919004
0.23011925128940161 -0.54531994609190282 0.1827000532805968
0.15717774584863101 0.50802204444059185 0.058343246902396895
0.028444832602168013 0.55921425373063594 0.0030952302762122796
0.55158414024439051 0.6261866717141622 0.026550042429664966
0.29155386295260577 -0.40535542957127813 0.20655438668479043
0.71201267844816785 -0.13315815615537696 0.066997538601423656
-0.60801084113910842 -0.25604213751624316 -0.12548711380942967
0.53177288898320785 1.0611667039890555 0.048259443864403839
0.56903419843140446 -0.26213207917655579 0.035888338486353533
0.44772722057652525 0.10837432837224004 0.15674801971017405
0.62465597329316491 0.24533746059593575 0.077236088313359041
-0.96614556086790992 -0.41749964104506176 -0.30647662596110875
-0.66905333429054181 -0.30154497255174206 -0.20301203467492096
-1.094614264034141 -0.67455519160675503 -0.2689443836316654
-0.5918366470222185 -0.50212032720988975 -0.16596099035086376
-0.57224576083320844 -0.44739501432209117 -0.12429033771752662
0.30458787201756232 0.07046278585268051 0.02770399316755312
-0.78342141088133843 -0.50153826646328148 -0.17584667210903204
-0.69337834369714568 -0.45057130315798544 -0.096194639848857788
0.10797271259133154 0.29237199214853882 0.044286677942546704
0.5604811198678209 0.45873352405586987 0.090596229806137352
0.042922776580370858 0.70664113731053657 -0.052103890798133101
-0.36759105873964715 -0.23771606356846031 0.0094658479498759274
-0.19902825943268004 -0.30558615262452304 -0.045964756190382761
-0.043876936741959777 0.35232922838202341 -0.011385290464435038
0.25477162516265428 0.20381587940243651 0.036147236189728704
-1.2346322933884994 -0.60090193622490617 -0.42198021601629804
0.15562539117027102 0.29488596376706222 0.044475781442089857
0.4413701134933733 0.4650227048747817 0.041260347599883396
0.10511981657772865 0.1151610390286697 0.019766473285177777
0.40700890116548094 -0.47040066143238812 0.18385541427084073
-0.83838019435942834 -0.55936210022339683 -0.18172209459038613
0.1544827894979626 0.76458933665655726 -0.077257339537286418
-0.30599514275325274 -0.2127373479998147 0.033610415600752619
-0.019445276785562349 -0.0042995564746213244 0.069107573453198179
-0.52309720543473071 -0.44903774106968219 -0.12577910390389402
0.5863581670227167 0.15902249191870443 0.11107727340360485
-0.58314388533593475 -0.5890771657975119 -0.045396623515376655
0.16253712580221732 0.30419877260591455 0.066470532482543532
0.48388418987748105 -0.28420998277705845 0.15762380635946815
0.45331806477396108 0.91025996725790126 0.076336319271410602
0.63383711791596464 -0.25555059356132881 0.025002494501632166
-0.11971676544377416 -0.064265681431265875 0.061517453219304907
0.15051450045590412 0.31950460530815383 0.085994532353042996
0.25878752737934257 -0.42890450599748109 0.088120679259649726
0.49776736749911682 0.64608860332243312 0.070968200211861343
0.47091978347977109 0.87335923253443792 0.073388488996083856
-0.10169379893235642 -0.097848827697459617 -0.036748907325290792
-0.0026162793662138917 0.4726455301260466 -0.027172256692260532
-0.31786004874086582 -0.32820989058070626 -0.055848948584919955
0.57417087719311311 -0.11645785046011814 0.12654146317471526
0.17662346980061802 0.37845061084456488 0.084163652108427689
0.015857876333574272 0.53360964559490909 -0.0589522659359909
0.26013946293217299 0.19167889604830801 0.10388020982818325
0.27532550100299252 -0.55339229553462221 0.19524470428035667
0.087032428693469222 0.071131356174474636 0.084135878607667469
-0.1202480830996312 -0.47335453274270611 0.07769339683084453
0.10762911828237851 -0.22091104475745138 0.011727512977380394
0.58846336580301117 0.48592512237843044 0.0026316019888539266
-0.51512177253529379 -0.69499644582400599 0.05333123480558144
-0.60135066372004875 -0.21069757742435991 -0.12908592659840989
0.15000534370425078 0.69906951807611817 -0.0052675446920825153
-0.00037138169224604223 0.12394625757039224 0.094422902403715425
0.43576352674999641 -0.42628002568865497 0.17453134599740638
-0.42359819933226472 -0.0499319846410331 -0.062178896051783172
0.41946101527042268 0.20989541595805306 0.029106525128331118
0.12787880369863153 0.25636855919280221 0.037552359330226603
-0.38787657338717502 -0.49961597528170032 -0.057349601226665881
0.26273405761896557 0.54782004015382024 0.064744241376955114
-0.30405943507489608 0.051431358817556339 -0.059825462030061116
-0.43727149895698758 -0.49578299007387594 -0.041206626294553295
-0.15925436113621463 -0.35632519447801969 0.079228076238517131
-0.010306945748218943 0.477095954566777 -0.0065970472858823959
0.73368539777505071 -0.1942556170123062 0.033556509818203573
0.50508553293407754 -0.40523909991899465 0.12832758988484616
-0.041425832347613961 -0.080131533591384363 0.076026398417968766
0.13249317823666049 -0.031872192428718416 0.0097857151617333216
0.45547782801886588 0.95774989959401191 0.08371842532574858
-0.65678175426353214 -0.48858183942167255 -0.10028722591726646
-0.60102185180982692 -0.43670038956162238 -0.053382033454421496
0.00078762849983790573 -0.28607915211893253 0.11800237668318891
0.65635134937453077 -0.0055642161692923686 -2.8778497718096041e-05
-0.24913449092972068 0.15613050887451729 -0.013032521010242992
0.084625447568171558 0.51695788821907152 -0.0043893990411758566
0.59788412888690301 0.72450515489736933 0.031565640633385961
-0.85798060095017081 -0.49024431011462033 -0.21469351679221305
-0.22890458904506358 -0.11284080246561756 -0.045154987112985157
0.079810184693907799 0.64397315764811469 0.0095761749507233263
0.63431085606533688 0.52579124946821154 -0.00547528469706271
-0.23405030549437636 -0.17570688664055722 0.059065173994177544
-0.35933536673025596 -0.64860240908804345 0.1041883076484813
0.53103129865504961 0.68289277568046036 0.043630878907866988
-0.030591831904995259 -0.44722638067150189 0.086997820217385557
-0.84605103558498429 -0.39803256335387083 -0.21027935923664809
0.10543210077305049 0.64914918962531187 0.020548835186852576
-0.78863378662120365 -0.4548555580606749 -0.20254810195722861
0.57152959492187061 -0.044210099796013314 0.016684292853692106
0.60839041908565328 0.24631630685142136 -0.0045530163860036943
-0.15849094742321437 -0.48412329342972749 0.071680642789456073
0.23369525315994544 0.50101332971125245 0.064289385078887706
0.27091107280761501 -0.41809482244706353 0.067532548749033028
0.40018545696369834 0.87096949209793051 0.094537609733706396
-0.26932237656231384 -0.46227081037205908 -0.014678276102104038
-0.77115724256136775 -0.74008039720617824 -0.028707747881481893
-0.077330360842442658 -0.43175984710041648 0.058842050976044113
0.21524123569948297 0.32323618796927933 0.071690761372744882
0.097527184597954841 -0.1965964813775819 0.13862893416896593
-0.53041544612967184 -0.16765034340366181 -0.1370228935502632
-0.33777344233297035 -0.20223462619286414 0.060061407559860891
-0.51860211738167605 -0.16099212373561489 -0.07295713754586497
0.52218759517287583 -0.28664837895696649 0.13773939092142318
0.052618796000785062 0.45432972595417986 0.041329437092659904
-0.53562598528725125 -0.44528287070592909 -0.12209439837578684
-0.43472918381622505 -0.39547505256025295 0.010063759863103705
-0.058399367012128361 0.30110698992342488 -0.0030102529931155253
0.087896128697781378 0.42285101905074529 0.033648401319209875
-0.83313351469212327 -0.35321272758963451 -0.26538303380812028
-0.52366766428182121 -0.63086107820843595 0.0055303152807536504
-0.54379727224808183 -0.25532950226941076 -0.15388409511039614
0.4469810842798207 0.16959065736949475 0.024191895239663253
0.60088514202858079 0.33005672240265693 0.095138965050528657
0.22686955003328119 -0.25685731107301435 0.18201178379475602
0.41103492962496513 0.82181566420942453 0.080643401376406465
0.30865541248158035 0.21875526884984908 0.036233709733974107
0.63347905975502716 0.57036611455730446 0.015707687527987124
-0.033625881431020049 0.080301340195233717 0.001021952919359137
0.51673689079484875 0.99931523358739494 0.052563246575763056
0.037574201484909864 0.16005331687205593 0.090759203169325176
0.42486673659007218 0.3675713002523282 0.038986266676967363
0.093524847739277328 -0.39810684037782484 0.074073769084321839
0.59442223286652573 0.33698958858039729 0.097835572614087374
-1.0949480134535781 -0.70378374574826941 -0.24647826821363339
0.5052863544336077 -0.046973532960948194 0.018945182948820971
0.087377612949577604 -0.33460205173695079 0.16177517719413892
0.53777610055776282 1.025294681309675 0.050794632052172106
-0.91779915113607158 -0.50143352986797207 -0.23080844650648136
-0.080710525978525655 -0.34078620599829246 0.098186352174788549
0.52950384560720154 -0.29821786871053613 0.13043761169427681
0.39253351738617426 -0.32330883596512427 0.19334192845329834
-0.034019911871477293 0.42632092643220787 -0.034226751753186901
0.056161579650770149 -0.4311327306803584 0.08376000973495501
-0.63425877882035686 -0.48663971040962528 -0.064373851599897836
-0.2632465822636591 -0.080008256058152316 -0.060226655107143423
0.22270608435490757 -0.42966146612731282 0.082300222861197314
-1.2926080193370335 -0.62742433736925851 -0.45224264916251278
0.55338815224650784 -0.33225465662108433 0.12919234956945902
-0.59555962313070965 -0.51992990475311918 -0.10364556460479701
0.062444689445469687 0.12986977072027828 0.017524239548516674
-1.2323661496943139 -0.63903314901830943 -0.39514176561251757
-0.22569698760683199 -0.23580118276340634 0.050267807621995786
-0.63316162510019336 -0.31153911202896956 -0.11473290619807996
-0.094567794937814809 -0.50610573943336135 0.10453489003137384
0.31421859508826455 0.66118751205215243 0.064716093875837322
0.63687745865055478 0.49217565247741901 -0.0066590668574330047
0.24372521688561477 0.28494420863889647 0.041911075545786214
0.021284292082793588 -0.45833624072000345 0.023318607148984372
0.39057306006414982 0.50326295059949855 0.077294017590134656
-0.79491107125483595 -0.31231392838365668 -0.23412725643917587
0.21057818719944146 0.34010738342444746 0.060566123984242326
-1.0835241769633486 -0.56179268956752049 -0.36093479291997288
0.54033227724677291 1.1540103970864541 0.057389105539577101
-0.0049805539829043954 0.41556619142218687 0.021605742688878382
-0.49991931391563477 -0.5498011593454486 -0.13366933795073221
-0.32136475878500625 -0.17791806689926493 0.066498931475110989
-0.64958625797779468 -0.43397468060580702 -0.077677062351744874
-0.55145344622696446 -0.23357930553228945 -0.084911786070559492
-0.52473818056847965 -0.43751278576461494 -0.018581531942618246
0.6387897206714398 0.33811713891273998 -0.0093314699828414005
0.06891122191562471 0.15744446265775314 0.020056919015962404
0.15439605765279746 -0.44132454496985318 0.045899355833417421
0.17173290316342901 0.11761413346725647 0.095684393427751813
0.49296557082343329 0.19518542479351031 0.13915434337236599
-0.79975045061053762 -0.39772077434713293 -0.23570314994578395
0.055559329377869116 0.25546643231736921 0.11586109676173029
0.51520558424136753 1.0241426782686038 0.064627396482467847
-0.52767615050347239 -0.31444532426950877 -0.12771817828408316
0.68442259644186909 -0.0082445869098044522 -0.010431352628020196
-0.011481195819382589 -0.60950986725370626 0.19408536836418822
0.14345209847916296 0.61052735177921069 0.030850847266344128
-0.16837660763500989 0.041071538620573556 -0.031688706290979751
0.26018858049029869 -0.42435832053027822 0.08256228324875925
0.26889835609858276 0.29131036884748451 0.089417884754014909
-0.21541373722750512 -0.67931976218929147 0.1738098303827923
0.067806466328255766 0.16140716906757313 0.020687353970560873
-0.048382127769340116 -0.61836204690583663 0.17084426581224932
-0.04226140713835147 0.18902462917173812 0.11716655176477897
-1.1524099572442565 -0.61415893605137406 -0.37810924734545992
0.3836318656188682 -0.28946899203841925 0.046236186712135141
0.54956199050027998 0.59710880639383057 0.083018273427350575
-0.11050389265063681 -0.074884503594773832 0.096255584565254959
-0.019131753495874954 0.12192640304559221 0.0046937808062487152
-0.50517006892241378 -0.57860395147765498 -0.019419985007498863
0.60197668053145148 0.022680051268546775 0.013340980245986511
0.12214020939405359 0.71625122313654765 -0.079033438009950552
-0.14416356824885918 -0.68509206524361155 0.1907623690534247
0.55921319237988332 0.41586092824775522 0.099089013297384732
0.084798422850131006 0.28385428757203135 0.10788381692202775
0.45401817217506618 -0.054044585534086975 0.023251527642868641
0.18256527597311614 -0.22991152478185906 0.022196645769967938
-0.09662408901608957 0.31944953370622642 0.023962185110346201
-0.078716863242254159 -0.42438865831091088 0.041628618684532936
-0.90606330591094153 -0.46090377097025004 -0.22651158274370931
0.48422998641827253 0.60791503751316434 0.047279207641581666
-0.23979151502936591 -0.53521690320487425 0.073194623818573001
0.21940625793166466 0.20469897385362534 0.038159963089913651
-0.45794874853664091 -0.63497920747339176 0.052829394220876624
0.45401479311708359 -0.34918609888043217 0.16266240087746908
-0.87357505382479772 -0.66093438592031173 -0.15292822726663835
0.3433935294779546 0.054251823043617087 0.027944773404582124
-0.10355034461257626 -0.4314371107762468 -0.0041085787853432088
0.32915839329687091 -0.53926472727756791 0.19574388733062575
0.16294353721070443 0.49358364052991077 0.098343328929543894
0.48405690452967431 -0.085794045038683153 0.02235008363704305
0.45076388767075959 -0.17242487048650745 0.026593911376031953
-0.97188924782822217 -0.58590999493915408 -0.30209759142522374
-0.38143122790224931 -0.33907950793899466 0.018600668471045023
0.16531293445536061 0.28662949349583688 0.066949307563759386
0.60464341388151399 -0.17827833002742621 0.017954054887298621
-0.096725767458923972 -0.5954589826606228 0.17564703441065943
-0.45449687728149402 -0.70496201602125563 0.085314275192689637
0.044537074499709201 0.5912853470046695 -0.074738592527257175
0.58273735977638996 0.08337060458737966 0.0067911766708693699
0.066113718503288815 0.50177366754629604 0.036372375426069636
-0.93380656227436754 -0.45349794114625064 -0.24824067969724933
0.36711493286041386 0.023252989164328719 0.16441728302003533
-0.3983364609135171 -0.11129751260771448 -0.10034089408757285
-0.54924759223350339 -0.16837235040578424 -0.096780578773583148
0.39354973538956528 0.17083696487994349 0.028868686549895051
0.034735612593960713 -0.39007420495571854 0.15469519860955461
-0.69973575109096198 -0.69069730756565684 -0.038820292710339821
-0.44977193439781282 -0.59681116626085873 0.02222213436775633
-0.71199902832698225 -0.29192212979842658 -0.17719058384684749
0.29286920562550356 0.5868003052231312 0.067883659065323454
0.628621246964433 0.42564555973953389 0.056187365246363363
0.047357825274310011 -0.2921542582083706 0.0061191390284391911
0.61945762373920776 -0.19363106440529332 0.10757935615225622
-0.3966757728105153 -0.38539452930409124 -0.060594351532836321
0.23664704306255585 0.23221553955348062 0.092172975927103273
0.64209373964355876 0.1923686429845517 0.0041185169882733685
0.62296396552564448 -0.11246284040115484 0.092127514327260518
0.22883006238854994 0.25835563527644778 0.086880310187939624
0.16880337206370649 0.31508337381242635 0.055730498670341633
0.59043104823726633 -0.10044943406672324 0.11458192218938967
0.39669852833667318 0.90127309428097124 0.080434414460437531
0.51348799192395922 -0.10259013090536584 0.15025126078971385
0.025898950721439523 -0.24899338102611046 0.12108987174884689
-0.47451509262535274 -0.51377704933007073 -0.038974516294406403
0.58528374073942568 0.70110026094547995 0.024022661911469068
0.037854765951439412 0.57895027416058675 -0.069650444689743574
0.48136236894100598 0.05849351849574802 0.16357590620234941
0.30264113504359297 0.40754200298814602 0.056461036752534444
0.10883037275375174 -0.48826595987000587 0.14779371047802392
0.33253715280991497 0.21374980057082538 0.11447948226353533
0.62590927606011681 0.017043563097891345 0.071566591610006669
0.14713727318484934 0.61519057306053426 0.01887033737551469
-0.97550731340294061 -0.71804045986073373 -0.15436348412794854
-0.010565616006088602 0.38849638847828394 -0.016290598591092942
0.53975498523282028 0.70648534037523358 0.047493803367569365
0.078492340240252562 -0.42857088723012482 0.02705587315548541
0.3804703291961446 -0.43558596846803288 0.1073006286014121
0.48633715730392707 0.56980756337663063 0.088228996906743462
0.62399460003762375 0.63844409819314918 0.019800939739700762
0.51165469582772927 -0.16629124714113919 0.15317646375864313
0.012000957486026337 0.59670365639772838 -0.025514814993577828
0.52146222920906027 0.077480831748965917 0.14725677775375268
0.70948580083163981 -0.20767319500371983 0.067096753490155203
-0.26988419050984014 -0.01831772741667903 -0.057267204101850266
-0.95872499146425583 -0.63793718310439873 -0.22079138068527893
0.1498326546375815 0.15129881115613664 0.03006285706187839
-0.73653281605448628 -0.49616427319454581 -0.14080496560499467
0.51950861524967862 0.061550055227645339 0.01519117848171081
0.39995892731289762 -0.13598990414035628 0.18326899500953675
0.11193669645769069 0.73372187331958205 -0.072104293922522211
0.06507818454495376 -0.39740046719920297 0.060623115153106921
0.27709583156768347 0.38866863523578665 0.06513120069502043
-0.5842189683288157 -0.23221337204657144 -0.11082628944733708
0.54650068647108163 0.69906895371858035 0.066567453465460891
0.091320447779507263 0.73956300851629431 -0.022316417808682931
0.62751765794268022 0.60176075394502182 0.0082924850997909694
0.55261179690803752 -0.026061917050736794 0.12953996281587332
-0.81286523106919917 -0.34618506967771034 -0.25928189950076425
-0.12630174132244684 -0.32442084357540746 0.082853856901607736
-0.21162319197728893 0.15274399479571055 0.040187849777887918
-0.50297994428890569 -0.15347682953539521 -0.064489717818951187
0.15122549547840533 0.68833812447464005 0.0065699105537512237
0.56761142707146173 0.1990803705410118 0.12435722767185264
-0.5620099425764209 -0.27445833774965034 -0.061358258286746681
0.16278206185296015 0.29583592665186575 0.075810719271393712
0.052666702023795336 0.046356930927365259 0.079600949159988943
-0.13603629552195701 -0.48190842801849509 0.011253386656225328
-0.57840087231316351 -0.19901259301597185 -0.10725992324646427
-0.17683066097521399 0.075154938688491768 -0.026811008464413533
0.31043516341257749 -0.38936420108016745 0.051993864218274011
-0.49641902893106016 -0.60316997578497689 0.0010453598206470183
-0.60898896970850191 -0.3715979402419618 -0.15134925013087219
0.46501601099272427 0.85859573697229452 0.067394230683171075
0.73073323560347303 -0.18086742656144306 0.0086617310192946828
0.60794953528991069 0.37679161318134913 0.085814188529152013
0.60774197547720066 0.3956658002885316 0.083729298112435568
-0.025618069616802575 -0.57249363704390699 0.18204606118365696
0.5957575376844938 -0.34652568676844464 0.11497080335077359
-0.27906160305219074 -0.25721648410911757 -0.051094161816902073
0.092251714807393359 0.41958063859024985 0.037500312782501877
-0.26080435076513131 -0.48300131065102347 0.034018836510165906
0.47668589267503814 1.0539971335258715 0.090679311635345317
0.50436313661857812 0.50078770009259221 0.097795643949438404
-0.76210339098304303 -0.38357780491568616 -0.16170988268472553
-0.17831581539171365 -0.36750571265018683 0.077056838283179441
0.62020183918236793 0.27088463535818974 0.087234701914084001
-0.6194945692317434 -0.27729307661088121 -0.18385392645063509
-0.46432513062625252 -0.42407599128594387 -0.095836536395764504
0.56972661334218677 0.1210802511605602 0.0089348678421652394
-0.45942612578646813 -0.52868150745112097 -0.085025418851194967
0.45218617639434183 0.22545438159893672 0.12746516106998129
0.55562213645624869 0.72429671704033605 0.05634012938644295
-0.91384267956469778 -0.38143306402613875 -0.28906647452577716
0.17574416353788744 0.23965490823294666 0.079045588529093602
-0.57741292627337115 -0.55695968459106693 -0.031027692815406294
0.44700793424048713 0.95060848771405171 0.069512364085344058
-0.82766259388517616 -0.40372855813139186 -0.19477226793239566
-0.098189503798428723 -0.62272567664794387 0.18422082420215014
-0.92444463958970824 -0.60357284644579168 -0.23228678331515951
0.41045878531429708 -0.32237216100516597 0.065244330422613239
-0.053430123108952926 0.32064118310248735 -0.0037087939088393806
0.3782378971335647 0.79612480017116871 0.06691406485867768
0.73045887024647749 -0.2010423659203231 0.044174809716030716
0.15394876094558399 0.80489081855513378 -0.037636423428069332
0.36893751104504235 -0.036571271058352117 0.17199033508754669
0.37666802210790085 0.1363831433245728 0.02893515777425304
0.59338059897632989 0.58083617452386505 0.06742796791978134
0.44028826808735289 0.92310386637809017 0.083871444042684928
-0.77845483596293108 -0.32240177078763466 -0.24660433960864631
0.34276377960760485 -0.42874662555708842 0.098076183699880581
0.18086265840061747 0.83838832531431406 -0.061724631034981881
-0.36757299475814054 -0.040866631183152258 -0.079882469562071123
-0.57610947631950926 -0.1923132267379104 -0.15008384209957226
-0.79856715358426666 -0.50483245168565138 -0.14443111259442876
-0.95778939013665976 -0.48798743766515718 -0.2631386372564456
-0.36545877639144919 -0.39731496941606292 -0.07037010950903011
-0.49207335864682406 -0.5921770804433617 -0.0037752928539395159
-0.15631013858666357 -0.44012922928249898 -0.017239119905271272
-0.1291428272068417 0.28074367841241155 0.037555496399101274
-0.2245037000823156 -0.45373286885598008 0.015671563855283899
-1.1061078526724191 -0.64099464297478548 -0.30358430725695407
0.12193342030581542 0.57734333950810957 0.0039867214147705221
-0.21660765655763767 -0.41760250371374397 0.070613708065499825
0.56504235580949635 0.69229074714160443 0.030249927890030337
-0.59341416561413085 -0.29363277724180104 -0.16900824822766591
-0.11168381349080903 -0.38532587819409325 0.097465578680422382
-0.084722270696828916 0.079815521877021567 -0.010065044449415805
-1.0378654521297632 -0.65656374236008075 -0.24010535764229557
