# XYZ point cloud file
0.089977453846984246 -0.13529353967088964 -0.1310303633998553
0.23587387373733587 0.69886319485516291 -0.27549665676997925
0.61518406281477522 -0.21635112076358198 0.62662308826707658
-0.70651308328132967 -0.74066385897056319 -0.33593275897327657
-0.38864760007627319 -0.083650614264392464 0.77661182284702823
0.25031539235328115 0.96964812103388076 -0.28969890730963677
0.099501831068465857 0.6337365005828457 0.62136572648526811
0.24296543582311353 0.65445571106507616 -0.2595124532606301
0.12135360368997719 0.6853055619885986 0.55513318699625436
-0.37432353358211357 -0.44248263711038471 0.2416946694274098
-0.26100227555032535 -0.10919301815361848 0.7420079512502229
-0.60267369575910124 -0.64336501601167195 -0.22813472031468618
-0.43111230913775311 -0.35506666937455234 0.46572734767620561
0.015746125188064786 0.93172644783331338 -0.38191370777521194
0.45529140233745108 -0.18633176801728091 0.39504984593480685
0.18842051180183042 0.012442660012242257 0.68837951683099474
0.21684038396160549 -0.0085776917223570059 0.67727885134902788
-0.59638570074193431 -0.57129347142995934 -0.22186380549249329
0.04858480197494168 -0.024760779145217793 0.76335671204727762
-0.67192010127550172 -0.58551804921506023 -0.31615545607718554
0.63788758822110914 -0.30133955005270852 0.63998105092194013
0.11250081349317587 0.88893804940045618 -0.06729684274916603
-0.16652986679247572 0.72966678546690811 -0.56131867983671735
-0.061383905065669181 0.38407154555385481 0.73339266830892591
0.11022106335303314 -0.05779490646798191 0.76406352963289337
0.22988340168883165 0.62051676418455726 -0.21232131982656854
0.071041135540534706 0.53313664584730325 0.62450358501339753
0.41961495115735059 1.041095136335189 -0.47470348077001745
0.036538913082759694 0.52178162701613728 0.64793016852118446
0.38148381476505416 -0.31555492393413997 0.41235625141663379
-0.60670640514778618 -0.25866525205681623 0.1329507804944523
-0.24499495081700573 0.72763946947828195 -0.073531713141500754
0.21928630636292901 0.03232535899758604 0.61769377711350126
0.45169047716738853 -0.062146639351837507 0.56585217146322586
0.20028695242200295 0.64332987172656786 -0.22098219954075593
0.36229835872144572 0.74242638313585196 -0.34761650594094662
-0.49255413553751282 -0.41150814207309683 0.33394823198967294
-0.091148445344284013 -0.011091426837611218 0.74680280723758041
0.25827938174651133 0.96726648294107265 -0.31685777826493289
-0.42776573206593288 0.2080689567988514 0.62059783020303705
-0.75328237748132909 -0.7652473977548051 -0.41599259353077289
-0.55729517282283281 -0.061813430490464505 0.62603417536279449
-0.58589445856919253 -0.67197368995614837 -0.19923101022068446
-0.28135836195613989 0.23329523470807456 0.72202689500454464
-0.44422482172244615 0.29555292161737645 0.12019073852373574
0.096032253070857332 0.75819312896891944 0.24445514502741084
0.15397373125281563 0.65469276847050906 0.55709751834543175
0.079688849749942336 0.012387673163471558 0.73444590254828801
-0.66319348568030589 -0.59382569737303292 -0.3154075807625516
-0.41587088856845639 0.11561556042672194 0.74857933133479038
0.6700354574561892 -0.35261746039349839 0.65243894893357601
-0.0017793484259281539 0.27983678691991121 0.74170053410889947
0.56768805068607309 -0.32805485436175075 0.63598979635786768
0.14738820357832544 0.03237520009160999 0.73862253909733433
-0.67284309773656359 -0.83971844536821849 -0.19310318603897514
-0.43484136378670257 0.013324871001275884 0.73698703380433983
-0.55044827849029909 -0.53071471474902054 -0.13190121687465273
-0.49087037473590206 -0.51855857746958689 0.028600354646715065
0.095722746804149911 -0.18134078028138267 0.69718301661649462
0.37323773724693887 1.0673656122072526 -0.45753039985222821
0.26012076665072364 0.70927859980317942 -0.28466542099089231
0.20357870640113937 0.19355323521336998 0.4939604847545177
-0.58665879943154142 -0.17234473829963814 0.12781480541405021
0.22379282802077721 0.42999627567523002 0.29724816530700915
-0.001079506670128183 0.17339268772040128 -0.48394832926258879
0.037054870123348738 0.39630570904320628 0.723037547275998
0.10047158258030983 0.6506335304052342 0.60840609477219076
0.048234464011665978 -0.22387010485095193 0.63825206837644288
-0.50414735474086581 -0.49745471537005947 0.11869226963343649
-0.27687529165158309 -0.095635515392457737 0.74958686270839947
0.46205655956434138 0.89278058626633228 -0.40297327188283694
0.14056326005305578 0.052681126225118557 -0.1222009674335971
-0.43277170599832099 -0.58636152777207284 0.015930295317408083
-0.70540446552720515 -0.83801451891704248 -0.31477770178640019
-0.4319022284415166 -0.1669884979670615 0.67851510056871556
-0.10984016119541004 0.40585358059986376 0.67741778968201505
0.21558913359953913 0.88493592826143797 -0.23726067543163154
0.21470094777545928 0.65729384156377613 -0.24651080778604628
0.030098598455111092 0.2575744612093509 -0.45892733448442269
-0.66243397308540442 -0.72596314381536797 -0.28227508746000662
0.013618564970492214 0.56677733839691169 0.68043867513598866
-0.59473610726790604 -0.60956257025198712 -0.2285151373207448
-0.068647024945727761 -0.2892200110523111 0.36133938602405802
-0.25605692672390407 -0.057295847907368191 0.74936408882168115
0.5669897805249402 -0.24706424247184922 0.66706390970357554
-0.29190791468494398 0.11773767274179048 0.75946566725076825
-0.22591964027677708 0.30243128000384178 0.69531111126979961
-0.29172349583686047 0.0104610791944173 0.8062332205428937
0.043102295276530145 0.83339698688890218 0.17670573931039379
0.26670953290653443 0.00072326422137747315 0.63238466449666753
0.76111285264107686 -0.31248827514916688 0.44480549915618417
-0.54176623896304887 -0.60046959857426141 -0.1567481572447631
0.51837601846587333 -0.19725566933430416 0.39703236455048052
-0.13087565789539124 0.28508757501519821 0.67657845913884362
0.43040416224412237 1.023074440287663 -0.37947501264330175
-0.31044234467999632 0.50980760601867825 0.26388719392184312
-0.63122091112501688 -0.54995555799322693 -0.22597385049911134
0.22646147544549633 0.46144152503514535 -0.075424537946064962
-0.19352747172284337 -0.28996365022604831 -0.45764279119921447
0.12232806902010893 0.60150553518069128 0.60171038263557064
0.78971275386743378 -0.31666877697723828 0.48604621717593177
0.013105682185586595 -0.049318777826320881 0.73429681995920149
-0.25442416920462085 0.041326104787342111 0.75948089043159417
-0.14295020545061904 0.47067241852461983 -0.65331207807147984
-0.3070802531037739 0.019511392054324173 0.80629827799434817
-0.20023065351794564 -0.020786082137470796 0.74925856142012093
-0.39049083303108373 0.14633627307321873 0.52050528380487737
-0.60986023443422388 -0.57741164809163803 -0.33304006352440441
-0.32919095836623086 -0.18427468239893452 0.70799354285156424
0.57606817176385394 -0.3569895837872008 0.63707374310808973
0.35990225306598328 1.0803614030340096 -0.36423407366637939
0.63065082850719811 -0.17610510482789721 0.46098166627759929
0.41701807891726322 -0.40599546927325836 0.6970830591993058
-0.28729586026995974 0.056048373256767592 0.76900222363250181
-0.57352048981610415 -0.098653593929812544 0.64102733640478382
-0.58072788086686822 -0.40596126469663774 -0.3149063666530747
0.56017115714622256 -0.36744093642606934 0.6752725884832218
-0.046552108949456897 0.44270630541104494 0.70347846918714274
0.33162797463022781 1.0448526587885754 -0.39135547658374792
-0.24852112850439789 -0.047618328338177918 0.76086324436448072
0.033903370706856145 0.19774154640906061 0.62595133564835714
0.63978777915993801 -0.3546877776303885 0.63694019768864119
-0.1193551806559181 0.36947199325773683 0.73433746374769826
-0.77675389208875001 -0.85055516946329979 -0.34069724192056761
0.053625128012065523 -0.048499995443993082 0.77342655836727625
0.77862393236083194 -0.28437173041038455 0.50212564870919252
0.30447774914280051 0.80181554352469719 -0.32958027037344584
0.17959347719395208 0.84678225462883994 -0.17488968201501121
0.76514673255791543 -0.37063539065941198 0.56330406420018997
0.24894314307268212 1.0201847991123978 -0.25608991823123395
0.2311063584243106 -0.30963935190192671 0.6894979363751027
-0.187037454630332 0.52707500975913679 0.63906341003929301
0.17133316020688116 -0.36399321512640581 0.53702394383310481
-0.20599759888366492 -0.11509447273207773 0.72927347161316947
-0.56513765799863014 -0.46356581172643696 0.10472176972396552
-0.56957384819458501 -0.62750724879447239 -0.20163050513017566
-0.096521652814479664 0.38010785413721404 0.72514809504038014
0.043153016578677039 0.28015525241127759 0.71425630325037259
-0.36905792998188758 -0.019589214064667182 0.7984813877789485
0.1253769563271358 0.061505406864681644 0.69830563701939452
0.62503532573391418 -0.42915838979573562 0.66011553105938725
0.22113659147627068 -0.085131598453038526 0.69896661782234071
-0.19573587062635364 0.51955297722572857 0.73784932354430244
0.11962089338168824 0.69599892809078567 0.43540130301323465
-0.333472942652078 0.11204304471651549 0.7577132746724855
0.61965503634533059 -0.3115255517093749 0.61542807037927805
0.22798625732228478 0.58478395806314465 -0.18546013399823291
0.077416815543539158 0.49443174588963124 0.6200312581431956
0.19192398486977369 0.75786288373413413 -0.20740366753204387
-0.27802651884155816 0.19962060133232074 -0.68765708374938739
0.14646126429858186 0.58330470731158801 0.57500981258298223
-0.14213716955337033 0.38986042153148803 0.74115804402799013
-0.42768819994452545 -0.074798800304106905 0.74073719462370136
0.032990496434385341 0.3336557713295305 0.74060020503984514
-0.50527352179068086 0.075920580549299288 0.68260778739963235
0.43256657470034543 -0.23168676267221322 0.39839608105159563
-0.34565502324784342 0.24862602075526041 0.71921453405177727
0.15486826389643668 0.0075785258336056316 0.7487863434950488
-0.085443729462579762 0.39895245091322229 0.71918482391061067
0.10590066385241412 0.19901010390597618 0.66531714318866386
0.22615921254008903 0.48903985814254902 -0.087915722908467275
0.034670045700374297 0.68675188360458139 0.36290582326041165
0.21694783244065247 -0.38822235118333359 0.60259225082687351
0.30071966610883966 0.56033453327102745 -0.15046695954192768
-0.62786675618216803 -0.23626524058326814 0.5497001631914793
-0.049383509544390566 0.21882461374653639 0.68208753324865434
-0.40431480857240559 0.086723345286350062 0.7385959267710307
-0.60037541058646005 -0.53585309236669443 -0.18184644640578695
0.17626048495651722 0.14053896073658612 0.46697090079190329
-0.34456198684477679 0.15616483047295082 0.76682147120583877
-0.71590982902025713 -0.87578206940280201 -0.25166512766307214
0.098245642404365563 0.89209755938227353 -0.30932858485586712
0.10490679703726138 -0.2472005758993514 0.66726857559716113
0.23639243434736357 0.3126394539046089 0.4600971917946175
-0.50219134869215554 -0.041171262245681239 0.46976094419924252
0.041912420096292695 -0.074843597505975135 0.76459119970858269
-0.36762824968144281 0.22591794075139426 0.77469133074750163
0.19634342291686968 0.6788479845420603 -0.25103795407912055
-0.15343233279729518 0.26948780376892634 0.75127911694418936
-0.53821571457352568 -0.66053330055358095 -0.14970490406261638
-0.13822771373812795 0.31757576606251292 0.74156663356267483
-0.49526280041836135 -0.13363211577534129 0.68856905628580334
-0.62653673941420762 -0.50937804425809596 -0.19231588351875817
-0.55570903547582717 -0.66689689609037983 -0.16925427623625877
-0.42019464269577611 -0.067664549595982004 0.75273534296760891
-0.57661295174733496 -0.15166030651828755 0.67321610391934006
0.19708549893525951 0.19160027106478705 0.54163363193724434
-0.21643229196869182 0.70891911434490429 -0.52741202473585092
0.5419475925492615 -0.36555792256645558 0.65480185906106858
-0.25581297305442563 0.064604807893396288 0.75528130013630412
0.15492773040219915 0.38614296922671731 0.60267840889040869
0.092684685159003896 -0.19788242505700859 -0.035487054278808827
0.41745022348343153 0.72148735233591554 -0.36603565566028462
0.40809727045931082 0.9538065800488047 -0.42795313482919717
0.18197490572586034 -0.053845609536893102 0.72932483674352844
0.19807142718636866 0.61489250959158603 -0.064274487750044962
-0.089773322639124561 0.38947655370082579 0.72127904472009086
0.72948648845142228 -0.40378521120694688 0.51002809193097109
-0.062958900764158943 0.33614079428575749 0.74705181412880639
-0.1218863597307869 0.021570545467373581 -0.58099683701437188
-0.055296503337105563 0.6082690198868741 0.65276701511379731
-0.72607869137839609 -0.84285606204987529 -0.30156318302386298
0.55281686799677943 -0.31191972517809452 0.65030212957187439
0.051612614323218023 -0.013165474019930956 0.73532081695503237
-0.72975790082980074 -0.63641677154052201 -0.40326899725316556
0.19536206772311265 0.66045219885182416 -0.24200494627577074
0.3291250103256137 1.0286601437356804 -0.38969433321236147
0.089000124494136246 0.035416416884147983 0.71936249279161346
0.46880326752163076 1.0681081584830783 -0.45826135788867606
0.42702202952576651 0.88310975185214358 -0.37573168195367823
0.22388297414071595 1.0194344341059354 -0.24320670222142193
0.19616594758897421 0.62602541293506864 -0.18871809651113924
0.34423144111791731 1.1196839798369254 -0.3342196813818703
-0.10882709196716442 0.55189330854083818 0.73882960154218946
0.29776459210755174 -0.13390770208765534 0.36369453647337835
0.23216788670680011 0.48148119336690254 0.48391255721210413
0.17179129587035125 0.50382292714336319 0.56039964212439741
0.62586210173611057 -0.30998546492361889 0.61932730768458488
0.16401260170730148 0.78221428443110064 -0.018285152865063603
-0.46145780691530391 -0.035887313784660257 0.66801479641440809
-0.071671943667549462 0.44835364612876849 0.67770099401957351
-0.23710267465514745 -0.081968453563823873 0.73260958645947816
0.25434099457723008 0.96791520138832499 -0.30408277353616397
-0.61404672856621123 -0.49273914920526951 -0.17246348143301016
0.262866899409118 0.030682401715365515 0.50147163507737691
0.015196415516487309 -0.038038670210722714 0.73607172687286815
-0.68530830728919823 -0.50762609835060912 -0.34646710574468176
0.069641081366974444 0.29932613506149264 0.70138142405862314
0.19102075526353973 0.18019022588146849 0.42727528988930041
-0.37039256484327199 -0.05910996154676762 0.79265983526462014
0.56332993631096562 -0.29072714329174643 0.66994775319548905
-0.19342607872453443 0.41026832085529197 0.78099734878260163
0.64374624542482139 -0.40956659418166064 0.659396679157362
0.32321064586360881 0.92333847033267213 -0.35175903298849831
0.22433212158486265 0.92865405033512616 -0.24328829144042352
0.29281754447265174 1.0738589111655066 -0.29825102855297692
-0.63751553257100702 -0.78770333375682489 -0.149783372236171
0.76167074273158031 -0.35002821070224766 0.46653281322344509
-0.61241709140134992 -0.34404846593392358 -0.10947887599882655
0.46354461319944484 -0.48478410107115555 0.665069142194743
-0.44652722347224616 -0.55567907034936703 0.015252735705560072
-0.21911413811177674 0.31065429501341679 0.64330710439804761
0.17092364378839311 0.156012833411034 0.59060475361078457
0.6995348133561089 -0.2599229936705354 0.59787526254859491
-0.43607443896437154 -0.24172061973468395 -0.54236257866756943
0.29602916709818627 -0.044167457910402552 0.66097515598307144
-0.49492067600130007 -0.67385396999994129 -0.1286683246564313
-0.056220002167066616 0.3050884888593246 0.74002974652088849
0.28116069024565843 0.71257318860173635 -0.28952672676420255
-0.48026645558094272 0.15170544505994044 0.67053290983134262
0.17392536702254549 0.31592921438667032 0.59502619302057935
-0.555445292388276 -0.6284240371364922 -0.18268335850591066
0.54968061365705434 -0.37224052582826639 0.69679736259461511
0.1217237904355345 0.5583101282659868 0.59327608781783492
-0.19530480949465195 0.063419238750099138 0.7440928665401334
-0.44207362981235404 0.1719965114760178 0.59910028817581096
-0.54288329125209578 -0.064367819145484395 0.21241714674308643
0.51534424052504113 -0.34510154559416839 0.68556290127778174
0.40587784731361165 0.98200205291642106 -0.42755057021021425
-0.46337563238811225 -0.59431818735175779 0.013860586234426542
-0.20551070854576403 0.41639481406301582 0.77649401150354391
0.53757548381737086 -0.30771949192846515 0.68028767127261003
-0.32042500119256428 0.092660974040633004 -0.66690292728803913
-0.58522368724489282 -0.1924501461650292 0.65311794978198834
0.073527448685254154 -0.012502969570557632 0.73490044735783722
0.25047915246523456 0.50236540348783354 -0.24861904961213011
-0.10135005483165542 0.34482138581391708 0.72526699215904022
0.031440538625700981 0.47873574895125892 0.64951440311001407
0.0097772146082318878 0.63446562305472254 0.61821289593374096
-0.4233556669107893 0.058081461533721512 0.73306257560958299
0.070718866635387401 0.36890528540593848 0.71116230266135438
-0.21150245536978607 0.65316083741320496 -0.59364705274847185
0.2010054425787306 0.84401560433804557 -0.21188206151818356
-0.22762711170573088 0.28819519425205709 0.6236314298278508
-0.20510436206968688 0.021781536923717537 0.75332014338727005
0.33023394826964242 -0.11619240136433384 0.68368293963316396
0.078667304992371789 0.0010036665149666391 0.73081961915139737
0.02748693690472484 0.28738296019005793 0.74057273793410017
0.083690402230327171 -0.0097774485431703084 0.74797284506127693
0.21614480556329996 0.60182315594520119 0.10450743604350698
0.093012256377310573 -0.092189546646604503 0.74890449768880929
0.36970662298109569 0.62379765480871852 -0.25393498385125857
0.27341681162354808 0.94166134046222272 -0.33201200243814921
0.4864642157032763 -0.45156589085782972 0.491512586635239
0.31581347544279598 1.1164638574065131 -0.40228792306695138
0.42773967205040886 -0.38361411330549311 0.70373616667684913
0.16688545530820836 0.14748879027648121 -0.041422078789345562
0.17822853700808014 0.063249215441978368 0.58002840433550262
-0.47481451890051074 -0.13139271812961306 0.69332487660227105
-0.7756030476349286 -0.84465611199493473 -0.41143267719154908
0.61278293773063686 -0.32898437086108379 0.62089249256290679
-0.5625724562218134 -0.3272304989713386 -0.40123235283160508
0.44496280809933519 1.1289926727541331 -0.42045560292369988
0.17309666368083754 -0.015078624493867876 0.74159258101572056
0.34621455003585694 0.95371308961804813 -0.37200080373069389
0.21868942016518478 0.53054756877500164 0.27814584733336289
0.47385279138040509 -0.16899667173810329 0.39720167566158182
0.29731122186903447 0.83109175671042101 -0.32893042998766631
0.69824018998235426 -0.43738926679366474 0.59690855537153698
-0.085815838308239162 0.26640018183812963 0.73190545072511326
-0.50825307217436466 -0.040566188781963719 0.50202011803055524
-0.60933992156952688 -0.18831172091116644 0.63053020915855362
-0.034886757300830698 0.33091564631608317 0.75872658153197836
0.061838158308309327 0.67054288950400309 0.50418550325683598
0.32162131939312366 0.96699322366774187 -0.35894235581964851
0.15369584142099901 0.81355995891386668 -0.047713784644552115
-0.37214607985748421 -0.41150417980319953 0.31098591538331855
0.016245797180834465 0.50283463997196498 0.66741843807921963
0.17219926525900434 0.12624367551117111 0.48179658039402595
0.33073444996138368 -0.0043597474844569994 0.57766139236201386
-0.69484257458661591 -0.65298102662662671 -0.36695689018807154
0.060088815421062133 -0.040176366437823852 0.77170489841804735
-0.13583085533751516 0.10161464842215695 0.72922133709333026
0.033371721215386063 -0.045238631327122913 0.76916724277589787
-0.0050759173534868363 0.33774227965786974 -0.51388039829525489
-0.22124861076508689 -0.065246013566290451 -0.61331437224472829
-0.57019672567629809 -0.54941748219753483 -0.17250825169094819
0.080752168049820994 0.96078273920672874 -0.19636398549849043
0.35723154543375901 1.0303637111216422 -0.40328668857063099
0.61407088856949577 -0.28020698258395571 0.64413977258112021
-0.058452129210646818 0.21704145807522646 0.71937215124202802
0.21508588039241 0.33078177850241652 0.32922856917811305
-0.4941975126843513 0.11329815386887265 0.66336975729729386
0.2215015009789387 0.046325628485746062 0.4866214403611997
-0.42218430154343606 0.028566889320730038 0.74302573772033176
0.11716564911654043 0.34088312032433432 0.64062019991040231
0.50416063389856114 -0.51697570023376582 0.62450705742887203
-0.078458749655026555 0.27760914118825863 0.71994078085969349
-0.24553331618211902 -0.43017020299983622 0.051336412544588761
-0.3412300355718299 -0.013977496974822756 0.80765036894933728
-0.52438740643198045 -0.0062556914976261702 0.70782187174564926
0.14704206845376477 -0.14292021080229 0.054669484033076143
0.19713468534855955 0.71756602803925107 -0.24399896335871207
0.10915741402691753 0.3413150256450328 0.65752247959729859
0.21919936672570306 0.55422627792169799 -0.024507289531930931
-0.60249052051434282 -0.20569966434238851 0.067498194267685996
0.56395772178095671 -0.22583115058677583 0.39798074323844101
-0.2237875368783375 0.0072451435794216312 0.7581143154310771
0.68027870081855413 -0.3249279631240225 0.64636595167413669
0.62314638946904377 -0.30356489388358043 0.62165174623082975
-0.68283105757655693 -0.69639856118186261 -0.31659224731185764
-0.18001831288482678 0.46082295608548396 0.60795090991521783
0.033098964296670752 0.49437241395632014 0.63075624180809309
-0.1458824547030918 0.070434985344491663 0.73130332770017048
0.19479172893411045 0.69408815358929243 -0.24299174571968796
0.25567852072552194 0.61903645497571724 -0.25012289035269242
-0.55291654969794368 -0.61547409529092967 -0.18573601331157863
-0.22982092842975951 -0.064121127079942442 0.74940483825143722
0.1199513670795077 0.13353269406626023 0.67392948449513335
0.028513312820384842 -0.020678258674475147 0.73767778192028088
0.11996896530844575 0.40232396970631301 0.6212146009677697
-0.69778815777157388 -0.62367836069920779 -0.37938253894048413
0.73785300356802652 -0.37265757313377046 0.60126093362272803
-0.47834827316351713 0.10392572516362097 0.31059854409174714
-0.14754334170880828 0.48656765074327724 0.76319997162648845
0.26972047518062653 0.56652179488756627 -0.16551399226360264
0.20666608035944251 0.572918517031479 -0.070894397426787492
0.29998004768262954 -0.45273080051082815 0.52380074022630174
0.15205284975759692 0.84988542436186787 -0.28720956497479233
0.17561548778620492 -0.031938128158094159 0.048825562149935609
-0.37238528668051268 0.087101389820396946 0.69678397818373616
0.16965886281928488 0.79056150189556673 -0.14362302591025777
-0.21757133732904671 0.27340239504341501 0.75777546175195543
-0.70155964542077176 -0.8322460202486901 -0.2422527328258175
0.022853496188527021 -0.26143255434430479 0.45409811409586021
-0.093327436541311898 0.31019182929671407 0.71895934341024359
0.036187858567888698 -0.082493335689836522 0.73799084379324065
-0.60950117512066504 -0.62969590229349937 -0.23921200782925989
-0.69666381772658015 -0.7377018882019295 -0.32436200818184058
0.1454459215878201 0.43560940067734055 0.60074379273229905
0.065055759183551443 -0.011986943535217787 0.72803060014948695
-0.0055226120390808892 -0.13808813775828921 0.66632755931434839
-0.022416227189917058 -0.19477847371350765 0.56532885556988366
-0.1954199783867068 -0.0029541052671655521 0.74964550853732537
-0.37340132939377596 0.067690512467744268 0.74754571533865599
0.68297323023561984 -0.28752657583628283 0.62875313270698707
-0.058351286807829209 0.43630495505744316 0.70967534686595379
-0.70403365419864106 -0.52922908706424465 -0.38346913973762686
0.12239870934935108 -0.080438169907122603 0.74963801353145154
-0.60426522348819278 -0.49215260123053794 -0.15996487114785496
-0.51206606341915673 -0.51917970152724857 -0.036221315666721488
0.079001233710551816 0.37145550532550065 0.70384118788585659
-0.39744898370621395 -0.14128983809269968 0.72157670201084434
-0.67719888508429049 -0.81525832745636495 -0.24761616378458018
-0.19869018185967763 -0.42677476470672682 -0.042142421998271118
0.20156507871273779 0.50271424870454684 0.52696359713837893
0.31359193422427833 -0.30684702261936714 0.7073756776051765
-0.83593142357627948 -0.78807312058413514 -0.50523666242553444
-0.029820758490202298 0.25668560541443908 0.71761885801880598
0.22235094354523616 0.37072879645758783 0.36221436675190399
-0.48722658819398262 -0.55613517033342164 -0.26089375837970441
-0.57552332259261862 -0.57040631231359784 -0.20777297564667596
-0.56878277823857804 -0.49283088723237478 -0.085117489494882514
0.1493662545247316 -0.27441347874105748 0.38705439374775152
-0.54790041529816669 -0.14344513224442368 0.67913340454044824
-0.19473102602292333 0.29415705758257116 0.776647455913266
0.36537418919518916 1.0607486365030248 -0.39808777063351064
0.10799496259844621 0.45770487314081709 0.61142546104370954
-0.36717935564321397 -0.1023119855780783 0.76425126346088756
-0.22958421380706889 0.088569052991081865 0.75343951288733113
-0.19700601095307449 0.2700471317983677 0.77466201609724183
-0.5748443727882786 -0.2596002379622504 0.61790102363076005
-0.28414681312613432 0.093965146062878979 0.72864704569335914
-0.39856707858279411 0.11111094006538091 0.74490147610020951
-0.39119494165721203 0.088575690377046046 0.74224711479017569
-0.36268923212505955 -0.08342062650231874 0.78597165778345834
-0.13834166825964145 0.89491440517379717 -0.30394313453952426
0.0097126508471406386 0.11770872118090803 0.71371037345346355
0.048696095481499023 -0.19707680142437267 0.65925976405895526
-0.6739363838115674 -0.66446684795088129 -0.31693745367908921
-0.032981217663541812 0.36355711651913492 0.75570069080180924
-0.22205809187791092 0.31923642442659994 0.60437601131450835
0.31886616525634676 1.1079124974951717 -0.31614490782355564
0.61447912732379906 -0.37080971514974892 0.64787692381943307
0.42961084054045318 -0.095612663186039004 0.63301432688361348
-0.053444426964830344 0.28601588219759533 0.73142058557327227
-0.18219624867470724 0.015647113770076437 -0.62453651792304776
0.45683715448164158 -0.46110275743901075 0.49903532024681951
0.33170730622416117 -0.13064365189970273 0.37985170385417288
-0.23521817062973829 -0.13223331328971355 0.6769600388588991
0.34368007403719614 0.76552062682293132 -0.35504913226991031
0.71665990116931366 -0.27660763977288805 0.59526050335954184
-0.31859168732025622 0.12237748702366269 0.75859445560772354
0.12532020415557987 0.54845288383274271 -0.36309920787795424
0.23625761891681424 0.45388740011735873 -0.20981944596704483
-0.065018975219678782 0.23149059798971772 0.72436361119307668
0.60934020417078893 -0.25402376514524017 0.4007450767004378
-0.58640836921553696 -0.36147252568850519 -0.31780787873447824
0.12818516715571449 0.39958224088486771 -0.30605349383953273
0.76871373557940592 -0.3521185446709858 0.56927027020236087
-0.11495516553773631 0.35521690777009152 0.73520888885768099
-0.53353988702952493 -0.57771238134423708 -0.15752220657255478
-0.32707568148982363 0.096950974112065103 0.72439893032190583
0.10764941898444294 0.26174476234501909 0.62910238111453709
0.46140492649634174 1.0923248121063236 -0.45057739314317846
-0.64626267877317167 -0.55392017829231421 -0.3856205669000774
-0.29241190229068142 -0.18866873572825948 0.64881478433544126
0.23510151890236197 -0.060604164846670638 0.69004246332724273
0.083778434860746723 0.013657876022151738 0.74026503743450145
-0.6561179820487556 -0.79886622022923093 -0.2506435754791041
0.30255232193058129 0.92996296027762293 -0.34087944731258957
0.64490847811161101 -0.42161942167998023 0.65331408568417126
0.14226033827272963 0.36846822564563864 0.59357100831253251
0.6978425611621859 -0.43752493036604112 0.53687061026709926
0.043814008962917983 0.63927973565937068 0.62327259940547153
0.19397798446659598 -0.32189389391514034 0.44959756663506512
-0.041271853630772223 -0.18876347630430423 0.55239767477608503
0.093854997526801404 -0.094916550860314919 0.74243111408887319
0.044413023179985876 -0.28006591939213155 0.38210095053442195
0.097935066303537321 0.48425844397308193 0.6151286682625261
0.11939768890559271 0.85796012335798322 0.020278526870361135
0.24794359614355033 0.44118937721169438 0.44748463888388901
-0.29057911113178753 0.035308186185514678 0.80045999117100264
-0.18597459276345629 -0.044143199965668511 0.68147702790999398
-0.30665674873611437 -0.30545619249092137 0.50412077848930736
-0.54916396470902828 -0.67535177632014065 -0.10804419405146337
-0.021498702169729461 0.58285257688333503 0.69379244592592204
-0.096215601721100136 0.39216698384930426 0.72614540296402819
-0.55167691319814471 -0.074095125750212043 0.57219810031218543
0.40506821435111418 0.75057354108500141 -0.41416808797548987
0.15448078226538481 0.021457570929322101 0.74421117021553118
0.14292497583535377 -0.21672044386638012 0.69954071055963152
0.02648737771787369 -0.055164624466722323 0.76599450819601811
0.20741599333579436 0.83707636362652371 -0.33531222226227375
-0.066332850055864923 0.15531546081952374 0.71502531974959238
0.39584446562288278 -0.23922252095403596 0.70175251680368156
0.25138186732817575 0.8841590233033072 -0.30639831682173924
0.29193712499215801 -0.37961470333936753 0.67598463670796305
0.088153268706076704 0.54244451928658921 0.61248231047162571
0.19859817857800172 0.65606333118367965 -0.0030674988321439667
0.30908085014183462 1.129419496948608 -0.37431677596773572
0.0056946155117732029 -0.25642015521565797 0.44820675267240262
0.016749544729176894 -0.037705279051524432 0.75581728715006835
0.22558059544428422 0.53770451850528511 0.0027502685298037566
-0.26282104965497771 -0.15614072699360215 0.67346533636479933
0.013788094204210399 0.29479814617407007 0.7477220461823374
-0.42468394632623258 -0.005577986626301934 0.73055134674599409
0.28938335625842215 -0.22716332728051025 0.38165075726943654
0.32963615219798126 -0.47604349804336188 0.57657589793339092
-0.40101655246819556 -0.038966300395887332 0.78279958796394733
-0.25863099543878754 0.56026959738414428 -0.61376423644903033
-0.82525604965312693 -0.77196513419779222 -0.46882395090651752
-0.40007004806607843 0.080826993743863706 0.64731995576700485
-0.06505521800083057 -0.17067073624845341 0.56540691815181654
0.32786710805586688 -0.070271809341634128 0.39364396294123727
-0.42311688636035882 0.13501015843350062 0.75718115214131765
0.30165474114546842 0.85191323884742398 -0.33474375816625601
-0.74481566524549958 -0.58411119135025547 -0.43609073539438103
0.54924885972291049 -0.36715680381430982 0.65985042294067853
0.25256067126127707 0.61398898272093061 -0.23806606444773237
-0.25926527745640704 -0.16714878678420964 0.65362021739250875
-0.27852387805118178 0.24382543016957703 0.60151626306848516
0.19394070252709666 0.67424067113687824 -0.24216656328532982
0.2113907264416009 -0.095250908379956867 0.70257349512113587
0.29892435586117028 0.7789657558801939 -0.31941194909393578
0.24538504853342097 0.55972866777690311 -0.17390628698444588
0.27648969137743346 0.60603563904967439 -0.22963717311216225
0.64317814262620288 -0.34858469836902217 0.63462440058384484
0.20661078256530629 0.97597864879748863 -0.32167150991409921
0.12825906731274223 0.80943271085274726 0.097557752855004232
0.28426046012804757 -0.40430435457870684 0.48321426190373151
0.064819303972065478 0.97888913270315814 -0.20055871467171471
0.64137306531751515 -0.28605912251649501 0.6526231145766882
-0.58606841171916324 -0.15269793058765813 0.54947234436295567
-0.47652570496473112 -0.043588568141049056 0.61999203066655095
-0.52693656939167799 -0.088490330316137955 0.69846329763407011
0.12553846221553855 0.045791711051285322 0.69984484283509729
-0.5035309610460792 -0.30640911522831482 0.60386741403697974
0.19160193762280894 0.059514175392062274 0.52174571910732748
-0.23141047276287624 0.24048888729854534 0.75680009277549187
-0.26497494661616511 0.23499977252295001 0.72081602412505053
0.66356862662018923 -0.35142609202953601 0.65130315281548912
0.0020248646457770563 -0.19628902872554099 0.60835277647399988
0.70999361240089343 -0.43470902999178374 0.55501870743623438
0.34962406494188941 0.69241047402472855 -0.27884057612407309
-0.42617993607885829 -0.27459730097636403 0.64753325644366067
0.2568695264943256 -0.0071705001045214711 0.65055509210756179
-0.77382705844344701 -0.84399772112741922 -0.41508661231259958
0.4590050876693893 -0.13108746943621252 0.4064671033553714
0.22236055263111071 0.53436519309565034 -0.13294598361054399
-0.53747681714798379 -0.12350563166659723 0.38408972824871901
-0.24895495334689116 -0.30597483457625252 -0.4786448782624062
-0.60236815959996493 -0.46054929937739675 -0.2787551535112085
-0.035461639662670602 0.70325417614865815 0.32598941206665089
0.29360276707840016 1.0102831373654304 -0.36077499686155301
-0.44137845870873621 0.064858183229054678 0.54301690218571563
-0.70512795026766828 -0.84372074343776293 -0.22894419663700583
0.36763283381885858 1.0579631650145225 -0.40745087092093524
-0.47935373720092816 0.010702026120399388 0.52278291987522296
0.43998078162190768 1.032613838809348 -0.38262956455701902
-0.13559556014014559 0.053517530586463025 0.73143600351287086
-0.47619068716185492 -0.057609229353949853 0.70851860631935026
-0.10208217954123619 0.31804859386847228 0.72943993114727768
0.14161903952467098 0.68836286797269919 0.53876222934766294
0.2319998740090144 -0.11467503838631599 0.29122273743644078
0.41875288526649806 -0.34928786763498376 0.70884731591717953
-0.17656949348027645 0.5534422714754712 0.65686388114492933
0.51182173394774622 -0.30646442751427627 0.69697837912831639
0.038672552922143465 -0.033879916775070962 0.76726815515871527
0.16195436046691192 0.030706369787725896 0.69305526438665255
-0.34964132614644294 0.04905628155449393 0.79092294191330814
-0.501766457249471 -0.51003290353447395 -0.32266733887788068
-0.59832118307681348 -0.58127392338247286 -0.22999913377979375
-0.10365189756145546 0.42456006920967759 0.72136021346888946
0.05119441916552403 -0.067596328026108488 0.77287662979249983
-0.26608874946944622 -0.19304106907682739 0.6935012808246187
-0.064791767885094276 0.9467921067948013 -0.34567232032833006
0.32373332504904256 0.69670854793701054 -0.30303446796551881
-0.6639162256274147 -0.780414447215378 -0.354577736403618
0.15575046831409919 0.21359687033059815 -0.11826824897345345
0.61256661168240378 -0.40629394016575238 0.67514190652177986
0.24465375958394386 1.0514442036188067 -0.2634873010295633
0.088552576660295035 0.68433514929065575 -0.41167449438254033
0.12464067939540675 0.052194956096007994 0.70039385174749302
-0.038301528386139469 0.51290288037614529 0.69615813330337939
0.33037253707170322 1.1459617568136489 -0.34304641096729904
0.30963729334446044 -0.46504438527941283 0.54851665600704802
0.15817173970123674 0.20609213590121178 0.62162656875144862
-0.34456513600627348 0.19005551618232075 0.78303735075755188
-0.46682995453902698 -0.34028721812065843 -0.47834984954617776
0.25628711041441377 0.56036494162416473 -0.16868868214188049
-0.26874819550091555 -0.020525725981487497 0.79438883257150228
0.19159247911291044 0.68515242479939564 -0.21833082647402446
0.10453866881125135 0.0063901266281367608 0.75439001722903332
0.059844235632049159 0.34390219672910405 0.72416085589826273
0.53148561176828657 -0.35317544797950329 0.69072394855941976
-0.3051319766070964 0.12111672105267379 0.75934876137757423
0.093181601095050692 0.9303323957695202 -0.25030424753932068
0.151149862552306 -0.28867405936203161 0.41384002090374139
0.21730121687835502 0.84530773259115621 -0.26385903010922984
-0.22173548208652233 0.36575976323542281 0.67073186513004579
0.067205857885338616 0.30219156804956571 0.70918168252218738
0.13279718076407554 0.36572076827309719 0.61470534054378356
-0.7287282244828478 -0.84526082557960569 -0.27919149239141383
-0.26808093264434196 0.28987072179932616 0.58038329099049013
-0.55593084469050202 -0.067970118064491158 0.5992972239768668
0.23397864646013353 0.31240824451055649 0.5018190581023374
0.19996141757823346 0.19542746797327615 0.47715905238458101
-0.60598403779797094 -0.2714973075294258 0.45925625815919946
0.094298234744128767 -0.013436177663060933 0.75865768991892568
0.22565091608453619 0.90487491720587387 -0.26077074768309561
0.16912340568987672 0.086678104786134469 0.49640576574956874
0.15142684183821531 0.70341198723224574 0.24965231480623307
-0.10008435956141964 0.39367497377388805 0.72789531328868906
0.26141070837874053 0.57568017567501872 -0.18880974450502852
0.072832992966936766 -0.010916667123329837 0.72459621494104554
0.71762190405904436 -0.31879353602695493 0.42604829691841051
-0.76060305503128256 -0.68946195231098373 -0.44360007991376293
-0.45106305206849789 -0.074527150526903174 0.70702395530086259
0.2636033821443276 1.0141340423275216 -0.38969365632042718
-0.38513762993863815 -0.53715185436182122 -0.058643400266129353
-0.7242291902286786 -0.55995163482363064 -0.45136283327440241
0.071231792805538097 0.50359649883739577 0.62636096600933844
0.069579698162784698 0.79360662636408774 0.21863357252563964
-0.58650022240116229 -0.50953764287222536 -0.14802457836114713
0.4021344975269997 -0.11867690753221471 0.66156761574039935
-0.33558860546610397 -0.38276855913600483 -0.43812214265181049
-0.29635237457483188 -0.05345763636517864 0.79885535830796284
0.27889907908125594 0.6776277213259787 -0.27811938196343711
-0.10671944566086286 0.49478897800395449 0.73846194083896177
-0.63969041959782602 -0.67001907243479608 -0.26552508593509327
0.17185884496720785 -0.046232122746188598 0.73920992580261291
-0.13557906931597447 0.57684591161838994 0.62017940811887762
0.36407604454069287 0.73374908034992581 -0.3245967335514548
-0.57948819185022393 -0.21943926761000632 0.40269701756179854
-0.036018705692267727 0.38590332923829584 0.75061148540142053
0.50415704638831649 -0.52175224414787347 0.58361500418017409
-0.3058728146737833 0.22555818213498258 0.67088821065897419
0.45897778854816151 -0.27816755647432134 0.70020699192904912
0.53431522793764863 -0.22625907366903553 0.66778857499111133
-0.27987693559896304 -0.094282112754783265 0.74673792833933028
-0.6199491983129175 -0.20910721782058439 0.55807998095849665
0.12580953288873872 0.38095521520924813 0.62817672301660243
0.051316727316175509 0.41876419459237746 0.70220239328665102
0.12047733068559988 0.31994269535106001 0.64910960505011372
-0.13628551111623166 0.3146073610609319 0.67508500090063372
-0.014372345588906932 0.64954113277172487 0.40498259835022776
0.13276225952574994 0.48033310063351253 0.51778873730537378
-0.2165259731673933 0.47082210029340676 0.67057369993950822
-0.45888868644087366 -0.49640585449116204 0.15755746727656694
0.069467487540132794 -0.024232842828807222 0.76488217907281375
-0.77074321637483345 -0.66217270708850329 -0.44389680356794781
0.53178297641683392 -0.36179739056575277 0.65318145634650182
0.31552747921729335 0.53443109863399041 -0.24907502654441416
0.36765985385956662 1.1195422326268014 -0.34822096382857026
0.19781165385625227 -0.21490382292190446 0.33324364076765878
0.33705741833506431 0.92445927679708895 -0.36284668895319805
-0.30289105552587736 0.41422979543066951 0.41073828853908534
0.43768030309445338 -0.20881695857699634 0.68539913524037877
-0.50828137161826581 -0.33887098700508944 0.55692786453350496
0.25065388630331287 -0.13326845691096501 0.70380586382931964
-0.08699543996197534 0.83071611405798795 -0.49062208436161203
-0.2952721158217409 -0.1086891134799215 0.74321734668235506
-0.70295280684936989 -0.82937657804823628 -0.31823046439299429
0.75346814509904081 -0.27628023970502769 0.45405081708869721
0.4036009258170592 1.1350775444445567 -0.36884966577144951
0.43839056380285568 0.89726599558404896 -0.46410815542265449
0.48617844470583721 -0.52017592665197832 0.56396207208742744
-0.098855441652313136 0.32002158756557564 0.72470639430183814
-0.59626871444822094 -0.50751299668831584 -0.15822545393445675
-0.73947817840953167 -0.5931658023749351 -0.40422049312638886
0.44441153289502106 1.103210455537555 -0.46731583851611491
0.27734480656036264 -0.32572008560986876 0.43313046388145138
-0.42189013926992475 0.19040595591478504 0.76882061692122372
-0.068075863537564091 0.44939676902504 0.71155200047702627
-0.053761961438414031 0.2596624936953571 0.70829697203169051
0.32517609924666419 0.81594637043743856 -0.35052636229499168
0.20007405349221491 0.7418783533562241 -0.24489677302028023
-0.57225317926691743 -0.55683432638272801 -0.18592982001800085
0.20106010788090767 -0.011611440029506204 0.69504761433256079
-0.54471788807516841 -0.59020051882114166 -0.18903950227306954
0.51015188613844664 -0.32200534604750475 0.68276002212098785
-0.37581692015361096 0.035236524747946918 0.78035872232976011
-0.40374799435265085 -0.15775599815724961 0.70392163494409421
-0.72774010101025866 -0.84941536931020178 -0.34305240584035923
-0.22190324883452306 0.29806138534201998 0.7419411405951768
0.48920470395695603 -0.32407171011125979 0.70461085160429604
0.61586040552684529 -0.48218660867503593 0.60700120510007183
0.14944352132022698 0.42755731489118065 -0.28952350189538056
-0.20120965297134941 0.24606260220729759 0.77351159925071611
-0.3848215359431334 0.18723278704891211 0.77722883903194862
-0.30168231660811201 -0.077918730417102511 0.77545260313283793
0.63206920355993068 -0.24339399600427791 0.40356378656769176
-0.4946263992665908 -0.11991143597188003 0.69077390939072281
0.28131264321770449 0.98673884166867598 -0.35069338493720892
0.48513072537899776 -0.49108312753945316 0.66150091159973123
0.19992361256205804 0.71955506650244216 -0.25382453819796491
0.092555955221503172 -0.088754476243754654 0.75443522306708832
0.56344960137699096 -0.40411383147129665 0.69013274448339579
0.046003102789600986 0.27210966381426416 0.7051386870592049
0.045935101102305559 -0.071836741625324052 0.76946953970883269
0.6987632249011172 -0.24659263264092113 0.43130355671838272
-0.066262013713746029 -0.15420857636257002 0.61974130699355845
0.53566643443817352 -0.37864031734775438 0.44091720483877916
-0.18940988262965008 0.43891156662869024 0.77973554320479532
0.18589888264615861 0.61915384198250822 0.51256949719020217
0.26851750575320882 0.79732691483825358 -0.30446503829627303
-0.25230934101628599 0.054250543558199693 0.75014526101995838
0.18602360304480198 0.41341789965151499 -0.22444728748619336
-0.42719186963172767 -0.29249820054105147 0.62932703295546255
-0.51566396925044622 -0.6521720149716761 -0.0076582295322664695
-0.24721508613624721 0.2534788852908556 0.6245396661653374
0.33215900695290196 0.6700263002641802 -0.25985304929006903
-0.054714534555076383 0.61307556388662743 0.62688950859182757
0.026345260776832583 -0.069677092601757362 0.75025824711286848
-0.24149638739854007 0.1883271756282423 0.77608789457248761
-0.34626713020240435 -0.058298630205575019 0.79836443974308069
-0.20918522235223708 -0.043192615480331709 0.7474313344186001
-0.19115244481488014 -0.41558358621725278 -0.22356122396324563
0.077814442899025837 0.94853627044414779 -0.088112879029462743
-0.65024182035569922 -0.54644906574476115 -0.2458560627234232
0.66490915090583258 -0.27214388847700777 0.63147378258797726
0.74669911511947906 -0.37884441591971618 0.58821258734835891
-0.57702354282169499 -0.49300358296822 -0.31827312284413045
-0.70793440254133744 -0.75756622198788337 -0.43612130887815259
-0.1806005573600851 0.836265154791622 -0.33182126246489552
0.19444415986520636 0.64925357479436463 0.44605171441840719
-0.19802646341608007 0.39756569550670551 0.62037269990138033
0.37922953748187183 0.76966757520830331 -0.35182314188194086
-0.50526194571764349 -0.3576446738655561 0.47923619663224404
-0.009655194024399516 0.41183877452273188 0.7361222903668253
-0.80110560307030476 -0.87855335867134698 -0.35526232275937675
-0.43765307668819081 -0.20322082776777495 0.68932524530547923
-0.19407608459141173 0.31993449186151457 0.77880124367577508
-0.21255803614501725 -0.010690673355675973 0.73438079460885386
0.19424720570874765 0.63867161323132993 0.23484959922025594
0.67813902947108584 -0.30056766413326708 0.63955522928552144
0.26852002106174333 1.0602350806914196 -0.27368370872329617
0.013875407356996189 0.55310534668437317 0.67379761141173999
0.73185167995984524 -0.39317727683414638 0.59885877955551958
0.60757788114114564 -0.29121166575188129 0.62110725290795288
0.14491016272044233 0.72622507074026776 0.20806438924347048
-0.13265128893726538 -0.39659427992429697 0.034183385741305417
-0.44779295332526831 -0.61890888485048423 -0.0020417910986183507
-0.16022627710317361 0.32796040516756997 0.75648033293808836
-0.089219435382787787 0.43086012225850467 0.71769642540753265
0.018659305208156118 0.97575097373241504 -0.10172161310942052
-0.5307721227784703 -0.1838691789907827 0.66686562403087635
-0.53909330421322033 -0.088424616744701146 0.70056570386597539
0.085220693538399034 0.39212963161939074 0.67728065387236991
-0.70271005544328013 -0.65147592922616315 -0.39104769603998824
-0.39832095213122365 -0.077076904786849809 0.77465719059481941
-0.12532058889861725 0.34669356463185408 0.68784597525651137
-0.76314988658752214 -0.8632149280047543 -0.30675660255271642
0.013115319348355026 0.38156993127795458 0.7394417473495315
0.62763286360791071 -0.19345864529276025 0.43394248758112508
-0.45214808972663817 -0.1677045795836507 0.70105585161786887
0.49705887153070394 -0.079545152002309383 0.53414667528864568
-0.56282888194174885 -0.1636394242706245 0.45336005003580859
0.13682327074866701 -0.018669190798354496 0.75613238340698585
0.070860271888303988 0.31835976554370915 0.71889082468446208
-0.2634402552427007 -0.44649664966230618 -0.028271305278641634
-0.46271815319714615 -0.52234741421224284 0.07341869401161949
-0.3035632291422985 0.090815877694205405 0.75609125391755372
-0.58521646270757266 -0.13173358309120853 0.6529905703151615
0.6693210342354281 -0.41300803019107479 0.48577624311805934
0.16188326170715722 0.32458514008389661 -0.18201329210857531
-0.64448535894104075 -0.62075058278920014 -0.2847909160332871
-0.12714130549444605 0.41550703431427372 0.64209318907033586
-0.49079847621824779 -0.058282198046364808 0.70108388443887537
0.40164936658069017 -0.028511864605140325 0.54322797325757977
0.19246933116398091 0.53385337415910894 0.5292452489248527
0.32339604650299281 1.0141597724630511 -0.38087715817564982
0.28924630562286235 0.013745299259262378 0.46955990074806309
0.50186847492425946 -0.33363543212270752 0.70279756468296006
0.4074832336521349 -0.17462288124475855 0.68248047095146225
-0.60420309435909136 -0.42499912059951606 -0.12080528437349924
-0.59508651585171712 -0.56362853105468047 -0.21145572888013553
-0.21954136317504946 -0.27581010817415019 0.48081057095544222
-0.54804247274855089 -0.0066895725542901463 0.070382477426904622
-0.40072128424142506 0.077840192290946852 0.73934851029815651
0.10820454628234441 0.44024757943847037 0.61182982851577739
0.46201661511529762 -0.49021496157787858 0.52236066973366047
0.048684241606645196 0.79298177498925249 0.22359882911685802
-0.73375691469349658 -0.61265900170822896 -0.39436270692405606
0.16874285307431647 0.58234010190926133 -0.32311148516105326
0.1725991944711936 0.10817246345944076 0.47305920627136788
-0.4526281893483049 -0.12530696197067859 0.69008916614298044
-0.42356245777993529 -0.18272321544709391 0.70358295593669373
0.25442348328104236 0.60403405400716315 -0.23662784869611464
0.28006409439208169 -0.035424955620980914 0.38710946419737113
0.31227888304343826 1.0299564271114954 -0.37693895746658224
0.0098164264837091661 -0.061273759634102865 0.7354661432008146
0.19526053063321647 -0.085417162032660032 0.70516238082842431
0.66593568967703964 -0.33427038646202445 0.64888266101853176
-0.12858804125237069 0.035166339852811701 0.73555111553338492
-0.16304653314443862 0.46944784617167978 0.51952575330082384
-0.78454217798606218 -0.77834167167983925 -0.44479864932426527
-0.34641722398939484 -0.2312004734469002 0.67997820901995665
-0.68197247408617145 -0.75744790359373915 -0.30357808929685581
0.084221262018814413 0.53199764350792722 0.61691173803117205
0.063671504694506401 -0.21127972338701184 0.66167983228669613
-0.26225480000160045 -0.023670557131243219 0.78142213179041131
0.54969659382720826 -0.48936161953760582 0.64999003470874706
-0.57540939193302088 -0.35316602002053532 -0.36197807381044145
-0.20834806501641895 0.27059036043384932 0.76960830945590863
-0.55572361701724382 -0.68201629109302164 -0.081862249677767007
0.14881303588763567 -0.16801576866354906 0.71247501237212951
-0.71702623592917736 -0.67469893375196266 -0.40854871527721048
-0.0085012420481297146 0.066854794108544002 -0.46156632128814357
0.51451598416749489 -0.44156532164351381 0.48360906184432895
