# XYZ point cloud file
0.022080438693272031 -0.018066993301819601 0.74479423746668116
0.26867818539537863 0.96515059290776894 -0.30666385416955222
0.0045867423540798813 0.12607423313377319 -0.27452252046077918
-0.011128792941728333 0.42565003872677076 0.67738869815429048
0.019387702582512961 0.43530958685060073 0.65595234074930298
-0.33691304719167298 -0.1551416086263373 0.65923850070637546
-0.50500784194111459 -0.54160698954429853 -0.018342683250281877
0.67804386969960884 -0.34748561788690657 0.60383540319673545
-0.0091239321837011667 0.26910013926665166 0.7315629707979715
0.069492793185398499 0.46713127863690573 0.61202326794338902
0.012393768333704314 0.25949573320580588 0.72641975677828652
0.14422982369534174 -0.26846321734076017 0.44517631132255553
0.15139300470911665 0.11201419914428223 0.48961749055936749
0.029870749443484446 0.21964641651792594 0.6848315743979515
-0.023100452198748983 0.33440537911115564 0.73071976988288967
-0.77487567954410164 -0.81844258276239779 -0.34168649736346246
0.55988384559490756 -0.35472641439155428 0.66371705341553611
-0.30929601928304429 -0.16141672819836761 0.64684482472557669
-0.46166463592518125 -0.18454575636848536 0.65149533285869887
-0.23975131222930024 0.12764829595436122 0.74483058749324149
0.26749687296026758 -0.3184237445400897 0.46296034003627351
-0.28552608543269037 -0.13957228303649316 0.70829650006440881
-0.25655631777686755 -0.37719180048948631 -0.24436380298232208
-0.27429308233335448 0.13255415560137895 0.74384226741817361
0.47304211207620517 -0.47517404955259956 0.62303958030980988
0.17345147784953704 -0.021263624037764162 0.71428451499397583
-0.40819685295992514 -0.28760100813969958 0.51793797147834553
0.21335800857260509 0.46327124282228671 0.47775956199754366
0.41380354410178377 -0.43133230167455516 0.69288450730276918
0.19115758404157723 0.49616851214212598 -0.024252208976017098
0.026410215780904189 -0.06967581630312325 0.74102903380078278
0.079320806989999021 0.46313623711112828 0.60359893489470162
0.13625960071905382 -0.013597883644494324 0.74203535392015674
-0.023964903348223376 -0.26029186985057939 0.39645900529188682
0.5524860840529674 -0.27442756025392523 0.64143553652465291
0.036758933193689891 -0.21386558696824354 0.65276238148765686
0.23420036350091275 0.48510453171628387 0.4064907690607924
-0.16396686492120821 -0.029268359715132863 0.73972387471735002
0.38705703306501699 -0.33717125484034383 0.71533888899808151
0.3779929662943815 1.1399495324939286 -0.38876338144460332
0.0074796527908982113 0.2758637167462652 0.73043614221608077
-0.049659211392565183 0.19084139323812832 0.70162890022130808
0.46941544627482934 -0.33581246678266297 0.68285191727102679
-0.53952192090471551 -0.60131568990498718 -0.070874626331307811
0.3059391153289871 -0.39173076492712067 0.69064123449606418
0.26964750727915321 -0.43108582042587784 0.54565908139111308
0.52695588143682137 -0.35830727894445813 0.69344805584399261
-0.28264014081364797 0.10501424983780527 0.73427441799634585
-0.28920105083895575 0.089703640457836187 0.75195713630795513
-0.58369228915426197 -0.4526541358761984 -0.17771166185900844
-0.7131768482070775 -0.74415538481250554 -0.31512937212631043
-0.37728630209452824 -0.087602118596373124 0.71189425662322314
0.015492188865294243 0.86911767320955002 0.029089850604600898
0.23415893030952714 0.89782821684500114 -0.26947121656985262
-0.6531398403733204 -0.71814184839170903 -0.21039030600738462
-0.52646170514404123 -0.51507439609254591 -0.083639537408961462
-0.66033786383889337 -0.75904509137768605 -0.1075231449210412
0.087989192096639426 0.31932716322560539 0.68026960187613894
0.14224090005980872 -0.17278874933212962 0.33729502231207109
0.03106366802369584 0.94084811070511964 -0.16751408838278414
-0.096147644717420655 0.36480561718742632 0.70964669161142346
0.2403178764862805 -0.03570877099315406 0.65826666653374011
-0.47211806715337767 -0.10224302813681696 0.2476777825864489
-0.23505017536391659 0.1140774971013736 0.74658385430868268
-0.072575993204763767 -0.18936732920139421 0.53366639534901195
0.41435233654130033 -0.38061105546677965 0.70866408943137504
0.35821009934645115 -0.07938033805029665 0.44531801087193379
0.43110491922922012 -0.12937726143079953 0.44122547781017241
0.0048953967382939778 -0.13417932814408329 -0.066107772036343548
0.20803731493467065 0.67647456495538028 -0.25207300258169318
0.56026233977395812 -0.21519922690892468 0.62855600588183114
-0.70615728598561267 -0.71962098052695689 -0.31789729017732393
-0.35030679750411886 -0.039313710630955123 0.76906344704591867
0.25390157754748977 0.94200794944438848 -0.28844316345701715
0.11802976574631399 0.57574753632997644 0.58506956075409933
0.20976112048331147 0.63270310683711095 -0.233521817251791
0.14025374161634868 0.6257142097967564 0.5185741138833746
-0.38518293801936804 -0.40145363986622939 0.27035057229862558
-0.24264974610666684 -0.074752533019807776 0.73962801917534915
-0.60652946045324696 -0.62064018234415119 -0.20159963392763258
-0.41502515299462678 -0.30288749819514771 0.47774699130453968
0.061204591994783147 0.90644701297023289 -0.38099391325499021
0.38242724508319997 -0.17991001486699898 0.42157083622737057
0.16944344164855313 0.0039803695976929898 0.68079872337430603
0.19427295750786766 -0.01587764595903618 0.67118887139947303
-0.58726335395801921 -0.55188640955062174 -0.20007198333511478
0.040899535055097136 -0.021177457824278489 0.7557623614514436
-0.64575142644046801 -0.57092727970833312 -0.30598413313727946
0.57838271566329014 -0.29211371407448228 0.64551271310768965
0.13731086610698612 0.85263727146975887 -0.078629239739470891
-0.092173746058006129 0.70755930287507585 -0.55500754417889808
-0.036444153904493265 0.35464231633674936 0.70768162585492966
0.096344914944662269 -0.054096205879083481 0.75722306847238052
0.19716267170220547 0.59814894002698726 -0.18750768488398273
0.087630807878632866 0.48384358618867362 0.59342268786385666
0.40678066137511354 1.022511108541073 -0.46555356365898282
0.056658767826092443 0.47515554226426826 0.61716355790426258
0.30539532605213038 -0.29651597806024421 0.44530690142191981
-0.53255355899784229 -0.22874711632380995 0.1238922732324611
-0.12609734438193096 0.70456772461270301 -0.10127536455468422
0.19521939056920398 0.021577288336425804 0.61345502789758544
0.40552523507770311 -0.070132704112164657 0.56753684278632888
0.17383723001638196 0.62036465164713062 -0.19792817325962586
0.32144642907692361 0.7228067270222629 -0.32122038211983428
-0.47379961384797847 -0.36190923481753989 0.34775848382487806
-0.085741777319984669 0.00023743830702938062 0.74053126664933655
0.25938833159092434 0.94097541714563548 -0.31323062803352542
-0.34253865827072488 0.22825740759259916 0.59612768246810799
-0.74798413878640058 -0.74854497560309796 -0.40402791086739831
-0.47984412223947154 -0.012231935866847676 0.60836131342477395
-0.59928039981071479 -0.64566813640542042 -0.16823997128964974
-0.23027391929229341 0.23814250428148531 0.70239614751305735
-0.32148397126655914 0.29506253154917217 0.091883627878358576
0.11953127515079559 0.71180850942952167 0.22086088393821013
0.1677104712950292 0.59477767676623483 0.52109176396256018
0.070532947236570193 0.0095940024198379881 0.72591560339105043
-0.6412665079006481 -0.57902571708017314 -0.30285239457179558
-0.3509462313089714 0.14518206882687701 0.7297648636030144
0.60801553747360138 -0.33923667208524533 0.65910044824595559
0.010509537414247594 0.25407514400986586 0.71979570053674569
0.50760721711752321 -0.31322977632722337 0.64536827199753777
0.13465744949386893 0.02309183057184061 0.72744444248812046
-0.70120474841865432 -0.80117818921694228 -0.16122226496886483
-0.37697690867268357 0.051642383103872813 0.72279056581555634
-0.54448318899008763 -0.50753059596819128 -0.10720392732451778
-0.49443826931429652 -0.4851430114539641 0.057069303266741311
0.072189315608198523 -0.16221084634650618 0.70149072327648498
0.36897856574997057 1.0471022851070899 -0.45182892157336929
0.22985377104856244 0.68718476916820781 -0.26101935492631767
0.18300813147692382 0.17115281740832855 0.48930983747775247
-0.5017184995230628 -0.14794805474770945 0.11477079140177615
0.20628644590521009 0.39686980270858552 0.29253041651397527
-0.059657607274568147 0.15950947040522157 -0.42004936240639934
0.050812396940334931 0.35721398438219731 0.69536627023367492
0.11980747215411959 0.59210587112803825 0.57182524585118188
0.022067322416758017 -0.19853820554093615 0.64893046485435746
-0.49921616394488272 -0.45808961831214701 0.1419130585858277
-0.25525788107439318 -0.061065994436258153 0.74600722599139602
0.42933504399077238 0.87382874304838731 -0.38624220225387573
0.066931994582918541 0.046768229953065843 -0.066551891877422609
-0.46093275809776074 -0.55060834501589873 0.055707478878551875
-0.72731304668730057 -0.81011059938284014 -0.28759273477426117
-0.39334723521169801 -0.11716273279591105 0.67508787858527342
-0.075674726291087679 0.38001669190351395 0.65269238712138911
0.2154320075992367 0.8565809030209619 -0.23310725139456234
0.18641201391540752 0.63483302680971376 -0.22229640537265305
-0.023838047048047206 0.24299841793154808 -0.39945628163096469
-0.66915023270178242 -0.7021546475229048 -0.25823115897881932
0.038834850474834398 0.51824593866946023 0.6470512030922777
-0.59388347742228487 -0.58876739824956537 -0.20333696514605959
-0.10566736035840107 -0.2621663223846693 0.39221826921385594
-0.2340127915491631 -0.028428152727786982 0.74421656882625931
0.51545911923443244 -0.24170360298183002 0.66842365929657355
-0.24997092602064919 0.13365816640711192 0.74462663637086379
-0.17893322640717307 0.29584742849910017 0.67405336314467768
-0.25980359418003834 0.037949727983283887 0.79579152474496984
0.082433117405590145 0.7890741635760754 0.15168487940172293
0.23882268256764663 -0.0089790984460731416 0.62811271380159195
0.67447419987486434 -0.30270909467531748 0.46850588264241688
-0.55171377315384929 -0.57551291767227841 -0.12518351857455612
0.4418562760489792 -0.19123701094044621 0.42324471351414694
-0.10152987414601305 0.2702359488712327 0.65776539403215484
0.41762315662749516 1.0006438300677414 -0.375817703056882
-0.20577202252011839 0.49696225683338335 0.23510011730248848
-0.60800476352243638 -0.53114302772027489 -0.21196554108603649
0.18568605867225341 0.44033343956057314 -0.049428054445610159
-0.26213101190264748 -0.29569665072280826 -0.38714797536673473
0.13676578595010183 0.54483140439632693 0.5670869031323702
0.7076933270894552 -0.3077897472981328 0.50475175640816095
0.0058486012450351121 -0.040735572857940383 0.73001966136719199
-0.22468319148739269 0.060519724504171091 0.74912908905377651
-0.12631416981741297 0.45017100894698059 -0.61711203503305279
-0.27219256237824713 0.047618050050171279 0.7951560946965277
-0.1826916043924976 -0.0001879792533867608 0.74300381440422858
-0.31838505380207555 0.16119790042466731 0.50348137429927942
-0.59997501872701853 -0.56570283999960269 -0.31176467856538503
-0.3085211927774294 -0.1385962794440565 0.70885138664964653
0.51402500199516932 -0.3393469196347032 0.64789544933475451
0.3617947585103114 1.0553655076493729 -0.36651776613314779
0.55915555532718897 -0.17518833600274375 0.47702205425083177
0.36315159548728321 -0.37570232624084632 0.70872471187249708
-0.25152361422547131 0.077266457922571918 0.75712408755316896
-0.499167428352562 -0.044009127540175941 0.62464360975936239
-0.54444309091466914 -0.40045945873285493 -0.30224462928253759
0.50209391024673078 -0.34818452901501207 0.68349222947747068
-0.020084008403206427 0.40780726992278404 0.67581982134872232
0.331027447235336 1.0213936527042118 -0.38849683628182707
-0.22673488614797438 -0.019899175014236103 0.75501889514527154
0.035660841198574267 0.17920238300918756 0.61368141756055483
0.5763919910492219 -0.33974044457949049 0.6460684809245012
-0.086854957802324495 0.34701615684565201 0.70975369493339657
-0.78643782837473553 -0.82247512986181959 -0.32377041439975873
0.044632527412667045 -0.042309987533310833 0.76650687765264136
0.70123904731190012 -0.27829824107891277 0.51723308741201501
0.27789840237240504 0.77976904114396162 -0.30991011587063444
0.1829855000349184 0.81651435103026959 -0.17297645076865131
0.68950131788773783 -0.35742676079767821 0.57773993102793075
0.26066034269730459 0.98982154491425545 -0.26187132037877781
0.19066501519398898 -0.281980523310571 0.69968719986276473
-0.12732781168498908 0.50340944582449332 0.60900452784589898
0.11825557394812003 -0.33127524249257756 0.56218913222602118
-0.1951685486234056 -0.084572436127890116 0.72844656908981209
-0.54000312107251514 -0.4257213319173534 0.11823138156683777
-0.57845254767029508 -0.60411483531562338 -0.17145653497734581
-0.066706982868462217 0.35453251582826739 0.70019844474384985
0.050575407132486927 0.25138170001280491 0.69269913969927477
-0.32809519826492722 0.01801179597626601 0.78797123351429299
0.11393394926471506 0.050736711873210938 0.68835237699236218
0.55983201690560669 -0.40573441401040977 0.67180078278014066
0.19532806696138075 -0.084013946364610348 0.69584234027448888
-0.13877572710167302 0.49811987969086746 0.706823046183232
0.13857216434663655 0.64195198468709724 0.40406630690969214
-0.28476848703657881 0.13277368971697734 0.74211032499025587
0.55704976566462383 -0.30016332610144358 0.62452160174250537
0.1930731187247901 0.56263216631735324 -0.15995461851395343
0.091208875177077611 0.44769039587710069 0.5909564992783678
0.18100542711444498 0.73136695860576617 -0.19511829381307177
-0.25591118013315106 0.17801104540483759 -0.65143571260983058
0.15734276983810444 0.52765850938498393 0.54191994266617294
-0.10481386627111217 0.36845241533374562 0.71557854024644685
-0.38105428237670408 -0.029760038454037296 0.73165111035042885
0.044284635327324684 0.30004269294940222 0.71538331960263024
-0.42315523661739646 0.11528237880300973 0.6606606400229198
0.35799126955667876 -0.22103670821412402 0.42755773856533624
-0.27982719233224057 0.26021538383515896 0.6967366287202571
0.14083582488956786 0.00066779947950768026 0.7382595950342512
-0.056069662699538309 0.37089841864086415 0.69346082099711903
0.10218185616693209 0.17534695943002188 0.64969562921142254
0.1874308802595554 0.46725992644980541 -0.062991941918173144
0.064546123785788029 0.64101395117360538 0.33660111609090304
0.1649040735623036 -0.35282067469153344 0.62367693941741087
0.25671021844247494 0.53841733329038188 -0.12505934783227834
-0.55960425405968173 -0.17424474263684719 0.53747619271354219
-0.035608215974910817 0.2031353141033625 0.66640760719268533
-0.34421839421467632 0.11638865444967372 0.72185030508266934
-0.58242169941457655 -0.51511090734720288 -0.16408152474624249
0.15265484170184906 0.12445823420554158 0.46824525153577978
-0.29008206653745 0.17521042348204841 0.7486043069333681
-0.74385180662384776 -0.83961181302207111 -0.22256098534683122
0.11798557149273514 0.86560758895948786 -0.30423003989611674
0.074646965528568254 -0.22124284808489603 0.67702396504259688
0.21914965256364252 0.28035261489357333 0.44971436650045482
-0.42643629425611679 -0.0081406505436587562 0.45552682899282826
0.032000025134865329 -0.064724250128101568 0.75973536390924423
-0.30239859504924199 0.24372209587504656 0.75228679810342935
0.17304956166811913 0.65582853146132392 -0.22865589812820097
-0.1223324071930959 0.25841282228801044 0.73092285891966113
-0.56006812728036415 -0.63164599126386456 -0.11351488460852188
-0.10620441136184933 0.30103250450529817 0.71921975248916292
-0.44217670074187321 -0.080661237826855636 0.67977328532537595
-0.59587881784019026 -0.49008003947709611 -0.18119266367619624
-0.57496866106251565 -0.63894698121193461 -0.13468834579002176
-0.37443933701148918 -0.023249119863680834 0.74346772748223922
-0.51119578054839854 -0.090660754973233448 0.66036601171353115
0.1797846013696407 0.1680109754357928 0.53343311184760633
-0.12159243404943665 0.68639657813704935 -0.52974626617014375
0.48224328932317345 -0.34567302105058251 0.66524593706434576
-0.22395312472945134 0.081571763341191428 0.74385115446432115
0.15515455365964284 0.34429933601986007 0.57883309143628281
0.0094272887134720929 -0.19173427449927249 0.025738881119436896
0.36836816571747977 0.70349690948569976 -0.33663738394050602
0.38629905149110855 0.93423802771118303 -0.41427435873409768
0.16202285081499912 -0.054690229331216145 0.72303944262108999
0.17788590738867407 0.58769069475583846 -0.051765141642639345
-0.06034966069338471 0.36254416305851622 0.69596150650736965
0.6452555716738696 -0.38604189384004006 0.53306663869232962
-0.040548855293718211 0.31063769150142617 0.72314998927296248
-0.17463855845635462 0.0065972825617268693 -0.51454854322996924
-0.016483123949516371 0.56513496227100291 0.61946014377420933
-0.74449952518746443 -0.81298115243344893 -0.27716725555407651
0.49573112263401264 -0.29842922790484461 0.65769166305398197
0.043282289174466748 -0.011229880707895212 0.72857327762903845
-0.70012453283992238 -0.6248124974896585 -0.39939497138878688
0.17050561300910511 0.63761394986429698 -0.21882868340365613
0.3266778893905915 1.0053453256732343 -0.38550886581647748
0.079780101026796113 0.029485760637802727 0.71025649089003828
0.45618532638496007 1.0491858389361901 -0.45316148335435169
0.39678979054431679 0.86280513046454499 -0.35981854758947496
0.23978221463766292 0.98828381375859387 -0.25024745262468584
0.17013339530300109 0.60255837348915708 -0.16689949807599225
0.3541343334649093 1.0922603800109023 -0.34225488694187745
-0.066673817703872207 0.5170270550901126 0.70658383464067243
0.23556474202051264 -0.12843522204117863 0.39102832112768104
0.22747732867299519 0.43450433432893942 0.46037480260293628
0.17584046961998187 0.45343914260163909 0.53183030306619583
0.56366876193570614 -0.29906227722335954 0.62777791153960361
0.16940144710031813 0.7468656268507563 -0.023662795097862177
-0.40137506850324201 0.0048695959617761631 0.65549380789907685
-0.040872044724540091 0.41584816512537826 0.65082375714459428
-0.21963544623674952 -0.052659592774237707 0.72953525126626473
0.25657659204089101 0.94100203788786363 -0.3015293129465737
-0.58336055182682633 -0.47308587412939751 -0.16070083172742111
0.22738078987242297 0.021069312660355388 0.50620694540831579
0.0084908364145260262 -0.030895322043977824 0.73106942299059929
-0.6383290148566112 -0.49804910859663876 -0.34594002019850734
0.075283936164054321 0.26712878203749946 0.67888389093158441
0.16621754330473421 0.16136615466402704 0.42911890943227682
-0.33282847684113132 -0.017944692797853712 0.7841837785574447
0.50942802469225223 -0.28029390875861204 0.67390744536072711
-0.14701420842348745 0.39416074575001681 0.75387676568499962
0.57932642015440028 -0.38903550476087378 0.66953853592909929
0.30893618859255756 0.90008141551196097 -0.34099095078534836
0.22820394271647024 0.89958884375820303 -0.24234664987463483
0.304125627956081 1.0448915482134984 -0.30515799666046328
-0.66176001932284056 -0.74913715867483721 -0.11769404635125302
0.67505102725610899 -0.33743121407958721 0.49022194761186944
-0.55157407412437698 -0.32674839132593814 -0.11059315686786531
0.3998831628013696 -0.44817733831309181 0.68275118468088114
-0.46682376145869198 -0.52176166245968769 0.0516842629805917
-0.17168901596077474 0.30205870863062079 0.6229976520710464
0.15618201169576329 0.13537968080447627 0.58142071144387342
0.63686948504542218 -0.25621072573378401 0.60326867078363322
-0.4257211085991473 -0.25405486694298141 -0.50842010004254012
0.26594544953091254 -0.050778723928489811 0.65666021408782993
-0.52879328018628291 -0.64313650062195094 -0.086338676337134768
-0.036322384055505752 0.2816954049422995 0.71774611679510969
0.24842338018310162 0.6907817838043262 -0.26551759318301549
-0.39305911602776156 0.18355258646224515 0.64578547035007283
0.16847548062835394 0.27975314060019696 0.57548711440187916
-0.56774706659311058 -0.60372467120010098 -0.15062505504344714
0.49387988505890135 -0.35206478751001824 0.70358521567101917
0.13394618380271245 0.50506237643541962 0.56118900802072758
-0.17222398551937596 0.07484267009022183 0.73380377868140489
-0.35679698723869574 0.19457896796560048 0.5757474089730128
-0.45278007607635679 -0.042227064701438888 0.19680824702539779
0.46093860248162055 -0.32651384521458904 0.69260547544882878
0.38798477013746929 0.96200082475048321 -0.41641400369605608
-0.48626163006060757 -0.55762824934899125 0.050855035988594532
-0.15622735459308373 0.40151708224082139 0.74912199881458452
0.4843400061119621 -0.29439508347787191 0.68500745276061581
-0.29941811802190066 0.071792264018404328 -0.63119577420011452
-0.523126117234754 -0.1291237517510484 0.64217545806973331
0.063492297721815638 -0.01200093519382861 0.72782957316845198
0.19950444941730539 0.48415468466019496 -0.21117189415936044
-0.072958106590305549 0.32243180156761464 0.70197386840967424
0.049873411820068159 0.43557601329406093 0.62084958675160107
0.040209385792204039 0.58414828212914771 0.58389879159882729
-0.3624730544749325 0.091645750135538551 0.71699699947369766
0.079745082731102229 0.32989464215337261 0.68455291310285238
-0.13187209828913751 0.63096178128284386 -0.58692506580309589
0.19903788967103847 0.81550336081443109 -0.20642008985106974
-0.18013128560182218 0.28164529146757866 0.60478502469726769
-0.18375606682010626 0.038465016881357172 0.74474250199511549
0.29602735683958797 -0.11642257961262836 0.68129095145158702
0.068818116101378779 -0.00038514733773076237 0.72315063887805398
0.037125989681795674 0.2585695251379454 0.71778819191718901
0.073571299794177397 -0.010248094513195083 0.73984527065683769
0.20259917938151412 0.56806215176658403 0.10364887684223822
0.077713372873631781 -0.083233352340418953 0.74514930045558003
0.31937293246083476 0.60390699031135964 -0.22489540705916644
0.2684713265026672 0.91667366275000806 -0.32477013882023431
0.40452252355394619 -0.42224914765954247 0.52322905620265714
0.32680405813088009 1.0922657548326096 -0.40520729453837356
0.3755225493555569 -0.3564204112714513 0.71337312273555398
0.10523517422581774 0.1380732787986485 0.0027229479122147238
0.15660576910552715 0.051812646254455474 0.57733497687527879
-0.4251579066906821 -0.080137638204920369 0.68551194506711566
-0.78423870603608292 -0.8232559621847173 -0.39540572305374111
0.54981205800291244 -0.31559733206699869 0.63070266250912144
-0.51796821779922853 -0.32980806499180404 -0.39003821276186612
0.44344894177437094 1.1071565575606117 -0.42328490483256864
0.15640878642731448 -0.02024080032882547 0.73243449644579439
0.33254026212702914 0.93105139214555377 -0.36234492374018556
0.20866909819786586 0.49199437191370876 0.26772098819547513
0.40155359770288995 -0.16439539338236742 0.4222061683972072
0.27526660741462072 0.80836867882877828 -0.31191789533593894
0.62337717346417265 -0.41580633874177941 0.6135785516941652
-0.064296943814130258 0.24911598167272686 0.71205928732695911
-0.4321310481420706 -0.0050952627738019007 0.48697122493281242
-0.54128369073728133 -0.12481375642741521 0.61732523759700841
-0.016290335437349868 0.30312759512602905 0.73428702793735667
0.087456574197594755 0.6181204579403311 0.47164886182593113
0.31293847934546415 0.94324709036703314 -0.35153969160038356
0.16292694467020849 0.77853842456674371 -0.053477300914951731
-0.37704852781493681 -0.36809240274275834 0.33540509086810233
0.037842201563226013 0.45866894039204364 0.6372083738745582
0.1489445586758355 0.1111957300005777 0.48282815326930345
0.29489294650657322 -0.014624094726487735 0.57699451213371333
-0.67787472666138382 -0.63879700956811791 -0.35484188883126111
0.051002932651108113 -0.035439794212480002 0.76432441550327745
-0.11808530374494375 0.10407442777442633 0.71785210142634037
0.025952237060554662 -0.038141995957490682 0.762591886723191
-0.043659317610576093 0.32123763025877605 -0.45942648331450309
-0.25881335990014109 -0.081226088983459954 -0.55263891585862568
-0.56316772792468628 -0.52790574087018727 -0.14881084987567461
0.11804799480194743 0.92855733229086779 -0.20582926947801539
0.3513778695193816 1.0079859972180407 -0.39817303377396029
0.55689856877863542 -0.27248330261450726 0.64855376084634797
-0.043291414685431129 0.2020338943282094 0.70226833699077473
0.19265071719172311 0.30322751913658341 0.32894296378909937
-0.40836068746556314 0.14832628898130595 0.63983702849099755
0.18899298637821563 0.03683654204342468 0.4920342655900638
-0.36522056987230639 0.064693013572787672 0.72855997138451789
0.11929660311640319 0.30366285091867118 0.61800777508992022
0.43263175361412476 -0.4794992725503735 0.64675933152457143
-0.057236272909817865 0.25872480367977291 0.69991128609338371
-0.28891262583269406 -0.40497727635192482 0.098440241204393431
-0.30423244931751492 0.020790019512858748 0.79743764747076251
-0.45067076566707998 0.041653705316057499 0.68968752985849391
0.069563131294747838 -0.13781482195218397 0.1077367118335244
0.17873065917869038 0.69339397048532825 -0.22535765816948194
0.11242983511465213 0.30393468542429281 0.6341268092713277
0.1923881407733592 0.52794731868339473 -0.01027493707207161
-0.51830647550760622 -0.18290326165883397 0.054963313785621137
0.48350132762398446 -0.21841994006962251 0.4252104424959296
-0.20102293246597286 0.027122465637186455 0.74992100994986266
0.61920861470703581 -0.31482492559569697 0.65159649387426322
0.56170471729592708 -0.29326108962775232 0.62953529410126841
-0.67825969113909379 -0.67647697089690384 -0.29848420251747476
-0.1270079097557677 0.43913211910187311 0.58181316365091917
0.052145890413228008 0.4505119231992718 0.60205708090879517
-0.12892632732310805 0.076854475896389607 0.72141717798406924
0.17397145109019219 0.67044170362489464 -0.22252655756135586
0.21723613336435749 0.59800461264478777 -0.22176316356197212
-0.56347646621977421 -0.59176469467733961 -0.15418357040973518
-0.21180679612456627 -0.036593511608129958 0.74499587046406746
0.11183254864486308 0.11565921353217523 0.66136799275020586
0.021744270977708424 -0.01640139947572572 0.73150228738744971
0.12461967509273504 0.36025254853616562 0.59614036667338599
-0.67353196228730383 -0.61162197252071326 -0.37050916545267809
0.66724043626701024 -0.35889920422826727 0.61254920457405593
-0.38164088285005171 0.11948564260464289 0.29010410187149205
-0.10358183748301925 0.4600401539321719 0.73329894595207545
0.22884769839009822 0.54464347436132288 -0.13959716920211618
0.18043389450727199 0.54750826277941522 -0.054327991507859164
0.23105474124322423 -0.41614855793433425 0.55411897364441642
0.15589765798894714 0.82382015337812076 -0.27783998475008342
0.10391557992728576 -0.032835143722335758 0.096828284862004343
-0.31675201370088679 0.11130616268797611 0.6817901916205138
0.16923784604149772 0.760546517880898 -0.13960218663167212
-0.1759625842591987 0.26896440793586485 0.73676359914290424
-0.72251517292041378 -0.79809112736867172 -0.21506522125326288
-0.016070893690460275 -0.23627281862372929 0.4792240367196452
-0.068133455118380537 0.28985964250696283 0.69746340557370035
0.025204267052979901 -0.071358446727350922 0.73507239977729166
-0.60894112477112305 -0.60842950997672318 -0.21475052665621708
-0.69795007216947491 -0.71606835940408775 -0.30490902695970057
0.14908866614838903 0.39014025728710289 0.57435976680493606
0.055429696547596746 -0.011024078591725939 0.72144539524514317
-0.019625250809296946 -0.11918426238933555 0.67075246493763641
-0.044180437678445539 -0.17131216548434036 0.57887569445236786
-0.17717590610400474 0.015396709803244812 0.7425217064685673
-0.3214141595422097 0.095767846826439129 0.73298142093427088
0.6223067201497916 -0.28115336387255629 0.63326419784292709
-0.030636185429389895 0.40293148596393635 0.68226565333317424
-0.6567764959303638 -0.52096311680256524 -0.38468224713793164
0.10580119705911603 -0.074686236748984003 0.7447059808799098
-0.57614351028156352 -0.47185415857535484 -0.14667335125055514
-0.51205373357441042 -0.4902203918669108 -0.0088257380027636501
0.087288550732854492 0.33182547805420914 0.67722904294851571
-0.36243260282936368 -0.093925840730086918 0.7175644791362451
-0.69969033154739524 -0.78316531851513949 -0.21828929079078174
-0.25674859695805469 -0.40757323831026349 0.013583638498516404
0.20212369930622981 0.45283262819340009 0.49982412830303458
0.27078151700470826 -0.28336312180646472 0.71470869624022892
-0.81873614183932963 -0.77524591274974208 -0.50642949835700857
-0.015812817506388743 0.23566566549706058 0.69827218201049501
0.20445231265616309 0.33876046743567123 0.35617503224644143
-0.50673500741723143 -0.54180353357390643 -0.22176634613897361
-0.57176994770817657 -0.55037052321450997 -0.18276868021681614
-0.54986291396797204 -0.46780427752879983 -0.06694665476253181
0.091399130730237199 -0.25352307392215701 0.41958171020029578
-0.48656268360727062 -0.085418459909574196 0.66771067382171034
-0.15599159927594042 0.28587397573850415 0.75450692271381115
0.36291719804369416 1.0377798831419804 -0.39609137845538633
0.11653299501083525 0.41216137466892144 0.58406770194389634
-0.33360099223088291 -0.058796445576912992 0.75850488012147921
-0.19977532995419589 0.10082765430912821 0.74125189307327799
-0.1595025322033834 0.26383151583637421 0.75362987563553896
-0.52275533707003963 -0.19464473436131091 0.61198550613681679
-0.24486707491726084 0.11006612621208189 0.71577420972436734
-0.33729463257287456 0.13872625643101544 0.72709877366422959
-0.33356494751166138 0.11679487173885006 0.72594464705238282
-0.3284212247869025 -0.040954205775490804 0.7790373838488871
-0.038511374521460001 0.86884146472034041 -0.32133516361172165
0.011752196807034432 0.10776493805696852 0.70144853744853386
0.025551551985611876 -0.1743597403235293 0.66715720555240354
-0.66460301098381391 -0.64630911643077149 -0.30009459540798811
-0.012954524530964628 0.33281742645127554 0.72981879315007303
-0.17263700671546089 0.30989706445608611 0.58457703324441879
0.33081950896556006 1.0794770441000185 -0.32456639270150911
0.55184095015440893 -0.35324493395221879 0.65755630098892315
0.38834250551386057 -0.10121495551068138 0.63124365683142081
-0.034932884222307059 0.26414161620789911 0.71033719149416807
-0.22044901110572429 -0.0011685953790936399 -0.56317612190234745
0.37646471499617484 -0.42979962344420697 0.53083461093388229
0.26888222345676577 -0.12617213150298179 0.40538100975282643
-0.22273460376607773 -0.10010712116560927 0.67843993944918723
0.30712105490369801 0.74548532809608736 -0.33009874779138926
0.65226983981274733 -0.27167469808013744 0.60155214394085688
-0.27161735166269124 0.14071296357856089 0.74288634220129079
0.092417357755487081 0.52985266544124721 -0.32466420740737767
0.1842352516546408 0.43608365170972729 -0.17196273520563932
-0.048189951123366825 0.2156349974822398 0.70637834064373262
0.52542939625558482 -0.24528756914588667 0.42869700726357474
-0.53912888288601279 -0.3576538333880388 -0.30997496553850157
0.080274635029865496 0.3834003478146264 -0.26033175439151801
0.69509271874798984 -0.34085744408561869 0.58179457052243455
-0.084027154407134097 0.33336837643297423 0.71122860972298374
-0.54142051414493086 -0.55420558074450321 -0.12634658777911512
-0.27989579119494623 0.11688678342236991 0.71023758744258558
0.10600323001639028 0.23283183387198925 0.61194583843229788
0.45278520946406081 1.0726565356214146 -0.4481082624848638
-0.6213549697041223 -0.54628114958058926 -0.37285021303125843
-0.27754494903341337 -0.14836544272419894 0.65275916385196042
0.20932083244763983 -0.062979116446093553 0.68581616014362667
0.074610915882878159 0.010436093934378388 0.73126541593672978
-0.67978928034257635 -0.76845137951711107 -0.21954141650798487
0.29200694729984683 0.90589130795856521 -0.33164955568607801
0.57897728955783634 -0.39980771057689535 0.66472884148039513
0.14233701568634571 0.32923153148191586 0.57160194446017676
0.61540301273239262 -0.41584752116796664 0.55975791602156999
0.069560994938060006 0.585457729889582 0.58797071559349301
0.13433424374646219 -0.29645902517551947 0.4797270339090014
-0.061284405560263044 -0.16547566087183774 0.56623303126046853
0.078032229749731702 -0.085712255764735179 0.7391981852991899
-0.0038296860113710696 -0.25608902385833598 0.4138242433920799
0.10894777992698931 0.43710662415525803 0.58637998579489625
0.14227023153250712 0.8183395943031252 0.0052137098901632317
0.23777580995954381 0.39891013146654419 0.42908175146319039
-0.2566804027356388 0.06002583039130438 0.7889374510937841
-0.17271716141839882 -0.024308213983703419 0.67906834815299588
-0.30442257131437656 -0.26114353517508393 0.51908554978934873
-0.57018956895504136 -0.64191317164064077 -0.07313888564711013
0.009360493380167284 0.5365990049324153 0.66007772547524191
-0.065733979121401775 0.36566216610008739 0.70061953535383259
-0.47411882515650494 -0.027999952227441227 0.55546111600171399
0.35819769148945602 0.73337732758297491 -0.38362793041729126
0.14097942445718462 0.012967906788075023 0.73317074276802274
0.11413765594246347 -0.19575109311707029 0.70511210248447953
0.0189417313081085 -0.046434609350967104 0.76020863109678771
0.19822852434699798 0.81346329259894046 -0.31976772042840274
-0.053926460745837512 0.14692310370969031 0.70135139368301203
0.35325279608670679 -0.22793840325351367 0.70389555846927732
0.24299222904920723 0.85901227233156563 -0.29628770706580576
0.24290211455085015 -0.34678832804320248 0.69007253449439854
0.10325388152223214 0.49173239497252808 0.58108871700584519
0.18632375250808789 0.62482847798933294 0.00092784114285970887
0.32357953643968512 1.1035611975574378 -0.38046019889229243
-0.031403353558756453 -0.23136352810104266 0.47321685024645321
0.010629776044298211 -0.030531614646243099 0.7497428133505275
0.19810490246077384 0.51112107267696083 0.015973089965349296
-0.24877062475503253 -0.11985355394920161 0.67568380379973647
0.02522492794580819 0.26624769722682262 0.72454379741649688
-0.37048988930567528 0.03277633396895685 0.71789221053667429
0.22268590426975679 -0.2137651990858318 0.41277464853407442
0.26291770940656856 -0.43667942655577763 0.60329372135476289
-0.35641565428052857 0.002752271359245384 0.7724586601544311
-0.17527985454040329 0.53783206632336233 -0.6069321982747814
-0.80615693508348529 -0.75713898553456815 -0.46945615698727805
-0.33771681418213384 0.10609110511520869 0.63183395612153526
-0.080331070221195622 -0.14782731132930516 0.57718708606335667
0.27113824902032735 -0.07080532719444288 0.4141258372203957
-0.35516929909698697 0.16468049039285293 0.73702502492117128
0.28145991523003705 0.82905534611108678 -0.31907720410906459
-0.6994273383078109 -0.57647634338279485 -0.44036150872463309
0.48979371648013525 -0.3474111738142851 0.66974880871079701
0.21463308673393072 0.59272149271333419 -0.21029646869126006
-0.24695145394889445 -0.13091380685860021 0.65720958825552733
-0.22401610425595408 0.24468357152334241 0.583848221014031
0.17092397160626391 0.65105276984651206 -0.22014454724030874
0.18579644751284463 -0.092460213725837015 0.69997813871593684
0.27064693675554063 0.75695549032163623 -0.2985884116102312
0.20616483047295828 0.53811674164078371 -0.14705738421717673
0.23522945875610241 0.58495840090666551 -0.20157660625017493
0.57984390021032817 -0.33439107615459851 0.64351815639670651
0.2167154017362376 0.94924862805547605 -0.31941590593500846
0.14700827727667953 0.76756650526197534 0.080702539679638363
0.21551873829287846 -0.37303541426134745 0.51471704414381392
0.1086960945266329 0.94653974251833628 -0.21209325221185149
0.58423934876608197 -0.27887474046388983 0.6558256353816404
-0.51229447447047693 -0.10002527790121096 0.5349746366840884
-0.4124572213808485 -0.0037103592090850235 0.60719913845938389
-0.46289107256911061 -0.035304047136966554 0.6850594957502214
0.11329030597845602 0.036758515274699644 0.69070843250543423
-0.46963231765588692 -0.24374684309691408 0.60575179922639444
0.16488282135337165 0.049085987145799814 0.52368584935803952
-0.18986131823651264 0.24004726870552262 0.73717553831380689
-0.21684466952427794 0.23786097112574267 0.7015245878563775
0.60160571193804546 -0.33791145678606571 0.6581792640008155
-0.019850740959757474 -0.17260833588476632 0.61942644808775205
0.6297975766656545 -0.41369372170726781 0.57558087607465658
0.3076779798711351 0.67146930210725131 -0.25356948670036206
-0.40099645961559482 -0.21688582856257455 0.65103555458760765
0.23032220001389764 -0.015979947760728974 0.64556243408093905
-0.78269680254572482 -0.82299906752429908 -0.39884893703163626
0.39127672122580004 -0.12942618291151042 0.42830603189214839
0.18594058013187925 0.5122568395097653 -0.10783999740477501
-0.46319508898209549 -0.088212028773932083 0.37246090941633259
-0.30634738268035078 -0.31260886564046131 -0.41297806009111848
-0.56975683629533869 -0.45012828615542189 -0.26631408197274442
0.0093497234741365398 0.66215964483458634 0.29982376290618423
0.29408664847064225 0.98554607838080566 -0.35732100310784753
-0.36792415082464958 0.09020974052326336 0.52671707639145826
-0.72786805519786246 -0.80754973628209603 -0.20123789467290509
0.364251519920884 1.0355010780678602 -0.40451413194795127
-0.40346468668223651 0.041734966149326702 0.5068749633619819
0.42755651051485222 1.0102983981437847 -0.37967768614450559
-0.12108119186386329 0.060873292023999381 0.72244716518956298
-0.41781349610739094 -0.011251402394879317 0.69627408529748192
-0.075246830085690608 0.29786294648788303 0.70728566239573565
0.1583850457243578 0.6281166751046543 0.50227786885199355
0.16979123723795778 -0.10959526835222344 0.32382679609713061
0.36941652932004543 -0.32575068713012767 0.71632200141762037
-0.11753900153642649 0.52749853489425691 0.62554362859690593
0.46105804859833693 -0.29233519886077897 0.70076671587200745
0.031399033717961378 -0.028524740014143068 0.76010595290382366
0.14597811245111514 0.021478649902967772 0.68457888313243753
-0.30510580627531025 0.07813410750080152 0.77759792642598191
-0.51081782591107239 -0.50179349675404472 -0.28745844903377371
-0.59080538933335602 -0.56195063828619563 -0.20763624950667026
-0.069957781978653155 0.39657162692737036 0.69456625623699408
0.041312537202645605 -0.058896911121276041 0.76705501536402521
-0.2547871890768067 -0.15155719497473275 0.69688038253032913
0.012536666512610761 0.92033873882933559 -0.35619599287708015
0.28356232835474271 0.67615268781575244 -0.27628742141743401
-0.68309457898231429 -0.75987555288301434 -0.32565352419603188
0.096158209166582589 0.20184913023989481 -0.072615565879240118
0.55081008122460973 -0.38489795947012739 0.6843679186238224
0.2609641626510682 1.0207575359674759 -0.27151985722310723
0.07806432582511133 0.66386421641467308 -0.38260670102508321
0.1128352466064394 0.042483355945651224 0.69086610096947743
-0.0089438591485160313 0.47253230904287569 0.66551108377061818
0.3452776910631617 1.1184120853244868 -0.35278802115396668
0.24185040263200253 -0.42684921915756746 0.57725383142697484
0.1488669610771437 0.18016530637504236 0.60738583401810242
-0.28766675630293059 0.20738676359369856 0.7630676839342021
-0.46126728851583226 -0.34713736462637534 -0.44496582482282188
0.21612834201516939 0.53866670607707579 -0.14217126398900248
-0.24232569849562746 0.0074720863286801276 0.78604877752881364
0.17148094220140386 0.66094216217959167 -0.19911587209284987
0.094039019698454462 0.0026546416740167444 0.74462196037190254
0.068861180314028408 0.30762493604812047 0.69850994290274782
0.47668336428759983 -0.33438369655421907 0.69738628340814524
-0.26064270053972072 0.13814033069429632 0.7440373785500316
0.12147552223605391 0.9009160348553753 -0.25285649859477055
0.094336754606669626 -0.26593037589136248 0.44493854720572212
0.21070650725364962 0.81899384941415587 -0.25417190877078055
-0.16962268876453923 0.35440996527342672 0.64698974493208428
0.073346132072361708 0.26968600553626754 0.68620825566036414
0.13417603053488933 0.32636727138959598 0.59182217009501559
-0.74705577493011011 -0.813114419163248 -0.25493107918962543
-0.21089748985516932 0.28645762926085383 0.56114110494012737
-0.47808795426813167 -0.019978549382236421 0.58194241886768383
0.21930729351086156 0.27828026474819834 0.48811958165364233
0.17875031411896958 0.17353168478389591 0.47378860464154338
-0.54345044840991852 -0.21615777629834398 0.45105451797486751
0.083649825833864599 -0.014161491492939549 0.74994446924994818
0.22554541742705148 0.87714619669912164 -0.25637700389928952
0.14439579778087364 0.074985058415868222 0.4988259467692886
0.16215772772011094 0.65783293462843972 0.22943416116015286
-0.068952489228159497 0.36745101217135034 0.70228227424654188
0.22104845671064166 0.55414314592228053 -0.16179508665905329
0.062513842364128325 -0.010547797213240395 0.71803997857872515
0.6289565382412583 -0.30736532173633213 0.45320226281475756
-0.7358727735114261 -0.67798502480350264 -0.44059939288080063
-0.39914443683372719 -0.029365825028661696 0.6970867809110971
0.26781197894787828 0.99025349720230205 -0.38486059051758703
-0.41931876478732505 -0.5107792344335258 -0.01389817366438062
-0.67879870656918251 -0.55487591606338471 -0.45381245219501143
0.086244865456103673 0.45636705428120528 0.59666267352605618
0.10040196141261019 0.74787485814394128 0.19413485912335665
-0.56674845031924947 -0.48790953784686075 -0.13046808614320149
0.36299401032442313 -0.12130449111234665 0.65946238046458761
-0.37770542055500178 -0.38592101247164257 -0.38137446756325077
-0.26895057494255059 -0.01936534962772507 0.79161919461525287
0.24287863619546987 0.65624437699794314 -0.25209034185001999
-0.06855357687913155 0.46265440692933402 0.7083835901826091
-0.63995219507796897 -0.64819460204773316 -0.24255530546512716
0.15346477438947553 -0.047518139300531059 0.73204226054373422
-0.082521825772463642 0.54475112327685715 0.58895511062573191
0.32319449348324469 0.71357945785357302 -0.29923333113837769
-0.51170969479792827 -0.17392254894644865 0.39333217321787917
-0.014450492183380903 0.35367053750265742 0.72392556815101539
0.42764029742465942 -0.48462356869435586 0.60988584521246081
-0.24895022631485614 0.23222812089675982 0.65169675756381773
0.41178076877449088 -0.26507019882159377 0.7033186845142273
0.48496432695080649 -0.2219979546767572 0.66863005246127072
-0.25772562923852915 -0.059755261898155165 0.74310838894335218
-0.54916762948586006 -0.14896884035401148 0.54466698424485849
0.12896539292092563 0.34011383814742202 0.60379496109929065
0.064584481352957274 0.37719204449218591 0.67393938438805789
0.1214437803319591 0.28414843107061016 0.62714269883133822
-0.10401363291888155 0.29793674705827144 0.65481553707718221
0.021722835169502908 0.60698800648812679 0.37846554235862062
0.13803251158380198 0.43580868943246487 0.49399324713682785
-0.15627496154069698 0.45354672170691201 0.64200373502685348
-0.46296414196532293 -0.45529310504845699 0.18459861888502027
0.060287344208458604 -0.022068354785428124 0.75684828740655619
-0.73719780778089228 -0.65146044140603521 -0.44556005209151472
0.47242921410116168 -0.3419072907785381 0.66378705115571346
0.26058499393121037 0.51606448568612606 -0.21328828876448114
0.37447667508656934 1.0931286979478325 -0.35519249292107358
0.13495692780048646 -0.20111215482359768 0.36757308016326928
0.32093472179099897 0.9018052037871982 -0.35128736537819427
-0.21818904371767245 0.40551087381588447 0.38598552246490758
0.39395834505831318 -0.20287804175895174 0.68605910370775458
-0.47726827688336032 -0.27669503568459164 0.5610736175467459
0.22080571659123743 -0.1278940910993156 0.70260710196126053
-0.025948126786665332 0.80806473192828321 -0.48509398615401655
-0.27227416191129117 -0.071607067744485553 0.74009594619967389
-0.7234694762427053 -0.80230714280343807 -0.2914476290781447
0.67088718990921015 -0.26941776049269173 0.47457522145525266
0.40818171283366833 1.1099264607167862 -0.37575872895632423
0.40541316225537527 0.88017229008358289 -0.44302868447953692
0.40816386722306086 -0.48292811954876202 0.59224152503246996
-0.0723225586460014 0.29937895592181452 0.70258638322652645
-0.57348950203913973 -0.48651890716611601 -0.14233725359402427
-0.69739945703827233 -0.58300607701796947 -0.40644689104738541
0.43807624414168767 1.0839568296784994 -0.4644449609312451
0.2095630539116414 -0.30270188274036158 0.46500452002895987
-0.3489902044895184 0.21732227682113703 0.74593173806424373
-0.038201623056842715 0.41605673383671538 0.68361635020987677
-0.036780310131700356 0.24037236697633824 0.68941815028356868
0.2970554861421793 0.79461469948407204 -0.33036130215029735
0.18412640349193349 0.71716658430975921 -0.22816230777430502
-0.56634339241321352 -0.53590890371108446 -0.16178027303361997
0.18033498226619235 -0.018064550434705229 0.68819944345177675
-0.55273191319530568 -0.56823586247889746 -0.15800753262023826
0.45702919157671168 -0.30586449318494835 0.68880424306140464
-0.32785774422952163 0.067769579849071615 0.76706278762114422
-0.36920056674152374 -0.10939535014156676 0.7008442717903034
-0.74754705136791544 -0.82292462582900061 -0.31836863550625516
-0.17723670258713542 0.29208284618667313 0.72003723844629575
0.43876227987056643 -0.3068785077510614 0.70934958700766049
0.54117858470024338 -0.45304294654505139 0.62701518365951436
0.10213393249610095 0.41079614498533612 -0.24614525043286128
-0.16466383279948699 0.24218562183055803 0.7535729183149823
-0.32013527076440568 0.20969675814072142 0.75605895493188102
-0.27534481442986619 -0.041937577672405135 0.76984975086388052
0.54854135295157525 -0.23598624819084746 0.4301322800680995
-0.43998287605250508 -0.067977659209524033 0.68118941454228932
0.28060608533191422 0.96182327214611818 -0.34599679540932504
0.41997411628262737 -0.45483438700421019 0.67943070639450531
0.18084418427322085 0.69567252654480605 -0.23452914209056508
0.07774207671668143 -0.080164419740822224 0.75017254865142136
0.5046180870120498 -0.38085889853352728 0.69905021687394142
0.052595329860958051 0.24410390262621284 0.68438375339159152
0.036077766388972921 -0.062301228498428118 0.76413483374523894
0.61662112807118707 -0.24063553454196307 0.45368934018163876
-0.077584066097017124 -0.13149406344311587 0.62748453977265073
0.45054736940663676 -0.35787082190246378 0.47315588205792519
-0.14166986409910298 0.42066046759338527 0.75150574219341049
0.19409504044319864 0.56233386657670481 0.47990642963546326
0.24695128619766843 0.77408070960501729 -0.28669206752493426
-0.22174326266682265 0.071702236407961362 0.73941593467566358
0.13551792797817255 0.39654719309453146 -0.18363239512353458
-0.40388005116462766 -0.23426574588565741 0.63415761723039032
-0.5376408030494183 -0.61232525806397065 0.027675062169113196
-0.19885924979346659 0.25115057933879159 0.60691911895590422
0.29039989773426744 0.64881000610813655 -0.23425513202292014
-0.015127196883063382 0.57009101910527915 0.59400251455272146
0.017393889340755975 -0.059339841629900913 0.74608586678775224
-0.20268929467769864 0.19355808247489348 0.75841748987295332
-0.31230973051154093 -0.019178688756872342 0.79037972925615985
-0.19220089905676235 -0.019575327255370922 0.74227813985470481
-0.26161694224902704 -0.40648545056924901 -0.15786511836166861
0.11717916978670734 0.91188996543883083 -0.10395764362885851
-0.62110923493360859 -0.52883016106130998 -0.23545333311660721
0.60588509755554876 -0.26684452390441815 0.63521305972628084
0.67389901620248749 -0.36459553084356622 0.60101700004616787
-0.55958618798144344 -0.48436110355692241 -0.29783300370001053
-0.71201942674987828 -0.74395304063473566 -0.41668243025234952
-0.073189983274934534 0.81165246043984829 -0.34881117682805374
0.20223801494535826 0.59401868823683279 0.41543148429749577
-0.14696545772974001 0.38126697603343884 0.59671079569819141
0.33994888142013563 0.74989033586672793 -0.32747866731424502
-0.47636104616204322 -0.30030479381547881 0.48583143456671607
0.010090040994873928 0.37525645410566189 0.70824101711010767
-0.81274234592589678 -0.84963495452191418 -0.33943701598943077
-0.40275625210999072 -0.14875725039426357 0.68754741933565378
-0.1537379364856461 0.30971941235416367 0.75549173426431282
-0.19268031762695831 0.0093320906245470958 0.7279652141041858
0.19360435738467252 0.596502265173803 0.22021414807956607
0.61793120326956741 -0.29287167964326355 0.64396048869932132
0.28215815006782374 1.0300590810513879 -0.28144444071537378
0.038413290176064541 0.50559106408395105 0.64118109207694918
0.65962499407970943 -0.3771492537770238 0.61183233258992487
0.54724127538937783 -0.28165954204221166 0.6286620589156815
0.15702863543297849 0.68190643389637029 0.18928323459237278
-0.19408272378934088 -0.37570204759673054 0.088644795311016433
