# XYZ point cloud file
0.32045136694923881 0.65445730215389553 -0.037700658817795052
-0.85560222558819055 -0.28938542556142988 0.086896103462442476
0.75623465024478376 -0.1824079844166544 0.38465920877752602
-0.22569846975619068 -0.095608660125961531 0.76657520140587287
0.78602567676949353 -0.33552028731009242 0.69342624989415214
0.74241823357462655 -0.31936902968872838 0.65669305549331902
-0.71723650944951267 -0.7766446340590516 -0.37898859182451261
-0.34112105782353763 0.48283361556709592 0.63895137404594227
-0.016163146619636803 0.58143776486008381 0.67235735916491279
-0.13953364881808794 0.0037192362371303578 0.74818578397269508
0.26807074421773214 0.77559755670302932 -0.26976722794106323
0.38358583169488569 0.72347229246621536 -0.27830196006725094
-0.50201051569130994 -0.69270248706232485 -0.29865457101178627
-0.20925870508420785 -0.19358031838864787 0.74761647788899221
0.1814932911555811 0.14716815129283739 0.71737183004555316
0.097124442779248588 -0.09112447209086505 0.76365827147983989
0.12761509923984482 0.49488892192347489 0.6701084451242254
-0.81972425186476705 -0.69033707062758687 -0.39979927161735418
0.85300467634241839 -0.37387815452116424 0.63392622589661851
-0.76450494205768771 0.041765600739492648 0.3417744801124627
-0.29488160228021137 0.53283444978238315 0.80259365324994647
0.40779876748673682 0.6786946102358733 -0.18849618124912881
0.30501018721333406 0.66814563150152395 -0.088339615309469544
0.47987015050617743 -0.59909066890869478 0.44125418062132926
0.13723580710908845 0.90132420854749484 -0.31248284031028772
0.40431425433389834 0.020071741601281889 -0.033883974776130366
-0.4902713567724486 0.0029195084311948172 0.70903898934575782
0.17488362531687196 0.86386239603566106 -0.16089153752071272
-0.31752193428471254 0.25524910089558772 0.78824373739681164
-0.62586949466979991 -0.9513718825103723 -0.35689435858220264
0.18641327806749053 -0.36756717392691862 0.38023717619486863
-0.14217833608501751 0.32618395873385975 0.75534427837869877
0.1174307770804226 -0.1777523738864098 0.75636148429010763
-0.60890846587279823 -0.7058573340041443 -0.3256878882873977
-0.71256365883062533 -0.82318804367976739 -0.39339963707977255
0.15350714264899135 0.54261540400696728 0.65001902233712894
0.13817603478992091 -0.070050783420078588 0.75803048641773696
0.092748103797492543 -0.25169513705913693 0.65658054019236634
0.10121520402646433 -0.31168252299192495 0.52391208141949797
-0.18364558308105072 -0.10496294695830224 0.75748765974514676
-0.47598943053318477 -0.02760930526034322 0.76047276831631549
0.79406734633184484 -0.27573492829027946 0.68071360831958216
-0.13402339598981894 0.49129306885610075 0.75068816142100392
-0.91207723507560678 -0.59262352865610923 -0.36691620021572025
0.20825375102100119 -0.15821173913662068 0.78238881471617017
-0.68399886937888787 -0.56990540083754837 -0.21102383556469917
-0.46814909652100101 -0.61324589187043399 -0.14345255923741185
0.074130150709555198 0.4499039431483966 0.75749359212307876
-0.41321360596028633 -0.30791286618862201 0.70481038624207581
-0.59799269878516315 -0.92557312039779305 -0.36669880439910685
0.0083502968639065922 -0.46548612485792606 -0.20743535850266248
0.21552129151787325 0.63539864752709585 0.57279872773211427
0.43117622098474973 -0.44010328315225711 0.71349069913135299
-0.97896647768775225 -0.87691892143269401 -0.4850412307936578
-0.037713087778813881 0.27269317563935364 0.75768334868959997
0.3053582114792277 0.46889301878513656 0.38627388906661775
-0.42156042165490948 -0.60021790677373454 -0.38131581040989193
-0.57833274361498721 -0.64166697915344972 -0.29462559563893631
-0.59957005164154209 -0.57984580927379969 -0.15842040022856452
0.34386398752295411 -0.3453518384778832 0.30586056667396289
-0.65377111648668951 -0.30643281563786129 0.67615295143058596
-0.28956510563248095 0.28563967502725951 0.81052629861598913
0.34448507745528767 1.1493462755186605 -0.44008709730563655
0.098298938490950394 0.55880494188457119 0.65805718266757651
-0.38370932589849777 -0.26120832374272196 0.75646512625935713
-0.26303790202791938 0.013977345203803559 0.76948524221640646
-0.28351615725645785 0.254548334709363 0.80720006857317017
-0.63547414291969195 -0.45169372513069428 0.59461980807515058
-0.34747718248466952 0.016839756289643348 0.74126798673462613
-0.54149045956862052 0.02744684614678683 0.76417572185979132
-0.51711131873953775 -0.001004266114462915 0.75829113835924122
-0.3839787156427909 -0.23896349249912197 0.78292314266952268
-0.49471331346808739 0.83593377992538542 -0.27447751353094141
0.048529830771255389 0.097984128458300845 0.74831726820652023
0.16502861416152936 -0.32462044869661283 0.64272733453946618
-0.72504131965720331 -0.74003850073121091 -0.37287993765449645
-0.076065766553371383 0.41058309306316287 0.8025310322062511
-0.34782996933117799 0.3088477023284264 0.62712825730887189
0.2441693611357546 1.1846609760500415 -0.35596257339489945
0.72644810104541269 -0.42786141831555069 0.67107733866270092
0.54687022369683946 -0.082762144428995876 0.68299969556722306
-0.079145286478936039 0.30512271820538872 0.77188002282089485
-0.089949617357925948 0.074310234823015353 -0.71749743448942738
0.63435732009600976 -0.56133750560606765 0.42929762496015922
0.52028874710393347 -0.11935403323350124 0.34934793528798647
-0.19116186961872939 -0.27478784185138483 0.65491270096045184
0.45655959120653355 0.88240941971513576 -0.38287056849970469
0.835582671860575 -0.24110213222506638 0.64694426988438458
-0.41267268145844538 0.0477624114032138 0.77647672601580187
0.23589347988344772 0.61892119132590095 -0.40800862551941552
0.40758935678935837 0.55950534203308999 -0.24709734684846563
-0.078197148830757013 0.2318639875276442 0.76031511461528378
0.800362895325051 -0.20609896232425584 0.38903379283697337
-0.76481575568697713 -0.40688811906067146 -0.32989661372936574
0.28625246872282917 0.48117771557656108 -0.36127508461810631
0.89205949306619736 -0.32488106880556167 0.60472726145327016
-0.19043607633066872 0.37825042690665672 0.77281987892984105
-0.48595379488570045 -0.65412400222601219 -0.26886569029579022
-0.41715268277549478 0.016821186310943759 0.73737487129460533
0.14613603382818907 0.31286026159500613 0.67318926149381042
0.45315941458681352 1.2015697982672071 -0.50088150805347453
-0.76667923611386757 -0.6056653265146732 -0.41382391863176338
-0.24728199213747262 -0.35101650562004905 0.61312384225155103
0.33511734038090824 -0.094309012487231225 0.72916485258166031
0.15248580336140294 -0.030860190432858703 0.77835752488378152
-0.57398038349136216 -0.901914060576404 -0.37326032774784768
0.32408706096212225 1.019474664775053 -0.37203153280337409
0.75130320239392234 -0.49422711949709219 0.6693901959367583
0.16793307064349305 0.45702755067001044 0.64099103932731261
0.83961596818753104 -0.46388047294993828 0.5256823142716387
-0.051726495768767977 0.75441276071036156 0.66135031611756112
0.38300731630927831 -0.41672874767034801 0.37366864522405763
0.079795452991008875 -0.3033810765733288 0.50852527294973005
0.18146000324468226 -0.18455170318765313 0.7674188073438275
0.22842340331920752 -0.36966040918262777 0.29182133980605052
0.07695995986896742 0.58840438570930442 0.6609180915124675
0.039715837019177691 0.9268498814899393 0.015946253341490468
0.30165245170690147 0.56749775926652057 0.48849330814232861
-0.32961710187811422 -0.070335701900222147 0.81390215247528719
-0.15466749292948612 -0.15014086314830979 0.67509573198567097
-0.22000353145685142 -0.47412003257000856 0.42842037927392962
-0.44683200899538333 -0.78045223166338085 -0.24640260142332959
-0.13239735945492448 0.67622974423076632 0.73439152664720186
-0.17542386094729079 0.42820121048969573 0.76516813639309511
-0.73480740622584795 -0.1953195126368048 0.58463646242739387
0.54739656554182803 0.88349377779260108 -0.44225877189785079
0.22794659583840027 -0.0028414407069383696 0.79413037665038111
0.25848883671104184 -0.34410808223534561 0.69946350452212247
0.097307190115422992 -0.14453085387569109 0.79260307285587661
0.23388272902403995 0.90514483014472824 -0.36460942899362125
-0.057418135633854006 0.13196975123111837 0.74452593564919844
0.50615978196818512 -0.31382684528553884 0.73516354724271604
0.27144586021183448 0.96434680230348002 -0.33435061335728111
0.42382239083634932 -0.54639775345712494 0.65192498662421183
0.046139176905267476 0.65500315274668841 0.65598211831026187
0.25149909290372552 0.75235259388033771 -0.011013249206277997
0.22382770038527022 1.1910782534703162 -0.41670130312581088
0.16669158812257723 -0.36205515577096714 0.37346918716619992
0.084513716816997264 -0.1199940312947439 0.78153118791073517
0.32963327533032261 0.64030679514886013 -0.0081386432600796255
-0.21959133802420583 -0.3094581465285684 0.64653930538320026
0.0063591386774324299 0.33429102481437495 0.79774871064670894
-0.52364661361749354 -0.12561278491327266 0.73649628118358734
0.48782136856234393 -0.25360448004623892 0.32451029275535248
0.49280310373712755 -0.64501836460562245 0.50421745702377851
-0.4616052580335428 -0.1785409999599844 0.78616114243445256
-0.55883848707403261 0.51011122405936371 -0.59525314436718002
-0.96414216860373858 -0.86299396967078756 -0.45437881898375743
-0.54133036473817453 -0.002410466210363893 0.65903374795939484
0.045279495659479918 -0.28506551857279405 0.52597813984421027
0.50445646946829503 -0.045691487535222619 0.3780024873788026
-0.59547190625007695 0.055436977903596141 0.78168928325625942
0.3602089466529968 0.94945804614431406 -0.36355352663073504
-0.96434789282379418 -0.65125933097852462 -0.40562794370269462
0.66380851425350551 -0.4478371011644473 0.67582679397616818
0.37945310840944568 0.71800705325157033 -0.26570768167494041
-0.21040778576524777 -0.31998949691233503 0.62220399263062731
-0.41202930997840959 0.21067313602808468 0.61963109700636743
0.2748561508238424 0.75682321128826957 -0.2696983991905304
0.31242752320847711 -0.15179496626124145 0.73541843552848452
0.38740708574328164 0.88308365334642969 -0.34676018871155945
0.37921194508461564 0.66472727080115024 -0.19953637758191434
0.41311118827652726 0.71776000550167351 -0.25563351348878571
0.75666553270393688 -0.38146438512424741 0.66529237012802689
0.15830180694071699 1.0286141403120865 -0.35044105343725684
0.066452005763835253 0.89222084201396079 0.098362739231173002
0.47313223101999791 -0.52056486952537662 0.40278208345325694
-0.098006192461215447 0.9909973922608919 -0.2108259039769198
0.74856531965504103 -0.29329564210070957 0.7039709020431566
-0.74725025042597104 -0.29330560866381816 0.5543209737789514
-0.60854282948304206 -0.161016505548921 0.6224177894662013
-0.64996419134749428 -0.23534322477283776 0.70250864345811603
0.19994966766884725 0.02729696780545382 0.73971592525680041
-0.49840389570897548 -0.51149546996760709 0.55714953099949049
0.30519826368292136 0.073687957396422921 0.53735740257665388
-0.32572818015597593 0.21124424182642343 0.78483752913843841
-0.379358101912668 0.20005214446673336 0.745348092597788
0.7693431448472845 -0.38220322416956631 0.68974644743692881
0.12241367942240167 -0.31973005596286397 0.57691390949170351
0.84397004089551086 -0.46102494485123224 0.55189904106577803
0.48298416954593171 0.82023076694349495 -0.3015880775991886
-0.39679034385892442 -0.47757435735951836 0.60159796163785195
0.35919621052743067 -0.0091003562200708821 0.69219183035074305
-0.78933768749295652 -0.93813680733604343 -0.47011585040901682
0.64283955149567451 -0.090928546435670443 0.39979705472600635
0.35017408806953587 0.63348931757525451 -0.1578190894876963
-0.71547992669493621 -0.22946622768767355 0.38484196079951172
-0.095045653267475494 -0.25716326534355538 -0.61604382302055694
-0.72255773584874805 -0.51651166763304346 -0.31301134519783957
-0.1838386794490226 0.75683581654337306 0.34600019889050504
0.27121887271365624 1.0851698528659759 -0.39581400849055459
-0.62375547665744102 -0.015562616432009069 0.55596146195965801
-0.61950697043717118 -0.96923129961826282 -0.34849053450274692
0.35008056307207136 1.1464959840626183 -0.44967192913354115
-0.66622779512241626 -0.081197955011287126 0.53436987250850354
0.45241371947833875 1.1517957102895813 -0.42405838560185405
-0.12072490294922633 -0.017462585154998267 0.74742334923101605
-0.58261594910009884 -0.19387202020972505 0.71094236314109427
-0.15802753167801908 0.33439471091122031 0.76640192279948227
0.077125455398191156 0.83350550418189406 0.5736779643760439
0.43240951058479415 -0.10630721077316196 0.23492918106073191
0.52979255852441343 -0.47526610549372905 0.72136895474880625
-0.38230107782756267 0.59439450500564228 0.69341924002986755
0.61723093533050233 -0.37792908080981924 0.73279672457165912
0.10672479218662956 -0.11153450122389241 0.79855473025231571
0.24381239858176296 0.015820857166851887 0.73490177283514946
-0.42442170781574529 -0.055901010195820389 0.80417575539015562
-0.48232535154484824 -0.54200343811960394 -0.42111699768514654
-0.61960457014328263 -0.65281370253876503 -0.30723333994558644
-0.1987967372825461 0.46578837109832527 0.76000593041888909
0.12572786547769788 -0.15849312060033305 0.80243798976040903
-0.21127767782752327 -0.36624762704724662 0.66290958298368885
-0.34218656773662781 0.9007453313125855 -0.33729360950229426
0.45174826704453075 0.81534179341851631 -0.32890796552711699
-0.62339121379816975 -0.85673467468094699 -0.45405934319930896
0.35267191070667442 0.29504580048690165 -0.18012767482573722
0.71527387862691705 -0.48894165471407236 0.69600474077251295
0.16489633156941885 1.1152183507093496 -0.2934772054491015
0.12510451632373942 0.7283753835311253 -0.44905996754688271
0.19772037554348143 0.035930642255918743 0.74098282557763895
-0.13130859571204834 0.58847476073313199 0.73731571522726558
0.23979444771742553 1.2174436758017846 -0.3870867007552814
0.48227010629114464 -0.62350471641997918 0.46969234949021388
0.21969273568005798 0.25419830589372977 0.66721025710009751
-0.48592600101846428 0.13102972404366231 0.80893759672539733
-0.51985655246012286 -0.34134440223821283 -0.54339875830341011
0.39269609150852053 0.66864186480851751 -0.19315684520024679
-0.27745657019261016 -0.14443681728565888 0.80198365195028387
0.26376392087241707 0.76722139915016441 -0.24369580758731679
0.17440878719939412 -0.037618723714316293 0.79728894850525034
0.054804670651412923 0.410066840025681 0.77772400598269797
0.6376822099088284 -0.44069042921830648 0.71619463851217979
-0.39059160889516159 0.047456700978546706 0.77710956587338309
-0.009660383293573882 0.95448452337760492 -0.26811816223094365
0.34179803513846507 -0.37081175353121421 0.33472920615476998
0.23590401868401772 0.92119401652916655 -0.28891596607132985
-0.36851526296122544 0.36651490178714174 0.70064383957016663
0.076171292305944105 0.35724885035096909 0.76103579902941831
0.15393090344637894 0.45229024572102983 0.66370474186834283
-0.67176564017843976 -0.96185602589658936 -0.38032454015701678
-0.4168852488968805 0.2667636172686485 0.60114056544318473
-0.73969165893964739 -0.19180182174910088 0.61349085311718721
0.30644460911129978 0.408498750662529 0.54451139549425864
0.29708002933743094 0.25126511748561065 0.50237475699811895
-0.72029205078722103 -0.42927518578378887 0.44334536602764274
0.16584320593495705 -0.068854681645947657 0.79852243988072047
0.21803120580096425 0.97838793332032536 -0.2860945505109278
0.27957740491549599 0.10490445952812438 0.50825813132724118
0.12400136998685207 0.81062649929582431 0.26320267923636553
-0.1818754682483954 0.42919869843356717 0.76680590762748846
0.39745760532239993 0.68477667520417507 -0.21385594651837136
0.14722787878422972 -0.066470431078645975 0.75509967616163109
0.89556081889619854 -0.26260797865153529 0.42388463720232217
-0.90705577588102071 -0.76359915456268546 -0.44051886494083448
-0.53215893782842194 -0.21536796218430254 0.70389888600219397
0.22921416271036493 1.0746823543940716 -0.4249553402595927
-0.23935924364957456 -0.61238275886456206 -0.21316233097195614
-0.9445075275637338 -0.61978032640259473 -0.42428078474462438
0.034065177372873623 0.60434514747935997 0.67055959334402715
-0.036439808998417367 0.87109777062403282 0.2291892446157977
-0.63317559155217151 -0.588490841175632 -0.21435521605683849
0.51462769578022849 -0.12765338462885023 0.71003467015327182
-0.22505794731785533 -0.35856045783249479 -0.56773158257411094
-0.30280311730879211 -0.19414666207466466 0.80201305136264622
0.39662407994028531 0.78487758109753702 -0.30499412809292448
-0.23193308645566746 0.55124918548346291 0.77835140561919935
-0.64304041837263459 -0.75005043148198736 -0.34758012037736652
0.25736517325425556 -0.095310828257823221 0.78193384304457858
-0.31899803646798164 0.62711846377328606 0.65497546828994313
0.49152692656547459 0.86100848340120106 -0.34942044820128748
-0.72420439254893954 -0.35101583754500099 0.39363297983550272
-0.086954416544088975 0.43775699318654476 0.79680028078093557
0.64915727253338706 -0.66525549553867958 0.52492444842437003
-0.44819975466835316 0.18425453594086005 0.69266304657003808
0.5670809303277371 -0.35286456295484547 0.73474937717001421
0.64437267363754147 -0.24447319339608575 0.71822716222674998
-0.26580688751812331 -0.23999953182649347 0.73859703849887914
-0.76273012663382955 -0.36990728892355018 0.55842406957482282
0.13957551657917711 0.47045267488896458 0.67831278646112469
0.02556551024072895 0.5012052475948906 0.75258757317450886
0.14525006560971243 0.39255179688531577 0.70001735506418861
-0.20596766975649222 0.32104717973409597 0.70459785013436349
-0.12861115684623192 0.71665939773235499 0.42818947966804544
0.13610575808588654 0.58433163797217724 0.55679309597814619
-0.41240015618196257 0.49169355167400064 0.70579612500276756
-0.37097787660882708 -0.63093675962420859 0.037818465835573356
0.1394596871438174 -0.090713726576227893 0.80113519053128801
-0.95139892396665438 -0.73736287244451937 -0.42404736515193608
0.65015406897455374 -0.44382569607483746 0.66566874653731833
0.49160936013815282 0.66028365116292953 -0.27773016268144701
0.30719168945800523 1.207826152072758 -0.3931734490558032
0.40031265921639575 -0.24647450605485671 0.25962414458338134
0.37587623938647302 1.0238408820481246 -0.39497360720382302
-0.56702062795238073 0.39752936280439877 0.44345633471694601
0.54837554886378581 -0.25269877590888523 0.72797587784545126
-0.49399047569510235 -0.54281596536376475 0.50133550204884259
0.35643058007247941 -0.19728798493507815 0.73620879236134584
-0.30059992056341617 0.78880531727141445 -0.49494052714253378
-0.28137841018660548 -0.26075341410702169 0.73224585817494336
-0.64869548108869857 -0.92836903483049227 -0.42069826295011392
0.91741003731256843 -0.19929699370971043 0.47651781499810575
0.34705828571706632 1.2308935370467444 -0.41809751825592656
0.52871796027688034 1.0214815926319945 -0.49844136305024644
0.63990055890649922 -0.66088748495614913 0.49757780493674897
-0.15379793432321964 0.33748032575975762 0.76154898677159988
-0.65614357539138324 -0.58579587302400027 -0.21832580889495556
-0.93804062945080435 -0.6637765044791224 -0.38440503234526346
0.42798576522857956 1.2029764037386999 -0.51844154702004452
0.47291496048348902 -0.39940357448507796 0.36144540170772643
-0.62352944838768909 0.12550769301496323 0.79950898450883301
-0.1534114337919551 0.50473140625571067 0.75204887892720595
-0.070036305950668676 0.27073131699103314 0.74492744652061127
0.40999783402763712 0.92307418692883991 -0.37918214627118063
0.25572427854907348 0.82165074665500315 -0.27018716813720278
-0.57785922736687212 -0.63075791518393753 -0.27154686979566023
0.29189269690731057 -0.033861094716668649 0.73744358272982957
-0.50308746064467136 -0.66256026891720454 -0.2976336682321854
0.62044913618779352 -0.39867736564315726 0.71035462402977068
-0.45966879265888116 -0.075168529170789089 0.79180522475591442
-0.41621416182847104 -0.32706750028713627 0.68323679740796361
-0.68267760874948014 -0.95013217461093413 -0.43712029933266372
-0.33556277575117222 0.28543117381442629 0.77245663296076117
0.59465303174433926 -0.4138094730187869 0.73427123431585528
0.74075319761711678 -0.57955739353962876 0.58638072483014714
0.30624384564624435 0.51260339934422361 -0.34005027550219946
-0.28055670016103595 0.22311088290067049 0.80453373662990124
-0.55445100534427927 0.12391811722273194 0.80461521609959163
-0.30135217976729078 -0.22455661829826357 0.7725477997410195
0.82026560416800298 -0.18550927451431365 0.39921340895057345
-0.57915660033234895 -0.27524765318475453 0.68436933059256422
0.26576741830198125 1.0614272996409724 -0.38396008999771558
0.6057448297460537 -0.65482682561138561 0.63101376285290822
0.26627277561026641 0.80044327608276067 -0.28038812371929245
0.17695883810867419 -0.17772364366225268 0.78275344073370778
0.66651994184655283 -0.50699811126086014 0.70713078674688035
0.05747026834854041 0.31193311897685694 0.75291664007468029
0.12126138439500866 -0.16524811315094401 0.79703343567705254
0.87355033923346936 -0.17365397675229266 0.44504634023725931
0.032475094077440314 -0.27405646548913648 0.59306368693019618
0.72396152273317771 -0.40576796453037034 0.3930567017783595
-0.34293156325351015 0.46658310720635687 0.81809948141396305
0.16280533949397924 0.76634226532856564 0.55176066169036719
0.33607546692795121 0.89123366025353179 -0.33166667412837914
-0.2830760381452313 -0.034295206576343884 0.76148865664588872
0.35389034091943378 0.50685093894321787 -0.26981558578521359
-0.39102625098912813 -0.49758657079736679 0.57820512045875194
-0.39193422876212891 -0.77792800874088064 -0.15552858736941655
-0.3608162794474532 0.22636066337766758 0.64378846603857731
0.46648822406013285 0.79457660416612486 -0.28263570744303035
-0.19564399436818092 0.69208308319398781 0.66234381520359964
0.10222933188798722 -0.16314784898267864 0.77171597595181574
-0.31924286975908422 0.1420050553037247 0.80194741612092368
-0.37062011685108132 -0.20492688518802366 0.79986467151023888
-0.18878929236250652 -0.16184648878699179 0.74920095941800557
0.029276732063073685 -0.40633358364419703 -0.39493008076945202
-0.067836676595869561 0.9822880316490219 -0.094983553865879422
-0.75470871956664431 -0.62115041032154217 -0.28209315087415376
0.77657563201340274 -0.26024862716329689 0.68457212793700162
0.86548041185367319 -0.37629109431597119 0.61728207739691499
-0.65018683254966003 -0.53941919065400734 -0.37378147466250855
-0.74310453822027434 -0.82448520616307475 -0.49207226202079202
-0.56145940616087375 0.7716826774676564 -0.2946982892100225
0.17297663477481118 0.79406492205469037 0.47893438681409872
-0.34253309903222362 0.40628989232315127 0.64898610043988914
0.49947162680968848 0.89721804258065241 -0.37784106101585246
-0.48996788563476734 -0.54536895570878929 0.41583276083900067
-0.057510769124963002 0.47687553616612438 0.78358582721577363
-0.79002212047704079 -0.99669826106307813 -0.42020043320138845
-0.44497611278379134 -0.38851627034982161 0.66171053453583539
-0.29896430809256636 0.31836182421632131 0.81386803681208431
-0.20371972344851008 -0.11551578838023946 0.73825873201488879
0.21032456614671069 0.75384493989711987 0.2492068722512446
0.78625256054772397 -0.29882633503819922 0.69043145784442306
0.19605246972758283 1.130496776287806 -0.30599198201233158
-0.067207607758944965 0.65031983150820338 0.71615748212818353
0.84828627169405424 -0.40540496634540135 0.62401115499040749
0.72818392716724656 -0.30657509617441603 0.6562882058407844
0.11177750572651912 0.82713688769694627 0.21784470126563971
0.08637288368185142 -0.44179625865254391 -0.12638227520917322
-0.29924708261582345 -0.73188822065727122 -0.16171823233116189
-0.24953250681993172 0.33482829561779859 0.79200161880070663
-0.17887510583119415 0.47694232947172072 0.75707795037399084
-0.1985584366345049 0.98198969477917419 -0.099702022080342623
-0.60300284602280063 -0.35848836014272822 0.65287968195442847
-0.66970399207431053 -0.23609930716150163 0.7066018584074989
0.079483579411739669 0.47603131245307617 0.72873159555934031
-0.80960625385916751 -0.71879605950404146 -0.41690376183480105
-0.43986605359703423 -0.22979346268269718 0.77213462313630643
-0.20162244963436993 0.36337151988418759 0.7205310427915208
-0.72385203694204614 -0.98260264603458891 -0.39341185181169092
-0.017699585061080159 0.44556522358650097 0.78959455487876351
0.80306988856433059 -0.12686359854203488 0.44778208012655174
-0.48374337678716628 -0.34212428906677295 0.68196639038681006
0.63828336783762296 -0.028729029906157999 0.57379425623543678
-0.72124385762765231 -0.28966996459523076 0.45143908787589293
0.21308027841986776 -0.06595653981697791 0.80097341997318416
0.075681073081847017 0.37987279522853518 0.77277009324489576
-0.083194248319193753 -0.50090690279469152 -0.18690669839030871
-0.36962198423418902 -0.63948755143697755 -0.053264011672821354
-0.37484668829682427 0.0081131880963982717 0.7706767940138608
-0.73094706934866094 -0.28613630835717707 0.65967889179885031
0.8322039362049114 -0.42388405221240544 0.46296505016414713
0.34067765129815364 0.41190348880357197 -0.23485890159925837
-0.69329273788376289 -0.6931901842783792 -0.34552275999379845
-0.23020809568249956 0.44386093330389631 0.67371333594883609
-0.60799061724892689 -0.1939952795350357 0.70506139153095848
0.53601754423170211 0.01126630174024712 0.579042357978933
0.19500830386967338 0.67009887865992857 0.57379138614760272
0.31252903713635671 1.0965643208765516 -0.41789895107568986
0.4318989071161663 0.043136748667671476 0.48009106723429174
0.60687040615080567 -0.42380103945552072 0.73168096591344778
0.51846301513160742 -0.21079271213245954 0.7263930312845206
-0.72649831255165875 -0.50350886013565521 -0.15388153619081901
-0.62256900153522454 -0.63671659873002895 -0.28610037011563527
-0.1114699562361553 -0.42212583939563753 0.40435882559687819
-0.88471600835249731 -0.070750667279735335 0.1145782073968542
-0.52781990159231995 -0.015343780222602521 0.75465585716965311
0.10346077707582291 0.53741471055274914 0.65859547980610245
0.63198834956935679 -0.60937195845909531 0.45057638983987136
-0.071482763014704409 0.86364240055972585 0.23521830258895182
-0.90712082953669282 -0.68430181279386515 -0.38642902138128488
0.284130414993369 0.66251692335718726 -0.36219777545060117
0.28399567034455009 0.13442001878372856 0.48389999520194049
-0.50914452098863472 -0.28102599346378176 0.67783090441294913
-0.43304169527705705 -0.36281827869513439 0.67975709065903089
0.38539945864751823 0.70912150479706604 -0.26454456939082549
0.44964135003056938 -0.012554377705899067 0.37073131637141898
0.28800355781453751 1.1069098578470327 -0.41424296304991115
0.084250671619320761 -0.1520913794147179 0.75317441029861065
0.29397327626227909 -0.1419484352389665 0.73784259056306745
0.77230317907527279 -0.35524934147461584 0.69157969049843082
-0.10644765579534976 -0.041674646473927268 0.75074946460931269
-0.31258071009241994 0.48959147917211732 0.54565290562981161
-0.87549324944418139 -0.86363651455587398 -0.46153238155586163
-0.30356358642821002 -0.42192297525623845 0.64132155849525496
-0.66433527397377545 -0.84671836395900391 -0.39071796038057993
0.043689557621718333 0.64172226606208094 0.66075092453687834
0.18301993351098611 -0.34287138572719145 0.64447301176593985
-0.26754963778311142 -0.14602095308999755 0.78735688291459205
0.66688037001401756 -0.62731316694505534 0.62768295747820257
-0.75119007442252417 -0.3912880754698862 -0.37562709445383469
-0.30147532339030247 0.25323425597198423 0.801209731234092
-0.45036358840011304 -0.79661248611036628 -0.22130754065508995
0.25542988184159632 -0.27404983958186924 0.72576545134190518
-0.82350471288844873 -0.74357947039571037 -0.43183354628511061
0.19302226080866031 0.14957215649989264 -0.5674242864341057
0.69209016227770825 -0.51206221608325009 0.42476954832957681
0.090777104913298823 0.58463968098295405 0.60894554316770222
0.61593189609236987 -0.42243362135750795 0.7109485391952699
-0.16976550404441404 0.32635148366922473 0.77291378918072962
-0.45867507612488845 -0.22133605855503546 0.76628296425559039
0.080799182101972788 0.37812798002159337 0.76783954227306328
-0.38072273877973395 -0.32951891567623759 0.68799674424427604
-0.74428368961077451 -0.40160908728090794 0.48848815462546202
0.17277614665880214 0.78093435171211278 0.27565658667564907
-0.098899965420546687 -0.39867805804849477 -0.49999617227058035
-0.18382810948103678 0.51692291841975202 0.67771932964869563
0.39130817791054262 -0.24303928121590274 0.232045759547165
-0.79200683216236689 -0.43712967572220185 -0.014556840255659509
-0.32007246527049155 0.045876330008043031 0.77529631062621363
0.45443376092782051 -0.5439202462497249 0.41672589595842435
0.025289158324196592 0.94364255468224334 -0.18132822739375509
0.2706173506804066 0.44395384242751867 -0.38444516708151788
0.34627418554111222 1.1006266677577667 -0.4273735949831412
0.71920079776463108 -0.30487976139541106 0.65842264712578036
0.67325629119223396 -0.58362003776555982 0.66492359790510047
0.37368997485036715 0.52872477634855386 -0.094585226630136354
0.19641992427526833 -0.1757349867447433 0.77234472951404864
0.33539487292301551 0.21725601205139078 0.29794634028407518
-0.29914321861501125 0.86744286982200913 -0.41015880685830819
0.051329948413143756 0.39053390729579512 0.78287103897686805
-0.66087910976869768 0.69509111100092147 -0.11665034330574908
0.10399677501066595 0.56388754702953503 0.65895699742426661
-0.5424566650525271 -0.25491344726479703 0.68357000958944614
-0.72227708456501938 0.39690222824824017 0.29972536083800172
0.057957223405748937 0.62773664878228219 0.66124282304278204
0.29463466441984576 0.10394057527664086 0.48431762014915769
0.22336232485268137 0.020070368759541823 0.74209289953217361
0.40095296192346197 1.1359110941966191 -0.46200102621950556
-0.81601208461196728 -0.64750149578252225 -0.33650268254233318
0.44320250398945527 -0.17026925174199883 0.27711642266902636
0.83062775299483915 -0.19631141077301961 0.63205768065616841
0.57766407467676983 -0.23497237106646207 0.35163314025392278
-0.55002911867137672 -0.35281867436975511 0.66194376392930732
-0.91002200833626878 -0.72634127950641636 -0.51740726478832766
0.55655248713593353 -0.4516775994520783 0.72861237169728632
-0.55688185767301457 -0.33014435457234326 0.6698776130369053
-0.56939773186337861 -0.54518297394846327 -0.3992773227186257
0.68066868448882833 -0.44787125276876005 0.6818400478781399
-0.63349794557078931 -0.30014863411645432 0.67318012628168766
-0.86838540354547977 -0.87310461737971812 -0.48030651742020858
0.62320513970143976 -0.3793853733838457 0.73007537268712319
-0.37534600813770547 -0.64058823631375561 -0.11074815356135037
-0.09276895699533283 0.74511116287071355 0.40255078373529596
-0.45135604147894037 0.44327902079220838 0.49626459546362689
0.30260869890297876 1.1277982407591576 -0.42346735163867688
0.45645671285879197 0.033847362880123077 0.58130312055447408
-0.31933454317200982 -0.057928996338082683 0.79122774267242946
0.12798738921542474 0.47602195920364343 0.6807463096128723
-0.072627503339818267 0.42970508593256063 0.79908576806832254
0.30623606755307947 1.0032183206281597 -0.3618888726278251
-0.14143232041999954 0.49718802758403025 0.75448878964171762
-0.33279773777056559 -0.64986809277579805 -0.10542582310136162
0.52641618555046443 -0.47646245772220464 0.38610115407719814
-0.14193984651092106 -0.27236278249276419 0.71015341440328328
0.69538927867075939 -0.33409322122500118 0.66452558145431073
0.025205610589800975 -0.31475530378701488 0.49061703285585967
-0.38057611586997941 -0.36445280551490644 0.64068540185158263
-0.58737157292651676 -0.92881861167129554 -0.33978464648802031
0.32052904484979466 -0.053199226881437189 -0.34624605398904507
-0.80198518292221421 -0.7495042432941057 -0.41480942980729907
0.74369287001913142 -0.37140248616137628 0.64939563905381448
-0.13331225268820757 0.38154644138217375 0.77269782340405335
-0.01620845436351448 0.37342336614921168 -0.65939250783986214
0.1507908166943166 0.36234977452239975 0.70078071167337264
0.11827071979157788 -0.23310929539497899 0.70611066002593503
-0.35717009546393685 -0.82238671640147598 -0.22877142869140066
0.10875400046482231 -0.13499719947788402 0.80143873990686032
-0.51110424966611023 -0.074277103745706508 0.75017684733780676
-0.59417865966589578 -0.30774096163465692 0.66840542197529995
0.37255391147999611 0.71030120299175481 -0.25025730707687055
-0.037346211470365487 -0.33835455089376759 0.53481495690458303
-0.75999416954403265 -0.47330027456271218 -0.088216687654917969
-0.72404336832535532 -0.52846869143167918 -0.21300576868660048
-0.39337783338958765 0.0030828534510063399 0.76600800598962504
-0.057349313937780422 0.2604683194729725 0.74996652034639144
0.29447153107677881 0.82767460423565176 -0.30253555447855884
0.078722027334503952 0.82282318415485545 0.59583549972707583
-0.45635989691326972 -0.40480374894218019 0.65152596446799294
-0.61751723260151059 -0.98058355050316992 -0.35178625894370708
-0.59160068266652421 -0.01209028471372231 0.75896687667995089
0.023338799367193741 0.49528458996403996 0.75833727383778804
0.4108976198099078 -0.58296520936255192 0.54616145741480882
0.25768735674712562 0.0070070574091101179 0.74983723222421705
-0.5514236404069397 -0.21444328761207887 0.70560394725486741
-0.034314101076087788 0.51842027749627173 0.74385116886488856
-0.430450109813448 -0.78628481588877674 -0.34218827858984113
0.027679635257174762 0.50782281415282182 0.74041759325121692
-0.25016060638382021 -0.2483851348239344 0.74221547077971994
0.12887629420769864 0.39533750595798339 0.69434847560488855
-0.55904522834871839 -0.1900433064562439 0.72316290212101997
-0.52090580318408719 -0.59958150095139695 -0.11486183526665084
0.17717940295334489 0.272139723245932 0.69133457015063193
0.048708044987894272 0.6017921675180985 0.66645769401166088
-0.78339158419335897 -0.56621453998569038 -0.24244084717705139
0.11321203634191712 0.51628975140222777 0.66272337412053073
0.38720797918105837 0.58564200853256554 -0.28935614936241727
-0.10425827990763736 0.73521492412665279 0.59948521702614421
0.29537256834182235 -0.49081749105648709 0.54745881718254452
-0.89277740200233857 -0.080683689061280095 -0.35164795727244336
-0.89867439970709628 -0.95824580584759911 -0.52989884761924122
0.30299599972595248 1.1542225416448288 -0.40367851709822533
0.25596450993667363 -0.01054085049977771 0.78776618640397
-0.38083332571499162 -0.38058875751448618 0.61530211185269845
0.18640872379214835 -0.1061857612939674 0.80433954185601753
-0.67296825483836442 -0.99298986515546916 -0.37687398895121937
0.82213655330812907 -0.37740932419194784 0.43036211912120681
-0.4508383502147234 -0.31691212933923374 0.68286716303750872
0.48479003722546654 -0.16931051417069831 0.72444308291939841
-0.45235144533484473 -0.32343377586127509 0.68514618251948711
-0.3845143437811156 -0.039080015000016122 0.78945307091838579
-0.45596116654144625 -0.33741812230382562 0.68703562654331485
0.29017904079591128 0.20775290776139316 0.46634325171817359
-0.19637132985219719 0.67386426928934839 0.60817434509603707
0.13903378241290909 0.81656915508854566 0.52819060854319488
0.19685886905918448 0.75799202222992612 0.40587828141479321
-0.34026230946246672 0.26427318806071765 0.6934147862010267
-0.21838444794211381 -0.46115766215022369 0.55700279320665924
-0.17984194745110205 -0.31272286345296807 0.69288505272428846
-0.52469030435974617 -0.32541844652643515 0.68021436739844887
0.11572306011981348 0.57582524072721752 0.65628792655166546
-0.88561311783669927 -0.83990620698334695 -0.47249002837086085
0.046530192075502241 0.329917377174134 0.77768394556539278
0.45302935114650311 -0.49707289122506082 0.69715400477051492
0.30085875721999272 0.74274630895012939 -0.27280066026336103
-0.46273910084802894 0.033696610528612836 0.69524434130176171
0.28795078027810972 1.1337062407057306 -0.39955767466043568
0.50384302198727005 1.0109611312007691 -0.40875622940882561
0.10808677844599635 -0.26786045730080688 0.64876755182258528
-0.2255162266863735 0.43448970650874313 0.76917623947334235
-0.59786701515691776 -0.039515721233321921 0.7523953557226184
-0.57732232662315286 -0.12288048185197198 0.72964276806482165
-0.57844175544120768 -0.63570114875633044 -0.28399188627579175
0.55251791598323385 0.81092827834240766 -0.38637786051468082
-0.24288692037574922 -0.23661290069570473 -0.63355217809412068
-0.66139285435111128 -0.50295054183165333 0.46906356310970576
-0.83658367403509726 -0.62213928100025173 -0.31107173474371486
-0.8519835913640913 -0.74403189643714462 -0.45234958693521499
-0.34651316983164593 0.2217671049838239 0.74402530877237272
0.036593965154322561 0.29955019415316775 0.75816840318033307
-0.16539104356849854 -0.34836569009902263 -0.57167866755152197
0.35151242843743835 0.73772498867224856 -0.34114602176890951
0.87682031874693145 -0.25083822156897262 0.62051978441493372
-0.19222943904450018 0.68151668384625896 0.71473689226992043
-0.22171696937198604 -0.39289708523373257 -0.53540701684473913
0.76225273052654385 -0.30761734446039024 0.70087573234076839
-0.35475000518863964 0.58198167660237798 0.65114668064315584
-0.15655609966828155 0.46298172787964753 0.73791952244833414
-0.25327851415641056 0.029098882490887185 0.76814862335513467
0.26424775701740888 0.064808492085829728 0.64459384132388298
-0.58585439546409823 -0.15785092709171855 0.71874306563980639
0.69370748910436686 -0.30429076043674286 0.6858642487065314
0.27585386919703936 -0.027700127521320894 0.77064899506475459
-0.59607782190406444 0.23983449743348784 -0.63593601931082855
-0.34432598037177309 -0.056750739876599399 0.80984004827647826
-0.67005047269759743 -0.55186468484123319 -0.15932533009746042
-0.63252105005591885 -0.60728256494206567 -0.37988741624583078
-0.39282413910610225 -0.75314427691439345 -0.15997052315170102
0.3720829778777483 1.0715423448148105 -0.41601777734953505
0.27341658452096917 0.75241503242006291 -0.2578998067849323
-0.16836588096340527 -0.15000952662093478 0.69649301877062886
-0.25489505457527339 0.48608957153593801 0.78075327457809696
-0.69731592942331888 -0.44849658573247408 0.30080348003771107
-0.043886339214301961 0.56538515844850534 0.71081281127005447
0.55402703908495687 -0.14334996253599441 0.35806560114756714
-0.65368612077264365 -0.27535621461042936 0.68850396917333878
0.40995817528859435 -0.53771796346652412 0.43549043107000607
0.13978038004017823 1.0501486569952472 -0.24912003544181216
0.29253839142253873 0.7555928146787485 -0.28668543848430339
-0.27753893278068709 -0.69217884234314031 -0.15962790237223157
0.48719259772830042 0.97495915918872833 -0.44240504302767336
0.18151008558585924 0.44943074009532685 0.66018800152162438
0.17692573058814898 0.93879727318390449 -0.20958908940440635
-0.57686895046812048 0.20933748851336476 0.71934137454382885
-0.50467159393071892 -0.65143660607456333 -0.29594309040833178
-0.70224284810836579 -0.18366850591916939 0.71026460964509308
-0.029198401185275724 0.24429562426808688 0.75660787642543514
0.24042937071783332 0.016687912331481813 0.76724632462827547
0.2851467384887495 0.80456378304168696 -0.35039677801942393
-0.72793939930801654 0.6087608375006619 -0.12799379956321744
0.13550056128770349 -0.29538206769284664 0.64191288936846203
0.18952604317589938 1.003725546329818 -0.25198288556544624
0.57765206182422035 -0.67507656605804267 0.60683917910476382
-0.0033400588279668408 -0.27934226014451169 0.62562398851528833
-0.38593064218847128 -0.63808219585516524 -0.12222129716685703
0.86514781254000894 -0.23218450564811888 0.62351745452653606
-0.29344573983236311 0.0045424222512125967 0.77480796130265972
-0.35123291495781739 -0.63864488253641327 -0.028205343729521992
-0.48925991714793271 -0.54652768600234003 0.44878643072667579
0.74457617890801187 -0.31809888160391053 0.66268607960942205
0.38804022267482408 0.86108807509378749 -0.33561240974506124
-0.19630771430177529 0.5250041087425853 0.65684120991506667
-0.34175681418126941 -0.20304996589069751 0.80229169128471778
0.12435708331727591 0.34443920880696727 0.71550155911916935
-0.38496639926186349 0.16927290012878776 0.80270495248670137
-0.84834963358001303 -0.561652819891719 -0.29429144785811445
-0.1592750503474567 -0.44689642349443659 -0.43123974985532598
-0.38592606938080198 -0.2102521034499828 0.79595701127154683
-0.41708352345397409 -0.071245189092746686 0.81171997416645691
-0.33813014582545259 0.30636561195526468 0.64422053186844419
-0.79235010233933423 -0.93495907650719134 -0.44805260686340498
-0.3086202578347188 0.20070763923980506 0.79767350597125652
-0.53119666452991976 -0.30712690701221812 0.62942345775902453
0.47808315095239717 -0.63766833840414328 0.54273337813419431
-0.61120425049760296 -0.7832586418894607 -0.34634946520540577
0.25799732245235951 -0.20171118374949382 -0.37077491683441099
0.13913627190519151 0.92758574913200498 -0.3115712151595198
0.15359179346870822 0.81683198212533825 0.17369492194186797
0.17510476596511249 0.96100693698415385 -0.21595586456645766
0.29011067146700797 -0.050086530285908148 0.74585750585078525
0.2796404552866163 0.092912469133321518 0.54452500507226009
-0.61735497283962204 -0.14911526419435228 0.72316701069933753
0.82599455863180893 -0.25636619963261231 0.3956060981313696
0.382893294302316 0.52483048700674972 -0.12720130365870475
0.1919980553369951 0.46718263621321821 0.59223882736703537
0.69419789491850714 -0.18623487853194276 0.3750109708378595
0.052015408487615544 0.81475127488835031 0.33741830165443876
-0.54916240511085523 -0.59516150578129512 -0.17864054996563805
-0.52930912708635447 -0.10906911027595778 0.74807826850758552
-0.66023975398478874 0.16660000808889364 0.77731824299945718
0.80702915491777549 -0.46569185898468701 0.63564654252062258
-0.32457032847887746 -0.063856195872847993 0.80526667341762437
-0.4751656631534541 -0.0039361172954237578 0.76768419219750506
-0.81301333002241216 -0.91398472905268369 -0.47350551158301091
-0.31473259692828526 -0.20927591292798331 0.79785917713721322
0.42042569615434106 0.77731062696679842 -0.29522144771146408
-0.68423902826918337 -0.93844595367276007 -0.43634069257046892
-0.0440894090683146 0.23358986689230204 0.75827729686145684
-0.057740385783884185 0.36412687846237846 0.8051127820003563
0.14914049438832844 0.25708978217382755 0.61561667376376583
-0.86685112402038633 -0.84503764308528062 -0.48241850332280878
0.27797624782390662 1.0834843170129618 -0.40163954979809668
0.53843128101511151 -0.065944116653532836 0.38081509479488407
0.67013559558606994 -0.46839325653827157 0.71784177407010397
-0.14895056553927988 0.37712795493080853 0.76251779032156097
-0.58638442551295378 -0.587517669397283 -0.18442488052804329
0.36078904356914665 0.57674275621469873 -0.068345430465392987
0.38284374398194387 -0.24055609013131762 0.19061934330778563
-0.36862964233349382 0.20585593706772642 0.665617993245327
-0.64447110972393773 0.11024480570507023 0.62061622794693516
-0.031416879858578772 0.34816345287742478 0.80359770731230551
0.3854967150073958 -0.28713722716126089 0.27918606625143383
0.13412584669144023 -0.057888211933823375 0.74587693549770151
0.71658687387295683 -0.47107052475097144 0.70221540253150216
0.68878757635133914 -0.60876605500299519 0.62778160535536109
-0.53387262594280027 -0.78088435426326708 -0.3946233994899897
0.54833097895939575 -0.17062220900666181 0.71565427699008755
-0.62205015678133257 -0.74774513033799339 -0.34014419720820399
0.42394260636594489 0.72734660193452783 -0.24023163780191004
-0.10107329157483014 0.22573561008170503 0.76042222327369302
0.21059196647305389 0.83310519993106324 -0.19568672911726015
0.060869259040515544 -0.13098207114264548 0.75873436823244056
-0.23072206554193203 0.97659202783908938 -0.22536406135927844
0.36638268785112754 0.90911091346103423 -0.34994791299771233
0.39045905915700219 -0.40845069816098367 0.71446523603925538
0.36645241790868305 0.5468916930615848 -0.052103503071397661
-0.49595888195931781 -0.042491409800638147 0.73850774793743224
0.37375886011678594 0.82493888501315071 -0.31786053400134362
0.020475226548435588 -0.067138763990511774 0.75435457678954787
-0.096396337142409472 0.10807502706040534 0.74809676845403228
0.66827188332987575 -0.42106097617008986 0.65843469597384985
-0.18396585437039215 0.41350254256855745 0.76875473924885451
-0.10798060728906639 -0.30953876710344369 0.67024621519424876
0.17708998907997042 -0.2509167379782995 -0.44757062891037247
-0.070400578865710828 0.26559855088514267 0.75123848494059597
-0.14890771119848656 0.71385468582833167 0.6455884589321208
0.46351818555758412 1.0741235243157692 -0.4462448654467428
0.35956997281356184 -0.23601715777306964 0.042542904809188542
-0.4731514130553478 -0.06347376249902803 0.76630530902531202
0.13625949901151824 -0.10265993513154825 0.80433394542990566
-0.79046096325475923 -0.84600621065851467 -0.43116006936190843
-0.38186010648145718 -0.7271302249353675 -0.16017097961807281
0.4457675465246646 0.64140764608012835 -0.29058196990312668
-0.31893676197862875 -0.51216933563916278 0.44954940263000243
-0.17029645876705191 -0.43906469807360338 0.48398898623429165
0.0030919157340950632 0.22649814944852514 0.75000387611296748
-0.20550779314918127 -0.52687611518283339 0.21932541338255174
-0.69412042459895906 -0.51546166402487525 0.083158794016270576
-0.54300495489017098 -0.18553873251982667 0.714802806983589
-0.49888730484096572 -0.043919919648522932 0.75655291913802358
-0.051045923760939527 -0.29090641676069251 0.65353243716215825
-0.18380275862432094 0.98613618806311409 -0.22446206859160878
-0.50186763728005568 -0.37214940537491947 0.66334715803301414
-0.70869862235966374 -0.017723196897354576 0.73370525635045336
0.16607167493927288 0.0056004703783751886 0.77905744487742012
-0.42772829614585273 -0.73512506480447559 -0.25938556763372933
-0.78254558723682976 -0.98460177319786313 -0.41224685424177032
0.68526363090977016 -0.31985567561191308 0.68753149164413419
-0.037037424850597689 0.44760449364825283 0.79197225617361333
-0.26584716962852517 -0.32603729529548697 0.69872694778314326
-0.1893553914329813 0.48091638324583019 0.75641541244632471
-0.76075407368409531 -0.52230196170306931 -0.28688342605737649
0.43219634581312616 0.015157334338974648 0.40599795794292959
-0.47029855045781055 -0.59248793453832138 0.1790323709312025
-0.19792304324587878 -0.13010441080471802 0.75927893403404045
0.31295808159736993 -0.081597355218070211 0.73217082887231122
0.43224237009837574 0.75727742455683233 -0.27356451482382216
-0.94096299328869271 -0.70348473453658311 -0.40614677835891122
-0.13495306613614311 0.30991366470466136 0.75966337423170671
-0.44922139770085812 -0.75743563373103884 -0.28529338347607069
0.76510991694594566 -0.3938133913439128 0.69006506959246838
-0.94343243539178467 -0.61869335602860875 -0.39688391680689072
-0.28895526177576181 0.42116875184048896 0.80296373150671041
0.15275510246581181 0.846468059404621 -0.35137147717157724
-0.53195905503652263 -0.67150614589870949 -0.30726011932552488
-0.65703508947806233 -0.1358491221760052 0.73648382849752281
-0.097288610171776924 0.6110399180136582 0.72328690661841488
-0.85050822525486847 -0.17305877092485078 -0.39557207856882481
0.88235627310753251 -0.361995106718348 0.47053936362971882
-0.23291762355671869 -0.011962605985024827 0.76496656395037643
-0.15185530616287374 0.53879813501870366 -0.65636308382951736
0.28192372606960237 -0.23057088907043022 0.73563000049758109
-0.0020728384489021034 -0.31132509762341531 0.51490112410913813
-0.24512685347560273 0.97107869538669034 -0.096467908146221859
-0.40993897765088594 -0.7609543548368527 -0.17751597150351994
0.10985534132634239 -0.37246545058583846 0.32985039708028552
-0.12968175140261584 0.21852967960031261 0.76273645706612925
0.11235943657632608 -0.3228559164601833 0.51850516095996557
0.41205101762849261 0.72275753216407668 -0.26710747288756931
-0.40431950104262276 -0.24831520158796944 0.76938749238250548
0.23753119187153904 -0.057209062761239604 0.79549694042479846
-0.16604237430022861 0.30440776887615373 0.7726261688579088
-0.097090076780029122 0.27949547225896432 0.75454977142569302
0.43400649999714397 0.89061194696092238 -0.37597875095701516
0.10431869649969583 0.65240411403863741 0.63459485563286577
0.062280720560508596 0.2734723564763491 0.74223452725915084
-0.045868105032008111 0.83413980428450718 0.28152403595530195
0.49434978179956879 0.856065411962732 -0.33570452074705814
-0.90693648608085997 -0.10247650941812747 0.029684436197082498
-0.22673963102123812 0.72068583585284784 0.38024362319843785
-0.52794876152464632 -0.28215384834667057 0.67730282139177334
0.40850825094099108 1.146475948170214 -0.41974404246687236
