# XYZ point cloud file
-0.4772357340223472 -0.67734873855018662 -0.29241790124402911
0.72811191561032551 -0.14541132653188704 0.3960367429167313
-0.21267286521120354 0.28089279894865449 0.69993072320734129
0.44302701476502193 1.1811179062001003 -0.42900775035782246
-0.72084404562835314 0.41402578235917886 0.29057326413003182
-0.70531323516352629 -0.64509826634675527 -0.27731169102830577
0.38554708299947649 0.5740785397014605 -0.10242861581001605
0.016263383991770297 -0.18037379504235496 -0.6139596244066361
0.045425653858021775 0.77768170517622082 0.65963206338008717
0.95181944447497635 -0.23805346587141685 0.53360254337130897
0.085904922051501131 -0.15421077065439981 0.75384576171688522
-0.29098171188438116 -0.076513927575269314 0.76618497663253038
-0.23307635239354774 0.44885105822928928 -0.72152206813789732
-0.35541323767654909 -0.12356518338001887 0.81758752575507998
-0.18773285028384734 -0.15406995353893116 0.74852056077834561
-0.60138616848508519 0.043991127161037369 0.52665363664449671
-0.65871233113477601 -0.64013345275958677 -0.39780627585055228
-0.28891298649096342 -0.39721242303733018 0.66518155389824329
0.70182698446784464 -0.43539619538701668 0.6512418843278418
0.30369620688044785 1.1996709019191414 -0.42167124658480049
0.81098821538826371 -0.098671621465923565 0.50786365038679548
0.54368211685400425 -0.59324666390399106 0.67114891719608849
-0.34667891469723777 -0.062969752896514741 0.77845157343649518
-0.74089515012351725 -0.2949951146606038 0.66386807756764199
-0.71765200654199468 -0.47599269487550444 -0.33985909830253291
0.6736951240916369 -0.47291307624609669 0.69188470830394877
-0.15445360275451137 0.51686603050117164 0.74766681172043903
0.28978902518043181 1.1475363130390068 -0.44994032613180224
-0.24192608314712238 -0.20258981641160823 0.75515218980286747
0.061399949442972002 0.21095583325787892 0.66003275654295734
0.7575787038747972 -0.40766297793252804 0.66752973904393187
-0.23757521247527347 0.39866046430518054 0.77178808038502211
-0.77313735706570519 -0.98364938687023873 -0.41793309459734118
0.12367488925669079 -0.15213318472154835 0.81113915427989269
0.93493972633486244 -0.20334491301051738 0.5615427949732954
0.39130698945291353 0.92185162736989135 -0.37010631581753728
0.15297365810245633 0.91826873548320442 -0.21367277376923965
0.89761594263043953 -0.3522750392018672 0.6011529931841153
0.1635616176399588 1.1024987017623555 -0.30490943184208064
0.36993683374991626 -0.49126214276279789 0.66322121106943044
-0.44519569230947376 0.55047732181356501 0.66097001774896569
0.36278124639728127 -0.51838748330041895 0.44330369022509686
-0.15643240908325495 -0.28750265670499076 0.70715176436473826
-0.57371734037386268 -0.60875602434855303 0.013593973774469248
-0.51947919776817564 -0.70295834863775752 -0.32785114645449909
-0.20587692010644432 0.41950829143343249 0.76454374602128539
0.03330001555007911 0.33065293898045756 0.77599159084006075
-0.4265137301438795 -0.18734659910519724 0.8042164295470684
0.19399833435846858 0.041659080057908859 0.75060573629158966
0.7367025882132392 -0.5367564690840414 0.66158559683500684
0.32446337488662991 -0.15117475990279416 0.74181504239112428
-0.45519898268963388 0.55633447043181228 0.77036734978501187
0.026513760810319198 0.8501549312783645 0.46450769568959416
-0.450667873528527 0.0057379666217922676 0.77318467713350358
0.74733421506306819 -0.34254801066641516 0.65223470632695779
0.3603210865980877 0.69421009716795901 -0.21960363709652242
0.020601493128294734 0.62117137455467919 0.67505148653843605
0.22782088322952276 0.83879459025556002 -0.2468886142329616
-0.39417122104358882 0.18846451282072962 -0.74229490262709064
0.092180877427283647 0.7590996694350487 0.63527794982260843
-0.28483092512414387 0.41778789292825103 0.77700689327923911
-0.49124922489948908 -0.26068754606450195 0.73446584161805717
-0.0014925675007955164 0.40443372499881303 0.80764516524342156
-0.74283936868618561 -0.06913893229167023 0.72377474821638899
0.64660912250889702 -0.21627091695591449 0.36760264245671692
-0.56178094923584077 0.17776575089822622 0.74651512658585517
0.22655369061068598 -0.03641882817204678 0.81166317232541374
-0.19671686514434761 0.44734237162853496 0.75945294058202251
0.14475796634064686 0.23437816118872323 0.72358075331061045
0.37766612068153549 0.60122870808884699 -0.1149050606959392
-0.096462434423650656 0.77757041492959722 0.36953721856121291
0.39234924059286058 -0.57526445410504756 0.52183216854347947
0.46677690364890623 0.69929339363706688 -0.17002285606626444
-0.75274284040207107 -0.46191518253618735 0.55347809784721846
-0.066263906758402769 0.21670775678922993 0.7144679438605479
-0.55687339133250546 -0.039469368045484288 0.75666810272003104
-0.64305400420631997 -0.62789098373145436 -0.2544325142435504
0.28862760672013721 0.179495985777125 0.48669480151010092
-0.49462387630010696 0.060941475192981542 0.7894507061995526
-0.61593107089375998 -1.0110226697870246 -0.40467908072308134
-0.0044765901595624769 0.89868784774536081 -0.36537775349311019
0.24272930556633021 -0.41450779122396852 0.6343070225587546
0.32166623965646934 0.42040237669754532 0.51284811980224632
-0.69718839656781562 -0.1897428447339724 0.47648488260376354
0.11874333045943608 -0.1934272997141484 0.79221968355765782
-0.57857039317603487 0.14488506195769268 0.80880758823925092
0.28044495949503911 0.76654284315861076 -0.29455731034397559
-0.24507932696040768 0.25742971781106405 0.78434214642570765
-0.43093749516921065 -0.74175931688752605 -0.31166640692887526
-0.24329028207979064 0.32516071084275744 0.77660842124528173
-0.56988249547016245 -0.33862988519330628 0.67741006330351183
-0.72032182684097457 -0.61088423304038741 -0.23438056381534977
-0.46183488972683406 -0.74845668460644355 -0.32280671301683839
-0.48210958436048834 -0.2524544223111862 0.74829610862032681
-0.69384759018033471 -0.37161549060469756 0.68130404019939306
0.28381625904909136 0.25072971894858309 0.59020298488528056
-0.61522785800006918 0.54750750109946189 -0.5349451006034549
0.66553034904081443 -0.46818697868627801 0.66222935724291787
-0.30417952756610767 -0.043836510161287201 0.76403627976483079
0.16677317823891169 0.50484681124035902 0.67141743683039579
0.37411947368961584 -0.1204103399821328 -0.17092194072547073
0.5889711870372496 0.89363434853209078 -0.39362839260185822
0.4608644269427522 1.0987662262335078 -0.47784311769428101
0.2711387387537183 -0.11994788652206356 0.77985832012211631
0.28261357367832929 0.71412044792731066 -0.087792545196773375
-0.19931422528512677 0.43368669750505973 0.76115835042897118
0.88845309759456903 -0.39170303501114123 0.51327138338527689
-0.13776924409161317 0.37494355227579046 0.79549401915356555
0.03442970169286852 0.1272392030578775 -0.69655921780010743
-0.24879975826068623 0.70970499613674143 0.68326283074531702
-0.67539326477105277 -0.96350815344796281 -0.41762660372853588
0.67470683924054242 -0.3803846377499136 0.68046054758569241
0.12030008619173493 -0.091893934332639482 0.76917338513914402
-0.88280035903490628 -0.73966505313059905 -0.38783336119208656
0.28640200819668138 0.74973264651973537 -0.28492730430508573
0.2971852923375824 1.1320655519688181 -0.4470349670596967
0.15425367067388507 -0.008413333794001332 0.76512915861428255
0.47040461744050965 1.2288854593323588 -0.51878412072134594
0.5219440720215287 1.0479087889083978 -0.41267551869157515
0.12097102871148735 1.0895686791032766 -0.29223546483400398
0.29564801793707129 0.7196469395689622 -0.22656913566998682
0.24797519513146593 1.2323300440659537 -0.39296792520328339
-0.31554347318864373 0.63437559245431885 0.77570579394687655
0.50665931864087455 -0.11779073264652684 0.32638207909858252
0.26273207024636935 0.64327367178067441 0.54962212817397216
0.15950494398012971 0.66255563839128762 0.62637184659348577
0.75129534055514569 -0.33926188999425655 0.65930600660745498
0.13919562348668002 0.8699106654236779 -0.040532246837575059
-0.58560691367372897 -0.19945518142228913 0.66952715765008719
-0.19452732169070774 0.51012579837954419 0.71348164301954853
-0.21103848506651524 -0.24417449291436633 0.71577684308928013
0.21442489895535388 1.0505840248549241 -0.35414652624344001
-0.70271550639179736 -0.59358837085070704 -0.21925965539778502
0.4023166024048983 0.056836450753356971 0.5272201397224805
0.085062413114384228 -0.13726483467240236 0.75864829708527992
-0.88237315484924039 -0.61110087992053508 -0.31896212394561019
0.064029413494228749 0.36548426547181201 0.76728592693288888
0.30676323169942066 0.23602083005793517 0.44735911780982818
-0.40685521716404338 -0.2432376212854237 0.79095874616265149
0.67588479252648526 -0.35083294498457196 0.716318122365319
-0.38279449582563618 0.43006081660629825 0.8184088799206819
0.75276414862385543 -0.49892993740618863 0.67393131308006105
0.35278419683430329 1.039324246220195 -0.39855023643813681
0.18460417993822098 1.0077850523673089 -0.28780452725432681
0.19953234402771702 1.1683446290575521 -0.35221488939175671
-0.52104224837898983 -0.91674590100763531 -0.31866069930042329
0.93488834150650213 -0.28740140980560458 0.49029962937791538
-0.80499016480198371 -0.46387261434262861 -0.1055607466143762
0.5994212042028888 -0.68484013817416578 0.60493262882765464
-0.31302204246561516 -0.65367136097225398 -0.1580754544096763
-0.37176624920051182 0.28471989799825259 0.65694191712361771
0.2494909112074577 0.19403921050918527 0.64016544520840668
0.82458562671650881 -0.22917510913158701 0.66894919262619723
-0.50669056659425848 -0.23543202193280344 -0.60361068131871676
0.40506100890389973 -0.061531232237877376 0.71939847544663138
-0.34313194272687397 -0.74937888597279745 -0.31791308918558059
-0.11493813951558707 0.33441642477991884 0.78758855396803185
0.39681614467416448 0.83232731484554989 -0.32660009175537752
-0.75780150386415457 0.027793634995520122 0.71824955699411319
0.21249248328890502 0.41495119270559577 0.66300250320069765
-0.48875360015725633 -0.70393942398919762 -0.31927564900072625
0.65660536179334272 -0.49326968444406827 0.71501012023410127
0.06362261022236293 0.71906431017270833 0.65196113512455867
-0.2158253074922154 -0.033041528703821044 0.75433317803685185
-0.71456027697105462 0.060480617524607538 0.63320521337339031
-0.8160668389324961 -0.20675424808833931 0.24083131460161056
0.6299832855908658 -0.45863861821324559 0.70381837941785363
0.44044884577450549 1.1235002614238869 -0.47995369810546862
-0.31999288378569624 -0.7014654541027312 -0.16749645975226457
-0.40760218496103917 0.43282996505488214 0.81275237094397568
0.64989128637986937 -0.39026601995071264 0.71704362709463609
-0.43304257041597261 0.088414912773304266 -0.7193040918617335
-0.68237931707311006 -0.42293444772569089 0.65151885385586183
0.14481880143167025 -0.085682187477221561 0.77306179910511474
0.43492725503902996 0.62826176121581767 -0.28895683709223619
-0.19736700584846645 0.37161148745721739 0.76339673638196714
-0.044882857387701591 0.58658671723016731 0.69976596334993246
-0.14798305665831712 0.76612680929114418 0.65334755128968069
-0.57160963515751284 -0.079677557340435357 0.74953023114541395
0.041828952516965501 0.46415539354943025 0.78158416785147722
-0.5484448912161799 0.51698834878703259 -0.61422768329078892
0.19492318560078559 0.92215207575321401 -0.25234331354763384
-0.37398242389400238 0.25379454692836667 0.63304964105988404
-0.21221066643765063 -0.094704583469923165 0.75925592317885204
0.44192358752800764 -0.16398631505054695 0.73782478816919195
0.14825949592115428 -0.063599121113693258 0.77143242795545319
0.0064102324167354396 0.33747158335979854 0.80483711599486796
0.15286187972894538 -0.081229470005355076 0.79222129942260366
0.28134558505718399 0.72157307855515818 0.10614305288545367
0.18066552128476943 -0.20506588014655946 0.77804250701138145
0.55246241177000055 0.7861013228605902 -0.27380550130665071
0.26455930544218464 1.0332993569065465 -0.38198296681224164
0.68147480842704944 -0.53617298014815074 0.41166309073089735
0.21344941197763045 1.1992785820295371 -0.46798889300736946
0.54919391276310137 -0.55733975000685909 0.69156666412347079
0.39139505541455755 0.24478565653832085 -0.10598995662656563
0.28079892471012258 0.068997028576119668 0.61364373479961998
-0.5375455392355839 -0.33398429891266446 0.67831484827411614
-0.79709466951015706 -0.959339924561883 -0.4694764513964671
0.73958521966850199 -0.37323789353601189 0.65073809733404886
-0.74480448541193667 -0.38928256490365598 -0.40608647313037594
0.39282025915092689 1.2796646278753716 -0.48476441207352394
0.25190431965204851 -0.065048191514654796 0.80200351713894236
0.36957985370470325 1.0758197780149263 -0.42093716596744457
0.27439855778893829 0.66383437484891239 0.30558983942747631
0.6817222581700868 -0.12263907017414954 0.3943344294526625
0.36521590699755713 0.94529718066304547 -0.37124836809856276
0.82520401212142858 -0.49093550896526139 0.59733398880990407
-0.14150986548275846 0.27218024606711744 0.7710479932582075
-0.70297796985119199 -0.19336423694490712 0.51213603551364884
-0.73301495457828736 -0.41567964643063604 0.63996278247019944
-0.096440428999616579 0.37846214945155587 0.81475668299611925
-0.064919165659693689 0.80758886672652253 0.53256626109985561
0.32408403530859964 1.0772747833837872 -0.40938297995906581
0.10937639264041543 0.89112868499013054 -0.075024503085103333
-0.25160140047126234 -0.57218120143960505 0.16638178228430434
-0.080330207984817825 0.61481104899643668 0.71682545484186377
0.28350903245434367 0.15903210843884885 0.50172981100328684
0.45911851656836866 0.018544082915230575 0.63017547103713056
-0.78702621064050682 -0.74396267128322258 -0.39467422747791758
0.12914591263218256 -0.13747126331007831 0.81186232411634407
-0.14736574330059682 0.033562303695330087 0.747209154202924
0.10139732007259994 -0.15081017030605004 0.80248477424330389
0.11776831878469451 0.4124453412862028 -0.60391141228135936
-0.12333924537512964 0.020253208032103842 -0.72398521231171387
-0.56986257607783486 -0.63169087780438282 -0.2708351559221498
-0.10341508169136659 0.95953838466386898 -0.24401109729735637
0.33852611113756215 1.1463279148789862 -0.46044450340550114
0.73045055555085447 -0.30711225213734394 0.69932411223269497
-0.082717795469287481 0.21227213275808055 0.75774434872512231
0.32155721203929311 0.42867286124183757 0.3526979023692256
-0.75645800854087675 -0.020757239299351582 0.70822404910802561
0.3570141356049561 0.06797812399967107 0.50335626186816995
-0.5482548221133694 -0.11949916973326147 0.75527369720237303
0.12401508465735667 0.43375611010777781 0.70657066835247306
0.65027138638749804 -0.69740976016662737 0.54823864727246274
-0.13417501380334684 0.28895936732556038 0.75853504008941286
-0.046828589350070615 -0.47797541653319797 -0.13243458649801454
-0.38753240164116498 -0.17722092024044311 0.81467239432166494
-0.70687413160190005 -0.178253523461537 0.73739763079537113
0.4132161060450894 -0.076375625576199369 -0.055117774194361147
0.26179685589842894 0.80214345053060221 -0.28653723907239481
0.11034702101019533 0.43344026381648337 0.72515481245047297
0.33105562611055284 0.66374234311415492 -0.04157453171013259
-0.86230045894148333 -0.35137147586501527 0.10100310765561815
0.77398972904901697 -0.16823534799905726 0.39924260951756096
-0.2319733786238487 -0.11931844077863296 0.76163305517826174
0.78893502401365012 -0.34977156631492168 0.70154984984595359
0.74781557836328361 -0.33148304340564927 0.66403935534514247
-0.71572626912492332 -0.79041177006165952 -0.38255992341332501
-0.38761862844452111 0.4720483082630178 0.62451054940324369
-0.046265125389300721 0.60404507433115562 0.67802488485283874
-0.14926248069745007 -0.012198781814815263 0.7448409873361399
0.26959756142185576 0.77988805569512643 -0.2857684591003391
0.39626036640060835 0.73688484879014382 -0.28660146887709459
-0.49293144576439474 -0.68879672868756714 -0.31828962415358575
-0.20931992405122735 -0.22129402297015854 0.73954729829602783
0.1763086883160625 0.14568280731256245 0.72958384861314585
0.09552033746502353 -0.10874936941527302 0.76637814852634989
0.11218248332916048 0.51601240962999828 0.68596188009346548
-0.82013095021077831 -0.71604425213194212 -0.38892411116061254
0.85783699903363697 -0.38119444954641502 0.64027753252656794
-0.78973310493303295 -0.024951219392303159 0.34323202134757835
-0.34651411224103867 0.5411443295576408 0.80118204810163363
0.42414822570119171 0.6933211502350467 -0.19164491621467405
0.31415884886214229 0.6759736676674386 -0.095145155724004837
0.50120045482592701 -0.60916925029460334 0.41336923760930233
0.11884961146048667 0.89466651158552146 -0.33889523732449334
0.42686956256563136 0.048572733987906958 -0.034626069832274453
-0.50776093598213023 -0.029384866152534883 0.70507379237842116
0.16468150061692111 0.86446313756530202 -0.17911063149363216
-0.34909532647785646 0.24470770905815709 0.78634377954985624
-0.62337443389800207 -0.95980154441354415 -0.38053304746079419
0.2035505399191937 -0.37101362591202314 0.35807279449561946
-0.16950994598167668 0.32790277396838441 0.75624728812048048
0.11932373503795013 -0.20015004727991226 0.75574188233979811
-0.60316787934272931 -0.71108136338591343 -0.33735586704836962
-0.71179940383778373 -0.83576928367116565 -0.39933786469917365
0.13921648358199334 0.56785021344280473 0.66801008784068827
0.13656878048550425 -0.085797761585595822 0.76278538799636664
0.099859315981744246 -0.27253370202912652 0.64625677394267811
0.11335624996253735 -0.32608189344874461 0.50556907721424693
-0.1885583905316075 -0.12774472594756769 0.7520941150535343
-0.49115353814331364 -0.059609755540392939 0.75937729710567936
0.79793184997505939 -0.28626122632705719 0.69403076066702241
-0.17054674540892112 0.50484334512259466 0.75282817177543748
-0.91381831144479975 -0.6343096565600419 -0.34323369782155666
0.20909153617559362 -0.1801456706498481 0.78748667206460254
-0.68001787138700109 -0.59149098723296945 -0.21490201901057304
-0.45725763801142527 -0.61589092911698629 -0.16632195069784217
0.05322170962558026 0.46988998647020885 0.77476936899626025
-0.40793732637800062 -0.34622519999130308 0.69517811073223612
-0.59433142842249076 -0.92965181863510171 -0.39033614708023734
0.028914185383465352 -0.43060947305488106 -0.23311581773938528
0.20647061731250371 0.66700861158392044 0.59377357399121422
0.44025362245908717 -0.47222000005195675 0.70310898898707919
-0.98932897193946623 -0.9171575219732393 -0.46147512015070546
-0.057280648475284579 0.27506877428728416 0.76352895238128582
0.31165754088808839 0.48156545071621437 0.39706863402141579
-0.41126203841048792 -0.58502956667074102 -0.39970609161622406
-0.5715726853648917 -0.64621564837872292 -0.3072677098980634
-0.59290640546533524 -0.59469463694700408 -0.17088648766274162
0.36301739039248915 -0.33831264360184221 0.28969618328418889
-0.65108829972036375 -0.35736084438245452 0.67991949219977954
-0.32261161959174522 0.27925172429139344 0.81082897780950347
0.32882133730112351 1.1788098847013018 -0.45683869966176971
0.078918766909524152 0.58393999587912049 0.67216633237799783
-0.38119890146730739 -0.29835523001286557 0.74983762093801687
-0.27671259536403348 -0.0056792588321910031 0.76589222977002436
-0.31409853823136835 0.24663946871419462 0.80733975360180921
-0.62409275611943826 -0.50299496626282991 0.59037552982686492
-0.36295928755033025 -0.0063932488500411111 0.73579922732094261
-0.56195128579969911 -0.0073308168694836695 0.76629223952244629
-0.53496516267633254 -0.034887229518284713 0.75883146607411334
-0.38297251763190587 -0.27607545941116207 0.77844567250380692
-0.57714111627370901 0.73902766956350519 -0.31714702859909849
0.039646801399781495 0.091337422094076359 0.75403087231692822
0.17533520169071792 -0.34734804709071287 0.63020741672831093
-0.72326247067840477 -0.75518572964599429 -0.37427501214914471
-0.10603200259552104 0.42360656987585443 0.81192981914526285
-0.38131064756635702 0.29122596759842345 0.61342764996537014
0.21633891697371332 1.2106033629278237 -0.37323937677323471
0.73151056566867645 -0.44630952480140529 0.6685797913318936
0.55221141262988915 -0.091459785585906062 0.70080293725208875
-0.1027107467573245 0.30870918337743447 0.77709481130214542
-0.079928755493867243 0.10189297029138977 -0.7319793900974183
0.65274003637029665 -0.56283531491352523 0.41031270471805925
0.53750239034927105 -0.10921593975071797 0.35341982057369847
-0.18548065762540666 -0.30166480998102418 0.63943377374310728
0.46811250768671364 0.90435103104167425 -0.39242236582371959
0.84120929664489985 -0.24613102042084378 0.66403888341105954
-0.43217652824433372 0.022327862670222132 0.77457310262967027
0.23998559978695333 0.62452134696183137 -0.42700557252886284
0.4260963012178447 0.57661520094048058 -0.2507898568535154
-0.097707133098603904 0.23035568655795124 0.76359604468073883
0.81787401399297899 -0.19083572308321539 0.40473268210165969
-0.76524983820724124 -0.4402520511369783 -0.32214616198906043
0.29903158661536189 0.49591898611658358 -0.37324307252507083
0.89834665995907592 -0.32633577946378978 0.61675541973977133
-0.22396897680530437 0.3816380349574775 0.77322071159314731
-0.476325806673076 -0.6507638593870837 -0.28888130656357802
-0.43422311087761223 -0.010228540615431214 0.73280990078954744
0.13700167767042615 0.32064835646584999 0.68535125783563444
0.44343910008818543 1.2487916737882241 -0.51328991148578851
-0.76530095216313043 -0.62648645164063765 -0.40615303300440431
-0.23770817663101518 -0.38050525783190992 0.59387234414278467
0.3372158712244584 -0.10857408078040454 0.73931314125480085
0.14918470830998132 -0.044761911180429159 0.78672762224728032
-0.56929900826813373 -0.90246505680024569 -0.39686072233628167
0.31709877674851938 1.0364365038881012 -0.38872531131897858
0.75631551603233227 -0.51423623663379558 0.66124520050188806
0.15745307167542943 0.47470321344955924 0.65685457790127799
0.84972152794658484 -0.46358704680018459 0.52354530083785278
-0.095275234285082888 0.79101589524708515 0.66508590756146546
0.40228060225834206 -0.41610093132710091 0.3555690230367361
0.091728369580534874 -0.31685206356968898 0.48946725497336629
0.18351886334551537 -0.20752644270176823 0.76929839408633427
0.24740720814127037 -0.36490247897545913 0.26986015921735529
0.054569771850401239 0.61566419226503477 0.67405547466433902
0.010761191488930955 0.92804955757934771 -0.004529768556423619
0.30363340491683655 0.59047695563075564 0.50870163695174142
-0.33968229443081377 -0.097315230010480924 0.81297245152197561
-0.15535784112142892 -0.17166037611453877 0.66390117302222507
-0.20353949892976431 -0.49548779449801916 0.39865135997914791
-0.43487360325425151 -0.77506996430683905 -0.27528402193154022
-0.18076913219141133 0.70480215804828639 0.7361610240200207
-0.21105917568611687 0.43545242721626298 0.76583947881766079
-0.74210544844218518 -0.24974180964106552 0.59320557803411589
0.56460238552082487 0.91351756785514837 -0.44972872186548329
0.22446309718269575 -0.014799703393484798 0.80830929835240894
0.26755030072325958 -0.3714734526935537 0.6910069260738041
0.096771526661649787 -0.16685751942925009 0.79520613427036224
0.22421916900603467 0.90748089153794176 -0.38704728763748619
-0.070951415342529245 0.12499375585819905 0.74587469928423999
0.51076202313845442 -0.33884379839124712 0.73764042461318979
0.26304762154590655 0.97348738955865244 -0.35301525032512515
0.43825578499380669 -0.57892990636916597 0.63038799548715474
0.018216427474942343 0.68711992775593167 0.66733353864314537
0.25381210256341014 0.76019259437295794 -0.018127029326247879
0.19018380713077176 1.2117856992595808 -0.43870063841908902
0.18360496120189751 -0.36532033455477908 0.35086007855882428
0.083285312603328165 -0.14029744904796182 0.78392614901979485
0.34112642684469385 0.65035504288318435 -0.010294959467469056
-0.21222689500699232 -0.33819900361524091 0.62978262747622793
-0.015239981898760746 0.34383415732122735 0.8107897318031263
-0.53230707465302451 -0.16359416535943705 0.73585780465457518
0.50619198180953084 -0.24327168246977582 0.3200543684026762
0.51348667716669105 -0.66422236042873806 0.47277816596369604
-0.46554577788421803 -0.21608310556382548 0.78544881318615012
-0.60691139944914152 0.42607157993319156 -0.62242942560239811
-0.97314135695043724 -0.90281807797950719 -0.43248598695160112
-0.55932304360268859 -0.039073819160767798 0.65460423721229688
0.055879871386446567 -0.29977006037589238 0.50741411472771603
0.52045510316578714 -0.03733291762030877 0.38492638491266362
-0.61897995824815411 0.01742414237213108 0.78824454855763548
0.36079269651198853 0.96575367972999082 -0.37807548826792114
-0.96769217164287902 -0.69610506031944119 -0.37583721413294313
0.67004880938075573 -0.47010340165391717 0.66971625732353246
0.39210341205567101 0.73102931814059602 -0.27378148795498447
-0.20221414022406137 -0.34759232831591635 0.60392733759804429
-0.44122255451397763 0.18572200077905343 0.60665008168486168
0.27771786051999836 0.76158770726600267 -0.28511565522591553
0.3152085576223822 -0.16990564820439769 0.74186053409534836
0.3938274190472546 0.8992124326605353 -0.35878534950001395
0.39371687967924629 0.67745806805909758 -0.20494291144996168
0.42842793030636361 0.73320737074762299 -0.26111426721460873
0.76136067663927598 -0.39621938539985813 0.66789563634277016
0.13239209035312527 1.0289205216900594 -0.37663985185267279
0.042515105465994907 0.89978963681246604 0.083289802884703334
0.49356848327960812 -0.52350489810983714 0.38101741890727681
-0.15086297609312815 0.96325996950049309 -0.24815105468288934
0.75160668651328777 -0.30809447421321678 0.71475388653863092
-0.74837302864830235 -0.34884232711231 0.56263143840040897
-0.6163200138961713 -0.20467694015327886 0.62097510776754916
-0.65205725419997052 -0.28461777573140612 0.7081248503568176
0.19729983110944715 0.018531046210612523 0.7499377260473814
-0.48225588083555948 -0.55495247718642027 0.53975051904679816
0.31121451657936028 0.073332531952940094 0.54323440735313611
-0.35444997057942551 0.19795866203362777 0.78267779514490243
-0.40851583260173108 0.18167318610340288 0.7402284610427543
0.77257990034309998 -0.39871913877519916 0.69306600871454194
0.13393672420457392 -0.33786817288133353 0.56071437186130169
0.85276013077648294 -0.46315453789763694 0.55003312218488176
0.50048245158761695 0.84239501911529047 -0.30520764362743336
-0.38104102433348253 -0.51755308202445605 0.58178981904622873
0.36183880098534971 -0.016904193940624701 0.70571275441190906
-0.79536162422246193 -0.9569325219436724 -0.47321276368251119
0.65991420523856092 -0.080712441321927564 0.41303505943934482
0.36343318875546693 0.64414611527126553 -0.16371392344005287
-0.72179383097538086 -0.28076120745351396 0.38516569498818143
-0.077691906282840506 -0.21136320745561932 -0.62734207832269817
-0.72043826110968467 -0.53990622034733882 -0.310342087989806
-0.23129973858379138 0.75029579311220118 0.32120141215678188
0.25322733999620972 1.1011116471799056 -0.41617669476339714
-0.64231358096230196 -0.060775492046747814 0.55199564666912337
-0.6167679036400795 -0.97830146737318469 -0.37447472402306659
0.33484352039570364 1.1759221919273415 -0.46676003247918985
-0.68090829681460185 -0.13001817567434415 0.53364846455097847
0.44987258662285923 1.1944271821490116 -0.43288083304785019
-0.12891130384470095 -0.033950862589518849 0.74410261381338572
-0.58707656799554186 -0.23736741074985712 0.71207380064791437
-0.18697542138572132 0.33633587976871215 0.76750894410876569
0.045875859471105507 0.88119479967086534 0.58598339318292858
0.45118981716746021 -0.090986226687066463 0.23312542570320005
0.53730881674923126 -0.50799170469327537 0.7104613835564848
-0.44230489459157507 0.58859583969945461 0.68082952416299847
0.62097872216283712 -0.40362808133982053 0.73307632464204175
0.10486521281652372 -0.13187007069452683 0.80327630514596393
0.24245872708196181 0.0069172301100852707 0.74650665608411515
-0.43683929002258992 -0.08630858413953213 0.80441318086248259
-0.47404976289582379 -0.53232149115423155 -0.43390931001231436
-0.61402162261747861 -0.66084718713281276 -0.31667657719875208
-0.23819123672529319 0.47389142510173876 0.75919373329429618
0.12556294297591641 -0.18207278455593112 0.80605574179725892
-0.20066469684477894 -0.39853800436883891 0.64515146096376341
-0.41650838912002985 0.82666575774730688 -0.38316730758117856
0.46633811992784047 0.8350587055278389 -0.33571945370321998
-0.62130163061327615 -0.85637126420228604 -0.46798691453297181
0.37239496907854175 0.31659898889681948 -0.18350946696111947
0.71976687220774593 -0.51311313468144926 0.68769036688823704
0.13431799379007714 1.1266015169674262 -0.31512882095934103
0.1142052623706844 0.72011816715442656 -0.47753436710150865
0.19476809563467334 0.027629707486021005 0.75153052326098546
-0.17348941711353039 0.6092945002513499 0.73908246056063831
0.207097467868254 1.2455250284789141 -0.40535078188620588
0.50349087220036282 -0.63792142318751122 0.43980243319543533
0.21550503515067732 0.2596190564325136 0.68208957643093626
-0.51358153694899222 0.10442775166072682 0.81138451068430584
-0.51422935913774026 -0.33942925820443826 -0.54958765703789325
0.40813015673689002 0.68225942358648872 -0.19745098367863889
-0.28186727077599905 -0.17337178831467526 0.79875783458592053
0.26554740066816951 0.77128135222220529 -0.25901682224441558
0.17094704541501038 -0.052433559063258528 0.80771375355625352
0.033463388314959985 0.4267767673258005 0.79421059014138251
0.64247049102308651 -0.46752795666026392 0.71089926931792036
-0.40957965491819337 0.023274787846098377 0.77482771774130299
-0.048300561896537531 0.93411746527011807 -0.30198057614306251
0.36085510287507994 -0.36671056359349397 0.31734341058781368
0.22719487293070451 0.92590594283018568 -0.30805380021367057
-0.40881681293118 0.35293516332540875 0.69113125488060234
0.058690274731050707 0.36935372522240151 0.77633827000934374
0.14180338372784984 0.47026110589065073 0.67999226288168302
-0.67190583847332874 -0.97387914897862871 -0.39984831922731701
-0.45008326253620012 0.24142824724099832 0.58662285966189032
-0.74695193311255359 -0.24677657354207394 0.62384170710467046
0.30872324144956131 0.42261656252160229 0.56299257873277142
0.30189030192405042 0.25691158992109653 0.51216301418259036
-0.7144923428608223 -0.48063853353796659 0.44378635597839633
0.16315486230120335 -0.085888434903536925 0.80731738841827294
0.20415488603154852 0.98447666985164872 -0.30591099571538649
0.28534893655582394 0.10562130377332668 0.51236670544486529
0.10868432934577577 0.82945097237072396 0.26017331392029064
-0.21801066473005637 0.43622504982862775 0.76729263816443449
0.41275524911769068 0.69882441267740703 -0.21863921331032543
0.14572673421327309 -0.081808556556130618 0.76016893454980661
0.91103850724996427 -0.24682621453268894 0.44118373696197111
-0.91121828780828906 -0.79706690822165704 -0.42121674348339155
-0.5345674485002867 -0.2561208824417136 0.70121939897255103
0.20590377745220145 1.0838714106720158 -0.44965027151463488
-0.22284288109861627 -0.59203364354062593 -0.24342699923505151
-0.94711123701820554 -0.66225601810857171 -0.39613802991635794
0.0070170476226252276 0.63175818010234153 0.68087851697665158
-0.073325352252332721 0.87783534453270917 0.21085490347511282
-0.62770112502114728 -0.60394076118966034 -0.22309084533581114
0.51872619828424327 -0.14060977519842943 0.72485231519208426
-0.2107556479441115 -0.32247190897202493 -0.58128491114902658
-0.30423875688159718 -0.22672591118345764 0.79809842866109193
0.40812216233482879 0.79971965635568587 -0.31403582668108498
-0.28021583866905075 0.56444550187784692 0.77736740114788816
-0.63870443813831557 -0.75743227520013434 -0.35761841770552039
0.25684065714905024 -0.11276636013533015 0.79208180869454381
-0.37642178291826056 0.62673118652317328 0.64070055270845572
0.50755405730367809 0.88509788065321438 -0.35507628044031492
-0.72358596100387018 -0.40142120227110922 0.39464879430968836
-0.1188650539586078 0.45226197160879877 0.80533042215186512
0.6659255853214372 -0.68128244207371225 0.49593773102126448
-0.47782500006644568 0.15862807083218833 0.68508727964400151
0.57132739132487487 -0.37872383945787647 0.73585204147118688
0.64786956315492894 -0.26130821756245659 0.7299287856058605
-0.26358915778316572 -0.27128498991007532 0.72908981105379311
-0.75891250522072795 -0.42768030747370567 0.56764087968959132
0.12540366666407365 0.49026836845312616 0.69509775513965977
-0.00054484194776094341 0.52391106524485664 0.76668986512059334
0.13286320766930793 0.40701890565956855 0.71658441781786664
-0.23483816351262554 0.31704488476940895 0.69897949457562092
-0.16936917139330099 0.72087537688099701 0.41089402738908376
0.12261080113662981 0.60653899392182709 0.56753216538433549
-0.46539225649535787 0.47911524961180163 0.69524667187680933
-0.35481214629702507 -0.63690442612134746 0.0056657151270869122
0.13710003258815284 -0.10951982919380043 0.80812779215287733
-0.9560053131056403 -0.77765371604479583 -0.39838595605717586
0.65710494363157501 -0.46538813089716857 0.65934364519678823
0.51351264213359471 0.6818223711572724 -0.2781536138523073
0.28437497866068018 1.242857665990611 -0.40734383509142091
0.41940482209617258 -0.23339434790186253 0.25060202264718612
0.37333320581756269 1.0457851799705491 -0.40964408643998951
-0.61557759967202053 0.34721511404193173 0.42408895873035135
0.55224231488356956 -0.27289166415988309 0.73614619304467865
-0.4768907790949406 -0.58386878010652055 0.48096211573355419
0.36012926013462199 -0.21769684919492072 0.74174150168098052
-0.3582318547832557 0.72249949364453769 -0.53850870084604097
-0.27798028006470332 -0.29328467672698721 0.7220335797503239
-0.64827278602804483 -0.93427311693926285 -0.43832203644408807
0.93157828937489207 -0.18654275054973457 0.4990591523016974
0.32643967965073717 1.2731735350657978 -0.4301283790772743
0.53687084258595608 1.0571387169046407 -0.51074164291565793
0.65782686694270787 -0.67388535232157754 0.46887515776080235
-0.1825650122645186 0.33962185396932387 0.76248394921240248
-0.65131989782878286 -0.60358360056824623 -0.2249286913997075
-0.94089614222884244 -0.70575327770622565 -0.35872606131124485
0.41420842517564926 1.2467587392569879 -0.53351986787976102
0.49207632225709474 -0.39481424987715563 0.34807301226044629
-0.65318427141591862 0.087182574319056627 0.80893317859423064
-0.19216135382360378 0.51819962637464911 0.75318109870383765
-0.090596434613305021 0.27153942044857082 0.74799280908911214
0.41599428289747831 0.94249894588572758 -0.39147757789175586
0.2541765136750449 0.82546456825830106 -0.28725223031020519
-0.57096400594355323 -0.63667376303648915 -0.28448689316854114
0.29217325496119351 -0.045359203290067818 0.74924984822252938
-0.49416546782304138 -0.65908834146445905 -0.31607687661470507
0.62541152167184677 -0.42330976513464602 0.70825311938411772
-0.4711451248761005 -0.10816064699926287 0.79219733554268146
-0.40978949370175854 -0.36537142518047894 0.67216240415335449
-0.6844052364854889 -0.95930009714523035 -0.45273830017787375
-0.36971783520824708 0.27456233743475167 0.76903278939338549
0.59915386028012563 -0.44231241864082271 0.73082814814068087
0.75091137390238671 -0.59454478178183301 0.56903571331778124
0.31933694065859974 0.52669538011546102 -0.35122000162935052
-0.30883760720001519 0.2135500445995806 0.80447725193174335
-0.58288419943388625 0.091667406972574916 0.8099142463550919
-0.30063035564704421 -0.25758451992095566 0.76596323219429507
0.83767107255145845 -0.17022508726238517 0.4172847054215012
-0.57794350901447622 -0.32033974992131142 0.68303261844810947
0.24921774047845435 1.0751173355486188 -0.40444423343929614
0.61926548021756922 -0.68513380214021069 0.60220459855885622
0.26646506232939249 0.80473995017500677 -0.2970439462354193
0.17828049909862465 -0.20117434229072639 0.78581773587637116
0.67189042773567564 -0.53530953800068692 0.6959781407353951
0.040992764223787503 0.31970843012051287 0.76508258292729536
0.12149011920272912 -0.18902799698667305 0.79982301531074285
0.88943690981777124 -0.15993656150123847 0.46687526112789612
0.041326389623744575 -0.29278722862527129 0.57730468396396972
0.74089322122252277 -0.39593525141076569 0.39113206247089494
-0.39229827430991548 0.46743692220301369 0.81732994306661055
0.14515667246495578 0.80882838321442563 0.57020671792033895
0.33780721073390829 0.9032545324135075 -0.3462483738980815
-0.29407322361061006 -0.05689715538204787 0.75681295447261832
0.37016622535600163 0.52257056933422241 -0.2767260181308977
-0.37423509090766949 -0.53675889781904296 0.55656577886163205
-0.37646130532860944 -0.77423836554190828 -0.19005057591334662
-0.38940650322343728 0.20649608339276604 0.63166360336040484
0.48366032669563186 0.8148776440453247 -0.28628880445098304
-0.24840266200766603 0.70969974079516618 0.65418215791557088
0.10304444356964737 -0.18557758612667286 0.77225392131547821
-0.34326262991118028 0.12615270679734536 0.80119570461721423
-0.37187932192706263 -0.24033796009125474 0.79680509251433307
-0.19044724598578355 -0.18744171524314002 0.742032698276617
0.050221210635507774 -0.35788977050832926 -0.41256111829541808
-0.11517574453417367 0.96611045328003442 -0.12714290003658135
-0.7525355714292381 -0.64619401798883658 -0.27872865697763771
0.7805339556116202 -0.27112510860637951 0.69863801248131807
0.870976728102967 -0.3815296900721199 0.62382472268732059
-0.64617281553634776 -0.55068448139592441 -0.37650969742387019
-0.74456418414794356 -0.83503620070075968 -0.49236719102411897
-0.641720504330487 0.66520723991541253 -0.33318154843620107
0.15786362348250904 0.83374271216233709 0.49406273696724412
-0.38338085357431684 0.39323523555103179 0.6358744835918877
0.51429439503501495 0.92330375993985569 -0.3846706809458702
-0.47422378598727555 -0.5809616761861971 0.39340448288560026
-0.089241987553662305 0.49544467797613301 0.79348133687681965
-0.79693502385519643 -1.0205212621391064 -0.42941312987428404
-0.4348596411106751 -0.42982925730125654 0.64931691972851269
-0.33479779596761539 0.31341238853712916 0.8142346768118891
-0.20806878468108003 -0.13881235180790696 0.73118363619042626
0.20636401825628958 0.77261723478404498 0.25192913587794408
0.78952271638267391 -0.311345530341268 0.70171017723069795
0.16802308799212096 1.1466541547846294 -0.32562590449895268
-0.10736183431467339 0.67978828923102697 0.72170376341925646
0.85353746073468173 -0.41297199202439216 0.62729427693387052
0.73379569929980271 -0.31866377713895844 0.66417933666410178
0.095149470996858554 0.84277912336490779 0.21157048700524683
0.10817618382517047 -0.40895182871989988 -0.15176819776879213
-0.28186479588577384 -0.71998481036132311 -0.1974891937532206
-0.28375035220788991 0.33294685715755445 0.79170889111350107
-0.21765500078039501 0.48698040178269331 0.75707269681742417
-0.26356721805871963 0.94629644342711927 -0.1397007868041662
-0.59655943813031698 -0.40682577716060653 0.65046967419841906
-0.67182625680954899 -0.28696431275272882 0.71418995069933544
0.059086054090119688 0.49707146035210048 0.7447142701026408
-0.81021537752471318 -0.74191958903024791 -0.40771600436442768
-0.43996781648173133 -0.26832175980071238 0.76894834308274085
-0.23333276288184646 0.36260085348662408 0.71634117394216901
-0.72691275020012824 -1.0001661404769919 -0.40918244532042181
-0.045481629235186283 0.46344325202445891 0.80242442109257084
0.81927296205694589 -0.11549669844989729 0.46864585163839934
-0.47693826292130304 -0.38419410706344514 0.67355122297545122
0.64928444588920797 -0.027823176534437444 0.59473674983502889
-0.72353994776633712 -0.34129848355133952 0.45383988808583808
0.21071671296093619 -0.08257490518177768 0.81204350270726522
0.056886001157266719 0.39432536520369688 0.78962634568878798
-0.064326130846257712 -0.47277932969604564 -0.2152402739740964
-0.35443646672069207 -0.63947341015490089 -0.084234990702682921
-0.39067516517675749 -0.016831870137854033 0.7676003991532987
-0.73061311579928123 -0.34212412254314462 0.67049264584295898
0.84525609686606096 -0.41667388146122786 0.46447506441048958
0.35814889375017955 0.42949550314140694 -0.24071532145849162
-0.69004724264986805 -0.70668294151580646 -0.3488924337053767
-0.26758633033663948 0.44293722415701708 0.66504066198193357
-0.61275221203823094 -0.23915765922206234 0.70771364492884459
0.5457213698353236 0.011269550497542191 0.59704458146540063
0.18312968267637864 0.70467905158801614 0.59404859451086622
0.29775618571793894 1.1174525077119899 -0.43664486898394728
0.44312889393957633 0.04618893161612192 0.48963267324198867
0.6113694091455546 -0.45224343345780849 0.72756664279673089
0.52229030403224108 -0.22914984985623921 0.7364928272505864
-0.72428792751028226 -0.53436641361268045 -0.15354255835104169
-0.61695728675835682 -0.64645181742299584 -0.29534554520197176
-0.095900741604033612 -0.43663742385916038 0.37527337966834295
-0.90362528731915681 -0.1499547811600408 0.12995118313446241
-0.54475785091618611 -0.050405342233177386 0.75551840035268825
0.085258524673345271 0.56079114808929909 0.67264179864425699
0.65060441740639519 -0.61509235625200187 0.42695860445663669
-0.11218370998439831 0.86654031300913914 0.21414523302845012
-0.90951878877122816 -0.72169590639831327 -0.36527041793642923
0.29042242246264571 0.66988747529229542 -0.37835046828601193
0.29025044155566349 0.1364494024555265 0.48812501588902535
-0.50686212865101155 -0.32187546955914481 0.67166234954655835
-0.42438822096785422 -0.40334241580518171 0.66836035699954977
0.39875919764890622 0.72259656871983857 -0.27209809521641048
0.46475040269276846 -0.0049286813659676909 0.37561923957242271
0.26974437729678558 1.126153563328959 -0.43411765140271186
0.085053663569178539 -0.17304728428328353 0.75235837290907526
0.29638048127123717 -0.15977732082580953 0.74423177135096807
0.77544100135228256 -0.37069894139843917 0.69746539331928403
-0.11318467131503063 -0.059140963873715258 0.74753057680975843
-0.35542778469844016 0.47503063894223807 0.52628420681426391
-0.88179302508412682 -0.89196109770303877 -0.45046742798161432
-0.2902442087439745 -0.45831217696701732 0.62210324505773684
-0.66236156424074721 -0.85440110887215859 -0.40255047622981621
0.016021142651915454 0.67269063290295428 0.67196116199930955
0.19390592041579069 -0.3664940477018801 0.63152589111464863
-0.27160221257874895 -0.17425685231387344 0.78300045420958853
0.67803396877322442 -0.65287557015894704 0.60325421317716277
-0.75141326958249088 -0.42209888811381369 -0.36843686733267234
-0.33254162547216382 0.24401468605840471 0.80056767545175234
-0.43789967513110106 -0.79348079093403534 -0.25170361086192372
0.26155593179887759 -0.29926869270326328 0.72276557054673063
-0.8249744902624041 -0.76730651925645432 -0.42169406073848137
0.21175146471083472 0.18919036668929046 -0.57566543575258677
0.70902600706792818 -0.50915165206073265 0.41257142354847076
0.07167903600428982 0.60843439691090317 0.61933880320756884
0.62121234868029696 -0.44851677651571364 0.70662578306676949
-0.19901955060274723 0.32746943335881529 0.7739705199733109
-0.45956534367838486 -0.26012663445563966 0.76359687156608658
0.062547696786122486 0.39237521729600111 0.78461137390695157
-0.37377936745357587 -0.36670697190269763 0.67586378472025643
-0.73962966780052319 -0.4562014556274665 0.49307622684471397
0.16363011166597907 0.80152328194541056 0.27718205218736003
-0.081039081365544163 -0.35340045776334783 -0.51593727861284933
-0.22314186249342161 0.52397578978608195 0.67149607615541385
0.41084774927100653 -0.22806968193622179 0.22260404353610497
-0.79228344923221528 -0.48271729631017024 -0.008110495673662399
-0.33724982432248929 0.025233409296847142 0.77221622255937561
0.47526052105744121 -0.54977713383488513 0.39252325372161678
-0.0071712625208242287 0.93143002308666745 -0.21025371500119761
0.2836124327226841 0.46029491096680353 -0.39668573960570441
0.33473116507632028 1.1253661664062964 -0.44448066122945562
0.7248120169144574 -0.31739004087746281 0.6661758974443508
0.68166893187005329 -0.61096797667884672 0.64554082362458232
0.39043501278674952 0.54146456833761292 -0.096635479071075281
0.19808623603686826 -0.19832456479542238 0.77548912565241324
0.34764927277111113 0.22512698114056384 0.30060431512807284
-0.36497937807386194 0.79929642169814663 -0.45542307157171891
0.030362650012968118 0.40562694803656996 0.79905975290261111
-0.73998688303006066 0.5827152144025689 -0.14756950974313909
0.084830969546068502 0.58981408746301156 0.67378390435644775
-0.54232070620696504 -0.29702418396748964 0.68000124338647794
-0.77602976494930775 0.31615122921123806 0.28720095635715737
0.032194952269114729 0.65806313196547173 0.67354412439846811
0.30160545932965022 0.10546591562405627 0.48819885627759874
0.22125960336599704 0.011035332445913149 0.75334915318049411
0.39174693280460549 1.1695329699793984 -0.4770765697631667
-0.81566770907585351 -0.67670450864389586 -0.32608076915824569
0.46162737804003129 -0.15726639958564892 0.2737923308637491
0.83764269630190924 -0.19897906910957719 0.65220351091330286
0.59565075600109552 -0.22416129170480925 0.35312538886496014
-0.54334270714326038 -0.39804387436963751 0.65625069323237284
-0.91369685566087355 -0.75697919431534899 -0.49501052172810489
0.56269498158989961 -0.48294922537631635 0.72066891956785994
-0.55174075205554551 -0.37524371193341111 0.66544631886223726
-0.56334619318485757 -0.54588703745532641 -0.40748734370518491
0.68627051832025465 -0.47009979779043753 0.67631218453729147
-0.63114789482436784 -0.34934861678862994 0.67515156177767111
-0.87501143468184317 -0.89963030261247923 -0.47017990486460448
0.62699046193580976 -0.40473531696222853 0.73030769734523915
-0.3610248460575054 -0.63731468312332673 -0.14024674366939394
-0.13111642486511776 0.75241763195910849 0.38678073391230328
-0.49841910535153122 0.41002269632831556 0.47445840204608558
0.28419935192832613 1.1505488003222748 -0.44245621435634064
0.46472304300603184 0.033251511049526172 0.59619933002842274
-0.32984618475682659 -0.083478895643260387 0.78862024084807558
0.11277053051858843 0.49607989807611119 0.69691605403181356
-0.10330722891267108 0.44431960306508511 0.80865574700847986
0.29857413949290112 1.0174952164784266 -0.37936561811905278
-0.17895874775306098 0.51099288576195434 0.75651145714989809
-0.31705668375519025 -0.64370455731232568 -0.137252268825371
0.54595704837770676 -0.47461536836744944 0.36973603314098469
-0.13649204024181749 -0.30098238265925303 0.69791165586516968
0.70098816174406942 -0.34911903516941756 0.66916043608659237
0.03726869447867287 -0.32851254319638823 0.46928860986486498
-0.37157689184444287 -0.40077177278121301 0.62536630778787838
-0.5826392803613718 -0.93373684015779723 -0.36549740907152994
0.34552988774210114 -0.0050566913095320132 -0.34850810481882277
-0.8028465989782152 -0.77142112183539879 -0.40763570410956618
0.7493765219196149 -0.38481442064037985 0.65221292097114514
-0.16389600775978685 0.38818840613586048 0.77589589080625743
-0.01734180559977716 0.37943018642519455 -0.68307559030960974
0.13952185672734885 0.3746139076020274 0.71688641835797995
0.12358402738449037 -0.2558022943106657 0.6999993792719188
-0.3416180399442279 -0.8116654028977397 -0.2656184334713636
0.10767144824415809 -0.15703629308815792 0.8054533431901163
-0.52336042657819704 -0.10997270028659667 0.74990975461473752
-0.59099618850897073 -0.35435335905711085 0.66691993169540353
0.3850442697092058 0.72272533597390876 -0.25817940244478521
-0.02558230384335225 -0.35714400721239858 0.51303794170557282
-0.75892731447483364 -0.51149133968932858 -0.084944200258590286
-0.72159315266373447 -0.55579011420065783 -0.21225782078939659
-0.4092057281309458 -0.023034089235988375 0.76290494507458106
-0.07699541969450685 0.26120079832801224 0.75393257985565754
0.29569552337768545 0.83464830240789922 -0.31835445462638035
0.047391840571590294 0.87151105479032509 0.60968689171387069
-0.4453595487124602 -0.44684809556941651 0.63876642093786273
-0.61495515121176503 -0.98972869525576002 -0.37880827335076361
-0.60971893361324625 -0.05175868911102377 0.7639615761235774
-0.0028844528897122856 0.51768350843918398 0.77262028969598973
0.43001535451124795 -0.60620824456419342 0.51883395948694755
0.25619197436535046 -0.0027377463963436099 0.76275612005487403
-0.55409821447364749 -0.25640221650091544 0.70420093932875716
-0.065182750130318823 0.53938695365154921 0.75273510752536055
-0.41965823815955439 -0.77314293469893691 -0.36917461135559293
0.0019020689366762156 0.53049355108073204 0.75381487013205373
-0.24730697860184847 -0.27985679138444297 0.7326170974733266
0.11568289933296683 0.40935770742288735 0.7092924488358463
