# XYZ point cloud file
0.054300334563217589 0.76625128223147909 0.65690588367865033
0.95086402885563359 -0.23965153186006127 0.52992676570122654
0.086814447891072177 -0.14854435813258959 0.75475197850132503
-0.28913025900008194 -0.071445937664356585 0.76761372274351558
-0.21666197432901413 0.47886285448490717 -0.70828241753393151
-0.35479833139640249 -0.11698225326931455 0.81787443105917035
-0.18701595160446871 -0.14852748595418097 0.75083371537923682
-0.59588145158460293 0.054786745897376754 0.5316585198786683
-0.66175967548818448 -0.63625480400315482 -0.40208005693544635
-0.29218625612616123 -0.3890035770596314 0.67078124835037656
0.70064570625761036 -0.4316636828977245 0.65318883994040178
0.30702415012141948 1.1921815594496907 -0.4173368221540823
0.80887323173536529 -0.09975458976011975 0.50205532692550747
0.53991597498247401 -0.58579808965958757 0.6779038473547967
-0.34475677537206195 -0.0576176499630221 0.77936174382115553
-0.74598284633367129 -0.28428228021445712 0.65994225145562879
-0.72141371107806407 -0.46501488094392585 -0.34610120121405075
0.67292933289225942 -0.4672682231949013 0.69499048921898421
-0.14366899004765088 0.51262106185460521 0.74913796065814786
0.29461062425905205 1.1434174394127217 -0.44380543641024417
-0.24209737713795576 -0.19606786223553963 0.75772569328315242
0.065682798853854862 0.2100798088103053 0.65948549651623978
0.75754879252256302 -0.40397056922328162 0.6685926468252319
-0.22760807067448852 0.39726146761946435 0.77357666318366114
-0.77121183212532429 -0.98317465315546215 -0.41338703800093057
0.12520938798814285 -0.1449787911617304 0.81089936667613571
0.93466219231564196 -0.20360992540285283 0.55722405998051805
0.39159643088890128 0.92079647677628795 -0.36899195501064064
0.16006272173972924 0.91662625654014018 -0.20193120556390909
0.89749483100465 -0.35219652414742242 0.60021135323495578
0.17195843776837982 1.097961545819226 -0.29189816048086037
0.36638307953504068 -0.48343267813795143 0.66881547856721824
-0.42856428955957426 0.55385793807608596 0.67284909925864156
0.35618901620544818 -0.5170003425864178 0.44895704194241048
-0.15780282100744003 -0.28065156770917632 0.71137456732515858
-0.57718511581447629 -0.60517187862097455 0.015810950757753517
-0.52100651089033434 -0.70307970411385234 -0.32726704580159449
-0.19588094037264092 0.41743306795291568 0.76615111279783932
0.039692417970435656 0.32901351262727863 0.7722604500351089
-0.42741522193245984 -0.17967343468514319 0.80451069145981791
0.19679309137803358 0.044658105867220854 0.74762483173447691
0.73511693625405528 -0.5330103981729809 0.66576541368064568
0.32553996653046369 -0.14537922232906064 0.74047247565531293
-0.43995013165401708 0.55775457768673853 0.7767922261374558
0.036040747852165822 0.83873255748842768 0.46968225812448949
-0.4477377720159943 0.011391211179325289 0.77346610798454662
0.74727199660904375 -0.33929217063620132 0.65181467741959231
0.35971129701696114 0.69247196472422079 -0.21819844331679228
0.029117715253704546 0.61365762178113004 0.67348427039896386
0.23200642563628193 0.8380688783564203 -0.23925629406202376
-0.38357340295930697 0.21995881472544809 -0.73766565971178366
0.099543769148747074 0.74806201445890119 0.63126350609043946
-0.27410559796322076 0.41675246730326876 0.77943109962929569
-0.49351281988102969 -0.2524642506555157 0.73551114036034804
0.0060779590864985522 0.40161167716789326 0.80318732927445069
-0.74383559706229008 -0.05773831682331565 0.7189623264234335
0.64126863124923617 -0.22113423501560048 0.36511779124518995
-0.55511312000060009 0.18489674145889001 0.74785024029028691
0.22944343768994635 -0.03070591922460908 0.80840610426927029
-0.18638245176541623 0.4447336468162475 0.76119402351433507
0.14900420026620331 0.23399512703344749 0.71967715779122265
0.37575374125538374 0.59780360627153861 -0.11501048255551538
-0.082963010461497788 0.77183816011111883 0.38411492363220923
0.38584484767140026 -0.5710296654818503 0.52876221985112082
0.46316376563726891 0.69596952267310996 -0.17284857894812866
-0.75960764876123577 -0.45160226133686709 0.55160546741676697
-0.060513695192060624 0.21651458583136662 0.71496157534193827
-0.55540883634405702 -0.031989489356537781 0.75576893913898147
-0.64622315311283174 -0.62419587603458559 -0.25667874630193666
0.28886979565589499 0.17681022847115813 0.48451652132757417
-0.49086428213991162 0.066804570677815533 0.78902927192396888
-0.61186469610874994 -1.0105494607936212 -0.39532619178794448
0.011372361020853816 0.90695321808148766 -0.34316321511041714
0.23945812745138895 -0.40808670474725517 0.639284063543613
0.32250309474092731 0.41596426730285696 0.5068397254942596
-0.6978636065805226 -0.17827638969569204 0.47648717539764007
0.11959058460117333 -0.18607220217637011 0.79296776466307861
-0.57364155429199037 0.15177870563406959 0.8071841950728853
0.28307794439276179 0.7670079065387112 -0.28923071115912435
-0.23747774577632796 0.25808243915587648 0.78519503847789807
-0.43191073599968988 -0.7433363752280826 -0.30861718195888344
-0.23452370003120393 0.32487545850811372 0.77795496870547609
-0.57375263998191528 -0.32961010876709462 0.67831257303271997
-0.72448715908140926 -0.60493807702808233 -0.23845854511448294
-0.46273108009733832 -0.74972189769139419 -0.3201391329895138
-0.48424692879486742 -0.2442405148807687 0.74922942426417904
-0.69968437704975273 -0.36124046728307668 0.67937525232462193
0.28550895696232992 0.24879033241605519 0.58577363638703162
-0.58195354487216377 0.6027766237694987 -0.49976928622519701
0.66400616722239647 -0.46354130692296391 0.66518068519169837
-0.30176109773756821 -0.039115865438430486 0.7653807370377308
0.17176417927474041 0.49959377924143622 0.6654484232136717
0.36761141042401135 -0.13061212976694225 -0.17414371429000397
0.58445714063713972 0.89301487456734829 -0.39949542936467353
0.45977767544770742 1.0954983545586092 -0.48064515651568307
0.27294408431517425 -0.11365042906138401 0.77805947136704923
0.28335610052802451 0.71059014494082273 -0.084582798084763766
-0.18916317230244495 0.43132263109195357 0.7628283771149853
0.8856587640431286 -0.39489044386883954 0.51267286667282264
-0.12918575534256149 0.37297352454441235 0.79455910201490454
0.035968082065163998 0.13455015168027451 -0.69878009325202584
-0.23288438780135756 0.70422069217465122 0.69188336928136351
-0.67294442990901615 -0.9634964759614828 -0.41193233313314792
0.67448761329599449 -0.37546954767265306 0.68135071690352156
0.12208357519828184 -0.086770978069442339 0.76866342522326292
-0.88881673394088168 -0.73352937376372829 -0.39576567371851468
0.28867600226664791 0.75000633900161962 -0.27999594371259207
0.30167298043330248 1.1283423787529623 -0.44132416448178979
0.15683637724693256 -0.0045351093914764995 0.76313339153682946
0.46833232116816248 1.2213443839225704 -0.52413441418752349
0.51805569417037489 1.0442657830717659 -0.41856345084673663
0.13135030040333895 1.0861825405611913 -0.27630484135565503
0.29698011397410795 0.71867097035488392 -0.22257464766693857
0.25341796927268945 1.2233661884450635 -0.38514356760836144
-0.30049959672907178 0.63057736615955218 0.78071041862029134
0.50184522401469422 -0.12287548724033437 0.32428147704590415
0.26498725152144509 0.63519680592652028 0.54174945460056634
0.16476942808959016 0.65386297579875352 0.62039059550285458
0.75147069849104398 -0.33578209804359926 0.65879736013509849
0.14517927676459763 0.86514782753108932 -0.030463386375089385
-0.58699918917262295 -0.19103825728495671 0.66948801954647408
-0.18310669566479731 0.50673261699476058 0.71732631495333976
-0.21180548866908211 -0.2377585248868308 0.71935164798155071
0.22106432748060634 1.0482610848960165 -0.34410418602853632
-0.70668695038438401 -0.58764432930057353 -0.22293120285651469
0.40148350634262897 0.055622220246744458 0.52374391108425833
0.086215787989168291 -0.13175629339455597 0.75925805972252647
-0.889417144245499 -0.60030010852846338 -0.32872342021880741
0.070353767996854444 0.36320194899182434 0.76281002880877757
0.30670421885055887 0.23253534668017339 0.44480933789383492
-0.4085532949756896 -0.23500963858929991 0.79221174407532402
0.67680181337696865 -0.34472107118504658 0.71649956118783287
-0.3714474237219445 0.43027243313978847 0.82017307927377914
0.75206503028523386 -0.49497706469762293 0.67720100570963382
0.3544514917421413 1.0365458424212459 -0.396092144145749
0.19152921661804001 1.0053306778002069 -0.27674430720111864
0.20689996977638714 1.1619243892148248 -0.34111624468735258
-0.5196910501005263 -0.91674451094335652 -0.31096103249943141
0.93249607762555087 -0.29084604397297387 0.4874546788689198
-0.80984498415262252 -0.45117672456587776 -0.11141534968259847
0.59338817024790558 -0.67997880868333305 0.61312358472261153
-0.31550213804131744 -0.65547590930332067 -0.15366657090851632
-0.36209871498834012 0.28775920465797533 0.66340422747446226
0.25178071741330221 0.1933216176360224 0.63625200385832059
0.82617913087942796 -0.22554761394978695 0.66551466253596203
-0.50662655671175827 -0.22007802052175407 -0.60863731811944177
0.4065169102655517 -0.05718358821407632 0.7156740121398979
-0.34404577800011182 -0.7520954805450133 -0.31383975849013623
-0.10710336535741583 0.33299895415896419 0.78654256806403922
0.39646034415352815 0.83151199680949173 -0.32575361689365678
-0.75648790072780336 0.040394812225272858 0.71413555901173709
0.21639134683777961 0.41138154108112968 0.65684928303239509
-0.49016865844192736 -0.70453635090015787 -0.31807093866265745
0.65605251616691973 -0.48647838183041503 0.71876737682154968
0.071644096578829419 0.70911320001611466 0.64895210107193435
-0.21315208083673909 -0.029024309821785721 0.7558584415371179
-0.7105147749190408 0.07353521381088246 0.63354652284861146
-0.81695094058736473 -0.18855888415769684 0.23913385052364333
0.62925246170097182 -0.45211745659586722 0.70685375258871908
0.439886014451913 1.1195187474569313 -0.48209571955610819
-0.32228053642076659 -0.70312084762038118 -0.16223338182161839
-0.39599533006257559 0.43361053060492871 0.81497829567281954
0.65028917697958732 -0.38378196737719006 0.71832517205714375
-0.42538811277516331 0.11723562910307805 -0.71779096691738076
-0.6885669709985045 -0.41259130704437741 0.65085267219984289
0.14671604597343801 -0.080492890840702103 0.77214957141039164
0.43287599410158606 0.62723802753492919 -0.28959601986703376
-0.18820409773151248 0.37018743257770437 0.76471143060072677
-0.035221665448117889 0.58014998824239772 0.69980258339673718
-0.13367438403688148 0.75754176343402557 0.65994670380231213
-0.57107686088755472 -0.071796836486765159 0.74839513411510694
0.049259286162651961 0.46003080442755895 0.77643778009253239
-0.51890734112442161 0.56829330393633271 -0.58502232387746744
0.20071498799104326 0.9206275397333048 -0.24259566290429291
-0.36481366269557647 0.2572841177640397 0.63984794973833203
-0.21055545449466351 -0.08980318566124712 0.76097810819415201
0.44315295326144977 -0.15794514217423572 0.73553279915227776
0.15036843664274713 -0.058775063326829358 0.77018433838385647
0.013263673927738751 0.33590949447075369 0.80075744374231661
0.15501660878058843 -0.075620974745784109 0.79085838480011361
0.28146858938571384 0.71490401905802781 0.10667267377468193
0.18138373640598715 -0.19775964287056702 0.77866600753221249
0.54766539086463339 0.78402584260786501 -0.27883378976691731
0.26947269805330443 1.0314445857396422 -0.37468560948678764
0.67412822450930321 -0.53998215770311697 0.41428619569997771
0.22231193631660595 1.1951118743966536 -0.45633177008614823
0.54637107658543727 -0.54957154776960004 0.6974734841780954
0.38736370202713744 0.23884789780569715 -0.10769047643464624
0.28182319309523152 0.069185570119513873 0.61107635785482017
-0.54106822107658914 -0.32525559520790903 0.67982739284207128
-0.79599790578827623 -0.95908864290623974 -0.46737330960866075
0.73920946057220149 -0.36997200126631902 0.65105595369068681
-0.74814256697293402 -0.3726273415718282 -0.41342561165380332
0.39262041155296679 1.2691151827228833 -0.48674816459743653
0.25445842635062732 -0.059029398442831393 0.79910703785562731
0.37082914085239871 1.0723648250441027 -0.41944679860611167
0.27494659735021543 0.65609063059995254 0.30305448943124347
0.67723822731604955 -0.12676486936157216 0.39020829156564396
0.36631446891497532 0.94404123471014678 -0.36906787539435726
0.82324154318911624 -0.49088782266078612 0.59963502584265349
-0.13432245187953029 0.2718256384560398 0.77104939531008654
-0.70408622976939483 -0.18208482172982432 0.51150803343899653
-0.73969523124545589 -0.4050472632603288 0.6377128174317015
-0.088191463933226188 0.37628713409173686 0.81230490126822374
-0.052463093471725841 0.79792875612135283 0.54032364850229264
0.32690878050189909 1.0739567378641457 -0.40546730508540918
0.11695540519880332 0.88736961260999525 -0.062558846598161466
-0.25562531299422986 -0.57095578030683836 0.17367065763027512
-0.069639479223374323 0.60801004488431154 0.71745298357902954
0.28383826112093402 0.15667725060652238 0.49964595468050277
0.4594161959761891 0.020024143477798351 0.6252758577642723
-0.79099835231812676 -0.73996995854417413 -0.39976011044371518
0.13086764079928415 -0.13053093084150924 0.81132278176334793
-0.14372241921396167 0.036361183896677751 0.74833643771672342
0.10280905006609942 -0.14396958105793933 0.80253348927221424
0.12291135526185926 0.42228352628663934 -0.59978165629690672
-0.12143422252597347 0.030568696956553509 -0.72701986031410826
-0.5723452942467695 -0.62968890028553659 -0.27176174155493982
-0.08294392174666676 0.96660628021948636 -0.21420859388463676
0.34140745444527631 1.1418678762970238 -0.45728473372367695
0.73169020364266579 -0.30205430684641232 0.69816846914076081
-0.076783866455272687 0.21249492705248985 0.75734967126969721
0.32113514634198381 0.42338296949176568 0.34958175505169997
-0.75624332880947165 -0.0084546847437927397 0.70385571635187105
0.35623476915451846 0.066209287304385356 0.50076513042144377
-0.54841367299234278 -0.11175701431002594 0.7543993131525788
0.12962283145642139 0.42992176347672917 0.7016580998531925
0.64322459335870263 -0.69556956917764634 0.55581426214520846
-0.12681032224336342 0.28827272052813768 0.7588113614070906
-0.050825253018079053 -0.48354872301785257 -0.12972502179163925
-0.38805190432033854 -0.16974907500281322 0.81512702307604101
-0.70992976670181918 -0.16801247202932501 0.73304243358953869
0.40680820837170018 -0.085957750557414059 -0.057829370927557022
0.26509543878949771 0.80235136034827637 -0.28030546077583551
0.11628277918523899 0.4297030471330876 0.72009573382984549
0.33012898461601736 0.65938689151252294 -0.040804207737775045
-0.86671802766442596 -0.33443749347853036 0.095444729352781366
0.76942062954992707 -0.17270190495266591 0.39494507049328753
-0.23074963531619375 -0.11397207406504428 0.76346473856167307
0.79055360144666764 -0.34504867953358004 0.70115730453006542
0.74813345751755733 -0.32780499267913088 0.66337330646845949
-0.7178481495578275 -0.78869576013779152 -0.38428334781492879
-0.37328043524845356 0.47472580572916812 0.63551677946900043
-0.036429166502280452 0.59734798106698417 0.67891540978534515
-0.14632216894776917 -0.0088112655208916202 0.74621744021282055
0.27254005308749285 0.78018643122574716 -0.27998379966985176
0.39540367411351163 0.7359835734190634 -0.28591723316061568
-0.49448786902914321 -0.68918259844587659 -0.31747853480232635
-0.20971687962198615 -0.21481719104837449 0.74259180299883454
0.17975455104906324 0.14676826708345825 0.72593861292110162
0.097080713009116693 -0.10348996414334 0.76638700151796257
0.11827492556674457 0.51051194264830357 0.68131271443721175
-0.82510738109357007 -0.71052709545423909 -0.39559705097984121
0.85824368941583451 -0.37948675541583532 0.64024972118718004
-0.78559313806518105 -0.0043176977223176038 0.34615398514546314
-0.33309077930773157 0.53923032572628538 0.80447528305878535
0.42170437542439565 0.69057435778983223 -0.19276311400111368
0.31394842808880341 0.67253428562661188 -0.093145888547169875
0.49290694505787513 -0.60941217499860412 0.41923174490195336
0.12873656247061582 0.89807023876406511 -0.32424553281336976
0.42119656120684823 0.040175827583510682 -0.037363098284846075
-0.50529603004859425 -0.022638307811653213 0.70625352528784546
0.17068982386454579 0.86273841849125787 -0.16873755094745846
-0.34129839380172733 0.24675823919836315 0.78777348386867985
-0.62092683968280582 -0.95963997863995409 -0.37350370987315173
0.19864278036515515 -0.37226393309995442 0.36247486151992447
-0.16126758864596624 0.32688305103996873 0.75722228565464889
0.11973586009648329 -0.19363725215654348 0.75704475801566318
-0.6051823432048451 -0.70987722407936005 -0.33821546083309784
-0.7129631696738663 -0.83482678370717878 -0.39962861016420348
0.14491830043738574 0.5612717556563136 0.6624785097088548
0.13835680047511545 -0.080873345239539152 0.76211761905939213
0.098434674487631213 -0.2676671118339442 0.64981207061224211
0.11027333279576723 -0.3239087866917294 0.51033500566569145
-0.1874193049980164 -0.12253560924041373 0.75414416506783155
-0.48968509029268148 -0.052973963268301283 0.75937817638446603
0.79975861162074047 -0.28176181931324373 0.69205344415909842
-0.15969883627808201 0.50097464394094082 0.75446325876200859
-0.92154254944573211 -0.6234182626801541 -0.35396403471001037
0.21027119156291363 -0.17291137953695146 0.78730278106894502
-0.68372234185044434 -0.58607272511272868 -0.21799497497773856
-0.45962574050904692 -0.61545451677019791 -0.16426079616319456
0.060503617119620046 0.46562727669508774 0.76947915804894329
-0.41093313778655727 -0.33789429752838629 0.6987271022203565
-0.59234466233231586 -0.92996762381812559 -0.38429616796076971
0.024641561481903551 -0.43807438630219764 -0.23260442806523329
0.21038731296285462 0.6582788087254472 0.5867096320127736
0.43794444532821331 -0.46383501731248433 0.70773307334115643
-0.99378888498949891 -0.91460861746436706 -0.46680864080988727
-0.050727954570575662 0.27431075787828663 0.76233737620492548
0.31178171068086691 0.47591416420552335 0.39300460979541008
-0.41285996862031382 -0.58585975625514308 -0.40088587468157755
-0.57390355975287122 -0.64449561794319266 -0.30847233129206586
-0.59588273055735641 -0.59136183200582693 -0.17148301646026809
0.35698743185677273 -0.34264951002825583 0.29169138388120786
-0.65613891143472358 -0.34747241213278279 0.67903622879378034
-0.31440440548736248 0.28044291018903511 0.81142588693998974
0.33184598801320675 1.1730097332200629 -0.45345356129619496
0.08593164470876502 0.57704106893958329 0.66864278535605948
-0.38350408174502704 -0.28998550834039838 0.75254571452309449
-0.2735903427138453 -0.0015785452787184795 0.76715669685151866
-0.30650506021727608 0.24814828185628324 0.80786787537053684
-0.63020029898894592 -0.4930509273919812 0.59287430776778649
-0.35980903249358676 -0.0017451441444702454 0.73758330864805188
-0.55991108690766112 8.1697731808993979e-05 0.76519827247766159
-0.5332556595548148 -0.027778370112209849 0.75826445422462641
-0.38503183267552643 -0.26759824294419099 0.78050732079448082
-0.53718226447980122 0.78514251256626366 -0.26713143146761986
0.04345437969059418 0.09323740983178519 0.75265535872041056
0.1728182823542781 -0.34189855990832241 0.63447345056217941
-0.72606490180791994 -0.75266992190520554 -0.37714151141998897
-0.097141816396105085 0.42061696523382697 0.80967264766099589
-0.37110620119091564 0.29493490319467863 0.62147716525815255
0.22315918089340059 1.2026569913960508 -0.36315896540141956
0.73094091324150057 -0.44227926239279841 0.67067805239779332
0.55344217033080589 -0.086965455882783926 0.69613131938087136
-0.095327752127618126 0.30762490549693311 0.77621705982901545
-0.077005613867406453 0.1134602514473233 -0.7338065131804612
0.64501189988982688 -0.56610641318358002 0.41369305593098638
0.53290589191228577 -0.11384336132584227 0.35082709354303709
-0.18714210273704524 -0.29585905084126596 0.64439992791777101
0.46654158935368528 0.90368382401741165 -0.39409822627513513
0.84276403777829856 -0.24280248124139669 0.66094946944743249
-0.4288419686224394 0.027614051350789204 0.77503234661742582
0.24399940073739046 0.62928213018152945 -0.42109236224677105
0.42375066470503597 0.57481924331679934 -0.25152276055834299
-0.091419203865115151 0.23039727665094345 0.76321465321877113
0.8134050650837743 -0.19545348322619316 0.4004722077948486
-0.76932880125185932 -0.42607205220872579 -0.32921770233773628
0.29967233642423352 0.4973286696622532 -0.3708834742525422
0.89880658081302656 -0.32551022584388589 0.61529624294050578
-0.2144185926054849 0.38032448837442523 0.77465302921057244
-0.47817510233522142 -0.65092260287618764 -0.28818890310141043
-0.43127716921552306 -0.004708205264781995 0.73421082575369567
0.14158567545822187 0.31853393937596763 0.68171118566984035
0.4420606018528197 1.2402779215767437 -0.51752710492677245
-0.76999655949216006 -0.61928134274534763 -0.41329462617389368
-0.24054557376593522 -0.37417407661320379 0.59989821046259451
0.3386135267082615 -0.10335064644626146 0.73706489288287358
0.15164678995823877 -0.039868456703375355 0.78494313605018462
-0.56771719562051359 -0.90315219721493811 -0.39163968184994857
0.31998166200928679 1.0338909396754676 -0.38440130734127642
0.75515840316881722 -0.51081586092145814 0.66479581960161305
0.16236584226979467 0.46991530632588319 0.65193700805163246
0.84630787759238046 -0.46638222639793336 0.52459223690541812
-0.082209417498971149 0.78073601783109403 0.66892749911953509
0.39585813699723005 -0.41863313444418715 0.3585736583373631
0.088746755736568872 -0.31505858506415185 0.49430324645085122
0.18411456710494889 -0.20041756290777757 0.77004122490902205
0.24178898809144656 -0.36847969435151162 0.27332739792731786
0.062298141532249218 0.6081341763546031 0.67121502129281119
0.022677776456701437 0.92417306843357316 0.013630061939814198
0.30471731576554184 0.58350547820784016 0.50104775882383024
-0.33850117182504036 -0.091229511943800023 0.81330709385110111
-0.15500734111792625 -0.16732335587555403 0.66748685021902787
-0.20769744651877531 -0.49145653769969844 0.40646865999058335
-0.43576791198109888 -0.77626941081770617 -0.27081931527862935
-0.16684001083021904 0.69725601543356452 0.73982443043010093
-0.2007588551054198 0.43318001503002845 0.76756540935145523
-0.74566474382212533 -0.23864272823732158 0.59003783667953158
0.56151218723293539 0.91393799773065076 -0.45422498637319109
0.22748480013599881 -0.0095128874938752439 0.80476356389330306
0.2655170590415814 -0.36408701992487602 0.69476068152246739
0.097913902884322113 -0.15993860234210144 0.79565030524969771
0.23060644841960709 0.90960332150012313 -0.37765880006242014
-0.066276479041208702 0.12632904512221854 0.74593968470486161
0.51098561240703688 -0.33114911330955532 0.73859385485114437
0.26756417238247288 0.97242411933794592 -0.34589083457454528
0.43331626465949213 -0.57163059381512449 0.63743582352947215
0.027250704433901873 0.67813317052139599 0.66592333959204097
0.2551832361089339 0.7551809753304104 -0.014540858259319833
0.19970455164328982 1.2066113655489561 -0.42560081051579957
0.1788397163383415 -0.36663734183112329 0.35534763197554398
0.084620467134662647 -0.13414199870129773 0.78423336774156738
0.33981663672141238 0.64557680147734242 -0.01024541924000566
-0.2144500190911458 -0.33192724279363084 0.6351779759554006
-0.0081097908049390099 0.3421801105060025 0.80694119267759135
-0.53306544345012341 -0.15583196835871771 0.73570021986768452
0.50046662356238869 -0.24840229775514944 0.31935213985590494
0.50518955034040403 -0.66224103021157577 0.48019353366232309
-0.46713906583779163 -0.20801680614043416 0.78576802847640437
-0.58036228308331772 0.47987254906232124 -0.59807543563722199
-0.97768313291229703 -0.90003817597704305 -0.437709260014433
-0.55690669171046281 -0.031144611164422464 0.65611863214877886
0.053346323277850161 -0.29762076267858806 0.51227268007672677
0.51670403198919246 -0.0412341009998487 0.38168650278200644
-0.617153412200933 0.025699463924078181 0.78553438055406843
0.36209720140856305 0.96427302151301308 -0.37572690446734569
-0.97639148326335601 -0.68627131231207983 -0.38757140583048155
0.66872618168246234 -0.46523463459932857 0.67270949138016434
0.39121679985256996 0.72992259069884646 -0.27305826373559938
-0.20457055877904295 -0.34171452452877604 0.60961529184019625
-0.43299885782732517 0.19133639748710873 0.61339868597059777
0.28031540700097857 0.76190656320345074 -0.27976671065987269
0.31610631330525152 -0.1638844565368085 0.7409650693362142
0.39391905317387277 0.89825081832540032 -0.35777606905982751
0.39210307583137727 0.67521145658057158 -0.20485295784146729
0.42649148750035337 0.73155628728439392 -0.26180235964436527
0.76146312433648689 -0.39254601881558976 0.66867399907537539
0.14317627485607609 1.0299603427988622 -0.36107557444369043
0.052221148337165957 0.8935816787326134 0.097486401175929771
0.48596455785544279 -0.52542404259772857 0.38503774934175894
-0.12757474061259444 0.97275826076875482 -0.21466076843206316
0.75345347968517729 -0.30259383506197685 0.7134985167147434
-0.75360581587688813 -0.33824610191353521 0.55972101338906199
-0.61770076181490907 -0.19579809159641659 0.62097739020978437
-0.65612353106664756 -0.27493698985941517 0.70623432474041437
0.19988754915644336 0.021851312269788536 0.74724784366199692
-0.48770297829088705 -0.54578378174010123 0.54624351574360475
0.3112511437723775 0.072224182506990697 0.54097110708570284
-0.34753673172330757 0.20059511443469269 0.78396522260686652
-0.40153563990801011 0.18547988683385164 0.74283338667376597
0.77346655602437764 -0.39422988658933067 0.69391449201102873
0.1310173028471624 -0.33427954651565184 0.56537393879900222
0.85005034625004683 -0.46507605492098514 0.55127055531239044
0.49703282418890815 0.84043378624367993 -0.30866170453235675
-0.38595384107284403 -0.50856820791491053 0.58892923895990279
0.36332911195921369 -0.01354877076779859 0.70191957573447539
-0.79429385462854185 -0.95670173522416135 -0.47123000644328883
0.65592099961261141 -0.084220718161409636 0.40852139318328184
0.36222560725904884 0.64152615496752396 -0.16291975171567863
-0.7241012319697937 -0.26933459001627291 0.38438596889873011
-0.079302065823728896 -0.21167189359538341 -0.6323097316781201
-0.72452496796346821 -0.53145366969796193 -0.31607376848696234
-0.21285542424247339 0.75052039837637352 0.34382345640390888
0.25917541769186769 1.0983055777283175 -0.4079003638294747
-0.6399999715207656 -0.050060604785564067 0.55386164133243909
-0.61387247255231614 -0.97789390654568109 -0.36635183018631068
0.33783232248102557 1.1704839422918436 -0.46358264502593549
-0.68047491742954591 -0.11876533647889786 0.53399186237915686
0.44706275843580201 1.1860265608808476 -0.43788188076347723
-0.12633336261766104 -0.03033020934041275 0.74549277711551554
-0.58957224738811931 -0.22863861144434683 0.71144492801564496
-0.17846423176714055 0.33533810503233807 0.76840186398166566
0.055121690000296653 0.86734342330165459 0.58569691275139668
0.44598586934182904 -0.097517685242005658 0.23142045381743515
0.53540200778711267 -0.49985551774561565 0.71527798475572446
-0.42507076905225283 0.59111131119713889 0.69247421732515591
0.62139905153377839 -0.39625612116810538 0.73484661479332658
0.10651263825864632 -0.12532210637789198 0.8029865787962116
0.24483517976863212 0.010499808797696186 0.74340915921459683
-0.43590741812109712 -0.079817657887351956 0.80405751340790488
-0.47591114133947698 -0.53046807195590517 -0.4369249570480207
-0.61660380739834508 -0.65851771115689672 -0.31855847003384241
-0.22691358052256483 0.47141385616649023 0.76193712182644902
0.12670309728131812 -0.17452823476444079 0.80637579210718258
-0.20379297729304469 -0.39096139016343301 0.65131135616756808
-0.38046312447963437 0.86116309728961227 -0.33697670381649836
0.46419703371173782 0.83398475498866009 -0.33745524635411073
-0.62063119527186217 -0.85704504855142716 -0.46647200140357725
0.36920865267744674 0.3121720497039373 -0.18450126049223137
0.71894772225645909 -0.50815144378999899 0.69151955487416927
0.14448630164897303 1.1222454206212022 -0.29966128311489726
0.12396331755608614 0.72969676317705634 -0.46519104901722663
0.19745562568926189 0.030847543075334993 0.74871964943070779
-0.16106816548487046 0.60359194885973055 0.74183648289023907
0.2150162465007508 1.2372267423720134 -0.3940474689324418
0.49513148554746067 -0.63708474670366932 0.44646687884227276
0.21889251410461696 0.25857150826091946 0.67727945123452749
-0.50919344959467949 0.1102267433582016 0.81027997312688882
-0.51546837088895714 -0.32894716142459224 -0.55498641188813025
0.40611221899471595 0.6797574504506132 -0.19793326944719603
-0.28173739139542775 -0.16652098383916014 0.80021997829302194
0.26830964653399114 0.77107376584900944 -0.25330541910522975
0.17358136170010141 -0.046831813553934953 0.80544478472386416
0.040774634357202189 0.42346682009636893 0.78915615238487646
0.6419392061647855 -0.46083857648625415 0.71409126632798881
-0.40615532113256236 0.028281331530701337 0.77545073016259991
-0.030534535698476972 0.94128312762206967 -0.27637291095407335
0.35478993182973895 -0.37020576929995652 0.31987775744368463
0.23240811146346907 0.92526593531915946 -0.29949419904187202
-0.39761678149800517 0.3560510565731736 0.69763614681401975
0.065159910450605096 0.36706277700075685 0.77168426328993256
0.14712954024234826 0.46564324447649508 0.67495846738121834
-0.66928224965895922 -0.97363658041848389 -0.39333907376148503
-0.44028682100497463 0.24750672286888431 0.59498464053329414
-0.75081986367008469 -0.2356906281432547 0.62011214330611253
0.31024915270203302 0.41848851581978419 0.55625468966027292
0.30259448741247041 0.25399045468211279 0.50858349466101238
-0.72028643568952688 -0.47148297359866387 0.44347571510600403
0.16544436746372604 -0.07979274203815101 0.80567993161371021
0.21041939153105638 0.98280853067130014 -0.29591017996717994
0.28545067121451595 0.10377153842010989 0.51060416132006559
0.11480636470110817 0.82023478245605563 0.26622949785318184
-0.20762348356131177 0.43401967022060672 0.76909845986533654
0.4108053143323005 0.69661367417699793 -0.21911244795031415
0.14752971587474661 -0.076980421218011408 0.75938567943073565
0.90749987321065007 -0.25126895785646886 0.43747288096882464
-0.9169026540203653 -0.79219764044952612 -0.42863254733238421
-0.53685709069711152 -0.2478815734046691 0.70191638558233649
0.21468297321760232 1.0837714584880631 -0.43787526606817195
-0.22535775768747257 -0.59588719723194394 -0.24085165522930652
-0.95557311139680223 -0.65131368122878541 -0.40806761518049584
0.015935451808344325 0.62406640932961643 0.67959916082434724
-0.05900908372475655 0.87250112365300936 0.22967353202745855
-0.63083958711835209 -0.60006950597202646 -0.22495201078116622
0.52011861127953196 -0.13507364023317781 0.72138612001194424
-0.2121818015753334 -0.32216920276182393 -0.58565276546150358
-0.30510861560091485 -0.21895214347238712 0.7999829422617708
0.40730346235538661 0.79886775832238843 -0.31364791359912481
-0.26696209687924721 0.56104117049813507 0.78084304971285334
-0.64045861147806704 -0.75635815488815084 -0.35826542572230125
0.2588538551365005 -0.10628689684195924 0.79014105923097588
-0.35891801567251314 0.62723802862852729 0.65381224514169034
0.50442773646340555 0.88368384671368982 -0.35856955071330709
-0.72813308329250503 -0.39170413895198841 0.39347284095167367
-0.10948042761170917 0.4487854779505831 0.80357081760608651
0.65817396600607125 -0.6816295580721069 0.50248075448489082
-0.47080604904439838 0.16440138068849919 0.68899330529302105
0.57160791555641666 -0.37106262089758757 0.73732564378234144
0.64947147967368046 -0.2549124187410452 0.72809971962558251
-0.26491692293310365 -0.26406266420331992 0.73262616511519241
-0.76554284580191734 -0.41720244938807483 0.56504438502378918
0.13120479411489328 0.48532048267275663 0.68995296247405236
0.0079084359220900069 0.51850849071944083 0.76295755869698922
0.13827864760643571 0.40375416832724831 0.71138211653771855
-0.22601451013555085 0.31699293992224309 0.7028481821250061
-0.15417574904196307 0.71750822415122428 0.42713453109565513
0.1282052039828141 0.59917495393612041 0.56541456603254936
-0.45075120961963222 0.48303478970375657 0.70422636742783951
-0.35801955495234239 -0.63639319250641435 0.011562783695968193
0.13910695846833221 -0.10311636896319754 0.80711857503607476
-0.96321640335988334 -0.77130870880713687 -0.40767886783129015
0.65547010614988821 -0.46075597962096748 0.66227191244881567
0.50979782932719608 0.68026360282385134 -0.28119674125120753
0.28813912404702435 1.233187632903439 -0.40218889434973093
0.4135762197438666 -0.23941362732356541 0.25057311319153897
0.37440287575719822 1.0429207758803027 -0.40819748831124869
-0.59953233281824225 0.36427593137459624 0.4408644566816875
0.55323755983351219 -0.26595014254277249 0.73526692063178345
-0.48227026676518037 -0.57537365474871116 0.48804935183985876
0.36073074003968841 -0.21100605053796473 0.74132626582434291
-0.32778074899664844 0.75858521105378074 -0.50323465634677511
-0.27969642507550674 -0.28579149626697475 0.72582815211338314
-0.64619942677913755 -0.93469634249711575 -0.43372676382137954
0.92973480676336706 -0.18866999650718719 0.49435582099933306
0.32831770548052752 1.2620517443794101 -0.42811412395883686
0.5345440749396122 1.0559110309876738 -0.51572250948229481
0.64964832485836155 -0.67495883926344691 0.47504328403996965
-0.17403433868910589 0.33853861615300218 0.76348815793209468
-0.65468591316140134 -0.59915072376332645 -0.22733325752534128
-0.94876685902294255 -0.69709448017480646 -0.36912952669099397
0.41462443575245089 1.2392456236901959 -0.53544144518877523
0.48544649170496257 -0.39856967945083799 0.3497264855777189
-0.65036105415533818 0.095906545336631233 0.8052832913375596
-0.18079791350459296 0.51436305288039152 0.75539517724770633
-0.083848167593087553 0.2708547792210636 0.74786709493181291
0.41578677381520812 0.94140664326247681 -0.39134807130506388
0.25783048935542219 0.82552700087914399 -0.2805720882953473
-0.5733977489069062 -0.63476010779857894 -0.28553584524689057
0.29416036748770935 -0.040818695566650742 0.74629530773215258
-0.49593679120804524 -0.659115125434246 -0.31587196200010581
0.6250877224879261 -0.41677234260084206 0.7104714239109633
-0.47077850487996287 -0.10121513422609585 0.79174600245594817
-0.41299756287391531 -0.35712105702759978 0.6761189130881391
-0.68189903999968138 -0.95958078985247397 -0.44789010013532859
-0.3611226052300438 0.27671912365834572 0.7714017028247504
0.59895778792754939 -0.43459269459254174 0.73367377336528428
0.74645251472526297 -0.59440471126673744 0.57376264708220681
0.31968058695574442 0.52763540812242926 -0.34903019243033206
-0.30185460745755854 0.21541768456554156 0.80495239750933578
-0.57926050777846783 0.098840235462859916 0.80772624696454542
-0.30192611796724123 -0.24984661612441617 0.76867932663797234
0.83358746749239288 -0.17441331847802211 0.4125957396220894
-0.58162063147254983 -0.31134937482304093 0.68352900988172394
0.25515788777925685 1.0729130821114108 -0.3960060324218766
0.61331114756010408 -0.68079396877541254 0.61022730061988817
0.26973631022103817 0.8051101310056108 -0.29092548627820491
0.17912682828739079 -0.19372089761240474 0.78630056274617033
0.67055270386926935 -0.52927105962334875 0.70062666926360606
0.047150119341687002 0.3181769891545243 0.7615842061568614
0.12247323478911198 -0.1815399292387947 0.80037642498836448
0.88665003768507944 -0.16272258576331655 0.4617983256699052
0.03929264053996917 -0.28913236000598674 0.58192535051006899
0.73468554557744525 -0.40124177399761862 0.39061993342711787
-0.38012437913598163 0.46738534854223879 0.81958797382587889
0.15077284486821796 0.79656900258517283 0.56534353484530442
0.33950972861918949 0.90245849568957315 -0.34287564734875531
-0.2918548873365765 -0.052146959196382348 0.75836531968379006
0.36887116516641072 0.52143393726749743 -0.27607670951095642
-0.37926273136404731 -0.52796354353178288 0.56417732115378527
-0.3780548193390878 -0.77508787480115338 -0.18370224908296962
-0.38117121436398804 0.21055344133809939 0.63790472088718531
0.48049936141024396 0.81285765243862329 -0.28912029599540467
-0.23227688150405257 0.70465307809779176 0.66416588902104401
0.10376057071848166 -0.17891093280448844 0.77325197440753612
-0.33786889695128153 0.12942244866318386 0.80157010619211988
-0.37333668139660148 -0.23218980159794667 0.79831410806070124
-0.1902699941374344 -0.1814925350743084 0.74473421690371921
0.046410443825426029 -0.36566746876439993 -0.4152481778175634
-0.095161791106450622 0.96966846558942876 -0.097441268250474167
-0.75700174381668361 -0.64036754470738799 -0.28365139739949896
0.78239005687951391 -0.26634673458326918 0.69636337475433052
0.87105104887597307 -0.38056395421229394 0.6236989510410833
-0.64935850165027276 -0.54457480951945492 -0.3813724228919817
-0.7458934726672517 -0.83391744217598074 -0.49459862244121666
-0.6024096792771747 0.7174839124570056 -0.28569661580920958
0.16273334718629506 0.82123367994549223 0.49077750950849897
-0.37101181662564109 0.39615633394844263 0.64491645702401712
0.51124113730189258 0.9219615554164351 -0.3884799565811683
-0.4790560780877513 -0.57410657708160695 0.40011884109502915
-0.079715557328874809 0.49096189993418404 0.79139281967344743
-0.79402476739843664 -1.0199822722109726 -0.42358484789901496
-0.43906606301934659 -0.42087240703907902 0.65400655521196427
-0.32592503211643908 0.31431830933957183 0.81495895530686369
-0.20713133087783575 -0.13370305809945515 0.73366518108184664
0.20884570412277448 0.76373034366563175 0.25296708708596505
0.79136268572963608 -0.30655901307977124 0.70037558515361553
0.17660065657518231 1.1409921634805551 -0.31252164046404651
-0.095358938736680443 0.67182247207853907 0.72322119196362422
0.85331974390228282 -0.41186127829160996 0.62794442949448914
0.73407959164169867 -0.31488470847152872 0.66329406505110633
0.10189503025939572 0.83425958111377074 0.21955281059071829
0.10299214770710208 -0.4170036816183762 -0.15084846655205908
-0.2840456697742475 -0.72230566740718594 -0.19194226096346512
-0.27463769189527021 0.33299622003649176 0.79299968835427492
-0.2064243873664644 0.48400458497047349 0.7595530468036813
-0.23524944559904704 0.95882701132101911 -0.09924862011039437
-0.60155940513790185 -0.3972693568049035 0.65180106808119476
-0.67624647481555655 -0.27702347785486836 0.71169506908420033
0.066303703431445982 0.49212695638125892 0.74005469596489704
-0.81463685988345702 -0.7373788615477288 -0.4136526527837816
-0.44220925299219616 -0.25988577530458379 0.77036124053343613
-0.22379730894458127 0.36190000652533394 0.71990815721505186
-0.72397072410506524 -0.99967478465285353 -0.40260697344975327
-0.036854648869846685 0.45945648785450555 0.79894043010840043
0.81632862063544209 -0.11781718258899199 0.46316583811063339
-0.48081239459110492 -0.37532457752707327 0.67678172522482427
0.64871189034355581 -0.026492258871357866 0.58855047364432878
-0.72747549961065161 -0.33098661817124508 0.45238505677060203
0.2131792619782118 -0.076209585906263699 0.80976774001057272
0.063653390513168873 0.39166407269958325 0.78438134452456865
-0.067912369004254458 -0.47871727723622737 -0.21369153911488326
-0.35719139449196646 -0.63999618982964712 -0.079442712432530982
-0.38795014783923065 -0.011675504605036302 0.76846544536517314
-0.73641538245162863 -0.33153552183200752 0.66719107572905401
0.84079345221737967 -0.42110633933170494 0.46417315247206048
0.35624049097996391 0.42713832133235741 -0.24052289827078077
-0.69303664267332366 -0.70375048217206526 -0.35189182197505531
-0.25595528130625844 0.44221408836405818 0.67182153413998691
-0.61551191916346681 -0.23014026699167012 0.70656625608338075
0.54528373616865977 0.012235677384529131 0.59138157602908592
0.18766141223859734 0.69502754407689915 0.58757883482648587
0.30206435292013722 1.1139416789566647 -0.43102271186227448
0.44152071769023138 0.044313669413007517 0.4859598182860001
0.61110839058949296 -0.44469606998000261 0.73058288488427792
0.52341556673169976 -0.22250424601226459 0.73486207749839139
-0.72848294044551309 -0.52632694916721867 -0.15751718224630551
-0.61970170940529457 -0.64375242027755952 -0.29726694934142728
-0.099781134212047817 -0.43458756516650787 0.38229774253711213
-0.90350235486565467 -0.12309655528577501 0.12749551384301583
-0.54342675867341939 -0.043068369464418055 0.75481702034664622
0.092013965814377485 0.55436780365115013 0.66902453295427833
0.64249168721761407 -0.61759884157218159 0.43154152594453343
-0.096248205882909943 0.86267234490957279 0.23520166785315588
-0.91641488284268746 -0.71438181762832897 -0.37429409805144687
0.29301505303427788 0.67259622987542667 -0.37367783570930868
0.29024872759659814 0.13404603475313737 0.48627003763318832
-0.50990789798670022 -0.31357487797858763 0.67369267400025024
-0.4282405532660043 -0.39451478733555945 0.67267814356340594
0.39766971329801848 0.72143969315122725 -0.27162222475297249
0.46137016080426463 -0.0089262777854113295 0.37288033631150341
0.27523388842878482 1.1227014174689547 -0.42676779093051209
0.085721440630951662 -0.16711514399692273 0.75356094526300765
0.29736472501947731 -0.15385873241022496 0.74331991776889517
0.77667336578392288 -0.3660430456156557 0.69763165106255087
-0.11099228969304775 -0.055146263592531941 0.74892926736921339
-0.34072460228838786 0.47836329451823545 0.54041598763186727
-0.88443905950210322 -0.89000765790528646 -0.45358334533064237
-0.29431974112102921 -0.44987545024564657 0.62889245840151631
-0.66251947543314316 -0.85424110074293758 -0.40108321989472984
0.025017204341892807 0.66404023883695551 0.67051835231860046
0.19116762292539136 -0.36075625036828596 0.63598164543767055
-0.27142160765653145 -0.16766016468001199 0.78478287747520881
0.6730230025258841 -0.64992528693342078 0.6100907201030985
-0.75517135030249705 -0.40716516661120927 -0.37567082438311061
-0.32490193886825125 0.24579874778069755 0.80141435940149819
-0.43878225850494346 -0.79433627930174833 -0.24637584169615323
0.26075281256812133 -0.29201795940534714 0.72497144599418206
-0.82927825381184661 -0.7631840806169361 -0.42747895654109058
0.21096472209006123 0.19057839806979437 -0.57789125896847793
0.70205284333184181 -0.51343278441568563 0.414460753182194
0.078732555323666631 0.6010990519948769 0.61768777049896073
0.62057185774200718 -0.44185754804256239 0.70947314225789881
-0.19055608924120193 0.32670772041171503 0.77480249985212524
-0.46176970173851117 -0.25177523202169905 0.76472513903618733
0.069207086616948743 0.38972619403987396 0.77939886510123912
-0.37687217102768145 -0.35852984683670108 0.68022443130073995
-0.74578932793915342 -0.4463855821477507 0.49166100531818913
0.16764361073162704 0.79205659620354041 0.27978162037566889
-0.0834504460414216 -0.35788317991927698 -0.51952599836338109
-0.21084072847804158 0.52122016259539627 0.67785063127368872
0.40489825854674066 -0.23457387130344021 0.22249424407123541
-0.79725613884315294 -0.47175770293924302 -0.012745878778279263
-0.33362934948057088 0.029473962533597131 0.7732392780704167
0.46751545368152492 -0.5508632586916371 0.39731574132084191
0.0074072503435740344 0.93402235901566222 -0.18820304322087189
0.28434125887464745 0.46202342256065254 -0.39446716335025123
0.33756399268420978 1.1212700675623202 -0.44111647921979547
0.72508253234589048 -0.31348159017631827 0.66531225450670561
0.67825467528623307 -0.60670308055833688 0.65168842019935624
0.38800161768089581 0.53767596643986781 -0.097302550560362633
0.19889326303153609 -0.19116205964276989 0.77587275949153423
0.34580696587571325 0.22026478261266202 0.29875174714054431
-0.33204735303414346 0.83266937568617294 -0.41453610846727074
0.037561957306790461 0.40276160791131055 0.7940888944289064
-0.7035075069781076 0.63548612111382674 -0.10343429261311243
0.091763800317250954 0.58278050901688694 0.6699407121258858
-0.54525933210382505 -0.28856585629496401 0.68107904383794349
-0.7580255123086701 0.34740204645158101 0.30610048014444402
0.040706781292865202 0.64966091275964599 0.67142108325309202
0.30131584616378149 0.10323853366516023 0.48639815029855882
0.22378595974232951 0.014630702468753753 0.75037422177430457
0.3925675900817307 1.1640216189574151 -0.47724378255095523
-0.82099409500895248 -0.67017178330316973 -0.33277478890978784
0.45627988982915468 -0.16318125155755769 0.27258872055701389
0.83897503279744612 -0.19586914596460581 0.6480291798580442
0.59015390401893342 -0.22909462454681417 0.35125507745506113
-0.54778955195241963 -0.38886426776964633 0.65858053101263891
-0.92018086255974296 -0.75044871637892641 -0.50453370716759594
0.56151244654810029 -0.47493664061872076 0.72472441601813031
-0.55596346934213869 -0.36614229917333141 0.66724403055932058
-0.56575159214932569 -0.54196058682260428 -0.41129261156072516
0.68525659693174035 -0.46519024105472606 0.67923481309970235
-0.63579782807298102 -0.33973414610485708 0.67474370154312169
-0.87723514964785565 -0.89795442399172032 -0.47297106782752962
0.62738750731129755 -0.39750740436363224 0.7320708909816922
-0.36348964489836888 -0.63829691060906413 -0.13632119113183094
-0.11671940012872284 0.74781324284756057 0.40234275249519058
-0.48246090474946968 0.4202840820776883 0.49101111198136138
0.28911259965770952 1.1461569144879311 -0.43607613844299919
0.46451233083044485 0.033825783287641187 0.59134246748338093
-0.32828624995292088 -0.077883371137218216 0.78946373357909749
0.11882228847011511 0.49101011896960101 0.69207894974133488
-0.094197526566420109 0.44091753318346383 0.80642049879510225
0.30207713954088611 1.0154848273653174 -0.37401762931581395
-0.16790884724801991 0.50709564107495098 0.75822931041503061
-0.31964500125278761 -0.64526279450611579 -0.13277800543638918
0.53865459623839129 -0.47791170587801357 0.37225057768905856
-0.13805750756286628 -0.29412568129606065 0.70239765036861357
0.70093462416162211 -0.34489567046381975 0.6691650457791134
0.03428215781098487 -0.32673571458249473 0.4746533775858488
-0.37499667661478142 -0.39296245358476956 0.6305289169167807
-0.58071223037621422 -0.9338159046456429 -0.35872547688255452
0.34015693626621157 -0.01313493628326512 -0.3527315624495202
-0.80666890660519286 -0.76784040293702738 -0.41251368308829583
0.74903869658405853 -0.38158811070483512 0.65274730937558978
-0.15484983481452197 0.3861760045528726 0.77618360996806857
-0.0091941435556535112 0.39561431139976122 -0.67752453786699895
0.14467214004566387 0.37193222581521201 0.71182056852422804
0.12280980543251019 -0.24984022622269508 0.70271314958128528
-0.34239664256025293 -0.81341259919112563 -0.25892063932841936
0.10905270730603789 -0.14999428068940501 0.80550789523690014
-0.5230768933542862 -0.10261652393806209 0.74958641727619124
-0.59524583563834454 -0.34512908027897815 0.66760995531949874
0.38417841271166786 0.72139804482154535 -0.25733569223651465
-0.028534230768880064 -0.35374961049485698 0.51900105917701822
-0.76353581605991749 -0.5020287904347267 -0.089232650623781495
-0.72577400537310766 -0.54826901307961151 -0.21669735059123241
-0.40663359356223339 -0.017645646141943416 0.76374617625219443
-0.070480197962485391 0.26065271086342978 0.75341743137554573
0.29835249086592519 0.83475028678071173 -0.31328285651913568
0.056591491295920449 0.85773151013556248 0.60842921718220389
-0.44980980667422443 -0.43776373495053367 0.64363203257941137
-0.61171531710963833 -0.98923315097613873 -0.37015114448534092
-0.60908737918225953 -0.043372289604111103 0.76177996685153104
0.0055727832065475269 0.51242682491587832 0.76877431440379773
0.42307562401914467 -0.60212021646246083 0.52608637192132335
0.25869627157109143 0.0014184631167988293 0.75935715800574499
-0.55657910114429043 -0.24794804007087556 0.7044788506959172
-0.055567321159053051 0.53391920677932703 0.75147657092174214
-0.41991759565986442 -0.77532099307615177 -0.36595369948373246
0.010326518343806157 0.52493024369481267 0.75044407778644917
-0.24873299118038616 -0.27246524907024394 0.73628023248544849
0.12128328998835158 0.40595912629299757 0.70477070007783738
-0.56570563437164978 -0.22359204763788121 0.72312969830287699
-0.51403674247169562 -0.60707570003342681 -0.1330255906931086
0.17400865479423189 0.27711328142381397 0.70117694979959566
0.031698512100817311 0.62168749080768215 0.67594576322779076
-0.78713006968317245 -0.59001261480251088 -0.24151689504446239
0.10276973222372199 0.53240621294205281 0.67336332586191538
0.40226608399516905 0.60092431805327884 -0.29556798303149634
-0.13495722669373578 0.75164411923298724 0.60318232284526552
