# XYZ point cloud file
-0.17159971659799655 0.33588881818572897 0.73705276202320658
-0.42708347632703414 -0.7393854565802509 -0.24578284720160815
0.209453253155925 0.14103517394485968 0.68369071644807278
-0.93485946690400623 0.081507913382655062 -0.13530310000613621
0.33998936577301775 0.7717892434079332 -0.2982414158796618
0.68599908145062072 -0.6166637273974882 0.60909156131556141
0.43745861137672115 1.1032923520453854 -0.42488290975706589
0.25217666135847105 -0.35866972087518123 0.14977243853085076
0.66926051282654786 -0.453267382221896 0.71658813340865724
-0.10956610165390224 0.63870862610759038 0.73814643569219163
0.25358235808591933 -0.11485237719110064 0.77591023159045047
0.35241143377924766 0.75633087357998763 -0.29330497657457721
0.093863613843266691 -0.091971430782131131 0.77931368943093204
0.23759051348389848 1.0632469186044802 -0.33597309614081627
0.28361597887038403 0.21326105275952711 -0.42359478835306152
-0.10747860900220951 0.52730635024040917 0.74671010936040805
-0.06165659671908319 0.55116530215154869 0.72664281121562535
-0.33859730616227646 -0.36659920547900626 0.62481395718440158
-0.40233362104731074 -0.66669060478450959 -0.17585862903473526
0.86332038529083022 -0.34868542223673893 0.62504249818946089
-0.04227456879843583 0.32288302359625148 0.79907017891556276
0.0058951124451032122 0.60861026001839735 0.68417735826480675
-0.0076360755922824097 0.31798880660720336 0.7955571362694136
0.39457099539998275 -0.3605024130574308 0.34339027762501573
0.27525529658002768 0.15814902787074164 0.5047702007590904
0.035707933509640633 0.26739549888371578 0.74543521429051873
-0.088784841356177591 0.40656568238372398 0.80060592257856378
-0.75619116720606439 -0.94243892138269647 -0.42756108666055859
0.72895979869313088 -0.42537083064422898 0.67918832629392778
-0.29153352566553425 -0.36671566013384971 0.60739954485457881
-0.52535434592834118 -0.43001664584901544 0.62425024429888287
-0.34361350583774075 0.044042276391826451 0.77617044160618542
0.53325466776465946 -0.40366700995006011 0.36494525829608015
-0.26531439279191993 -0.34976013326188871 0.68174764210877115
0.033748079030270883 -0.35808710980203995 -0.4707989785402944
-0.40852213938933302 0.040760434175851845 0.775828442351707
0.68091474668188301 -0.63403709045216405 0.55981681070628753
0.2754826591139099 -0.042230515252126954 0.76684790790707957
-0.37752503207640009 -0.52066378932925306 0.44046552163152919
0.23125709130311556 0.64326608958138654 0.54596695239851067
0.59014195734635688 -0.61709730406072283 0.66015440779284518
0.33620984456780878 0.61750822708530584 -0.058736323221274311
0.11501821885133445 -0.171214868636442 0.76427702445813406
0.023257497229689061 0.60676442925378016 0.67568304508697974
0.22544314192199177 -0.045957553380687133 0.79686174863826498
0.20323887766652415 -0.37227518186572683 0.27393545884439652
0.72325074535112943 -0.29462887225810819 0.67450713821484021
0.18950961425253166 -0.37333790286700752 0.61641987201202841
0.26702807043718835 0.66606301389646749 0.46499951639192627
-0.14408044528896546 -0.16247293247461059 0.74738437597834251
0.54600337013072364 -0.48076513681037392 0.71960974387992538
0.28724750246926689 1.2361326844663367 -0.42634485974470726
-0.020908396697396192 0.33907719931648883 0.80078419735251671
-0.068352411631499965 0.19770426971720745 0.75062756326066671
0.63589787269116549 -0.43661132618478282 0.69277511344062859
-0.42496074880810863 -0.72547151940022814 -0.23509379567240618
0.48706933840677014 -0.5910549541586223 0.65065482292676924
0.51968351862151518 -0.60137981231980175 0.4357029913817847
0.68576920911965455 -0.45347446053477569 0.711903581360533
-0.40727792253274808 0.0017306869413260539 0.76120268936685154
-0.40605437029445879 -0.024353255056954515 0.77794387626210737
-0.73673648142388326 -0.5402635560187754 -0.21879326625291107
-0.71211519946566559 -0.85117365610388873 -0.40522513592238685
-0.44397347901596418 -0.29123072218581825 0.70291535525159654
-0.32225371855920582 0.92146748695241376 0.071609623432493663
0.22254886590715772 0.99695786904566708 -0.2974900775564131
-0.57689056233883229 -0.8385656922397593 -0.34812377206404888
-0.48796206281216103 -0.61939027438001593 -0.21241918677138161
-0.51592481689168501 -0.92652940721300459 -0.2792737331976749
0.080544918283319333 0.42957659931471559 0.75805033021730139
0.40626965505817969 -0.20020758939077549 0.23372725873283073
-0.32933601687971725 0.96159481365384458 -0.13550194749022282
-0.22291173643565632 0.41434330096433214 0.77078161246546539
0.36764859222639812 -0.036383809358838309 0.70355175192728714
-0.7605634857234076 -0.2159861377596326 0.26510518979977737
-0.32732924930738649 0.026204762642823454 0.77615715895281356
0.077093137836408587 -0.32629323344623495 0.4642966421754311
0.57877509831375518 -0.53993085522988804 0.70063442779027696
0.58292213411504212 -0.037871803126756753 0.43019933488358042
0.67189455178607993 -0.083356998596650578 0.42268445206364058
0.3426257270222961 -0.085546976859040447 -0.25048612625004862
0.3261747265928796 0.78777014142157564 -0.30074304948834296
0.72788115263125697 -0.19571891995221335 0.67760495078290806
-0.73013946015286191 -0.82204373046382972 -0.39707384649662014
-0.42163791379939641 -0.23078062913848363 0.77378752891198799
0.2266714245771273 1.0404429493719058 -0.31633553967827233
0.035623696240474789 0.76117881930731868 0.6601920146173117
0.3505817500634083 0.7483909231755046 -0.2850464311722356
0.053836499964434292 0.81838661060944462 0.58807737380772629
-0.2651042379939561 -0.57794372020805751 0.12718446933350425
-0.23611365494867886 -0.25100152285672561 0.73323196467203067
-0.58440442028104389 -0.72060804119801602 -0.3186484719553393
-0.38244485285347229 -0.52774989561472185 0.39391091751434804
-0.13796800973606316 0.92445023717444696 -0.39563120383990524
0.64207243271664849 -0.16417624826992092 0.37244422465799776
0.27372032371096244 -0.0015363619464547895 0.72868086164825963
0.30900656632073176 -0.022787557270396885 0.71646553527995893
-0.62058100053630905 -0.64122106455867067 -0.29366045421758447
0.11513580133578971 -0.09234284528033368 0.79543535537640331
-0.77972839286819418 -0.65106774811546941 -0.34540125245518905
0.74719286557423725 -0.31322244452291437 0.67986245956504465
0.03011238548545947 0.94623235871555167 -0.077222359198885204
-0.41751837253874768 0.6887423505928969 -0.55498050643258034
-0.11753008321368474 0.42644614231978856 0.77414368323699323
0.18742945010988699 -0.12645748923426028 0.80009525097412837
0.33854855856369692 0.71400031417415488 -0.23658420670190772
0.028172133872585992 0.63511614267990146 0.66573194927166313
0.43413464991795303 1.1319346175473188 -0.51491436020191195
-0.01770987223056375 0.61361012915879698 0.68872892721522128
0.57605726856912254 -0.35559304185951546 0.3542838444611518
-0.80614834858266038 -0.34952118331913384 0.13402679783312266
-0.64995597042145326 0.6970830006505917 -0.028748405192381643
0.31731041482739242 0.038275629680755291 0.65053416443504553
0.57893821546137492 -0.023464811075148306 0.60529098185723029
0.29063917508216397 0.72756446453463997 -0.24580941683335045
0.48386271551330795 0.85888449766637942 -0.37139166411992974
-0.46039431822897048 -0.56809717305663154 0.25477877607399879
-0.048454551717795891 -0.096139537639409772 0.76217454465572043
0.24241936760012717 1.0378546685342012 -0.34470686886825819
-0.66839073987116771 0.16060030981117568 0.6501072318929797
-0.81670439952021412 -0.84198047512591545 -0.45068658589902766
-0.73511094960446055 -0.17962983440498093 0.63899439063756081
-0.52964965580924672 -0.75704447175479794 -0.30845906286769109
-0.40106027975675573 0.19980582991343343 0.74552901031187435
-0.84429776559672298 0.26049760526234911 0.17437549613201941
0.023939890514160567 0.84786517095968672 0.25463579487367838
0.10784984007413501 0.79506629048581079 0.59343833514596867
0.14741315548894374 -0.03062136984066785 0.76944225041104586
-0.75517168859550754 -0.65875275001230227 -0.35217971763214084
-0.56807796495849638 0.037788209304213338 0.76842976166352539
0.77280230409796458 -0.37947935928049747 0.68903986293979447
-0.0076846147920512919 0.3093786202485132 0.78709369583426181
0.68524564335494897 -0.37470929368347694 0.65704787132187814
0.2177854822951697 0.012463354748706856 0.78543994282493657
-0.56322597160460441 -0.96532611245273747 -0.32469890081863673
-0.54651340138177762 -0.094823392531742878 0.74608300258263283
-0.54542966670883564 -0.60814576304919488 -0.21774625967815675
-0.42695455674321514 -0.62369935398662757 -0.080770163311816301
0.20227438357323058 -0.29585228224483801 0.6982993998538487
0.36023951458739134 1.1438204926810698 -0.49808817884953926
0.35631564285440165 0.80379312297797334 -0.30942694930342896
0.29501474095037983 0.24838628392617501 0.52053619398852469
-0.82937191904279306 -0.2502568714942266 0.14235593285213266
0.30075908461024614 0.53205611883182935 0.31432769406234717
0.17090926740095247 0.24280126738401986 -0.5681105149123149
0.013901843151040705 0.46677020405366199 0.77205538660731277
0.032372604144285333 0.77920791262653322 0.64556096157872789
0.1692715012283208 -0.35212340127948183 0.61415800327027359
-0.45345621632383004 -0.62127053737929683 0.018450962264252802
-0.26198543155703691 -0.23488768692444484 0.74310311095676429
0.54793020459885922 1.0192367594123799 -0.4302901360722502
0.36626001192371893 0.12056501976299283 -0.20616428500782513
-0.29556478811501719 -0.69618279167606478 -0.12947372532494494
-0.64637571698636354 -0.93594675465124055 -0.41575200420900771
-0.45696409446703568 -0.32622850844991902 0.65784715077706313
-0.19507790208606979 0.43930853269786674 0.71057732526718231
0.21231365471530905 0.95800722944043093 -0.2589743436559977
0.30898831986522923 0.74388080101588927 -0.2720309392361111
0.19252615982674381 0.32638730155686035 -0.53277117855573808
-0.6474869260401781 -0.80988989351807339 -0.36667508753315881
-0.067069412338974121 0.66299760099433447 0.72071093489258642
-0.59222491419613643 -0.68190332144400312 -0.31220646659715801
0.093687421947619143 -0.38998114852725896 0.26876919097187368
-0.24730635214529162 -0.18006942156864847 0.74847286113548117
0.67279025681957316 -0.26252839421773089 0.71457315478926375
-0.36527118230729472 0.049372661874165669 0.77671900670501426
-0.34038158266607166 0.29288810439367163 0.72163010711619746
-0.31974576431784141 -0.099407971426821506 0.81798113518557614
-0.088977989030017302 0.89861473540344283 0.18354109252200246
0.36909508079184983 0.0062602098597180633 0.67022796328973477
0.92336571164124903 -0.24767813364629132 0.45346083513919666
-0.48859509214376851 -0.68034471958854148 -0.26516342828956807
0.70429046248032767 -0.16152373936044706 0.38142202247752977
-0.18392116417441917 0.28765666253881128 0.70407886849927159
0.44613454714729484 1.1311453402947775 -0.41587876639613852
-0.64976707703734893 0.49870392316404177 0.30353431043351398
-0.70657814006781283 -0.62170300011375845 -0.27374627909007998
0.36451882505267585 0.55778470654057744 -0.098561278246232398
-0.0053036162793282937 -0.24336445928925876 -0.59495028293809904
0.078273415648319578 0.72900785474904883 0.6422126631489613
0.93546882118620012 -0.25181967653795312 0.50872034666667609
0.083913975320870193 -0.13005325895835443 0.75371429307389937
-0.27988616897732355 -0.047607897056008819 0.77078350452413114
-0.20666015948803107 0.47697610881273222 -0.68479433141671864
-0.34506257740205148 -0.088417083876247249 0.81844104181559985
-0.18458565137703875 -0.12434492022914906 0.75541750475076697
-0.57159111541636864 0.092950981496384033 0.53424923778167388
-0.66009019630414967 -0.62999587693645598 -0.3917202518928784
-0.30047517113030064 -0.35307769459804433 0.68302364456608844
0.69308200271441223 -0.41441310617080063 0.65274819297746989
0.32619733963188047 1.163221147304786 -0.40292876552488099
0.79036347813386421 -0.11096105335384637 0.4817095675801637
0.53103315076345048 -0.55122341436008249 0.69203563910309951
-0.33276948294317821 -0.032374485831159094 0.78163847449883228
-0.73429508661946108 -0.23039842231924301 0.65024412122312114
-0.71456040506061402 -0.44872931497056401 -0.34190757722310039
0.66679754141363423 -0.44401453946406033 0.69629376966119416
-0.11394043829205547 0.50032016486204611 0.74320870437749242
0.31103975926739613 1.120216295409272 -0.42733826110474071
-0.2404531454405574 -0.16800629188803373 0.76285791905753619
0.069701525884100501 0.21192324697974285 0.65560569254143441
0.75064860362159447 -0.38972705011464814 0.66365349134679352
-0.19763062249185781 0.39521883263329793 0.77053507935671028
-0.76808757025023988 -0.95633664126836315 -0.40744221978594153
0.12335582881102303 -0.12635073131913896 0.80511990124037158
0.91909064226249626 -0.21470833403770206 0.53422977099390945
0.38364047266792278 0.89955064794502215 -0.35461344532899775
0.16944119649373146 0.91726514417639216 -0.1926014459772607
0.88785512396761845 -0.35188410282802685 0.58791749786358727
0.19386307938955305 1.0891183661480504 -0.28325981670469913
0.35466686793371416 -0.45307555225496987 0.67969881631973195
-0.37921741937609799 0.56259967170600467 0.67138752832418325
0.33832683429463284 -0.5008940000936184 0.4722666819467487
-0.16251215506755967 -0.25178268337601961 0.72026166143981696
-0.58440410099879392 -0.58102813005960918 0.034651896617242883
-0.52871230451545626 -0.70425887513891317 -0.30394167553104223
-0.1670301634684801 0.41301308317406937 0.7623983662988052
0.051733832680247893 0.32043167287150476 0.76127051272745172
-0.41943057781893733 -0.14534705707605267 0.8050423781968612
0.19535572124714617 0.050166427441942218 0.73787299413477969
0.7297807206654805 -0.50978178557422904 0.6717739941446661
0.31922512939463932 -0.13160413131021204 0.7324203505644955
-0.38615496853982156 0.55926050343181843 0.77340386618141554
0.05969075456303452 0.81357928086968334 0.46020885787485843
-0.42823936233720494 0.038243235819415577 0.7742542102268497
0.73860215808530816 -0.32938573318030828 0.64331941654841351
0.3445752149019814 0.67960408277556184 -0.2096314039973759
0.048716601547711846 0.59054077573288177 0.66216824087296544
0.23140303597680933 0.83479565261058197 -0.22782199399269842
-0.37665816143966291 0.20966534305568052 -0.71751138910949885
0.11807383881208189 0.71244281539169674 0.61589185899004173
-0.24005299245804412 0.41560937956828325 0.77682086151099661
-0.48866312102417453 -0.21317638642939518 0.73794602417972044
0.023442367726325131 0.38729261503430101 0.79078032866064474
-0.71725552575411822 -0.0100314763589473 0.70741209850104747
0.62299578154148483 -0.2296385863735991 0.36343498061401114
-0.52069543190333745 0.21213653563934898 0.7456728590378221
0.22790194804321295 -0.021380015744725755 0.79584058889752507
-0.1568965231438928 0.43840899922782567 0.75702178218435634
0.15180506495255708 0.2302643456621091 0.70874535089013158
0.35781205137278249 0.58565160252626147 -0.11011108485796672
-0.055126945623510615 0.76784399121923563 0.38130987760766821
0.36946546166529792 -0.54603565374317864 0.55158659165987745
0.44179084928930878 0.67589408924323702 -0.16915211918260598
-0.75715030067885514 -0.39408467135437797 0.54451824466489374
-0.049128798569639809 0.22035777684857816 0.71267622953233234
-0.5345848222836358 0.0023094628759231517 0.754195786586767
-0.64702856726280911 -0.61011582018626687 -0.24386078462965743
0.27919939482547163 0.17595350319007153 0.48038554171563908
-0.46598410502882825 0.093438773038428735 0.787912809531647
-0.62038618793478384 -0.9978237778875485 -0.37137613105966505
0.032767041433572786 0.9221224102422183 -0.33030858007988861
0.22699534975288982 -0.38225518787635826 0.6504735824743233
0.31414511406939427 0.40419088132836511 0.49420108251197048
-0.68231385327807659 -0.13175775677138057 0.47549362958474584
0.11632241054342352 -0.16512218649014282 0.7897003164630032
-0.53929839391559486 0.17953418941845389 0.80241739222394237
0.27555186997460446 0.75907153049422615 -0.27645144492906271
-0.21368098443329098 0.2638608189025039 0.78349960068323554
-0.44503297997566849 -0.75012158640698035 -0.2779404146655251
-0.20774794223530035 0.32716263611814828 0.77574658931468399
-0.57139287764184665 -0.28457278044238421 0.67997707968421661
-0.72100141971921605 -0.58246120012653524 -0.23276426877835954
-0.47439625207256708 -0.75466898016664308 -0.29147201594799466
-0.47907431616455853 -0.20545309436771264 0.75129264129605522
-0.69498435673788506 -0.30744948044595377 0.67271850545161227
0.2791216166433812 0.24399834734767478 0.57524710773589804
-0.53925864116006617 0.65887317618788499 -0.50459264791478375
0.65671303730607722 -0.44216874008055163 0.66771295487042348
-0.29052280128070729 -0.016264843433466458 0.76834259482254952
0.17767762390477504 0.47984954229644738 0.65035299709319938
0.34299053883550013 -0.17030141601237325 -0.15883580159266453
0.56130543658658727 0.85253328253143623 -0.38792235003836417
0.45854778622724579 1.0572669384823556 -0.4605288386014621
0.26867532166831376 -0.10011270637146008 0.76846186914657943
0.27431931918324226 0.705413161899485 -0.078360412331295759
-0.1601317139365297 0.42589549030068508 0.75884738245950611
0.87432298926746777 -0.39807016840933751 0.50599533352508752
-0.10548671084436601 0.36672113536617218 0.78824086306703212
0.020100076357417507 0.082729398795112541 -0.67600453137562777
-0.18737487302326539 0.68798556747529138 0.6870009240273709
-0.67589288868444197 -0.94808655622620153 -0.39613896995280928
0.66686882270891301 -0.35900299500358501 0.67665047606390205
0.12044414323513886 -0.072196135335839851 0.76400520606500821
-0.87535062845380884 -0.7015559721479856 -0.4069741953129502
0.28007503536037603 0.74174892704587614 -0.26761542883470257
0.31611451501344012 1.1054856652377172 -0.42459942676425166
0.15600932254837074 0.0046078117465317148 0.75535331998559307
0.47764164469885406 1.1710846855536547 -0.5017533785433077
0.50767742507990832 1.0039180340669904 -0.40212195942788531
0.15595317896413841 1.0819037478198681 -0.26871266029748586
0.28674183219718818 0.71092824637210761 -0.21219256670565345
0.28019064532535864 1.1967437186060756 -0.37444747873319795
-0.2514389157448389 0.61686117670878093 0.77608956744576663
0.48321531567480713 -0.13030474287325916 0.32611762393297505
0.26466775928519803 0.60907914232230809 0.52526219729539347
0.17427417230495701 0.62480985590627136 0.60446040508926568
0.74297605279190293 -0.32586368604926597 0.64964904160933212
0.15319944084804282 0.86487337427271105 -0.026153448706386584
-0.5756453654682856 -0.15003810202069445 0.67030805903294954
-0.15210212804869316 0.49919098639893522 0.71374558659788834
-0.2134506422538287 -0.20938784942339894 0.72718684939913336
0.23500619205904671 1.0385851943268101 -0.33134760999684909
-0.70398176281618152 -0.56602705671878573 -0.21569172051943974
0.38886182665804414 0.055018942188366296 0.51645730944029022
0.083876436249034292 -0.1141085378962767 0.75750674908475357
-0.87544970673395484 -0.56623376613379239 -0.3405420587602519
0.081507358057075763 0.35161599856395437 0.75032306992316133
0.29594023461037011 0.22977691053260318 0.44006065827258345
-0.40452213235758583 -0.19891277655060668 0.79411170528450281
0.66993601872975228 -0.32840203200487772 0.70814732714785
-0.32929405506184528 0.43149820472697586 0.81699593311047991
0.74688081542982809 -0.47419141153732924 0.67915648066806478
0.35663947074852098 1.0140480670650511 -0.38016665904292157
0.20436882425878444 1.0001679522988236 -0.26618003483087316
0.23166560520752011 1.1453702175576461 -0.33160400017189806
-0.53332724715614832 -0.91097944629832228 -0.2809541116299008
0.91754533388195636 -0.30278033708519575 0.47127434409861158
-0.79948053984311618 -0.41342589219542969 -0.11521481279761669
0.58354766258740964 -0.64534288220444558 0.63715269940473895
-0.33308268874336222 -0.66061905419190836 -0.11777485746731164
-0.33365240664855689 0.30359342276174917 0.66670969728497909
0.24744724301540355 0.19109378898844936 0.62620026252122418
0.81538102887730357 -0.22473948728842097 0.64607944207469314
-0.50550239335894243 -0.2356388577063302 -0.5925425484934399
0.3988210296883552 -0.050628821386264011 0.7025985289527279
-0.3610842733059052 -0.76609587018055003 -0.27772091156015577
-0.086654238596800326 0.32887494366888559 0.78043017273583359
0.38376006495106152 0.81240968392865187 -0.31375947145049077
-0.72280299951777871 0.086730479704927754 0.70154557745660195
0.21751903685049401 0.39688186472180981 0.64202155134494987
-0.49952447035920833 -0.7077355942547725 -0.29242589665044338
0.65064788529327 -0.45977012823616104 0.72091330639670481
0.091276211568974475 0.67728132818603781 0.6348994756424835
-0.20455385793215264 -0.0095756618178073349 0.75872378591585443
-0.67789123621787928 0.11743538569535428 0.62640842144348774
-0.79736980952104086 -0.13518044280895269 0.23067372606097258
0.6227404363388489 -0.4276519452691393 0.70767700073223549
0.44216574988880231 1.0818275762642984 -0.46191874810747047
-0.34100588117088804 -0.70776251301969517 -0.12512047405101656
-0.35229313194927947 0.43650863486818614 0.81197310426392022
0.64376496131369398 -0.36391890443981079 0.71329275104236034
-0.42006133892474784 0.10475750416942065 -0.69901841858807146
-0.68748529116538415 -0.35832050683032457 0.64626409155593123
0.14484479647088389 -0.066707023729724396 0.76628337874948782
0.41130971592452514 0.6046317499848084 -0.28178041610808524
-0.16221208875616799 0.36838304588480075 0.76144787266798009
-0.011533950721741792 0.56092267946647523 0.69072654633972608
-0.09411846750360775 0.73298343754246997 0.6523872514763287
-0.55223500065191011 -0.035195096183982533 0.74654396999552031
0.06518516852863554 0.4410318006662447 0.76243212239932356
-0.4834043783270856 0.61141505876996582 -0.58145883214119909
0.207091733897804 0.91796132003882724 -0.23184148430324703
-0.33852212894572276 0.27526705035858823 0.64424920298711719
-0.20466723408730791 -0.06763261806518378 0.76435829008719214
0.43558710600394335 -0.14599096195517824 0.72404088306798897
0.14881552035238466 -0.046341025447928424 0.76370207430972581
0.027853112133900293 0.32636135813486544 0.78926938853051132
0.15362430073479239 -0.062112842135552127 0.78341433069275501
0.27424069301391008 0.70675287255191255 0.10609081227237649
0.17682921468121116 -0.17741320212197426 0.77488717964179443
0.52291759037816776 0.75305719660361681 -0.27333254560614151
0.27825992798871457 1.0179163517946703 -0.35994674702310947
0.65983017261242427 -0.53493598885321814 0.43077229455331212
0.25069221785306395 1.175860896768981 -0.44228547343210733
0.53835932749063353 -0.51638923823419103 0.70776952174900432
0.36457036322243619 0.21682356650030887 -0.10131517342103802
0.27456686342041969 0.071955192796878509 0.60450445904430739
-0.53948211332954821 -0.28204523933797143 0.68310653114354469
-0.78920910210536288 -0.93420119977736071 -0.46561896565753669
0.73101034738911563 -0.35802749921974419 0.64498376628737741
-0.73808337545969582 -0.35626913203482369 -0.41243412135183499
0.41261570231360833 1.2227088111597619 -0.46862638173613536
0.25177496661109977 -0.04838626896254003 0.78705932966281811
0.37445333390201441 1.0459353810617704 -0.40255174498401081
0.26928565940277993 0.64309570279658346 0.29609030675793235
0.6580732895854382 -0.13715901355894999 0.38133711205598253
0.36155641078004308 0.92457749033405423 -0.35431603740396378
0.81632650268561235 -0.4792768399752374 0.60135990035507181
-0.11554003867026852 0.27321057149207917 0.76740790863546104
-0.68826230698313728 -0.13486327710304002 0.50927941572346214
-0.73602010250983763 -0.3480062444855303 0.62940240749667442
-0.066096118876962429 0.36710187619597245 0.80366726158408142
-0.021385345433854841 0.77576693958453746 0.53245681298381831
0.33423043212804027 1.0521024654075857 -0.38945751930589578
0.12836455771999278 0.88943958460197559 -0.057492167145220208
-0.27451655939639075 -0.55737780139613635 0.20763203969983124
-0.041511721662732093 0.58694115016396364 0.70857746797103127
0.27451925788125742 0.15650566898491675 0.49564007746020344
0.44812364082720757 0.020279998982974307 0.61183711698963261
-0.78347733920642026 -0.71885789107872355 -0.40034345075830258
0.12928115254044537 -0.11291573483658721 0.80493033267164771
-0.13484490711395303 0.050738453830075803 0.74958924060088439
0.10106779297197832 -0.12517050584958486 0.79793409485598277
0.11130524613734072 0.39371328969806418 -0.57766816943339627
-0.13285685463227903 -0.017029812947622069 -0.70283309842542341
-0.57677847765811685 -0.62324117132349643 -0.25305789421539382
-0.048780122321606445 0.987829230085848 -0.20977114317089152
0.35368245412897581 1.1136365285154597 -0.43942126429767381
0.72377026281195667 -0.29132295946328557 0.68598371352178411
-0.063544046709361091 0.21568120984817357 0.75356196716019141
0.30952671569489754 0.41620152855585557 0.34351467428669791
-0.72595590475763605 0.039139872006753507 0.69169807611806178
0.34422828313092957 0.066363142240389028 0.49618375390126968
-0.53286958694879649 -0.075004768685330903 0.75336372219597836
0.13736694311843989 0.41478266542095749 0.68823207499366834
0.63293869531188562 -0.66680486264110017 0.58255222980564003
-0.10809443231219618 0.28894978395415949 0.7552836484939367
-0.071467890088274366 -0.50314282422803314 -0.092733864822986956
-0.38043743815777642 -0.13730924513954945 0.81576030357336426
-0.69205061274518775 -0.11950294717254217 0.72356788419243045
0.38308359806224157 -0.11618768955577097 -0.046139870229430002
0.26038230016641695 0.79613746936305385 -0.26761309098390873
0.12538000699885465 0.41398506623755399 0.70637230917175309
0.31687450403784778 0.65144795856184956 -0.036975322956815493
-0.85056764428628107 -0.28194896522473867 0.083926756222729271
0.75022872934940965 -0.18591410849082851 0.38306606337151239
-0.22536485069611834 -0.090060898279544888 0.76717165857987091
0.78378254181320761 -0.33401427473462875 0.68963946141836319
0.73962364411507497 -0.31795933599794224 0.65364404930888531
-0.71557982999376146 -0.77316073202463098 -0.37672466728531795
-0.33405941171438336 0.48581606033826552 0.63659737449887377
-0.012580368006658293 0.57848630233163367 0.67036029179011081
-0.13923151507701403 0.0077506938283035121 0.74834038226656618
0.26631054143269051 0.77338884415551346 -0.26735131781297916
0.37919026674498468 0.71834057269082074 -0.2760100363979463
-0.50330757170027329 -0.69216230722352412 -0.29247981537027457
-0.20994087465407674 -0.18703272820436323 0.74878078837343898
0.17990709239947567 0.1471351497716924 0.7154436517898306
0.095452174543238399 -0.087524173728398463 0.76311622213183616
0.12833383436072809 0.49105529954030186 0.66772581613825244
-0.8153005785535008 -0.68605385431540711 -0.39999418999920255
0.85053249441085521 -0.3731295540548154 0.63064038514542231
-0.75777514022990067 0.049801646715430969 0.33767462859867692
-0.28691414147191585 0.53222440298573148 0.8005856603849395
0.40270847912547625 0.67335445281478878 -0.18699289137746922
0.3017122653750075 0.66539911016601838 -0.087192530354572639
0.4752932442133071 -0.5943841636587186 0.44674109644554871
0.13977839069491527 0.90253800093836722 -0.31030748895435245
0.39763211483388883 0.01427578361872861 -0.03005327898741772
-0.48665007183307196 0.0090169080946191915 0.70845417820496959
0.17609484808399678 0.86383251453509957 -0.15965830114127932
-0.31276328506777951 0.25784513088827443 0.78719922823061061
-0.62817485394860206 -0.94700599165541011 -0.35205444082404913
0.1812408184573342 -0.36430410555592707 0.3850870004103637
-0.1390757480062077 0.32682012259465631 0.75417139870356475
0.11531963909406651 -0.17310302057362681 0.75624720241276311
-0.6086189934125148 -0.70403038541108387 -0.32137398214065671
-0.7113734639500251 -0.81948085120961478 -0.39094668307199987
0.15417719805744579 0.5379194170463284 0.64748674636489101
0.1363542035959342 -0.067006390617586647 0.75715392725941522
0.08975162760894273 -0.24633061569407841 0.65807274853467979
0.097166203550875796 -0.30672693005385709 0.52713896383595626
-0.18376230595148035 -0.09953140368815433 0.75815455009751043
-0.4726390416223476 -0.021464579783596394 0.76003613000571635
0.79127200940778053 -0.27538789276934694 0.67627084287187467
-0.12929910909901121 0.4899525405625168 0.74900273228506276
-0.9056321069979143 -0.58711618556441358 -0.36941745507127521
0.20614741982753459 -0.15438129469574341 0.78126466896164404
-0.68224705242930472 -0.56632535172192933 -0.20867781385732931
-0.47022277025806369 -0.61132239975473257 -0.13729780871442676
0.075687173453447887 0.44617351530289656 0.75519633601379832
-0.41367343570173087 -0.29934804653529812 0.70625606084235582
-0.60020550145865248 -0.92222782387860214 -0.36139006421068176
0.0031050399664640516 -0.47044976192174559 -0.19765601327782756
0.21574049539120832 0.62931919649495649 0.57011778895068677
0.42861566258948747 -0.43358688911645082 0.71384336608254628
-0.9729615157165199 -0.86823084358517866 -0.489300618772333
-0.036291274741792279 0.27284755225505075 0.75638614671898008
0.30217942486816884 0.46600458263112443 0.38449089528768976
-0.4222739722498543 -0.6024108170189888 -0.37425973389665002
-0.57808413379328805 -0.64024881452561733 -0.28998172795320132
-0.59950488854031225 -0.57668980611715437 -0.15453543025766248
0.33814149204033583 -0.34449943067361505 0.31055471484996566
-0.65211295621648846 -0.29699565520767846 0.67559150557181402
-0.28468941663331071 0.28746448882770148 0.80941134918235358
0.34763926328152284 1.1432965540073572 -0.43640431490854725
0.099913585681874473 0.55459657392331962 0.65575703969674537
-0.38370217290200737 -0.25306770417266933 0.75755000432022346
-0.26141303953647688 0.018594122802732926 0.76958127215283145
-0.27907773035051742 0.25667426607611654 0.80621046503238958
-0.63594759168991422 -0.44118455023069791 0.59522692452755388
-0.34512641410647937 0.022008736800455453 0.74129669747998594
-0.53674920135390147 0.03343210127356222 0.76297673074156869
-0.51301119445193288 0.0051146109444527577 0.75743801473356642
-0.38362059768380208 -0.23099437168035192 0.78376443185575129
-0.48064262441308792 0.85140857709322626 -0.28099929459108752
0.047923193799757513 0.099574589445971612 0.74729030414810316
0.16156332729250611 -0.31884944436356688 0.64455022816603069
-0.72291569243007814 -0.73667949479667216 -0.37085913054853581
-0.072675571105282444 0.40874533052214557 0.80088369388462111
-0.34291480368232596 0.31295505974872939 0.62579242149877912
0.25051967478870907 1.1810216801676476 -0.35359681863981285
0.72445778531433058 -0.42443269676911255 0.66938778033363766
0.54326527935511271 -0.082850382879823714 0.67935260654657892
-0.076895483434580303 0.30514303772602969 0.77058433184749697
-0.088573066126431454 0.066825711695338352 -0.70951697012671744
0.63029701526110804 -0.5587192717156364 0.43338638846416
0.51440916378843404 -0.12102475095893284 0.34999779743796511
-0.19307216450551756 -0.26779714069504629 0.6571776486456038
0.45232391444197795 0.87490169491513581 -0.38001820943732323
0.83219705839176417 -0.24204399876613991 0.64201899343539237
-0.40911383213476071 0.052888507917409067 0.77601174176827481
0.23342828968569362 0.61587059207609718 -0.40392175301407685
0.40177524004933129 0.55351979366762283 -0.24478857440378832
-0.076648088873735531 0.23287915469991433 0.75929990982627515
0.79443759790117863 -0.20990447284780031 0.38712235541452822
-0.75940220858853991 -0.40353323667027752 -0.32956160539117763
0.28206368875337828 0.47616931368990567 -0.35717025782571366
0.88890933349718892 -0.32568844508546357 0.60066581361422067
-0.18606674937121515 0.37859628172121951 0.77148416511206408
-0.48730421649841626 -0.65358304487993912 -0.26262045930152578
-0.41407212034040319 0.022373862769148545 0.73712354284242032
0.14537978144552577 0.31139002587531922 0.67116245930967011
0.45536440590876914 1.1912366929318683 -0.49615212759847527
-0.76211849931750564 -0.60288639638698882 -0.41295903555522484
-0.24966001417200134 -0.34326313837293898 0.61604782717304696
0.3323533174808091 -0.092356523149005137 0.72715025576724202
0.15087401459971916 -0.028503923607002185 0.77698969508417193
-0.57612560437904814 -0.89940381518108214 -0.36756683910291832
0.32474821586462754 1.0151150808878502 -0.36904378403237148
0.74983005865568231 -0.48999294011586225 0.66841238550479387
0.16768298078350119 0.45362846245541272 0.63857056963748215
0.8366917747352951 -0.46315260544098047 0.52518759393594117
-0.045340146859486286 0.74966956741551205 0.65905913805714089
0.3775923954369107 -0.41454037949194 0.37820857699847243
0.075762176361556577 -0.29852458658826436 0.5119026529882178
0.17924262888339548 -0.18017551066320914 0.76680947185291082
0.22277470066267524 -0.36796002458725652 0.29740475850605907
0.079191596371501305 0.58401240948835276 0.65865774947498856
0.044921368185409705 0.92864122751884515 0.015103144500440369
0.29966287474128039 0.56237331801012136 0.48578905211223455
-0.32790403616127906 -0.064577197603858827 0.81406946696352955
-0.15578381859026136 -0.14447766704847764 0.67651483297796
-0.22416951197675861 -0.46711858343292534 0.43358144896216233
-0.45028816484842449 -0.77922281139313432 -0.23889297150375555
-0.12539799993747192 0.67267374335759555 0.73225158984627825
-0.17075067041594405 0.42791918439644494 0.76367528819134645
-0.73102968664386303 -0.18690283471724123 0.58256826652790084
0.54133783378882017 0.87321879675278002 -0.43926995769849331
0.22617892676106433 -0.0015388925426369215 0.79187284270368252
0.25540242269381741 -0.33816007744122278 0.70025802133089465
0.095647402129866332 -0.14019459701367432 0.79207455522969239
0.23451083873484269 0.90377010382519862 -0.36171017168759656
-0.056931778237223618 0.13406105821847514 0.74389531397732656
0.50368823152007192 -0.30977300530736107 0.7333404024879342
0.27222739127047069 0.96177285643975452 -0.33174090533775979
0.42082688771641186 -0.53875481748313436 0.65434554339784912
0.049552256193623467 0.65013002190633551 0.65374749971882418
0.25005820927603706 0.75044918933539839 -0.010577771784722412
0.2308985774991088 1.1885149528921128 -0.41404808480565913
0.16154851145319782 -0.35879515458460687 0.37839499050352998
0.082913681727162736 -0.11592708623989453 0.78105739068725422
0.32586051678170236 0.63715068254521379 -0.0076449457823457578
-0.22164566676357556 -0.30202799397975266 0.64903401066784117
0.0080389597223988751 0.33263411417960925 0.79592219699806277
-0.52099258165556339 -0.1183721691214612 0.73623525176473414
0.48203004583506193 -0.25438575739230851 0.3270713579086455
0.48894136846104397 -0.63859550744500593 0.50949892342703151
-0.45993883799894753 -0.17095379966909763 0.78638236744034362
-0.54737288851712051 0.52079998622713441 -0.59610973327063821
-0.95862756231039681 -0.85454583475203227 -0.45817389712235457
-0.53737208383802249 0.0040757412615159971 0.65812404005950675
0.041535779216318236 -0.28002126113912207 0.529145335370937
0.49871187632958858 -0.047378218255867299 0.37781959370639395
-0.58966991578454975 0.061379017348230591 0.77984251425962459
0.35888290838164316 0.94444176070506791 -0.36062645254715875
-0.95719221410164157 -0.64480838278218666 -0.40937426100239316
0.66176653528748952 -0.44341988531837362 0.67491941465831573
0.37509343478998192 0.71302580604142363 -0.26349561184736636
-0.21270949178612009 -0.3126503508767759 0.62495522293868699
-0.40742134019769027 0.21572967455026304 0.6185098640265978
0.27277035872259692 0.75441922833482322 -0.26724343164228115
0.30973841867628105 -0.14882919750170842 0.73392492938829079
0.38457511067006678 0.87756166459600049 -0.34402429881296159
0.37450245146325933 0.65998877222283592 -0.19776628968615073
0.40814986392260488 0.71201115002220106 -0.25365928364827717
0.75439332616557486 -0.37915490067388946 0.66276356093473066
0.16277868394387518 1.029092572491956 -0.34831255328985566
0.070675451848836168 0.89272888757980984 0.097361239454012427
0.46812154081191526 -0.51749853124847189 0.40771757229272021
-0.088769414099041377 0.99809168291201167 -0.21210557711534728
0.74608705409076714 -0.29199573882707242 0.69994884024193516
-0.74456164974880656 -0.28419213540641941 0.55265475676296516
-0.60574233040519454 -0.15329172903514277 0.62178989121159267
-0.6474001031245602 -0.22657337171404546 0.70159678998727903
0.19799399856219013 0.028598439543155052 0.73802998587180202
-0.50084690990698899 -0.50128670435893985 0.55976636505244848
0.30143755326370858 0.073876473820560867 0.53639672608632605
-0.32137171186186686 0.21433751879149576 0.78395714357053148
-0.37468197583462182 0.20396301863200061 0.74436151478338086
0.76736270510566973 -0.37978104853575823 0.68678056034787538
0.11859186911211728 -0.31432989232389597 0.57959258607214625
0.84130709337547804 -0.4599811964946976 0.55099040788772591
0.4775777405399575 0.81241868752383284 -0.29961871456851785
-0.39948672811735664 -0.46781212744199896 0.60461464656500485
0.35610604237905097 -0.0085312747808390099 0.68978948779011251
-0.78748010670974478 -0.93237503804015631 -0.46940181425457617
0.63684188720833079 -0.093644526715169596 0.39838326780441902
0.34577976062338101 0.62955120994732061 -0.15617616277229329
-0.71241562844880035 -0.22163213631372547 0.38361442233822141
-0.095706468569970449 -0.26704281446014777 -0.60706434151323485
-0.71885348031200746 -0.51361572908019415 -0.31149925881575369
-0.17651368814199841 0.76043059230917698 0.34312070102586079
0.27443730234802199 1.0820029266025566 -0.39282032671059142
-0.61925539955166586 -0.0084756038443345449 0.55434131377821005
-0.62227847887784593 -0.96456900833908144 -0.34341219567409942
0.35304562257841843 1.1403376049991856 -0.44588637760254679
-0.66200349869556163 -0.07371942831507261 0.53265285813663388
0.45319322356551384 1.1419421168034596 -0.42017137211059774
-0.12073580803367845 -0.013325373147403397 0.74763685850529793
-0.58023032181354717 -0.18578378293729192 0.71054679758931316
-0.15457771362780104 0.33496767923177179 0.76520022895717243
0.082027092625751585 0.82644105890038966 0.57135466127077095
0.42626777939375415 -0.10850554427693981 0.23735348205544593
0.52779941070701453 -0.46877742480051321 0.72129280088272241
-0.3727038059486103 0.59621400904740818 0.69018945899228346
0.61525840269466547 -0.37372889000819043 0.73069311520823454
0.10519166628719478 -0.1077388882480339 0.79773601677450889
0.24156830155611253 0.016933942405240432 0.73296059420050952
-0.4217063926364113 -0.049812085873593537 0.80402632925225559
-0.48133788833573332 -0.54389835869276615 -0.41517652742510469
-0.61877174631545451 -0.65090376368125069 -0.30330212333682827
-0.19338672765041887 0.46543899622602769 0.75838330706775814
0.12400141772085593 -0.15412229396550101 0.80170252845858858
-0.21375708066400856 -0.35808531029744417 0.66561064957770544
-0.32961644301918125 0.91406346211918077 -0.34090895807509414
0.44687886645359809 0.80827764661009649 -0.32655214393223719
-0.62327514092775682 -0.85506471810261875 -0.44969635448025835
0.34681065033946989 0.28934564840739241 -0.17679371080100914
0.71390513964991253 -0.48411143162635284 0.69492657226826449
0.17120027297565477 1.1145544342507956 -0.29205141679272728
0.12576244482248589 0.72868148295238067 -0.44508988023812224
0.19581114685128753 0.03712768121663193 0.73925966338853977
-0.12551081711851664 0.58606464200373964 0.73537706309762196
0.24723646372916042 1.2137460734016101 -0.38458916037459101
0.47799088204198981 -0.61795016623422261 0.47515695390768542
0.21790920823874949 0.2527245475856843 0.66490153560006116
-0.48039213781847612 0.13566369124487876 0.80764250107289337
-0.51569023083262455 -0.34352175122552797 -0.53854186703231877
0.38778958019719356 0.66362660544723484 -0.19151522489290285
-0.2769313516720886 -0.13806628296043383 0.80256764870613306
0.26199744960860594 0.76516408306340478 -0.24147011369360527
0.17281663984499351 -0.03538175208006733 0.7956152502290128
0.056398389549860539 0.40692877592557042 0.77554113755079657
0.63592709084992149 -0.43574065183989408 0.71488729809477292
-0.38727706134029449 0.052462053194633373 0.77674077231849825
-0.0030761397704077709 0.95952002244529644 -0.26762431253421637
0.33619548122907617 -0.36930736656798313 0.33940780216096789
0.2367111481602473 0.91969710704873253 -0.28668086143759197
-0.36224849122347336 0.36966029840339598 0.6988451450333617
0.077003080704267646 0.35491007343605357 0.75889291031551176
0.15394999305751877 0.44883928626643571 0.66127761180466527
-0.67327006839225501 -0.95683539315112398 -0.37652162386722576
-0.41164082866659757 0.27180690123294404 0.59962872145152302
-0.7357709166117421 -0.18331221982601997 0.61129350601714139
0.30377107016441807 0.40498936304043875 0.54180885117985023
0.29363783071785221 0.24996475761311648 0.50073670150264515
-0.71956634183855428 -0.4198308603642773 0.44307278225840419
0.16420861319876412 -0.066090456573204004 0.7970611445820448
0.22019270439872418 0.97714111949551752 -0.28405034267045171
0.27588486672877277 0.10506813151423589 0.50755821648032695
0.12634991985948263 0.80858016018316514 0.26178821743590142
-0.17709158074281106 0.42895733214915494 0.7653092641730459
0.39256218399753262 0.67956911166071565 -0.21209929539896955
0.14535631521389503 -0.063534078923196152 0.75416724430869131
0.89015483815795449 -0.2666499279169926 0.42104106936425367
-0.90151987512132536 -0.75746509889601654 -0.44280099379173965
-0.53055691788367154 -0.20730537716617969 0.70409177516215316
0.23317584933241164 1.0730213403518667 -0.42191552472811367
-0.2435365207265372 -0.6142622417745518 -0.20399483112968353
-0.93717122582844326 -0.61404712989100219 -0.42753913718052106
0.03715318286289504 0.60024354396259594 0.66840353835097854
-0.030243083798744408 0.87250371430469942 0.22707821463116007
-0.63230286212249931 -0.5855474280548929 -0.21097266152364913
0.51141832684035782 -0.12671777865476208 0.70676913738385228
-0.22494568465068454 -0.3661264178643524 -0.55929032707741566
-0.30253129934790257 -0.18704309924186768 0.80276944469195044
0.39252089962527936 0.77935288389014623 -0.30260591188762165
-0.22482794279533991 0.55003037067000715 0.77642682110598127
-0.64253083417180501 -0.74764341331336492 -0.34380229499569159
0.25522918656522986 -0.092780067824653867 0.7800445933968172
-0.31011743448284879 0.62856155253374102 0.65196048323282696
0.48634961512127095 0.85269240126785606 -0.34703392264551969
-0.72242922908864604 -0.34252848559341698 0.39298437169333811
-0.083183122962766642 0.43576226173981514 0.79513666876834366
0.64657122125536359 -0.65950758089949435 0.52932376966657202
-0.44309937739545435 0.18912303961628751 0.69138740019167422
0.56487706499121426 -0.34864995926511588 0.7327925924773897
0.64164895196216243 -0.24284255665479249 0.71459604221938333
-0.2665419381698757 -0.23268422523443183 0.74001196996720608
-0.76083636208914651 -0.359944180634308 0.55689598929214457
0.13999607115898094 0.46670453111541377 0.67587391385559936
0.028184964674025981 0.49742215560191649 0.75047466290819731
0.14517085016961939 0.38962844179788103 0.69761671874153253
-0.20240471060447751 0.32297484134454124 0.70356212408035246
-0.12259621400739062 0.71824419502531667 0.42581332595290178
0.13687266847924251 0.58077200244337646 0.55462545945642683
-0.40378896370928685 0.4943556218100631 0.70296807601485778
-0.37524801987524614 -0.62721691884653463 0.044928314011822401
0.13788557784150735 -0.087444552385764401 0.799957568674877
-0.94507306930077495 -0.73051393884754967 -0.42744873242246539
0.6479336114938925 -0.43945854070261348 0.6649644744302341
0.48486641577624745 0.65245296926865493 -0.27595236849649885
0.31277157252594767 1.2019263889783216 -0.39006935437294921
0.39434978337113469 -0.24741657770279091 0.26341521414085056
0.37550778123554496 1.0179236163966425 -0.39172650427019606
-0.55852629138495447 0.4050190284415931 0.43916040742373452
0.54569500008777228 -0.25002440763755585 0.72526115409122482
-0.49689865621242735 -0.53284782858992474 0.50445814870302108
0.35368868118409091 -0.19396067739486722 0.73466554323980704
-0.29051632910278435 0.79983538794832221 -0.49505909697620964
-0.28222143852586745 -0.25315191675332782 0.73377750202036252
-0.64956127272020647 -0.92486493190583952 -0.41658839513420132
0.91194071881917393 -0.20362775291210544 0.47199742129697642
0.352433083951186 1.223360214265131 -0.41451948142209361
0.5250958167991735 1.0108756124280454 -0.49441193892345492
0.63694725239083327 -0.65563044919914315 0.50232109331793406
-0.15040011973258682 0.33803561273230875 0.76034063213331926
-0.6548875881996592 -0.58260604467977384 -0.2153793953621248
-0.93165907075292753 -0.65750806465432055 -0.38747612253177488
0.43083136084112361 1.1936169919628328 -0.51364972661349828
0.46749217948368571 -0.39831126671718065 0.36535752997648752
-0.61641272904749678 0.13093726439048803 0.79701753586546031
-0.14823912287649366 0.50346212127416212 0.75033054715714398
-0.068352165980978707 0.27137578744868524 0.7438051758086881
0.40724710409622489 0.91674380494531893 -0.37619396340133981
0.25473411073307162 0.81977923677851172 -0.26787255518186281
-0.57770787851721872 -0.62909622782264352 -0.26694989702682781
0.28937599240826639 -0.032445313495678918 0.73534474754451695
-0.50405805416330529 -0.66215289109219144 -0.29161026112918798
0.61835759493329201 -0.39433988380559748 0.70876156221584363
-0.45686682261458067 -0.068700198211146368 0.79159517230729204
-0.41693039089048423 -0.31839611549952296 0.68487693852870812
-0.68313118315162358 -0.94589492451186441 -0.43374741360653957
-0.33032166707527599 0.28807275799295073 0.77123556905791935
0.5927945997703552 -0.40878636956821279 0.73276681793500753
0.73889333600403395 -0.57502213902508581 0.58788931418515844
0.30185993536695266 0.50766419545750985 -0.33631393968792711
-0.27650545393986503 0.22555736124861392 0.80366788787545174
-0.54818641087490061 0.12900032179182075 0.8028195286903288
-0.30152637285534967 -0.21715667289393925 0.77361644963786036
0.81425611963950661 -0.18963512505931202 0.39669296002498733
-0.57784587224674078 -0.26645015211243717 0.68447194639764009
0.2685723443422301 1.0585764374503959 -0.38106384203013866
0.60396890157676442 -0.64702021296318768 0.634114140474205
0.26482511876380865 0.79828369152043144 -0.27794267387275129
0.1748878639181477 -0.17339779853865603 0.78197358160292563
0.66516231258137504 -0.50126130374567457 0.70657586172523379
0.058129193991678374 0.3105891671182307 0.75103926078964101
0.11948565381233056 -0.16075149134002306 0.79641859849707863
0.86771806663296225 -0.17803636890191557 0.44117533846005097
0.029187243852321298 -0.26852740798557095 0.59556054863857266
0.7191722826175555 -0.40658821912018162 0.39454260175091571
-0.33505162038755265 0.46697896997305732 0.8161682955027918
0.16518546321236194 0.75916840751343895 0.54933711523464579
0.33438954915082064 0.88711074651617139 -0.32898318495228818
-0.28174380786249609 -0.029068797935015933 0.76181282408491624
0.34868866319839764 0.50153437663788614 -0.26683207532170217
-0.39403516502353897 -0.48783429488990881 0.58152161886236442
-0.39666473216746301 -0.77591178787841919 -0.14725605466600689
-0.35658921184030712 0.23081049606017667 0.64286070763491487
0.46116809306728346 0.78732392622576164 -0.28075521909138113
-0.18776258671789181 0.69086460216013301 0.65980451556212882
0.10033053400435765 -0.15858940402528934 0.77146012595391733
-0.31559873890085877 0.14555772673470657 0.80133836118650281
-0.36994273861006688 -0.19739056663237753 0.80052310373953528
-0.18935339831231834 -0.15575798758575043 0.75019371497712628
0.025005016455453832 -0.41515135339308529 -0.38495144270547987
-0.05941386047120778 0.98765375289107915 -0.096538449159236261
-0.75180499526446432 -0.61712283434021709 -0.28097733021745475
0.77370204108855578 -0.25992507809238352 0.68010088356394105
0.86286954336924726 -0.37585320614841766 0.6140903735777381
-0.64719754145040542 -0.53819483476051655 -0.37074115521094653
-0.74025551641200082 -0.82139981156827568 -0.49046002720219883
-0.54735670134815373 0.78750804938738073 -0.30162820521702738
0.17518164283298043 0.7875716061865019 0.47667926048125198
-0.336402681591917 0.40959932683633926 0.64708904758908181
0.4945504718182776 0.8884604110585288 -0.37517938239102699
-0.49295999157299386 -0.53639893875315403 0.4194398948284408
-0.0538145614210781 0.47413548679526146 0.7817765958907108
-0.78970191702187309 -0.98929560267101291 -0.41924551325744019
-0.44619747592968073 -0.37913988905709795 0.66358205911502566
