# XYZ point cloud file
0.071814039793792028 0.48911731747683462 -0.25106495392825612
0.14208932755559373 0.3953695378788602 -0.099543721961933063
-0.0050542460946055856 0.19148815701235289 0.67412083663934408
0.39219969587690728 -0.22860371830271742 0.47857228891268028
-0.50463270523570436 -0.34147367125417483 -0.2951990475181373
0.047422442079585514 0.34364120253026109 -0.1779663234567081
0.54158064451053134 -0.3066157296161689 0.61426574314084803
-0.025219890561515135 0.30510507962536393 0.66434972648310153
-0.53402469745699133 -0.53419438854977397 -0.093730718215693676
-0.20513261406478134 0.12706657843346958 0.67570936620476596
0.11844409154256114 0.19869804477012798 0.5887135934574822
0.44059002751519905 1.0384255933499482 -0.43187977634676988
-0.60299723941271821 -0.52898298520204778 -0.35368240624815062
-0.23472115173313091 -0.12146089660563386 0.64680864810178984
0.17687374103469838 -0.065506123034523078 0.68661131065157743
0.077023721374016807 0.00148101942731238 0.72046747499289798
-0.68760812546321848 -0.7409499587567554 -0.19164039072109684
0.28209675528070377 0.86625973437109527 -0.30353283151324173
0.4391838565089739 -0.35376607358501466 0.69018788564263145
0.15510531521995702 0.28609580624273034 0.5412349494395482
0.4578325103345996 -0.37218046520859238 0.59952927672287837
0.11537959081350119 0.53218294427186374 0.52211292883691296
0.064939171154863251 -0.27286971962568551 0.51801856419966452
-0.066929511125340957 -0.15119163496399946 0.5802632129485954
0.068543813870653503 -0.081110309243349055 0.73652334355754745
-0.045287317399520299 -0.24003177196990755 0.45177048966820754
0.13765980218552887 0.38720388201446698 0.54013231616956181
0.16540768176134921 0.77701445192153584 -0.017156032579381697
0.2307769034362751 0.35297114732525248 0.40920783048886256
-0.18994367732954526 0.071200420530201036 0.76042700486194392
-0.13252211429551913 -0.016358474362768938 0.66760829244346542
-0.2770749657187237 -0.22919170726876748 0.52659589837885146
-0.57155739247863535 -0.61450501913152333 -0.04091543813210563
0.06406318635945446 0.48945871089763043 0.59447105668350142
-0.0080953861936483018 0.33360275933166034 0.65118160940962144
-0.38752068382932303 0.015925169445881626 0.51612273672523157
0.31741476958637133 0.68960604296113626 -0.31539719730104004
0.13276280534314577 0.0012069851650715613 0.72223177540545325
0.080984441542147623 -0.17616031568863944 0.71410584467787508
0.025741593518444073 -0.044951756675620569 0.7519480186913694
0.19232569021812074 0.77384570771591643 -0.2819131516020954
-0.016297112793782487 0.12944259643655964 0.67670898370175459
0.27657586621856672 -0.20683414295059876 0.71586234957622707
0.23619564084138187 0.81899298516392183 -0.26746418201688038
0.16342758782943445 -0.30536614959572639 0.71042093274982765
0.13690325008555901 0.43926578841199299 0.52817723558366148
0.17828992050932971 0.58188080099874595 0.017304402783059281
0.33114728185763553 1.0713590753351614 -0.3839227444230538
-0.058953729836652813 -0.21448076341361177 0.5019178307723442
0.020236886412722255 -0.031033776356581 0.74065031845851237
0.17536532040602934 0.4699528323317621 0.048391450023706428
-0.20672041600198776 -0.096858820033611126 0.66831162355778784
0.060937048411955907 0.23115051327988134 0.68659070104822817
-0.28982818859630466 0.060298430691504645 0.68436923835101426
0.14215761845027919 -0.20294489146006733 0.45791948701908952
0.15849036795403537 -0.3864477357258167 0.63613414425378045
-0.28050206415310663 0.030445174145338538 0.74329926227485821
-0.12488909336882115 0.53056325742682453 -0.57848494486462887
-0.80008761236744608 -0.72899125108237495 -0.46910110657068116
-0.25590690963424312 0.12572230751375923 0.5941335004158701
-0.0790574740780291 -0.13457257693937408 0.58806966939567662
0.20091537585041164 -0.074846886237201371 0.45061699368141345
-0.26613117919852713 0.18765901633046556 0.68999395664965901
0.26421598816825903 0.78769423267080663 -0.27902000150282502
-0.67619575440744606 -0.55056455939672533 -0.44039860002035913
0.37118293195646745 -0.30890172467702615 0.69236718680130382
0.18406046043064755 0.55019069173261315 -0.15168368383483044
-0.20725250568087961 -0.10774056345097105 0.65173022213817133
-0.15036126037624858 0.24194744511495347 0.54419532739883891
0.1547585233641332 0.60958311005037347 -0.17215030378273405
0.1545330077085289 -0.090157769810934485 0.7019219244222592
0.24703558854243005 0.7144574483306052 -0.24952783390713734
0.17398928085419613 0.49633034057022463 -0.090921615024957825
0.20072827769849744 0.54220454159902687 -0.14197207771132836
0.44841020429504119 -0.2991514729497764 0.6680579466052291
0.22436650020646454 0.9132195178228304 -0.30656856762639351
0.16829579096327696 0.72352514659024514 0.055491195782964242
0.12254675729319364 -0.33763819839808495 0.55438865891297273
0.14259334017900113 0.9170030377380296 -0.22891284546752783
0.46231473124633377 -0.25190440982341433 0.67513998706199918
-0.42857028632598182 -0.050705959383032573 0.49916692601531398
-0.33031182879394372 0.029801660107369621 0.57354656320909192
-0.37742487649393175 0.0082017331105123104 0.64962625400637886
0.10941071681053771 0.023019725152853665 0.68113798640462386
-0.40875720553111972 -0.19467639365275236 0.59238620391270969
0.1395294709351404 0.033642961739712707 0.53210600611828951
-0.11936356297069434 0.23118836417292077 0.694781106151378
-0.14264734470566681 0.23366247539515295 0.65871716884735898
0.46830434624328077 -0.30186174426521661 0.68087094915770141
-0.031131142987158633 -0.1564069932343114 0.63107083938234243
0.47227539235388633 -0.3695818686966047 0.61306570367185453
0.27030702295960191 0.627885017527686 -0.19599992857124959
-0.34672057248389465 -0.17382876888165089 0.64120596418081677
0.19689940360462405 -0.025258371781149425 0.64632885614807223
-0.78829438334629143 -0.79736192231146485 -0.38359890483219294
0.29449407095896624 -0.12641980036086098 0.46924681398265111
0.15672524304751889 0.47125968810455254 -0.05560779212490996
-0.38599563236776291 -0.050692434524509333 0.34365015193034909
-0.33827509595409072 -0.33491422287527717 -0.31815297040165225
-0.54213173558493499 -0.43144989141155765 -0.24922564859870389
0.060200003932514567 0.62501088944928385 0.24999681097062654
0.29252576677677639 0.94869826942388491 -0.34081265973032859
-0.28442831972434413 0.11495678206351967 0.48855409987789666
-0.73531268785158543 -0.77421765391842767 -0.17975849369196201
0.35801232632242952 0.99983027231078703 -0.38824620834105023
-0.31952771810072256 0.07269225760427378 0.46956347609981242
0.41241283741315948 0.97292944062639375 -0.36166504245119835
-0.079138188944628318 0.057168873601316617 0.70294227779545626
-0.33522179008177599 0.024680292253270286 0.66295413449777563
-0.02065659459137853 0.27052699747863795 0.66495819891882935
0.18974259285586931 0.56921485886766487 0.43917099589988151
0.10441379988592792 -0.11253865809334673 0.37285197727876884
0.27595333770228497 -0.28817114689889101 0.7331864784070814
-0.0431166371598109 0.50443699786403395 0.55816185368812121
0.35833048407295376 -0.26172553461505921 0.71673064980898715
0.038259274029124934 -0.030123714443631489 0.75039009427609749
0.13434773540567313 0.0087567419978521466 0.67730574587827419
-0.2292951988447326 0.094568009735466307 0.74427060014004698
-0.50775614186378359 -0.49541821273745479 -0.24233683946650852
-0.57621054041124797 -0.54101119170813272 -0.18330493246824853
-0.0097147382749309674 0.36393157223435063 0.64174334002370303
0.043131326526545055 -0.056474917091080101 0.7596849110188727
-0.21555814922840111 -0.12385015951235945 0.69099174363445304
0.063511142611828497 0.9065297817141208 -0.36906535993726058
0.24916512944494831 0.63269600574731677 -0.21681218036928407
-0.69066251467109463 -0.73937662282729444 -0.29577259766286235
0.049587540711014455 0.16925008330794444 0.004385943255393987
0.41911177061387866 -0.3403132345845542 0.70691462863570531
0.27205411461717155 0.98492293248288099 -0.27870320103815788
0.074865981750463717 0.62581502729582006 -0.32323239208904264
0.10969896856969014 0.028021607449771779 0.68070476169753402
0.045108545824174173 0.42950709382630575 0.60694901125269696
0.35267702824707237 1.0857855849760869 -0.36337964781485854
0.14063146577170638 -0.37980108475856111 0.61226488590356831
0.14831099994900604 0.14980998777096499 0.591229727273344
-0.20431862310273691 0.21647692659396106 0.71707628255985956
-0.45197422006563326 -0.35238540037340271 -0.39204386145587777
0.18257904079276538 0.49676899369729666 -0.086297018996281061
-0.18343729086867644 0.021309521116397612 0.76359759237343205
0.15758044612161232 0.61952934390256731 -0.15601086319851704
0.093133236635747685 -0.0060038070244979869 0.73362601735946864
0.099561335059205058 0.26625818417947944 0.65792574827516637
0.3646616967858452 -0.29704019052449915 0.71618960278158328
-0.18667219473958152 0.14469369778189756 0.7079684908330286
0.14471933123024419 0.86806072811771051 -0.25112524120958618
0.034115781841114134 -0.24773003453496911 0.48439178151591872
0.20631499772975348 0.77868282708431369 -0.22684212848138408
-0.096118486701810057 0.3401085784401775 0.59614786447959245
0.099428026334135167 0.23179500971198963 0.65116369065524449
0.14943570125736011 0.28310785201203981 0.55945789619878772
-0.75327993944741189 -0.78178822853349028 -0.23563529430635122
-0.13680265815176207 0.28108142712145623 0.51882121934196446
-0.39025766957060404 0.025091882069337323 0.54131000599043366
0.20741436407101449 0.24017004204327086 0.47583355158471485
0.16077325592460034 0.14597169278930655 0.47582401762445903
-0.46954197597818681 -0.16499004389285887 0.42479057324452257
0.082823720219195318 -0.020042615820562548 0.74007607207077819
0.22566617751396228 0.83769625313940144 -0.23877669518257427
0.12355961600584198 0.057254413380755542 0.50737523092327963
0.17904441312564534 0.60941758827755799 0.19964748075756011
-0.010600539778974183 0.33570704411371588 0.65244840206489019
0.18737532591185802 0.51194634210889955 -0.1047417206338736
0.063683008565138033 -0.016232763885438928 0.71017376332839333
0.47524703846040339 -0.28209552224975476 0.50325874297010276
-0.72363454845539354 -0.65331069063700342 -0.43447088246811361
-0.32078773555279039 0.0042238745577729553 0.66770780850825495
0.26968661378022485 0.9546998744709847 -0.3663012699168306
-0.43009746324051434 -0.49423125945086488 0.03383095680231879
-0.65529947466181815 -0.5315661122991352 -0.45054454504808306
0.12072616547219389 0.40655266755554026 0.54676156785792895
0.13542014512152578 0.70394507585617738 0.15129995189139764
-0.54169525463056756 -0.46404537539397939 -0.11275821960552057
0.29605479763879072 -0.11721848909974275 0.66793956712214353
-0.39807841876800831 -0.39988635504436121 -0.30173768665710665
-0.20868330450201811 -0.00013904472654613365 0.77021887526677291
0.21330835738017745 0.61323790061287964 -0.1951067566229111
-0.0043159780124281122 0.42759428855377013 0.64726065577533687
-0.63220814381434431 -0.62495039003500796 -0.21896294458164456
0.1357673995008522 -0.050951173677588835 0.72697565945586096
-0.013505251345870661 0.51525434740545895 0.52345869788794253
0.28699400095949729 0.6700564003536551 -0.24091981729595568
-0.43727636619572441 -0.12905758901252762 0.36680352824105211
0.034500481723233611 0.31555824733804916 0.67557347610492813
0.28984235608633196 -0.42759436761846714 0.64506430590765373
-0.17067061113007737 0.23410146890894257 0.60829398947717905
0.32065677725147457 -0.23846782694252988 0.71757110870390595
0.38655912028092793 -0.20328954860934423 0.68321193538596636
-0.20481227782649392 -0.039357149313972606 0.72732859658869431
-0.46678535983633651 -0.093929108599573152 0.51015226012349824
0.14714393372848111 0.2955156902415218 0.56833356480890074
0.10029251850069493 0.33141848798005935 0.62698189720806896
0.13726085518818257 0.24400866633338314 0.59618725068507905
-0.046062935694163865 0.27486556776670201 0.61444048759866265
0.068961448931871894 0.5658677191483874 0.32896338802653874
0.15603888105222002 0.38797378825144269 0.45885076289426097
-0.079173445793129182 0.43720506495489542 0.5802713056858344
-0.44536283768527252 -0.42289292825244951 0.20618880619253027
0.062853149777670814 -0.025852014210752561 0.74704257815760855
-0.72096476172276547 -0.62504237340174529 -0.44415223243020452
0.35659404860558597 -0.30436046770224934 0.68687364418996599
0.21302916878000128 0.47328997465036493 -0.14077604055319132
0.37535669967200436 1.0588267946955168 -0.35909290614379796
0.068643701355546594 -0.19369565304777958 0.41487279814535782
0.30588127883332311 0.86175854778267613 -0.31815387780773563
-0.13727185533200204 0.40647289503879647 0.33488410135364088
0.31327334400244466 -0.1864308116114699 0.69788686542214473
-0.42032134385634901 -0.22739197391722177 0.55057883877791314
0.17924571487526664 -0.12089085298537217 0.70733903394666164
0.015574462180231452 0.79042721489886114 -0.4652432044122935
-0.21841219126787348 -0.048852573881135508 0.72462035042910022
-0.73173932578599632 -0.77581257989850227 -0.26723927993465246
0.51975608328875489 -0.24751608701203431 0.51894242358159537
0.40656875851148583 1.0762979797565726 -0.37928663033701671
0.37558314852514013 0.83937821959990799 -0.39067817309144437
0.27211069564456447 -0.42726817572446341 0.62927982496528356
-0.018276837071364183 0.27167813851072686 0.66045367823322787
-0.54714304279122727 -0.46227009429748389 -0.12627570111487985
-0.67424395654804103 -0.55640618495844152 -0.40545298407052754
0.42811503844353282 1.0504582710286257 -0.44793260936005774
0.12389150796289072 -0.27919095325699983 0.50758516039830259
-0.25767672790229301 0.23940141876532678 0.69349561458755371
0.017660738037142909 0.37852123950275457 0.63002338175347816
0.0057564204342936964 0.21338634836056969 0.65586378345132701
0.27299712230818324 0.7524064775697219 -0.28177744779104857
0.17323088520381225 0.67591681562391226 -0.18881621759409883
-0.55095085619621176 -0.51496736378615326 -0.1360920870649811
0.15851145868015803 -0.026341083206605886 0.68453057626600622
-0.54634888392703673 -0.5490996413954139 -0.12493340263079578
0.3515697812686166 -0.27327670897937684 0.70699705898389797
-0.24973484536477131 0.087988690137959402 0.73322232784103392
-0.30461838783153272 -0.075266107483700884 0.68265507685403115
-0.75656986606530208 -0.79611723995085415 -0.29642318495897491
-0.10539645787006513 0.27944195822947476 0.67313034702931107
0.33767394726106836 -0.2734418207653041 0.7254590729342475
0.39403929859592857 -0.40032802120940114 0.65949949153707355
0.068769633630295535 0.37061363100513556 -0.16673997889288816
-0.09787291488761074 0.22932685823504073 0.71172539630964993
-0.23246422449879139 0.22533867600714852 0.70715539582726272
-0.21692276968360258 -0.02064556946167162 0.75067685907303583
0.41351857213134929 -0.22011370578041012 0.47933479129250334
-0.36039931472849096 -0.027476035264500265 0.6519095085150689
0.27854612675809365 0.92433382894206739 -0.32715994189685954
0.29405973129193608 -0.39797083503070663 0.70592987103062965
0.16757005704138542 0.65429490261246381 -0.19078866259234772
0.069708606679324936 -0.07621467412520655 0.7461842460119894
0.38119926422410544 -0.33601378809256721 0.72002246708817719
0.079769902062111486 0.21000510525733973 0.65234859091836761
0.03819098151212974 -0.059208262242469112 0.75720938205915433
0.47427849638604347 -0.22299911896447022 0.49960951432551515
-0.071640822381065172 -0.11836189467532499 0.63321130990000629
0.31675742629589548 -0.32642362803250369 0.52159767676340785
-0.067558603252584892 0.39854861215470594 0.69097556224988843
0.21359109039454977 0.5051821879692745 0.42878266707809715
0.22955509956588416 0.73222394108541788 -0.24366893321023519
-0.1604211575432134 0.077051365413637218 0.71304929132112116
0.097161135278664046 0.35687834899435833 -0.10831800834559513
-0.35188222801512925 -0.19050389607989315 0.62597243167172112
-0.5378068688867681 -0.58039189652487055 0.058322926780832396
-0.12871065913958757 0.24391600963766458 0.56795602775538234
0.25357273274616199 0.60533732687683184 -0.17673863151412661
0.043895542740080895 0.52827861170379187 0.52808784582265411
0.022081167769445742 -0.056187739683537519 0.73990528681591039
-0.13329891681726896 0.18876020937498328 0.71972392962156007
-0.24521427307028998 0.0048018368386260057 0.76642791280780243
-0.1458550008794528 -0.0089184453189908863 0.7263493275185211
-0.30572854639429681 -0.41321859096144165 -0.074287211922173635
0.15018871367052725 0.87783716821889035 -0.12957089557376894
-0.5955260279384389 -0.50363323094360846 -0.22399303356128253
0.48080621252332184 -0.24200220440763542 0.65617001250609808
0.52123826679447594 -0.3264312536871814 0.6323072709589499
-0.54127428839432412 -0.47070500855453079 -0.27034967923606756
-0.71366708575162929 -0.72503243182299093 -0.39384068527714466
-0.0078311625769468263 0.81099574990353407 -0.37105543943949132
0.21914986847643786 0.5381704999557273 0.36827837223911275
-0.076646397757375861 0.36319500776351155 0.54686083009026776
0.30499852140836931 0.70663126734678205 -0.27043657184643877
-0.42360095893321881 -0.25412335753418758 0.4789138128374949
0.055975909154680259 0.33356791881497971 0.65864998910985095
-0.81868441471211795 -0.81792388441932673 -0.32823442612013343
-0.33824723433791892 -0.10879900670808917 0.67051257093556371
-0.083994775623943585 0.29216681763804786 0.70664898828132972
-0.14333548603143853 0.016827804264478829 0.70986629288459513
0.1978612892466049 0.548944627248099 0.20327033321336468
0.48820159444313649 -0.26404611509354414 0.66543261419917654
0.29069240254620954 0.99400351291196642 -0.28772086572808653
0.086025630943720566 0.45635658295517545 0.58091218855988025
0.50785285748380682 -0.33679675092204053 0.6424256689924539
0.42688829918173993 -0.25459751471930014 0.65205493492684163
0.17453835236415516 0.63462797703992058 0.16175360896421673
-0.23433697669005737 -0.36823166619917058 0.15301684865344989
-0.48597592349581864 -0.55466314128117045 0.076945750607016694
-0.059606043823823285 0.29108432829618286 0.68619159101069682
0.00095880743459547668 0.36642808806799992 0.63788294891515884
0.12202388967718464 0.91329477682682314 -0.15685097143009347
-0.39955712378320973 -0.078154452794400253 0.63208809866889926
-0.38639549783361904 0.011356044092244444 0.64974075503870443
0.1213240131413485 0.30597069069458571 0.60902516689835551
-0.67025603903183639 -0.61705118133023751 -0.36644514247854054
-0.28545487901106881 -0.0027569249491093961 0.7408908591896578
-0.034250383904268378 0.30052978800589591 0.62178997747029752
-0.78453079752657973 -0.79962126512456189 -0.27075708321839598
0.069589775547071797 0.3038281393117247 0.66614777241106093
0.42525623394390161 -0.17893800042102059 0.49651973260278914
-0.34076891828437927 -0.075523916260571422 0.67511334780966115
0.3577942313441359 -0.086753527692892796 0.56019367675950904
-0.4127289601303139 -0.075741621148320726 0.4111872437641873
0.11451666971195851 -0.027676050697275856 0.73822848903358473
0.10465311153998591 0.24407369997763262 0.6571217794409896
-0.33264330661506147 -0.41539575889788938 0.080146173255948583
-0.46069355682834223 -0.45739566431655632 0.13151407944893934
-0.19019589364978418 0.11817709926807107 0.70927199071305613
-0.42737636527655021 -0.021320460019393694 0.60040769341186639
0.42849138587659236 -0.35445221245948688 0.55844289574188788
0.067642512679403355 0.27263464551448657 -0.062319611061630809
-0.61911522160733623 -0.58051744002380434 -0.24660109762655147
-0.027867133408850941 0.36272395508939681 0.56955371104494301
-0.34548158597990519 0.026834508409158575 0.65340280128759165
0.29120593343413598 -0.044417817094039469 0.56160586665637036
0.20909055847367525 0.42824874084028708 0.45815553230426259
0.31482714572303505 0.95360508738278094 -0.35647161771568414
0.19826559177421615 -0.0057910246899834927 0.49821111589910932
0.34599493157293304 -0.28107596730251982 0.7246798661023991
0.29422870723461353 -0.15966568574075368 0.69200648503262963
-0.52373387379779679 -0.37822305012666113 -0.10733320735025842
-0.56753434344735332 -0.52227375056424818 -0.16731047153452161
-0.2138422829537413 -0.21467983113738109 0.51275881098377285
-0.36665087078414071 0.038719808865312455 0.018488238834553417
-0.25894408915382838 0.1287255105621441 0.6839286838936437
0.13990261252609745 0.34857778963021235 0.54465439877098742
0.25134106544848167 -0.40670035249095027 0.59400204979580895
0.1220730950451934 0.70543345954083292 0.15392692552541959
-0.67669694502616096 -0.57523764733145644 -0.38977349344115464
0.11103716078052508 0.52146757854959092 -0.22005688293673287
0.12630585807871098 0.075261798619813858 0.485548173163591
-0.33187676901051022 -0.040674956378400573 0.65828706420215255
-0.3238937069091371 -0.092628990769679787 0.68330601566268734
0.18346009034703464 0.5404825494609129 -0.14837364387715674
0.16961600946192162 -0.045301372800512496 0.44012381710060289
0.31022746053304751 0.96953526170757787 -0.35807181490668372
0.0097529272903264519 -0.048652323537437092 0.72564180508989962
0.14388300411578614 -0.081760117430752732 0.70298207741591801
0.47316259494566437 -0.28906095795886066 0.67699890562729936
-0.076672319712045911 0.041668958265739797 0.70943677188800591
-0.046156909025542758 0.42239135814210732 0.44742844066938126
-0.77223509348509223 -0.73714345068630527 -0.42862807511086776
-0.28046625023963234 -0.1455866298898707 0.67567079854895384
-0.69100615948800603 -0.7082717681659676 -0.25711671443530093
0.13303916659232407 0.43029094304384352 0.53378521308707239
0.017533786103974547 -0.1688178449703337 0.680220971865237
-0.1794772005319768 0.016869846742067374 0.75217088104226959
0.34556180056498664 -0.40045495453037594 0.69549447721378121
-0.49902218307666402 -0.33956136104578516 -0.33265441156363029
-0.099734812036443798 0.25221961230039935 0.70413779642570373
-0.57623002929765421 -0.61584682941225444 -0.017720596759254692
0.095442591654254172 -0.14009091963320441 0.71959839932204406
-0.6882644379348557 -0.64006799428395833 -0.38515990201248163
-0.12052355933782899 0.017971376093085301 -0.2829597145031294
0.29585673448042438 -0.3731677861253464 0.55993978055468729
0.13902510229142548 0.38989199727855406 0.49947384643208653
0.34629907477280802 -0.28354776144835414 0.71173254414991527
-0.02739536415602789 0.26798044621565764 0.67156542202761449
-0.29158309506345725 0.0033105416341084881 0.73265260917273678
0.10663619916196088 0.24236996326669114 0.6532539674044161
-0.28843969721943197 -0.079769332788231395 0.69102879350969193
-0.46873102648930132 -0.13388793369586005 0.45513078976180155
0.19251351274223008 0.5727947368582188 0.21642203356863685
-0.3656755311200649 -0.42644489932767415 -0.19727106409201434
0.0069167973077945422 0.40105453496934457 0.56426846834726141
0.055863921859315102 -0.19419793760791637 0.39635572271094716
-0.502725443647284 -0.287608744911791 -0.015943503315549279
-0.15699562498795833 0.13063544705548846 0.71080890643699635
0.11095013425555467 -0.34411498943083252 0.5671258991982191
0.15407891451775579 0.83378377843241958 -0.17519087074626244
0.025891277824973746 0.3096612213739085 -0.18922372608058469
0.33143641956928843 0.95078998229660727 -0.36176168041245971
0.42049992084863169 -0.25157605292051166 0.65363101815989877
0.36711267098836253 -0.3774233546420187 0.70862532969459391
0.14413882469086159 0.37091241302817313 0.014711944141400923
0.080793238129862444 -0.079306133636329657 0.73759671910853541
0.12919203129016416 0.12482025306247968 0.34650258848183318
0.051940480708910275 0.86899318399035619 -0.41085389714987575
0.094396874506139872 0.25499261054806177 0.66484277052889507
-0.044669660559433111 0.73153414581103537 -0.23431518853843419
0.14593558953727881 0.36529364675516129 0.54119793831251894
-0.33768194111035943 -0.020886091027304099 0.6541614256986954
-0.16431476666790351 0.43378627657558289 0.16866217818799673
0.1369142933981724 0.41742129626363544 0.53566322339033556
0.12672451802458512 0.054479583632406126 0.49151874214645158
0.12341025332709804 0.014743780713911359 0.68270662222246692
0.37557359540400348 0.97861028060913569 -0.39191919509575823
-0.62917621680394797 -0.53701998343853796 -0.30080282473665187
0.11233991783824859 -0.15057706536633098 0.41220476199848904
0.51072455349554879 -0.22150101824745927 0.6111082647196483
0.21372837583254595 -0.20419168080733585 0.47003496608470974
-0.37425583166645837 -0.078576354993267095 0.64890470310516113
-0.70988284764664722 -0.64713428905449044 -0.51327298479102235
0.30187068161875386 -0.28276186231119804 0.73148576201033388
-0.36946694548285552 -0.063647350900048805 0.65123278264690598
-0.52749172507401521 -0.48699515663216209 -0.258151876536867
0.38728905537413361 -0.31261144805259566 0.69454469202148483
-0.3921666381216502 -0.037458095454426465 0.63563763370663295
-0.77694502167621704 -0.7508837663570801 -0.44209028765971981
0.36214379064011748 -0.26389187064615305 0.71492256402506649
-0.4713692301434077 -0.47649661629876017 0.08122524597595876
0.087819004559269165 0.5834570677439328 0.30615431376782543
-0.097254250986423041 0.41904887173204325 0.39468229383890024
0.32742075362597722 0.98831760478745745 -0.36813022671789214
0.24043904047096373 -0.016886402691029589 0.56271968572093189
-0.18228516640407993 0.073410778849693825 0.7398681821551083
0.14229951011245212 0.3012211484565489 0.56981052144288258
0.039816161312531684 0.30687359799803604 0.67807629466871711
0.2671110869163093 0.85300078084953734 -0.29379544815954617
0.021182522438494666 0.37036685647234735 0.63302741184101863
-0.45900279165788271 -0.48191499527201676 0.10077493727052356
0.16030849571573691 -0.32644492939815906 0.53587178601902585
-0.15059309711664148 -0.077904905743185093 0.7151101900709611
0.40109274289838664 -0.26064896496971446 0.66396330405065784
-0.10292904379426404 -0.15342938712616994 0.56747518942976127
-0.30092077975221987 -0.1081810582869851 0.65735164868119256
-0.70174086700339255 -0.745258447226261 -0.16285669665640601
-0.089644494542057251 -0.14747940131721671 -0.04719037104763385
-0.68385670527337283 -0.64030872917433101 -0.35762698323301922
0.43229109833932272 -0.29151451254820859 0.65837640261663255
0.00062980169693344079 0.29370718631596582 0.66359739606242052
-0.11171482466786209 0.27395362687955127 -0.44788285632228519
0.13454300930251006 0.22463535582695682 0.60114221752362407
0.0079859226036569919 -0.098299700823760938 0.70501912932691535
-0.5542346250213851 -0.63570945589526084 0.014315879277115473
0.036051567991636058 -0.041932249443276781 0.75611762043429964
-0.26957086288831122 0.090416783111551879 0.69057181320505467
-0.37774957383281815 -0.047471021894968102 0.63989077034989972
0.1802359531738261 0.54330971493529523 -0.13897162423660347
-0.13394193001176635 -0.15212046609368279 0.6000963378727473
-0.51440895812185505 -0.33586629387136391 -0.065342341587302899
-0.5389904189614978 -0.41376325397474156 -0.15716257119779442
-0.19934401589350309 0.1180046445671824 0.70464695058000171
0.010229564847605177 0.20437846109279034 0.66121845511230415
0.18760967595159175 0.67661236339658148 -0.21096240702487357
0.1889179223829244 0.55637632190301112 0.45860813222562191
-0.34923140569280042 -0.11845311033102046 0.66284979555292178
-0.74105867149635229 -0.7826846537212826 -0.18019341584366949
-0.28331835908844216 0.14212494014363397 0.67888244986149182
0.098351174930701446 0.32760098137917604 0.63250877405964079
0.1162408922831033 -0.33456800986238489 0.65315390965764031
0.14495099235656167 0.0012381393221043702 0.68816579821901569
-0.32872193496369151 0.0076685176611364092 0.66617826596535989
0.07383262900024673 0.35812543839473898 0.61959144897620422
-0.58236572501701489 -0.65345441743162747 -0.11858968400550518
0.10187786268776666 0.33653845991186027 0.61616619170865206
-0.19879724530898957 -0.045334235264354206 0.73234422022516499
0.12805322419261167 0.24987487398529673 0.59216315366573546
-0.32464516948750943 0.026119446840942362 0.67706213089736189
-0.50322031734792416 -0.44588334496235882 0.021130396607081214
0.13089358010646268 0.16674703251786616 0.60736878131349314
0.12700370071301698 0.40190856589576751 0.54346226865895242
-0.57388070818133163 -0.44828748561196619 -0.20633114098194405
0.14089429629007022 0.33232178285480307 0.55059340343242424
0.13515804384284835 0.42444811758067724 -0.13816970852884358
0.088254023853926888 0.54403055634121245 0.47076518654343469
0.045234945451011144 -0.27095506843362149 0.64070284378816911
-0.38773916991317903 -0.03513873301542203 -0.40763696816921791
-0.8415771253586809 -0.82823823645816608 -0.4977610615245025
0.34285165388212707 1.0100567497046524 -0.35765431032964518
0.14882579730670642 -0.0081194564143151071 0.71712548658399777
-0.30727213831143074 -0.12228802382286763 0.63892566841561027
0.091339604202292091 -0.042350048141735819 0.7488681775551379
-0.77064301183603146 -0.80032861576728487 -0.22842609255850199
0.41033542331372014 -0.32928750754372493 0.53258134410000768
-0.31746010412664927 -0.065886785652894297 0.67642133342166177
0.27303194295816341 -0.13227212954286471 0.68617517960539398
-0.32021736514382737 -0.06864318510182299 0.67919677466437345
-0.20690532896693392 0.095063895255533826 0.73183457291026732
-0.32636840519763499 -0.075122826373849594 0.6825371027308329
0.14036614563363758 0.12130949244684097 0.45987430871224777
0.03932026295510932 0.52289570406776908 0.48286213203094441
0.21253491339941644 0.55115907491719818 0.40405919143277036
0.21301655639504755 0.52315462603786256 0.31808607545857537
-0.11154262654154407 0.26586823307311247 0.60670772168826514
-0.25640134828411854 -0.19278400694866249 0.62412198321622769
-0.18237565045645532 -0.095691983876421194 0.70710259520009144
-0.35370785007781191 -0.062324239918020718 0.66486945546445053
0.15436759160607749 0.37059279214473206 0.53710698785942124
-0.76259131136696912 -0.72272555431685859 -0.44693327150110718
0.079790505799873679 0.22099616216851237 0.66947415012870559
0.20528038661868875 -0.28379583694687949 0.72769108320154752
0.15927197456113568 0.59081833054611188 -0.16889527979756219
-0.21751313644803483 0.14041649210233775 0.63150625190640675
0.32526843371511227 0.99301143917099599 -0.35185841923519479
0.36212080912952388 0.82077734852112871 -0.3190142698867377
-0.015620393320954495 -0.11954562200020769 0.67145397775828464
-0.027541731391884816 0.34965053981124128 0.65349678678343137
-0.2938425110620877 0.12548697217036064 0.67581054662064499
-0.31068592013982566 0.06868066854064625 0.67018277338417609
-0.55468507190279492 -0.52249140035735775 -0.14691580399553306
0.29171385230616731 0.6116251681248559 -0.25543820867558703
-0.36933748998277105 -0.30394026543802632 -0.38362353148787609
-0.47767176681769608 -0.20443939173459647 0.47592897911113874
-0.62007593565051178 -0.50865826825809224 -0.28935989228343639
-0.69817028900207201 -0.64522793945522638 -0.41913768761768799
-0.12463707141030028 0.24074168320136646 0.65656327615981414
0.066753930546196716 0.20689368611278847 0.65910516580479239
-0.37995067692395978 -0.39746041038158575 -0.28712055691545285
0.16986882308409976 0.58007151346453723 -0.21491794674870524
0.54016278261875972 -0.26240456928811984 0.61089132597165297
0.041862521843173517 0.51276570084506912 0.57602119592955248
-0.40405435232682829 -0.42124518015416001 -0.26735719193202023
0.47149243527435064 -0.26246907025706256 0.67477067923771084
-0.035925156216350063 0.49167301536091351 0.52323807590819005
0.0069862161405331302 0.35334714793566158 0.62332132915644378
-0.13133297203963845 0.10821333882410389 0.71001264840582312
0.13673149363620818 0.033608645757076561 0.60646609431527165
-0.32497954772643267 0.047456488043370548 0.66413295910174397
0.4098097875256605 -0.24471423174865958 0.67106378086924823
0.1559386543236998 -0.020482388421047992 0.70689696396786705
-0.24132312799207445 0.23051810711373832 -0.58315246298846346
-0.19339055346591411 0.080705652586205767 0.75428537358140568
-0.53050235217132935 -0.41909642171182648 -0.082894596704647272
-0.56739103230417043 -0.52765862405021524 -0.26055523710464734
-0.52870174226022559 -0.56631048380538407 0.05034088642240353
0.32797057880753028 0.91334740057432673 -0.34481918682194967
0.1538915164061519 0.60467061356324003 -0.16243681017413192
-0.13726290890073195 -0.011878972672126786 0.68370371034324895
-0.027906981327160907 0.39014773634089472 0.65682564752917427
-0.46853823561500862 -0.21783665262892804 0.30561819738978885
0.077800560036384636 0.39485598331531091 0.586336293226973
0.21240009208858091 -0.14453719977759327 0.45673466935021578
-0.39263886723350427 -0.017325194584084325 0.64198527360109159
0.085913277273797328 -0.33032752343570637 0.57786726540110256
0.23351927471584374 0.91945009022591973 -0.23414305210839409
0.15926609211067208 0.60602558027209719 -0.18299086353377425
-0.46285702263305528 -0.52883299683823959 0.079259656667522826
0.33178899173910431 0.79432288191345268 -0.33809262600510148
0.16364716481519004 0.27584192774121219 0.55622713982934502
0.19889289251953132 0.79693144236136926 -0.17633686638343049
-0.20872837284849416 0.2769474832658167 0.61296344037785977
-0.54193239907401214 -0.54038490635202774 -0.12552875458158796
-0.3811690663118984 0.047011774506771631 0.63907872275805322
0.021606937313357444 0.18864928151371607 0.66829612222700252
0.1387475145840103 0.0092714411297925015 0.69960132218273829
0.16929747296916448 0.66082092901760559 -0.24316819568131975
-0.083999809522864233 0.65442890148929211 -0.249906779090877
-0.005083849007277097 -0.13828952583046183 0.67115422629290411
0.22923209499195327 0.86291708347482554 -0.22093561638804921
0.26066180963756458 -0.40382407219124761 0.6971738565196639
-0.087350722687162263 -0.112189337527552 0.65671252079740861
-0.47570607399066378 -0.47826280129212473 0.06759755444698734
0.53302806337943665 -0.24935509550950075 0.61011662458177496
-0.1552959329592854 0.10204318191581074 0.71780375137370855
-0.4500840444987938 -0.44925125957145706 0.15807574385519002
-0.42198067638165893 -0.24511770525463639 0.50734429049695784
0.44179567616833915 -0.26419472894414042 0.65646077387825486
0.23859141029263009 0.69166204811385468 -0.23606980946010275
0.0036812132425280142 0.41160256074047363 0.54493231198843395
-0.23047555290763388 0.0016064143499580075 0.76990947937393028
0.11823970965162633 0.21807961378470764 0.6160691973907475
-0.15399732998105126 0.218727811904188 0.71348081253988049
-0.59218687409735149 -0.45537915067608759 -0.28521415328738897
-0.38734192525971944 -0.44146500123663923 -0.14980715972706943
-0.25416094926508859 0.0037569306936343638 0.76287685137168859
-0.23040450865389062 0.085831752107971337 0.75365346783228615
-0.10041250814271641 0.29351026106562461 0.55802408770760881
-0.78548457473480493 -0.78686810168899435 -0.36426453338293641
-0.1148997414734661 0.22158398517639288 0.70810194813931937
-0.3496827659902535 -0.06345147857852862 0.61646929930293048
0.16087655583779614 -0.37377480466859969 0.65817944004258699
-0.6384346833710145 -0.64918616967624909 -0.19939225943782057
-0.15813412343624711 -0.26752889430845861 -0.045728040646965007
0.17328606043634281 0.81140886557115355 -0.25711865577390902
0.18354097633707459 0.62564181575403655 0.13312828427112733
0.20740746902476256 0.81940908153436964 -0.18603869613184842
0.15672162414606289 -0.034433381123690876 0.69301055854671723
0.12939751406361361 0.049369526073966052 0.53379008922040805
-0.33525169437821012 0.057967691818132439 0.6617217277289964
0.40952495197899619 -0.26371982133769811 0.49048734443763065
0.1409923506322692 0.36666241071718586 -0.0069247327196959585
0.16355341515656366 0.29414016815135091 0.50289137997301303
0.31022407942429053 -0.19528089143086591 0.47135700387716362
0.15759682617286971 0.61422249020241149 0.25214551693763637
-0.51709785015639709 -0.46130417096593868 -0.04630502648916468
-0.28757130893654692 0.072740333333881968 0.69153836448039929
-0.25615865730473308 0.27046356699327673 0.66143343824944956
0.47457928673334315 -0.35621299121575034 0.66242711397422926
-0.18602426000910305 0.072759607921994207 0.75237247690079634
-0.23513492637445532 0.12833108611257993 0.69990688684038704
-0.78236550007277739 -0.7806692167549355 -0.40201190112560281
-0.21874253567863799 -0.0066081093485582665 0.76854426700842615
0.22242094529185846 0.60002511558815108 -0.18457105725532663
-0.75062318312072773 -0.78791037574079847 -0.29801022040679814
0.012081601022168931 0.1854350007963993 0.6715848134346496
0.034354843125757539 0.263220570361271 0.69112654736779322
0.10037022708547616 0.16886991960630371 0.55607122243792395
-0.760552368323961 -0.73092809394413738 -0.44613788156513867
0.29412792066086374 0.94640568809549508 -0.34435821187584015
0.22076464046347777 -0.093067555018286452 0.45575271275926899
0.39041560659913271 -0.31795485894681519 0.71929315269373684
-0.0076267669946000205 0.2951908724410921 0.65575055327982934
-0.52517765083281442 -0.45617142083913498 -0.067039310334231383
0.15828396814042089 0.41390546812766371 0.021717315260566805
0.039486803852063046 -0.1976378728289061 0.36891332449829256
-0.13662339704392951 0.23235114594719775 0.5892022035477098
-0.25338653322390658 0.21206732950726104 0.52439138276085895
0.044417239752374771 0.24764658002210438 0.69102845164214255
0.05865456003570868 -0.21350467477609247 0.43459975842666132
0.055441732486418593 -0.0096363851308257642 0.70285426976804888
0.4235135544543851 -0.33166500576501123 0.7072599562569053
0.36495337865972538 -0.39706584147228696 0.69095789286282872
-0.61987542178463095 -0.66638677638862565 -0.20979415906398791
0.3181770073707344 -0.14585429741557709 0.67632384320758709
-0.62414068366205233 -0.62140109153535905 -0.20295720474681023
0.21182666679200859 0.54775902708032309 -0.13220195882086316
-0.017414177337640668 0.19264380435396899 0.67542722477470551
0.16868329725605058 0.68784331626156114 -0.13972242551804853
0.00029244536040884395 -0.033603808719535833 0.72697623006062639
0.11206662764335446 0.94029347521925288 -0.26512863061359632
0.24919471469557142 0.74500065802131155 -0.25924754525933769
0.17194453715262609 -0.22908221993504618 0.72728171931878649
0.15453533706673783 0.3862720376492339 0.040129147036809976
-0.25353408813297873 0.10491669176593721 0.67728136366558322
0.21836760532434113 0.65797774419460464 -0.2154697252611722
-0.012187408421447166 0.0061252299531259213 0.71457054691127719
-0.040431170327662913 0.12325100697789537 0.68361004222375266
0.37036101355296885 -0.29788840182046517 0.67754949358470717
-0.014868849058230826 0.3260858516766299 0.65618378510921582
-0.14547018558467795 -0.10728458568004406 0.69202598558446859
-0.21935815383810675 -0.3172149863515612 -0.11114031494794085
0.0049838929249425568 0.21014543525393559 0.66168862827578823
0.066476645216985708 0.53341117604108645 0.5120652505537765
0.37274542282396383 0.89875821752376917 -0.36322823675991789
-0.01407119058546058 -0.21665116836360254 0.26924549077373133
-0.25126834494777051 0.093018981540447743 0.70761213950858592
0.059404460268677572 -0.031064416486754176 0.75142021055175123
-0.7334088463186238 -0.71788719930432743 -0.35730470237121759
-0.514356811894913 -0.54980675904042797 0.049995384946554644
0.18171450772134032 0.46539375247093395 -0.14814111632603483
-0.33286149469705906 -0.23729625192186876 0.53488691409503586
-0.23541262327254142 -0.20183849371873663 0.56927431932515071
0.034125377726923367 0.17182107022741433 0.66496245839654133
-0.31657538865466972 -0.31266649584939754 0.37565111672793139
-0.50390276416609814 -0.32298052771272068 0.12086284695242111
-0.31605413971811458 0.024749012848023444 0.67128950833635626
-0.25584776197067427 0.10719843330998591 0.69324934796961157
-0.11217764749474723 -0.10794215053257283 0.67800693039315996
0.12373517917741156 0.93743336005059197 -0.25607245451607624
-0.3592148260938034 -0.093739919806169913 0.66101637600336827
-0.32781722238254418 0.15389058262227368 0.6364335550541349
0.091705343960349683 0.017712582717075653 0.71425940901480067
-0.5478951835940854 -0.58908825284454891 -0.051653772782681406
-0.80812417387328905 -0.8070556606628535 -0.31832878598233361
0.40230055376442186 -0.25049948853228154 0.67536600788715062
0.060463246078777011 0.30961838632491634 0.66861533435612586
-0.23010813382976458 -0.090123184872859752 0.70912238733449695
-0.0025169312595713644 0.37169607994039522 0.63675369706640017
-0.55151012279812928 -0.42693508877376574 -0.24173164622194521
0.17341108384140302 -0.02389439743832189 0.45696469250880373
-0.45193071416877162 -0.35271982158668735 0.29024614414800531
-0.14236094308084835 0.010418263727778987 0.72908028356889409
0.1643110259818269 -0.054850780648375119 0.68781595906818871
0.22276997177052679 0.576690400742777 -0.16318888158702938
-0.6979842854570637 -0.59391447253978102 -0.42438058540439094
-0.015722116349699111 0.25057287438738807 0.66273712808645679
-0.56802904576664937 -0.61301424055870113 -0.079592782267836393
0.46417076415592212 -0.30657044434062597 0.68338857444375922
-0.65262467145093606 -0.52327232159607406 -0.42393581059143315
-0.056445631359522297 0.35534016342993668 0.68405411923077231
0.13962001999590481 0.73252378562574672 -0.26858593108518297
-0.55975887655540169 -0.55785033381525573 -0.14407999728268062
-0.34805116251749679 0.074347188696164301 0.66525539989437954
0.064383560345325219 0.43721710636348371 0.59194003993437039
-0.42382900972884885 -0.13510884578364535 -0.41858952599164434
0.47631695805057644 -0.33221987747652326 0.54823607973421717
-0.13160845627710627 0.081152908593467687 0.71430013789074043
-0.074122284456633325 0.48232803068722285 -0.51108623999816083
0.1223084278549838 -0.12328463453260696 0.71725476067374727
-0.11245549712991509 -0.14473110989722404 0.58282781984301735
0.10957221165217293 0.91440045176468443 -0.16156755996603728
-0.54062153761971266 -0.57738991957987695 0.030267621272684064
-0.10268896376120651 -0.22182047861105991 0.47054472005630921
-0.032399019225957226 0.19429325672835507 0.67859217613400191
-0.050032471807305856 -0.16440918249860004 0.59150856879163727
0.20050334005681461 0.54792854023388671 -0.15166012228427794
-0.27403605997879554 -0.018137389238503165 0.74459399681027238
0.13100124200778451 -0.028091867167601481 0.7313380870421714
-0.030442499097619591 0.25367319250935805 0.67439592545315563
-0.0047530632423031238 0.22404981835646376 0.66266098582384358
0.26934316100330097 0.71471392661551014 -0.27062702092552132
0.16357647659588301 0.42676367610950194 0.51003350575163253
0.073825917267329566 0.187256480935582 0.6497547824211245
0.12349804451451735 0.6653468056153109 0.19821028734587326
0.28780236489980171 0.66317643615494781 -0.22931731914499698
-0.38514094726762216 0.0011857788898358423 -0.063617293537613917
0.038594831127450935 0.60067134724449001 0.27968661666705258
-0.34043594921466147 -0.03913861248386008 0.65511120012683977
0.38691601287175309 0.97815902396136734 -0.36003517451827666
0.18579622694988512 -0.28496976706318722 0.49963469162984114
0.13111383129170201 0.24800002641475427 0.59431276652007603
0.027814792193645688 0.32449889650858577 0.66949758514219893
0.1531819195697145 -0.16533755794781391 0.72312420996112403
0.20070128631237916 -0.40451853948587146 0.66225555325488461
-0.6023478110881163 -0.69095300816407712 -0.058404625864054649
0.180095843413904 0.17645033455129899 0.47288351959429492
-0.033933120636713943 0.43329434949119677 0.50652927174753981
-0.062512031659316236 0.42464067824689899 -0.45174138113365814
-0.65562920266556635 -0.70563586830153335 -0.12659966398597566
-0.17863928038695731 -0.013463849260646699 0.73068076975184537
-0.52119598525116684 -0.40756392995050061 -0.0098212618109391192
-0.26589325700730571 0.23713528880859619 0.53647778388200185
-0.27708584875067688 0.20890592942132286 0.52447398277370949
0.18572879044836255 0.54038670469491867 0.47615729377923144
-0.17821763962409282 0.042650729289192446 0.76024333819954992
0.0043021443302888041 0.14138358307788845 0.67134671415255209
-0.27470540245548991 0.10459884119887375 0.68666900465932956
0.23811375739049656 0.58570052592202537 -0.16136986036425727
-0.13150466667386118 -0.11472107329069492 -0.18183130718631718
0.023075185634974793 -0.037843071496306502 0.74851676416465196
0.24965757577913777 0.96578787567872793 -0.31305049041673844
0.13930269701481474 -0.021999996218404316 0.72645563217340592
-0.68130504425527938 -0.62550294319271027 -0.39518509631486776
0.081084211807679274 0.24260445927861862 0.67624284043520311
-0.21077847166929198 -0.065823123613155565 0.72329075559002165
0.0026077786676398929 -0.11852033200363987 0.68837656093521793
0.0888239110699795 0.2293371368884668 0.67032599581376373
0.021271951821434265 0.59033656518678213 -0.39614281141049268
0.1912745381018352 0.77505942022718877 -0.16815769369523026
-0.31644954545255677 -0.16828510202775415 0.65440330898248333
0.14813918763088241 0.0015387517092493308 0.70608951964168287
0.32041514896854739 0.75479554398789084 -0.31866140638314311
-0.044623444024308345 0.29267665396812292 0.67210098294847742
0.15098952973850138 0.11255848426170534 0.50569952027838661
0.15570738696198358 0.5861216139643044 0.3620727339472003
0.4152140563862658 -0.19644984440746116 0.4840117716785014
-0.10956436504778422 -0.18374438602939602 0.53118225667384311
-0.014155642183664385 0.52297214437779582 0.56424954978082398
-0.4875771711424286 -0.54841703366964656 0.090109190756230251
0.076787709043567409 -0.011929616605807269 0.72781522257742304
-0.72068499141752373 -0.63293068371078454 -0.43665410537850369
-0.36265926787695268 -0.058498555496080851 0.65702914590025685
-0.74096527286088343 -0.66291711215164195 -0.4425961982701182
0.45258035672897412 -0.28727284200152026 0.66382054478446961
0.098094182370756622 0.0028637951944123774 0.72877643692569283
0.14067359742424451 0.42499184718606697 0.5295012528349301
-0.70766575504943741 -0.68060299695674109 -0.34307985289193932
-0.37802029075937837 -0.093661777813567548 0.64712887785777595
-0.084194876016618625 0.65957458762988108 -0.4150073648433138
0.33486558838181335 -0.35266383257524925 0.72351873899097963
0.010719738990394523 0.068190461036988337 0.68697327253156859
-0.46566090745523803 -0.47368766550693986 0.098614702872649007
0.077702467688218479 -0.13994927700574888 0.35114546001387431
0.022998055004764595 -0.099845703651976647 0.17688473696273077
-0.20249297825147788 0.15984464157601896 0.70225412665670151
-0.56893400532524296 -0.60932562135466761 -0.093880277551417313
0.099889898561768664 0.011000825535313563 0.72285322608393821
0.31979856329823947 0.66641551139343502 -0.23461170022717215
-0.27886035407648557 0.059983580236014022 0.72030147468158456
0.30307502701622863 -0.4101431762177189 0.60481723172503954
-0.41452505179058829 -0.098321111551102902 -0.39214466905680467
0.1976702829738354 0.5176805603751653 -0.1017251283024645
0.017447058941722049 -0.031377067464115727 0.72901065576682011
-0.15643438589888603 0.20824899587301349 0.72178916819644234
-0.76564495209164085 -0.79446954035298389 -0.32704780036468473
-0.065802941470342824 -0.01906614024276998 0.7324054834920023
0.35217296706695944 0.82839484850068201 -0.35592334043180218
0.25791414539886465 -0.25054599560832447 0.73022266930133672
0.031389500960835981 0.19043972965313449 0.65497144039294486
-0.40485999769157277 -0.056224399484060661 -0.30412615935068454
-0.27757578325463306 0.08164097013768612 0.6900965847906424
-0.45920943027390249 -0.20301496574805178 -0.34611665477654108
0.19879906863032532 -0.31498104012377171 0.51822804295030844
0.098834095447345338 0.23358844504863785 0.66030177434705828
-0.17945202227310775 0.14450538478911146 0.6252136663438197
-0.01813562331630203 0.50275433111173196 0.51320610388278287
-0.28831955278944232 -0.19039665698873287 0.63501019076007981
-0.2330583499165062 0.1559404282286101 0.6913433687357976
-0.82272441413578579 -0.84663280410503305 -0.31598523735390449
0.050102821797812891 0.90138888749530388 -0.32726456159530737
0.12624715637604195 0.2456806402475864 0.6085147113825895
0.037262403735114136 0.18385099721490594 0.66607667688271088
0.11530717650976646 -0.25491832752014498 0.48868859953748267
-0.25012300112396624 0.066763926658125805 0.75394262984277149
-0.52927593086432489 -0.52524427201466806 -0.094733502375940026
-0.16840656361487921 0.2250772827339883 0.71341118409369497
