# XYZ point cloud file
0.36299575618775393 -0.014833664691330739 0.7035190103111475
-0.79386026108938168 -0.95936445046292995 -0.47172017901225516
0.65704391425887465 -0.084069192762858513 0.41005319906553339
0.36330649380415636 0.64167318507248794 -0.16336081963848059
-0.72384170745017684 -0.27455687305898735 0.38367112249668978
-0.07887684208380108 -0.20914329226282113 -0.63057331924215987
-0.724244834901274 -0.53361313762423634 -0.3155406494640296
-0.21865149038405818 0.75131191522301677 0.33673056810996371
0.25776882257275702 1.1001245865194793 -0.41037249450224067
-0.64157678390038697 -0.054637060961582051 0.55256883431259141
-0.61304047495079317 -0.9786277416135114 -0.36816397076648855
0.33623048159239133 1.1732715021590057 -0.46495377713302588
-0.68135597448482343 -0.12380726819920973 0.53315244321121469
0.44566072292411185 1.1896562168115548 -0.43761528987328902
-0.12781971463411779 -0.032212352077590545 0.74492083429386469
-0.58914874900909098 -0.23340899252246228 0.71136231973747499
-0.18245639540530689 0.33572303299720296 0.76823346785858249
0.050071510218092641 0.87325279554496582 0.58572519731613681
0.44742296320497132 -0.097018270296453046 0.23175109109649483
0.53626286910811771 -0.50321534019002545 0.7133359493091298
-0.43233057210689907 0.59151672351203999 0.68902423363485354
0.62174254564475362 -0.39921700429481177 0.73417567349864399
0.10573134842298515 -0.12786231668606707 0.80344324583306559
0.24402728008118402 0.009135744576735938 0.74481466146947994
-0.43713676123538292 -0.083252696887353039 0.80408857791058708
-0.47606591314445623 -0.5301708492045627 -0.4369497397630191
-0.61621340331245733 -0.65971998550765498 -0.3189591559283862
-0.23211627972292703 0.47272576533650579 0.76123235082727447
0.12614786484338936 -0.17740142981915064 0.80663440524419272
-0.2028715897583524 -0.39388554190762193 0.64898281794121715
-0.3857872146792829 0.85815259366010288 -0.34624675841041253
0.46512639480623719 0.83487909666431648 -0.33713500315725398
-0.62059382550767239 -0.85778978627741331 -0.46712569355678113
0.37090163707603097 0.31237754018970065 -0.18404027883224927
0.71956231382318947 -0.51062555995366088 0.6897165634820972
0.14178370508323113 1.1239741486024002 -0.30430691838379786
0.12440594948288819 0.72970448584234759 -0.4673656057626161
0.19644754329973324 0.029579835319083259 0.7500041243016291
-0.16678043895803896 0.60644456942128588 0.74122505405642514
0.2118567062026866 1.2401802979207019 -0.39777619972689138
0.49745779993727268 -0.63741734400315408 0.44368100078635209
0.21752815491056765 0.25896757232024736 0.67911140478185317
-0.51206259300393242 0.10724785102380352 0.81059660051983684
-0.51575867475076365 -0.3282923291678248 -0.55406796405904757
0.40727999703616646 0.68005214960630589 -0.19799044953961342
-0.28244002626070142 -0.16970701067820659 0.79973876825787826
0.26876141531530706 0.77127020506837773 -0.25497220564696477
0.17257349287331891 -0.048872907936218013 0.80670156712779217
0.037360240954981805 0.42531650273437638 0.79140063306024899
0.64250302124131409 -0.46374001817736721 0.71272382102201348
-0.40837763971306629 0.025615195894002518 0.77504194015668304
-0.033197941302159251 0.94085923464765919 -0.28282345203893655
0.3564233406242252 -0.36983039894705527 0.31867770824345953
0.23195142012470527 0.92597177071849934 -0.30199009318746306
-0.40257454774026158 0.3551426412468377 0.69540838206379973
0.062229509577420572 0.36834527666399008 0.77371419465939084
0.14466406477009741 0.46771099666594118 0.67686365204811949
-0.6685771748553222 -0.97499420877025855 -0.39479817441338128
-0.44433987926652918 0.24543126350254774 0.59186846174145202
-0.74995557975962512 -0.24180742808841593 0.62090079072016024
0.3093576175502335 0.41992056558351365 0.55843478967314297
0.30227752657627249 0.25429029080347476 0.50956534704718948
-0.71795682292366081 -0.47680744000670394 0.44298400329924448
0.16454777739112814 -0.082057543554814316 0.80669228209225352
0.20942136444361381 0.98378982927290437 -0.29890040990899536
0.28540196325571188 0.10346130028468004 0.51094007231565541
0.11216605778167121 0.82285508478434721 0.2636486221566301
-0.21245812470162306 0.43512300118790481 0.76869862553670032
0.41197214970601337 0.69694545227978466 -0.21914541486187744
0.14676203691034573 -0.07896614683463099 0.75990389354796051
0.90827618544382105 -0.25043579187504994 0.43889337308371523
-0.91595889461940061 -0.79598407001177485 -0.42726130585504052
-0.53645674540877764 -0.25225399249913849 0.70135759638016637
0.21320155647559602 1.0851992988408856 -0.44091307459055074
-0.22473962910116896 -0.59431250197645014 -0.24215923600218048
-0.95459269137555225 -0.65516642755462051 -0.40561735587657921
0.011721145268047906 0.62751455961002733 0.68022585237752153
-0.063624392234771676 0.87438347060505173 0.22350588626003542
-0.63027936446088262 -0.60180078057192432 -0.22550232451729002
0.52008338208442595 -0.13695835465455009 0.72294073047695662
-0.2121692368605288 -0.32008784552982661 -0.58457900414007469
-0.30536797993614684 -0.22246814131085202 0.79939236381013146
0.4082428713775208 0.79948141009338691 -0.31383520898409145
-0.27316389851575096 0.5630462729656811 0.78003657692415729
-0.64000405339222866 -0.75761297447158604 -0.35875621650107448
0.2582459137047195 -0.10862932619307486 0.7912668691181608
-0.3660445761115767 0.62830073786813401 0.64980688886162241
0.50518539904102866 0.88493574977371559 -0.35790856947737737
-0.72672852334629567 -0.39695484356625776 0.39297654996175524
-0.11396971181091686 0.45055223840621839 0.80458752093155184
0.66029236653185919 -0.68216239198636686 0.49940501869439302
-0.47426192250554422 0.16193096232721338 0.68736334915343278
0.57195686882019459 -0.37407624816972085 0.73684164929166585
0.64952330951484427 -0.2571395622711421 0.72895334752934104
-0.26487721248111029 -0.26726555017337006 0.7312723206440026
-0.7629303008970858 -0.42348328054160511 0.56560826219273963
0.12848759486056949 0.48761910802498498 0.69194677917119662
0.0038895214491425634 0.52121009813033492 0.76465912216861298
0.13585152566923497 0.40534239170324504 0.71345458020310915
-0.22993288690072688 0.31688153730428681 0.70144077858649823
-0.15946435929256353 0.71913698590888675 0.42180067429456969
0.12552159706023502 0.60194507637501893 0.56599263254313925
-0.45709070032726729 0.48249849416919766 0.70148316164413416
-0.35664045915975251 -0.63651027953883421 0.0089551521665249822
0.13825953965219284 -0.10554225164775577 0.80788131381365247
-0.96201006420920976 -0.77561810851778823 -0.40579714933785027
0.6562580870033301 -0.46300514887380206 0.66094770605614528
0.51129248436982522 0.68070780398752184 -0.2803166266409356
0.28555325633475093 1.2365666874315995 -0.40449204902866853
0.41512506115427428 -0.23875756099241396 0.25031904914048653
0.37396294151617226 1.0448109733682216 -0.40897442365723435
-0.60502266347159406 0.36054908518197237 0.43582992469725568
0.55338046514189188 -0.26851499119206146 0.73579296022217733
-0.47962823831027634 -0.57875707375790153 0.48546478822316885
0.36073297703494589 -0.21356855490148163 0.74173503394159468
-0.3306890490069101 0.75690643800183821 -0.50897386643707421
-0.27947481988646317 -0.28907981643319491 0.72438225744484441
-0.64585714179726139 -0.93575282196193932 -0.43486946190150633
0.93011827001810587 -0.18810900367327932 0.49613640073761545
0.32568087918588873 1.2659505560216715 -0.42973131148637478
0.53434483407523814 1.0584834785333523 -0.51478982287475894
0.65185270547734575 -0.67516405038679528 0.47217432493837919
-0.17801348519721927 0.33895496335165198 0.76327276073346795
-0.65410563793640009 -0.60109280654751451 -0.2277331582408344
-0.94759718027688677 -0.70126774914485956 -0.3670474057097266
0.41266298848081462 1.2430938420163926 -0.53568989728188576
0.48722114717906351 -0.39813913062771622 0.34893351587547983
-0.65277018786417429 0.091528319207140107 0.80651483005929592
-0.18602310558477342 0.51628422846345856 0.7549121905713001
-0.086936542608199829 0.27098314654383859 0.74801496605580908
0.4161251940781483 0.94273254941593976 -0.39158504398841032
0.25803842015307055 0.82586598160381364 -0.28247775874034886
-0.57299023515144043 -0.63571308157456308 -0.28620279757376466
0.29358961875637846 -0.042497391823710373 0.74768211163160458
-0.49561718379356279 -0.65926028884617338 -0.31673823802780987
0.62559396463836592 -0.41952887811941375 0.70956025321880034
-0.47175991653911353 -0.10492266636716074 0.79176659923363957
-0.4119924110852935 -0.36088539430421118 0.67453875262630447
-0.68156013405915772 -0.96100481350437583 -0.44900719652285659
-0.365366700379397 0.27576414533184668 0.77058925874468187
0.59943956687724409 -0.43775959050526936 0.73254799028211082
0.7477939155693285 -0.59543310147831763 0.57140360593376016
0.32127006328718721 0.52776139814597478 -0.34911824018473325
-0.30549374308414201 0.21441539076440108 0.80484732980726648
-0.58190060480421124 0.095193684555096247 0.808419387158132
-0.30194888116945506 -0.25331336555118877 0.76771297143084993
0.83456632242508277 -0.17378873455151478 0.41435066542139154
-0.58048879383705199 -0.3161515328516975 0.68309463434311724
0.25392928145112492 1.0745301659402227 -0.39848335396347423
0.61510267880828806 -0.6830039356136397 0.60655665604427966
0.27012522368816505 0.80539849254825313 -0.29261638225442255
0.17876609826571865 -0.19656504086631621 0.78645739920635904
0.67129869738595715 -0.53212583067968566 0.69852036456006772
0.04439806844398575 0.31896353736765803 0.76312392683913544
0.12196533630943307 -0.18441065478112506 0.80052535509118528
0.88728490710109398 -0.16217051108922664 0.46370781172227282
0.039746203698644678 -0.29094002205891734 0.57996451861070497
0.73626819356019979 -0.40049808128659281 0.39070830396774525
-0.38611767556263743 0.4678860197387138 0.81917606442663526
0.14720926882383623 0.80172341058138574 0.5668060741903993
0.33977672235605993 0.90335143548742458 -0.34393257619644402
-0.29340882485161046 -0.054633722791504802 0.75763667855211381
0.37047956256829551 0.521502490521776 -0.27597671873310858
-0.37707974911245401 -0.53117107027419941 0.56143303361946906
-0.37686861592739618 -0.77427974092145035 -0.18586868795522093
-0.38478529182555476 0.20884814191278522 0.63543516762088359
0.48147863287426063 0.8137243916800081 -0.28861673861711523
-0.2391418503697551 0.70754747787504524 0.66112426141323866
0.10331065805223005 -0.18156792322387361 0.77313167624380341
-0.34089317018064591 0.12767050859301854 0.80140706196096545
-0.37335537162963206 -0.2360058044290394 0.79784019807291529
-0.19085834863337325 -0.18423315497884474 0.74368336894298182
0.047092350606746436 -0.36302709683935674 -0.41428017491505287
-0.099545676798886262 0.96963213084491429 -0.10571804817208985
-0.75629492287351141 -0.64302775003848467 -0.2832642163015251
0.78235867059335362 -0.26788809479435693 0.69727400960452002
0.87130031303648892 -0.38130614021326936 0.62354890221976689
-0.64929770429086631 -0.54579351688046351 -0.38105873615530328
-0.74577454031536661 -0.83581307203748345 -0.49449452111639047
-0.60867303269323259 0.71285146440312275 -0.29406100569734761
0.15948318131805905 0.82607951449299044 0.49147385418324419
-0.37611763142255228 0.39548149219415141 0.64183103850229983
0.5118276980213281 0.92345436418191085 -0.38777307342636647
-0.47673958989507526 -0.57699091546758741 0.39742053468048866
-0.084254573943404409 0.49322224040645146 0.7925383940579529
-0.79320309853317283 -1.0227863631521732 -0.42467953184467078
-0.43746398330352321 -0.42479550701103452 0.65225236914971063
-0.33042469543888942 0.31393163577529748 0.81487688571070294
-0.20803858541828646 -0.13621780352376156 0.73261490119019257
0.20734612609031089 0.7660474012973939 0.2518915533521664
0.79134376334879164 -0.30822390026177304 0.70087864620687412
0.17400900860655177 1.1430435307668851 -0.31664056594800272
-0.10099433759591392 0.67565172795237505 0.72303737563784409
0.85366172889578706 -0.41277706356476784 0.62744886286375845
0.7344060075637735 -0.31647658002172996 0.66359111933460824
0.099253295392891516 0.83657114038837488 0.21638524942149573
0.1041896825835309 -0.41470907573965121 -0.1513485777426844
-0.28300859485845109 -0.7208568000849791 -0.19392464218861605
-0.27908037829607935 0.33299116543741025 0.79270377945166715
-0.21159569908416032 0.48552846784459458 0.75895104855247197
-0.24121881877742268 0.95756431955961041 -0.10972817492467968
-0.59958967702140953 -0.40226389866973022 0.65117927192678593
-0.67491896660069273 -0.28270367993165468 0.71237841840111216
0.062911967025634397 0.49458239575579199 0.74202489435965191
-0.81405581138903926 -0.74009468844884729 -0.41282941946501239
-0.44183697313036419 -0.26399577058109003 0.76983650184251218
-0.22806563262671276 0.36216818208063462 0.71869549615162853
-0.72318695051236759 -1.0016542960075494 -0.40397333070758634
-0.04096416671594838 0.46154003242349173 0.80061590948660566
0.81709451103847641 -0.11750925718002314 0.46517673045330454
-0.47944620554650541 -0.37952086129667784 0.67550258472143909
0.6490932647399994 -0.026998034923145564 0.5908599082341297
-0.72642049554931631 -0.33642858342516213 0.4520362950487069
0.21232595796595888 -0.07847739476781701 0.81106753375444995
0.060544294362493645 0.3932142297988932 0.78668113537617046
-0.06713709477147134 -0.47672786385774124 -0.21460753312021907
-0.35609318536820567 -0.63976759511216486 -0.081674661053405373
-0.3898400689152588 -0.014425390042373643 0.76795133458678677
-0.73436445821118568 -0.33778165872363175 0.66813769880860008
0.84193826500431612 -0.42055547873749211 0.46411543096161267
0.35789109536910146 0.42721396501125675 -0.24033171091014083
-0.69256379845421989 -0.70553145789167004 -0.35191582061952431
-0.2608648495788124 0.44272149588901488 0.66952711644655238
-0.61498565253326021 -0.23512164919578815 0.70665596840300893
0.54559489721369658 0.011677649453386785 0.59346348969856777
0.18484912900048656 0.69917385077678862 0.58968377124035243
0.30078167481334539 1.1160673186870405 -0.43286304143874688
0.44205930741675914 0.044037216152791991 0.48705865618689259
0.61160934146950297 -0.44783146856201128 0.72935985179263696
0.52348759468634398 -0.22491260031694704 0.73571071468250437
-0.72784400137284422 -0.5293090584842588 -0.1575252932305844
-0.61926816614577618 -0.64507042484083854 -0.29769601241135035
-0.098595934271369146 -0.43551595545377975 0.37923815445523346
-0.90451988582749721 -0.12962145448920381 0.12809720821282511
-0.54486193378155789 -0.046969775102175149 0.75477661199446899
0.088807113227240109 0.55720269560641178 0.6704163891034689
0.64464164086558284 -0.61732123833708075 0.4294426495467647
-0.10122479749633229 0.86426710964586029 0.22845423928759701
-0.91536383597017235 -0.71824783257066827 -0.37260275411360766
0.29420414753269952 0.67272463293640072 -0.3744647749175769
0.29023510083413839 0.13386169543283089 0.4865984911006791
-0.50903800437023605 -0.31780357031561923 0.67268171057884274
-0.42686769857933271 -0.3984305000195274 0.67104919510687466
0.39881667720428737 0.72178391048611346 -0.27179792718502327
0.46237999531683371 -0.0089456419436411139 0.37356031431197323
0.27372672608447424 1.1247740274183524 -0.4290354572118531
0.085258227760267147 -0.16957552941919563 0.7532861867452354
0.29714162547800882 -0.15615868715731107 0.74391637520108134
0.77680522829542653 -0.36792681626764345 0.69747361277428155
-0.11231237485491974 -0.057144791178989074 0.74838085627921203
-0.34609410205566249 0.47787073513377898 0.53573139091431798
-0.88365627622888354 -0.89360732498398399 -0.45306160675169238
-0.29284697011685523 -0.45304442273316958 0.62639091360124866
-0.66207801309791137 -0.85557758193349187 -0.40179678591644929
0.020672933332583909 0.66792137733068824 0.6711884650194655
0.19195811108617633 -0.3630722468013321 0.63429522127669458
-0.2721190336196706 -0.17074373371507789 0.78413651305030285
0.67456257325288504 -0.65183757602074444 0.60685192072150329
-0.75520221139378663 -0.40914309666901438 -0.37450564879080517
-0.32883132751776145 0.24488940249726276 0.80118354964384508
-0.43784575458922959 -0.79386613019945074 -0.24820381836766003
0.26103514827459406 -0.29486149302497289 0.72432291731572462
-0.82867684713219347 -0.7660290468213713 -0.42664288923527494
0.21270549142962736 0.19228780980788329 -0.57605842520078454
0.70386432209605587 -0.51286230963058177 0.41351211816028055
0.075424338259878709 0.60409149851088806 0.61825433346807657
0.62115229195011423 -0.44470602985197516 0.70828437523229937
-0.19456220340669361 0.32699025014785033 0.77465772481147965
-0.46142434938394317 -0.25593505624215585 0.76426150507089119
0.066158900904262907 0.39125416352941222 0.78167182083051046
-0.37593146762643315 -0.362146021877642 0.67852382555509294
-0.74335820156075627 -0.45217480156354739 0.49163674518250389
0.16556358465368604 0.79471596507881159 0.27824599896120006
-0.083189092421598332 -0.35548036938065941 -0.51846876111889273
-0.2160769092037178 0.52264142316085049 0.67580043157424896
0.40646858417436249 -0.23380087968978192 0.22227203949697483
-0.79635217490233501 -0.47613633114456277 -0.01248566534038531
-0.3358413033954335 0.027194934867530662 0.77272087582049309
0.46963737831524455 -0.55073906797001415 0.39532917921124522
0.0048267113530080508 0.93403430738315052 -0.19429808069427779
0.28600467541264507 0.46230937665678695 -0.3943676336482973
0.33638994164572189 1.1236218042025392 -0.44244569758265584
0.72541552722536551 -0.31512064609114177 0.66560796410698586
0.6794479292814124 -0.60908283615885428 0.64880141413632231
0.38927686869194034 0.53775633824202096 -0.097338296363716381
0.19857668787807725 -0.19391314569490437 0.77604120546616429
0.34643429275133286 0.2203662352683402 0.29890944799804231
-0.33612975210559526 0.83030661496056446 -0.42224136224368536
0.034213557849302134 0.40440385424616387 0.79630961293018743
-0.71066303078227833 0.62963515906327672 -0.111738425899091
0.088406545525600677 0.58592854620562207 0.67142116660698647
-0.54449420243381041 -0.29302194382731628 0.6803815090259171
-0.76364100843645488 0.34150059955990208 0.30150297840231488
0.03657548211734607 0.65343310811624988 0.67232327259333147
0.30140251914716387 0.10297298596325977 0.48671643227329042
0.22288836046322658 0.013259615454169094 0.75174327920713324
0.39124490559970937 1.1670111156674583 -0.47781451347320392
-0.82021247894016369 -0.67323865092885349 -0.33183472182334128
0.45773565919166259 -0.16271118304489463 0.27276501884246684
0.83894797329226023 -0.19661059932560931 0.64965138446348902
0.59163645188716529 -0.22869477148223893 0.35180863785408434
-0.54610597677793749 -0.39345168443889644 0.65759534834007027
-0.91956503178261784 -0.75370448762085651 -0.50274974408668527
0.56221154575321108 -0.47825571506210673 0.72309529274401996
-0.55444305681880834 -0.37078803736575683 0.66641784679281812
-0.56582622697598239 -0.542404580604396 -0.41121164685552003
0.68591175614576727 -0.46753946722176831 0.67789218759942216
-0.63416913436368461 -0.34502289255641827 0.6746743196621523
-0.87658097899718612 -0.90142101304837219 -0.47252127895388796
0.62773728215597302 -0.40042473819515445 0.73139200062015419
-0.36258801902745219 -0.63793430028150233 -0.13827328059531396
-0.12175601002421033 0.74972859538968528 0.39717563339783268
-0.48804892440934111 0.41808705298202753 0.48575755897800477
0.28747362155760925 1.1484981157247258 -0.43817389581315069
0.46470761798629567 0.03325277626559231 0.59308860465906221
-0.32965334057117346 -0.080737447292353437 0.78907458107968154
0.11599154675530343 0.49335347797987072 0.69396780892854792
-0.098558208650629808 0.44266432328085248 0.80762045673883875
0.30150568548218004 1.016918233548548 -0.37571934171549515
-0.1730070023901682 0.50902205758893881 0.75792041701078006
-0.31867690602599197 -0.64454463187882283 -0.13481279138560609
0.54060038067062521 -0.47745447481905856 0.37113867921484811
-0.13785503315008896 -0.29697381913175924 0.70070426944163344
0.70135261003150617 -0.34674460661866879 0.66910508703379534
0.035060962928497474 -0.32791806777341748 0.47225963344733302
-0.37384165143651771 -0.39636117169662199 0.62845754654964736
-0.57996784438378768 -0.93426277234437549 -0.3603929930683627
0.34188648988110515 -0.011439155191833805 -0.35076262067956065
-0.80606769317497395 -0.77053988035025611 -0.41190316156245999
0.74950114967668924 -0.38318816847031378 0.65239808826977708
-0.15908845692090523 0.38710146639165366 0.77631162598253312
-0.0079662113081226948 0.3973431275165602 -0.67701629944222219
0.1424056686783679 0.37323600122625056 0.71384080205826805
0.12290036121730807 -0.25232710865486219 0.70176996022464522
-0.34142302258637258 -0.81195091959915722 -0.26089364240003121
0.10837517307686895 -0.1527064014492403 0.80584920135322591
-0.52399859006206029 -0.10657434878976613 0.74940917468014945
-0.59377303368907164 -0.35004650534003545 0.66712884707758846
0.38526239649789318 0.72171938646065392 -0.25765302961314163
-0.027751506425033767 -0.3553443328256618 0.51645106117578266
-0.7627566209003902 -0.50568568834610694 -0.089126932269063985
-0.72521167837667377 -0.55093891348615109 -0.21655499856213467
-0.40846865901195173 -0.020517684916234735 0.76321698242779235
-0.073468669811123988 0.26073950810898427 0.75372522300693134
0.29876778809360971 0.8352208489842905 -0.31469547720411484
0.051519597238977255 0.86373189794600247 0.60885025285481476
-0.44804583341779036 -0.44171966604394619 0.64182980704103443
-0.61088376692980617 -0.98991295618471042 -0.3720346974366926
-0.61032027287116364 -0.047856865723304942 0.76229134470861126
0.0015482569200528928 0.51508051171749525 0.77053197616384494
0.42511287020838395 -0.60356047737056029 0.52314293399689049
0.25787967357942065 -6.7257456331404342e-05 0.76093843997302457
-0.55610525046158799 -0.25247946633263751 0.70407744869538647
-0.060067033049463703 0.53654176784212115 0.75224715255242103
-0.41959147704340438 -0.77444485435512966 -0.36712567997901857
0.0063407177778103119 0.52765232248071303 0.75197938632122785
-0.24864528529410634 -0.27567814942101965 0.73491279564948186
0.1187813250355525 0.40752424604871429 0.70656797771996338
-0.56538652839477876 -0.22819483428612042 0.72296975398510099
-0.51325453526850495 -0.60807414566815154 -0.13451999628800593
0.17228479925207552 0.2776303481200868 0.70295497232410042
0.02764036605642417 0.62513724599249532 0.67673934990903817
-0.7863661194260203 -0.59314668371705359 -0.24088450616102719
0.099725623930790874 0.53505661888425582 0.67490189763157815
0.40382472916755674 0.60108027698994881 -0.2953801645324603
-0.14109870169743033 0.75520778228869911 0.60026573297187724
0.30904817816974628 -0.50911654460686062 0.5284532491584315
-0.90771177318901763 -0.12224144513451307 -0.33626207684599763
-0.90987853032537203 -0.99074439432565775 -0.52053427787780393
0.28590791300326579 1.1772149254029713 -0.41700291109899723
0.25528647418614625 -0.019008907493181404 0.80059273878659099
-0.37325679688273539 -0.4119518186427209 0.6017203625494183
0.18607196694346229 -0.1214727238605553 0.81231469146979762
-0.66936348150328939 -1.0074195055215576 -0.39261356324588803
0.83319659274052782 -0.37092536801066389 0.43442778711863284
-0.44766983200455357 -0.35194423566691047 0.67539048568281146
0.48971103169078489 -0.18179663334557272 0.73486245417411311
-0.44879670280627693 -0.358821167709519 0.67778129234637063
-0.397254338982993 -0.063831131363325078 0.78782057378754899
-0.45158304819925021 -0.37349557941060585 0.67977193217857135
0.29637761289296094 0.20901399770151219 0.47052505818935941
-0.23640487072075089 0.68347457348694096 0.60468236806359599
0.11995041395717543 0.85382455688440029 0.54168489808726861
0.18896533273649752 0.7812576337204904 0.41518320175904933
-0.36681267322029498 0.25064011452216928 0.68741660730081833
-0.20508081502360653 -0.48664135772452966 0.53623218286160323
-0.17402115318625633 -0.33898866759881052 0.68153859145037288
-0.52200928618751163 -0.36439921781223283 0.67563213777221875
0.10055009583744834 0.59920689266096705 0.66959545601128312
-0.89430677185568186 -0.86980879880077389 -0.46238908096750109
0.031488968333306389 0.33888377309415585 0.78931519122771476
0.46165346288607978 -0.52571923713816737 0.68541099358332147
0.308855250183246 0.74986882936584642 -0.28351070831568848
-0.48042631830716331 0.0069292118157493476 0.69017162047873271
0.27162287851556499 1.1535859071051533 -0.41324570506295544
0.51031354106197924 1.0430001255830792 -0.42137160716139732
0.11475059454044612 -0.28608843684641894 0.64002464598307895
-0.25881519321518098 0.4385270751820336 0.7698246862422593
-0.6148585768565944 -0.07645014492467439 0.75575484488863864
-0.58835270691108121 -0.16047436445767627 0.73077233887321924
-0.57363993942363933 -0.64000890267003641 -0.29849649030246894
0.57086776769670422 0.84006579153229843 -0.39325997834649939
-0.23060439579616698 -0.19828301278643501 -0.64858592508360502
-0.65303766926795603 -0.54769137317225436 0.46375272331800232
-0.84155032338665592 -0.65138875919985928 -0.30439881359898635
-0.8585707697187317 -0.76865101774956734 -0.44423292833671013
-0.37224972323284433 0.20793447250007713 0.74036469756231327
0.022816091968813623 0.30536105305514383 0.76741040559491935
-0.15098606019551752 -0.30565252186498348 -0.58833484908644351
0.36239623874671523 0.75038241101211867 -0.35177983039889327
0.88456081392291352 -0.25076255310146944 0.63619482019942808
-0.2369914684559582 0.70084418939192794 0.71573709179222789
-0.2088006240489868 -0.35565486832230953 -0.55328096496639034
0.76702727932651982 -0.31889645217143325 0.71021538335958567
-0.40063758983355058 0.57775126585952208 0.64521090020637573
-0.18650169394391725 0.47068342140400166 0.73947543500114321
-0.26623872059317577 0.012314985396572276 0.76534844577569316
0.26672080542349264 0.061201079521326918 0.65182844167637199
-0.59477205509951858 -0.19678499621717993 0.71976630277620757
0.69926060816278479 -0.31685303152780486 0.69302899291034592
0.27626695979296301 -0.036698919237077909 0.78252475722913317
-0.60676309137057416 0.22711986997680533 -0.64089792802045054
-0.35547192872931177 -0.080640133009795001 0.80902100583446668
-0.66859056677476048 -0.57163266639605759 -0.16791849775601264
-0.63052671208592415 -0.61129186427887383 -0.38896972009143482
-0.37849240320044686 -0.74909668428757215 -0.1893369711445807
0.36633341359140204 1.0950373635588413 -0.43069597640496582
0.27954336336631158 0.75734830150658183 -0.26917433523745515
-0.16984775390999474 -0.17023249032147714 0.68830010204685266
-0.29335971139356332 0.49224466976974934 0.78152073998763782
-0.6954125182934483 -0.48974164525623465 0.29566572208225139
-0.071211961977901694 0.5844369023728353 0.71751022730043701
0.56799675828591134 -0.13737718669989363 0.36113012026769198
-0.65617003131884744 -0.32140032884363379 0.69218764456293158
0.42525930760334774 -0.54678221644098279 0.41359177396673985
0.12032298309092226 1.0533712583073047 -0.260431425646523
0.29964255160234288 0.76244875433441806 -0.29807769557378805
-0.26169378734414295 -0.67974037507164731 -0.19116084674570999
0.49423364849155504 1.0044709817284669 -0.45631136434333541
0.17392052263312507 0.46536895512777843 0.67469043328636857
0.16801932349290283 0.94019103880519417 -0.22121161516307453
-0.60949211113140933 0.17936123489508038 0.71965586845987062
-0.49738098305083156 -0.64838728728412498 -0.31477557352123853
-0.7115600852718309 -0.23158837367926655 0.71871843068495522
-0.043757896956844178 0.24473892585148427 0.76170246283273357
0.23963069777869705 0.0097765945753174321 0.77907361183893542
0.28984926046971538 0.81246473219750115 -0.36391614857011589
-0.77422937615981269 0.5405904792249725 -0.11930903500183021
0.1431683804316215 -0.3140244982712419 0.63247556543175065
0.17729410496054143 1.0084267092903634 -0.26374444650416606
0.58863489528438251 -0.70273544833412904 0.57970183936066633
0.0033275862640351761 -0.29835665667856137 0.61321157038089424
-0.37363570192769302 -0.63553134397279898 -0.14911090298568297
0.87313619636129403 -0.23205608558351321 0.64000618703193624
-0.30629317416895674 -0.014696398568791125 0.77200736215507249
-0.33698400208394119 -0.63914120763754134 -0.057532414225303086
-0.47545084179572328 -0.57971530702122465 0.43111701183349282
0.75043812779548347 -0.32832964094143025 0.66984864704755509
0.39611811631477778 0.87666799746974178 -0.34648166787290791
-0.22898743305805169 0.5290725597005359 0.65365154602462994
-0.3442735582054226 -0.233069096060329 0.80000172205820519
0.11468690468590381 0.3540066779995783 0.72759275317798
-0.41035706188378285 0.15281206133086389 0.80232345376924386
-0.85415908125661133 -0.5928947351354239 -0.28606921623397952
-0.14503131058223317 -0.41151839554820491 -0.45243803016682094
-0.38850369830079146 -0.24204151829715315 0.79392873508107442
-0.42878175822718134 -0.098913988451860391 0.81193330728251922
-0.36555065083623717 0.29232982581542721 0.63628693808626124
-0.79651608326215495 -0.95766563231016733 -0.44967076180337173
-0.33313742983560246 0.18942302992560833 0.79716051109909358
-0.53007735788854049 -0.34448152615459016 0.62294491965763754
0.49219698356559505 -0.659342526932571 0.51647421007903915
-0.60665906363714939 -0.78805207890180107 -0.36056100009555081
0.27884753436186216 -0.15499700892253543 -0.37929196159133127
0.1282651378342301 0.92506843886421386 -0.32676707761400436
0.14556493369143908 0.82525501814763125 0.17211426757557291
0.16469505044252486 0.96310550124969119 -0.227488804750962
0.29175364727342767 -0.059745806290650627 0.75591437132840156
0.28472061690751005 0.090966917278326065 0.54842790185715984
-0.62742043874963471 -0.19001706118397621 0.72625202477983564
0.83934553760824215 -0.24517878783078828 0.40734415594691242
0.39922295941363117 0.53527149378409611 -0.13009833460162668
0.18679924198655939 0.48086113355039117 0.60381894056480334
0.7084152554829295 -0.17756226456058588 0.38341718297631644
0.032401528477656427 0.82860816184783825 0.33746844552886657
-0.54309179743885494 -0.60271209013180638 -0.19580341519688105
-0.54034394881329106 -0.14344409207082087 0.74791410295019034
-0.69312026258841897 0.13024959368216127 0.78535071029629577
0.8119171023049887 -0.47816047162512421 0.63290688628785219
-0.33486110366066058 -0.087238787095406778 0.80399827734817109
-0.49182856988031531 -0.032050335783765149 0.76671421074257751
-0.81866682149424364 -0.93712469821805833 -0.47216364476803108
-0.31654041049280224 -0.23854549150725379 0.7949174103480523
0.43356090022433591 0.79329904181269484 -0.30289883943286355
-0.68323488938237276 -0.94919565141732143 -0.44770884145008338
-0.058897928270329913 0.23303198308022743 0.76267924917297236
-0.080111052967712482 0.37320301523851906 0.81388666580693325
0.14575317857155312 0.25889530860596821 0.62108610430795608
-0.87486076855301675 -0.87218562589654169 -0.47417750990574348
0.26506567832215921 1.0989490167297813 -0.41639713655360211
0.55208228303082052 -0.060872958286772416 0.38645435556878382
0.67447342932403842 -0.49212317222291002 0.7128251655663469
-0.1749299297279272 0.38120128593244651 0.76487839935124669
-0.58169678274087389 -0.59809018301348971 -0.19908807238662263
0.37482795457513163 0.58421568232601295 -0.071248069425450922
0.39854693965532562 -0.22888235667126011 0.18035210664379164
-0.39233446784865222 0.18802369709561795 0.65814459739928211
-0.67123149916075775 0.071092274948012957 0.62080233433391996
-0.051768404194874051 0.35699998077463491 0.81331331320261313
0.40020281446835071 -0.28101351080381409 0.26780835930495073
0.13348458382678885 -0.069960773535371779 0.74991451247434426
0.72069609675724067 -0.49225128452571276 0.69760414975485929
0.69584369469498952 -0.63162942363159624 0.60914711775079766
-0.52730193798484493 -0.77525639294542081 -0.41274361032841966
0.55374298454453097 -0.18163499764200042 0.72768141379601659
-0.61815797421969165 -0.75357906654699036 -0.35290326284721374
0.43874324833289435 0.74192548062681496 -0.24562194302727391
-0.11789013414095351 0.22301500583030176 0.76265234179642505
0.20951976947064921 0.83392401106433667 -0.20711616038934366
0.06084201118316912 -0.14786477650009999 0.75915377010431939
-0.27394475085031544 0.94497270504070841 -0.23582092565293067
0.37089033765064272 0.92432221305217155 -0.36220394706434078
0.39808743194635454 -0.43431934113121251 0.70830753674663782
0.38106020250768324 0.55454478783210526 -0.054364721555817397
-0.51042356214295737 -0.07296067968241271 0.73657213064813121
0.38261565433533917 0.83854107152859392 -0.32822519554703433
0.017932117554831706 -0.081414251345414357 0.75499000230933788
-0.1078994151313708 0.099452687172211895 0.74810473606886418
0.67435470280644338 -0.43811251505594395 0.65575548536985195
-0.21387124893839626 0.41844754426556197 0.77055116000034118
-0.10153060414430826 -0.3332816343849192 0.65802192420994743
0.19747165557332735 -0.20030368243480723 -0.45842723859101753
-0.087315113909593123 0.2657712195940638 0.75462069253277164
-0.18971885567692226 0.73300670629706932 0.64584965033454367
0.46288323993969271 1.1067755441194294 -0.46131884841041426
0.37706501031447104 -0.21511282157259526 0.031570048416039498
-0.48604755362261542 -0.093376858842579402 0.76515797231602889
0.13524111600222 -0.11828834658384935 0.81080668459313543
-0.79423149652647851 -0.86682967523828935 -0.43089317422461093
-0.3678597216675783 -0.72209808291651001 -0.18916625892829586
0.46380991211433553 0.65955921309367227 -0.29503751228448039
-0.30445295757865054 -0.53641188870902212 0.42596233722970567
-0.1575567209865234 -0.45866718572470155 0.46079658037076499
-0.0093407950487609526 0.22665897203408303 0.75577007865775414
-0.19003819136016276 -0.53385692588580813 0.18904832285465289
-0.69207561610862101 -0.54850768874592148 0.075689124357960935
-0.54936714238488094 -0.2224520472908873 0.7133974504659264
-0.51347973225740162 -0.074629294322644313 0.75570251199977534
-0.044721493540109236 -0.31227276075467714 0.64147293109470027
-0.22410840975645385 0.95900017306787078 -0.23579481955206916
-0.49604706292690182 -0.41074495253583532 0.65651044347812615
-0.72946397749762326 -0.062778194851952129 0.74355110250523282
0.16365157288061738 -0.0030786714144239724 0.78830418882949616
-0.41635946506660915 -0.72776864804011332 -0.28473424100983991
-0.78519212626296664 -1.0097532799254498 -0.4171277086417291
0.69071450569711601 -0.33351137075693327 0.69341985238596138
-0.061567009272295081 0.4630675653720111 0.80213132673240395
-0.26011311640142765 -0.35516931800050866 0.68786815226988551
-0.22287833188617157 0.48913899893190926 0.75790145419093946
-0.76366052868777956 -0.54466752529744689 -0.28656439815406998
0.44393978181669169 0.017442497224671172 0.40974505922795856
-0.45786532359155885 -0.61197636623869833 0.15551481813570334
-0.20178865711375948 -0.15162769365181283 0.75475334496039181
0.31567844225121533 -0.092325669771271546 0.74105202688926042
0.44663150837682508 0.77340165676504569 -0.27994598346201016
-0.95085205336197731 -0.74076253786996737 -0.38875361079202264
-0.15691115654220411 0.31052490328902316 0.76165213635787765
-0.4385175907934844 -0.75044964572048123 -0.30972018438301063
0.76937769516636223 -0.40852006289278808 0.69274143056825466
-0.95333579455481754 -0.65554057064923477 -0.37846985995738436
-0.32591577346951794 0.42254585407777778 0.80387761353969367
0.14755664628101783 0.84464815656581216 -0.36780341370252856
-0.52540033534666364 -0.67022519970059236 -0.32478250669187503
-0.66866871799564009 -0.17943154919899573 0.74283898076854626
-0.13120183365623461 0.63178167092759452 0.72841063338942647
-0.86127073061690851 -0.20472883329533609 -0.38475070922011056
0.89233013274186845 -0.35561537807799093 0.47840143031526594
-0.24326795229076481 -0.029721599505080576 0.76181088078054415
-0.15669012077151478 0.54226829454886349 -0.67605503647753551
0.28650009217245298 -0.24937418914097353 0.73738689271250379
0.0071421553962380813 -0.32610139560001006 0.49704211602005088
-0.29072648632253362 0.94214236823191122 -0.10593891833270774
-0.39620829246408107 -0.75722555997202257 -0.20605089492280726
0.12368120431776575 -0.375775414059909 0.30719872411674842
-0.14737975945016757 0.2145300693932688 0.76404269299660399
0.12267918680412393 -0.33620238414760362 0.50251135878176711
0.4264182264270886 0.73723974387921487 -0.27359827534553816
-0.40470082308131339 -0.28164447726747266 0.76584132512976311
0.237114663693756 -0.068814141661801553 0.80642967221514184
-0.18957023794460426 0.30395542886368432 0.77426701382954022
-0.11583479608230718 0.27963867546082977 0.75727462068159213
0.44308387516362657 0.91132048105945351 -0.38735023369171628
0.086185499085360107 0.68050419866610934 0.64766054909284421
0.05097950418159769 0.27778060752556133 0.75119917651454315
-0.072860857510320898 0.83826317253939031 0.27613873984473614
0.50843968394594441 0.87974738625626081 -0.34354647058319898
-0.92559120376775894 -0.16071286291774278 0.045434624850390293
-0.26348700040928463 0.71276922428976874 0.37026922311335397
-0.5280689132093066 -0.31999566196344809 0.6729866278803236
0.3993280793716032 1.1793006652064939 -0.43343589292597073
0.57563973788569456 -0.37681597680424339 0.34717375954667773
0.1241040060504055 0.40708948790134514 0.71000626216268259
-0.13174043027167315 0.4567286310794163 0.79676113644893931
0.3449767774673731 -0.31736703595093285 0.73300411379831942
0.54675856580723803 -0.70030728255420138 0.51286734111215182
-0.39181724118826722 -0.85713855634251956 -0.32923775260043442
0.3132575534529991 0.30902129742944506 0.52229084339971266
-0.33431529286864858 0.51149895943717905 0.61012276109211072
-0.029684036291158122 0.51997146650511894 -0.64723334494877705
-0.52327266486328838 -0.87956391235468345 -0.34187165172219025
-0.24353778760458411 -0.21185182226082233 0.74589773760072831
-0.64024277129763263 -0.58198689604630616 -0.10262781764010498
-0.72705869051981509 0.086868300269355103 0.65278852485220185
-0.72581588914887973 0.048145789283449147 0.6339672967633625
0.051880050521232235 0.84666283250018104 0.62846109985334664
-0.29286419843731792 -0.13114424914234224 0.80339050137863666
-0.040228177462811487 0.1581393026115343 0.74733033562430151
-0.55047666711164212 -0.090782595076504435 0.7523809108886752
0.46534514353981038 0.78884917135007804 -0.27376739287038632
0.27095795046038873 0.051409034763869599 -0.49673129697155005
0.089988079043642699 -0.14986348658290449 0.79328455925552177
0.13309457277231473 1.0863013548534983 -0.35738752378608041
0.24659809315530623 -0.051836171299980194 0.80484371757594175
-0.83962911219930092 -0.74742961030819188 -0.4283928788556679
0.017164256927472366 0.37588734332948537 0.80421248285142966
-0.24998462919944231 -0.31184814776113701 0.7151950689246398
0.13463746969301837 -0.28379640419773011 0.66770485576107319
0.040385309450272189 0.35935723757297477 0.79555427493548336
0.02707242632851603 0.67325788480395232 -0.55449196271956325
0.17305080663187766 0.91809307949389307 -0.21701616523500178
-0.33392082547872093 -0.49516255491475025 0.59655172245577148
0.25379597469854787 5.302710966326174e-06 0.78841176607361163
0.50776075464088422 0.9683910636628994 -0.44064910385533196
-0.24886508508968674 0.34727047367963237 0.77792422301073216
0.29212029513734095 0.19939998779197587 0.53845035665290908
0.0019447768730103121 0.83275497926060105 0.48014742615687211
0.82288843665949329 -0.14139357479032943 0.43392322745875589
0.05966994558050942 -0.35742933156910262 0.40841041819115986
-0.37668104586645512 0.64643848469756904 0.69868960011027781
-0.29433636588757039 -0.72427657193915884 -0.17425388060339841
0.15586151697196371 -0.067802139982065412 0.79075277531820731
-0.94487269585230393 -0.7816254834835199 -0.40958687459164267
-0.54586620064284119 -0.36163048205375947 0.67264802451760985
-0.94464971386585717 -0.81696172300290293 -0.41968225336155385
0.76482085303762659 -0.36822034481964483 0.67073009516359505
0.17590295511017828 -0.028810579812730275 0.8050621872221484
0.039860490428218043 0.66548514392125391 0.66670698590806765
-0.79044078191014577 -0.82360697973886055 -0.41257815829308342
-0.53530597602371444 -0.41601941949290211 0.64871567774418892
-0.73523455896518897 0.54643011157869914 -0.32351503308982643
0.62852394687490687 -0.59114565595065871 0.67621466920918749
0.018371329028212813 0.041786234167926928 0.74575507593702639
-0.34912256635864836 -0.64057206549088619 -0.12391325541841169
0.43530937731655683 -0.13147784171043675 0.18483285656572335
0.42010238337368833 -0.021726129168755826 -0.046301075181009566
-0.45618426023040826 0.034988090941222794 0.77514227333082175
-0.45088295910314358 -0.74094500817366082 -0.31798126598900822
0.17578573796413011 -0.011894934148414471 0.80051348283324586
0.55948745113389364 0.89825596424795684 -0.34743931952212037
-0.5014735743495855 -0.16190611888949924 0.77180981939338267
0.69471086926715486 -0.60883145619152712 0.45750937723000007
-0.89806467480715213 -0.18505712509272243 -0.33240272744125932
0.42485848852994224 0.70708114406505906 -0.21252440064067102
0.08375741667840586 -0.13543917107748005 0.76727160564192332
-0.40482164132542664 0.13607268621164792 0.80917190375184589
-0.72026613974956177 -0.95645557162756489 -0.45727213984814341
-0.051641120939631691 -0.15908409651811084 0.75809150765532252
0.4990028510103528 1.0406712184129248 -0.47098374871828597
0.50231211598010361 -0.4364339917816662 0.72688801258948743
-0.024353699557462249 0.25385054078111224 0.74698287055228363
-0.93713679367240488 -0.17340911895563771 -0.21236722427430621
-0.53067310204307816 -0.12400635617816747 0.74736740406923019
-0.87299215746649494 -0.29604282831284756 -0.30944466355007805
0.59398216408729709 -0.4304828410742898 0.36085028635993766
0.057006319320446863 0.3722764038795372 0.78639735979528425
-0.40057998276499518 0.041115267856657312 0.67644753163947158
-0.3647341753950748 0.60701961711547447 0.6350502236481077
-0.26285933184437127 -0.50443632910580671 0.55608274223041576
-0.51774634203624004 0.0073456364765203119 0.76689326480963871
-0.74464168202391079 -1.0495431486506082 -0.44687192311457125
-0.4800550076667065 0.8354793273096206 -0.26631900707413791
0.11204267709554472 0.402691752645703 0.72757618315174
-0.012840155004479215 0.24807647117102949 0.76165817230295119
0.47400113699806212 -0.35235948962476904 0.33291027838888354
-0.44625871445007448 -0.14095362214432061 0.80742793602734153
-0.47891198024445103 -0.63932734401020674 -0.28785586611653002
-0.44617552811591921 0.14920628229539368 0.80484061587017663
0.55648960412082715 -0.66426329556229513 0.42863787463281255
0.050881716977382752 0.58424574502448579 -0.58496739206573523
0.27373150821673775 0.64491126601090087 0.3613253933941003
-0.19135746868841963 0.35178407603458073 0.76864758008925094
-0.22863986166269257 -0.15558767472391377 0.76057450093500378
0.13752870100829995 -0.097406109114658967 0.80300652095287361
-0.97539828279888141 -0.83198379583929771 -0.52468099914235822
-0.84253365997225771 -0.69013401139521413 -0.35215848207395695
0.10079114680455348 -0.252096436299313 0.68397522589735971
-0.20019520235783617 0.74699144135461992 -0.54944113671226802
0.73522189842680419 -0.51590699837884246 0.6769379109160063
0.76558882485953816 -0.40798021040040311 0.68698464194994813
-0.69838533148984538 0.042519148945739715 0.6178471195284736
-0.54633978653911086 -0.33529860793857402 0.6801408229249013
0.87200176248488148 -0.4295420951732436 0.5456849500619505
0.67803348589447765 -0.28132412576479648 0.36732192091093552
-0.75856185644902752 -0.96740134150421397 -0.46683073041129219
-0.61584359192142202 -0.38659362952759846 0.6575664297738264
-0.58946971557734074 -0.11092329361160935 -0.61212729859935777
0.872879217044634 -0.1429051482691035 0.56986450043827119
0.20229118480892794 -0.15034039426690127 0.80342498947247165
0.071589804175630434 0.41151314828032248 0.77699338580659827
-0.29016343204382267 0.62884374321493208 0.60476395796340299
0.94493142312090583 -0.24520919872274272 0.55917603341650235
0.39540309808934637 0.79093332207615141 -0.31483013174207741
0.64636771776062218 -0.45199823871786426 0.66174114100460102
0.28472047125330846 0.1550835064041145 0.5241683473320542
0.36843367943604477 -0.27174173952323599 0.17699880269212187
-0.28923317427304696 -0.15019280146671665 0.80730824555346814
-0.71679413513427193 0.30387852516736658 0.36683691584295985
-0.47109498435330366 0.17196214863366954 0.71699142882153666
-0.24275971504866689 -0.64182881843990813 -0.18971942530740193
-0.3923407156643357 -0.39108585508101612 0.67720082992681441
-0.27160511582359348 -0.12428196510438472 0.77782894710474437
0.77580835423097128 -0.48822555562079861 0.66225438054732422
0.77130571617982469 -0.42304294673159992 0.41370633874181095
-0.43274304258915208 -0.35441055521661369 -0.55365960789054469
0.18251625844522579 0.7689892846619566 0.54895636383311697
-0.88810680842600931 -0.34850871296233876 -0.13775979899585522
0.15667190932369834 0.86448935316616904 -0.35586227890391342
0.19478372625233931 1.1765379550882304 -0.34214174886368198
0.71156728830713334 -0.3112712120718002 0.67924025007884126
-0.20898127596640492 0.52742214205761861 0.75188960523983894
0.706733242822839 -0.30203098649101623 0.70403677183043101
0.9495627320594906 -0.23444601296642587 0.50219399939948417
0.36498549218777043 -0.55458073028447608 0.56769948615216848
0.3398080698433148 0.74950236253613589 -0.26761816079182665
-0.068794457091090777 0.18451893127134955 0.67407141508928348
-0.44610423916512687 0.5240709399606942 -0.65700487149830522
0.054991541169584934 0.83372216725173232 0.41537346890733673
0.28486363941659221 -0.14935850629953595 0.74915865138501658
-0.28641556898694276 -0.38889103821024928 0.61525113297930289
0.019642557308987563 -0.22031434980507214 0.71258398972129555
-0.70065452219231261 -0.11648346397643827 0.56652709522466083
-0.34448505803081986 0.22016256505180554 0.78475827300893997
0.48276074552919468 -0.071313176655929844 0.32563406193100164
-0.17695847111809115 -0.27287618852768425 0.71491536304819192
0.13163158069617253 0.88405740833887947 -0.12751905978905853
-0.7444971402169287 -0.55617715012433599 -0.22967274149352335
0.24905919863819648 -0.10329806523118901 0.79684311538408181
-0.19166231473424489 -0.039272943050438158 0.65645192258193319
0.14064078266842372 -0.012508923824673168 0.74605935831599623
-0.066555852270610671 0.32453557210601858 0.80530994782343512
-0.43812134048904383 -0.25738094550860779 0.77598338228556329
0.26554477593253267 -0.041323774982884309 0.7944985928123387
0.19086013237793864 -0.23496725818419684 0.73364724484092037
-0.66663002850928876 0.020656332885206297 -0.59121522755987144
0.66207357239638753 -0.61928870602069153 0.64992751606691002
0.26128301260550657 0.74931734947475448 -0.19937228059852785
0.68166504162417851 -0.40742574704325651 0.66063485789112875
-0.41296984271745885 -0.74204589588029357 -0.27010306948015383
-0.63907502806612726 -0.95092952108236872 -0.42904390516624247
-0.43595253516410537 0.17441442228010651 0.71551234022273746
-0.4913890309131439 -0.22551546759696173 0.76078589238842653
-0.68800039949057634 0.15113733342547775 0.68785996739477895
0.31716038974715133 0.92166265551359494 -0.3445685217205714
-0.4685680338540017 -0.041316951016370673 0.76125272039151071
-0.020094528722822247 0.49711071496309334 0.78459573632978774
0.53818003318616192 1.141820323521344 -0.51366775484474303
-0.34767183101399723 0.57843334746966057 0.80321468206263447
0.65790606597114376 -0.45855402149663504 0.65730806814188014
0.090362296309514534 -0.11679351029408025 0.75836552049996087
-0.029814330628095576 0.25048576315135929 0.75848138174309909
-0.53257114414576989 -0.10185446599474002 0.75473234169493253
-0.73455503978856385 -0.34097726948468576 0.49118222267370726
0.0412416496703365 0.50389762299323149 0.75774714710445323
-0.76859898952599437 -0.55232484247037661 -0.25815900285893179
-0.37972481650547607 -0.32382106914562581 0.72099223141519886
-0.15112007288870188 0.51770406379762868 0.75252006426061868
-0.5398242625647498 -0.35675881010141985 0.59662431377427083
-0.63273803382924143 -0.95002204164554982 -0.40749029393834491
-0.40859994696181445 0.35016782714238381 0.72443708972710397
0.42184406938770991 0.027531536581474114 0.40899700075796019
0.74929019093592686 -0.44071276121809344 0.69370591615306765
-0.28964662456671064 -0.13055560885449147 0.79664413388837119
