# XYZ point cloud file
-0.91501294405655997 -0.29646366492445964 -0.19059500877669677
-0.75390716017961523 -0.64554585317587687 -0.25721697717776948
-0.32245140428606334 -0.26815192890541972 0.76973378952360605
0.072811930374568234 0.90531758162146225 -0.24647106814770581
0.2187388165173374 0.78751936248571308 -0.1521661624941828
-0.47045691915950982 -0.36901143684692705 0.67476831759890388
-0.92858046317515175 -0.19409179119279507 -0.26279875685803944
-0.47834252858933013 0.51974939931496245 0.74819062008640458
-0.39959650282924386 -0.13903912739721491 0.81582938666378624
0.48315107122478729 1.2258945258670684 -0.50284536917503431
-0.18464864765095967 0.44052176010907118 0.75718010929217883
-0.39893389480052122 -0.63250828179804586 -0.086746489961797124
-0.20613381320415769 0.33542477659078962 0.73652308922400778
-0.40889066696643894 -0.72863722225599048 -0.28079195846149929
0.20785021662402769 0.13885871634999347 0.69866046368067458
-0.96857769120214243 -0.078900148388468594 -0.098519904560802729
0.34856671187338861 0.78733911125368916 -0.3140901776115399
0.70290670901204777 -0.64300400503039334 0.58056588011393018
0.43618175789266367 1.1484738177222003 -0.43910233529005183
0.28568465855197189 -0.33233886522834055 0.12285715471035275
0.6750998752762527 -0.48671521739787771 0.71106637840841103
-0.16390897723067788 0.67073511113376227 0.74323104915806226
0.25538865629630436 -0.13954759104628067 0.78618129403563586
0.36323305458510902 0.77316529226437769 -0.30777141033653521
0.093190347908652882 -0.1161123291880628 0.78320621124796475
0.21110787730485292 1.0803431078577104 -0.35993317297931071
0.3083053392333035 0.2588304830998398 -0.436132073176978
-0.15237560216631607 0.54840689063598091 0.75197112432330471
-0.10317899452698143 0.5762521615102365 0.73445372044200496
-0.32510233674653222 -0.41013944171054284 0.60423306091209383
-0.38187218228676656 -0.65989376297369873 -0.20931247201890812
0.87065229189228432 -0.35232546667638687 0.63876864508708309
-0.06977853814568391 0.33149598888862819 0.81025546592229603
-0.031067756547946246 0.64080977160938524 0.69625231815128785
-0.032508893086976798 0.32721710313384023 0.80884802335924633
0.42425073789217649 -0.35066569512064483 0.32431335562537811
0.28391391230573504 0.16186861164085187 0.51427116946737073
0.018336390927625956 0.27154918222872837 0.75684032696232606
-0.12513996868705135 0.42127365336061828 0.80995826198029874
-0.76394621694208098 -0.95941388295873153 -0.44196955064633414
0.73553230512367307 -0.4482591653997936 0.67833588124771893
-0.27697302202247087 -0.40717819843705705 0.58472974094908636
-0.51033701692321998 -0.48638494421626355 0.61067266887314986
-0.36462500770488049 0.017384536365078418 0.77350798770376628
0.56302502972603463 -0.3915030996124198 0.34955969484827421
-0.25282572243295931 -0.39370789823349384 0.66247469794602409
0.059799415858915239 -0.28975791799475736 -0.49212119906064089
-0.43142518931219698 0.0098019270351894505 0.77448862993803402
0.70202348321375752 -0.65368132119570177 0.52802759465016891
0.27596833405297971 -0.060172901353080732 0.78225795007561061
-0.35340008209399443 -0.5600804575545304 0.40848219411917341
0.22232398560601041 0.67980688038681159 0.57446598496257906
0.60693499832439457 -0.65891772950750571 0.62937974326435864
0.35201890659970658 0.6330382778473389 -0.060617872570055908
0.11866501416558606 -0.20088804826249884 0.76389245063876388
-0.011353099570122538 0.63909457396881386 0.68892474712149721
0.22384990404798799 -0.06622391491386459 0.81132165360946829
0.23352348406913492 -0.36273373603223469 0.24520075677512665
0.72961308684552151 -0.31044901019705229 0.6879576027164731
0.20831473337679185 -0.40367441275487614 0.59700002140097297
0.26416835167682606 0.70039899501666447 0.49254462275139588
-0.14373609075089178 -0.19389899468096594 0.73889555253862227
0.55623549116372573 -0.52321623645612902 0.70645993722276756
0.24677978609105011 1.281132820077322 -0.44666990576144627
-0.048084355329262252 0.3501471616332541 0.8139531984931736
-0.087681032657865643 0.19311993675374062 0.75423114841554906
0.64435523579993514 -0.46741110694483545 0.68705321980486644
-0.40643896142200475 -0.71554463806569046 -0.26947844091735362
0.5071890571774702 -0.63530691239541959 0.61991778344992809
0.55141889146330669 -0.60966054476968878 0.39990008446812908
0.69143309253674801 -0.48529492344506586 0.70685106558686783
-0.42637524526508841 -0.031213797219411532 0.75866041925225858
-0.42328354115064215 -0.058211049101243972 0.77608966285795589
-0.73104336991465502 -0.58467629280471556 -0.21070109662350944
-0.71368073482918248 -0.86491300651192304 -0.41566265667250946
-0.43885149344829699 -0.339548186771367 0.69297862085105066
-0.42339918551421363 0.85563962730611109 0.03406504586464365
0.20075624719615703 1.0075096395963534 -0.32111318268036371
-0.56951280837134277 -0.83739220303936257 -0.37484420898335458
-0.47262176932559186 -0.62214525019058264 -0.23491581438159415
-0.50301976447409302 -0.92426068243282344 -0.32526341745037968
0.057596078739980072 0.4512890468642734 0.77872040681108246
0.43649046717394313 -0.17551236932670911 0.22465475828651904
-0.43808842501122314 0.87350478979088031 -0.18048309296639786
-0.26897527390578091 0.41842259212348942 0.77059138148539574
0.3725032031653015 -0.04917211176846692 0.72066740488982362
-0.76411981116996586 -0.29450601513799768 0.27822428323865012
-0.34631420934750068 -0.00048646025543952476 0.77313233783473834
0.098617237228936006 -0.34038907926573003 0.43902348699803895
0.59080402190565451 -0.58265895393930123 0.6807065433365409
0.60544639022874946 -0.024921318821906624 0.44783581964816221
0.6958363027144614 -0.066887762099971937 0.44335454916690509
0.37819223813793101 -0.022307501071550995 -0.25872923532749326
0.33228473499525535 0.80190678220252476 -0.31791011186736284
0.73411093147728224 -0.20698896121269961 0.70161926093798144
-0.73134921758252602 -0.83995849690158408 -0.40275145437618676
-0.42206266597737496 -0.27719605363952837 0.76826555320575096
0.20115088383178303 1.0546054271648577 -0.34016121888340223
-0.0081493299422312759 0.81325036063688039 0.67657918545836537
0.361686891919895 0.76502306845637502 -0.29907413424044194
0.010959976301563756 0.87167334229131477 0.60313764874361908
-0.2365637651122654 -0.58411470365234663 0.085562820570771692
-0.23112298271649578 -0.2903644819544553 0.72041827497763222
-0.57537698809765203 -0.72572192407588965 -0.33535652242222369
-0.35803370428937953 -0.56389086990153459 0.36117589968212371
-0.21287662561062071 0.86428534355090392 -0.44711826178889424
0.66863486985381471 -0.14404016637035255 0.38371042479742101
0.27525535091434961 -0.014322474577193489 0.7437274147575863
0.31221201054692926 -0.036091555125301156 0.73162129092377626
-0.6122594165452071 -0.65702803746811966 -0.30215414353726544
0.11399348797268516 -0.11726915419918527 0.80146431787350991
-0.77832293792612361 -0.68931898140210457 -0.33364518658257936
0.75264198013319117 -0.32942221626484347 0.69273870464275689
-0.014510178198134938 0.93833965896063276 -0.10211160231727234
-0.50197980375865114 0.56893650084654546 -0.6031291891419599
-0.15648804504837699 0.43944631495097575 0.77982902768223994
0.18799789140442513 -0.15430194863218283 0.8080432812720062
0.3504553769458596 0.72941039136663921 -0.2483615321588033
-0.0074000650636918408 0.67019482720531798 0.67935900832773655
0.42508701821246753 1.17812024691115 -0.53788901795948618
-0.057779023916559424 0.64514403507296869 0.69882552812175902
0.60532563346911772 -0.33860763477923683 0.34548966745123266
-0.80255429902840092 -0.42639052001971933 0.15190286139403497
-0.75422374631217615 0.54006102044203175 -0.050781688157840676
0.32291772406969699 0.03235240137419737 0.66556401693137701
0.59128828061477989 -0.024874540819942226 0.63150496505158316
0.29642936003044085 0.73791142110697816 -0.26197831939602167
0.50407647666407662 0.89058889198864222 -0.38159380642970575
-0.43663455110557692 -0.60012768047788256 0.22419785803285208
-0.050681770145288851 -0.12147423632674581 0.75916240371898169
0.21874518545887867 1.0526598072451465 -0.36971083346288935
-0.70837545190023476 0.097212673777169911 0.66009880068615701
-0.82455306107819837 -0.86962366552760884 -0.44500097645993719
-0.74261332304718763 -0.24725482044950908 0.65503054377948899
-0.51803807885534425 -0.75407958050070611 -0.33382398355378484
-0.43740569164813792 0.17468112910243327 0.74248959185740659
-0.89557330838234961 0.11556949925782867 0.19424642052808849
-0.015110481440435919 0.86158161716078929 0.24695736230339094
0.074145801749823548 0.85026390606499547 0.61533920191362057
0.14559964722370111 -0.048742651527573955 0.77833133270285515
-0.75329228007766957 -0.69205112684092285 -0.34391165834649939
-0.59502289949158893 -0.006525797525551269 0.77500198796583675
0.77700897838934679 -0.39866528463598527 0.69596950006274483
-0.031696824011500979 0.3174154868757757 0.79953691669322069
0.69424248286447821 -0.39427482754961751 0.65929023710123857
0.21495701936428446 -0.0022386767685276254 0.80187506154461374
-0.55575120058658811 -0.96538465311800081 -0.36916342563534954
-0.56020567934443832 -0.14172387325272062 0.74886485888495002
-0.53249736501969025 -0.61893235002597713 -0.23427604600840368
-0.40582414841817283 -0.62781395419547259 -0.11213587387999979
0.21424966637089327 -0.32903383534710784 0.68921950089132622
0.33910098226295027 1.1816623911397421 -0.52462293867665721
0.36509802224114551 0.82131979829215052 -0.32488162326628611
0.30194322905501991 0.25579420690374555 0.53647461594641044
-0.83205085388389577 -0.33928850809528122 0.16528241819714395
0.30953443345043041 0.54920158518276985 0.32925917712821473
0.18465017580573573 0.27953159296495489 -0.58919428496957238
-0.016998789157810279 0.49089232290130091 0.78853170852722343
-0.012675727583047802 0.83184008779095286 0.66089111012748702
0.18731440865225579 -0.38103092360410606 0.59558405126015401
-0.43107511493986195 -0.63553639940395712 -0.013064609077360956
-0.25878696781287402 -0.27435815996973467 0.73166534023170726
0.56733122472993891 1.067235093139745 -0.43904671769470127
0.39834196120159504 0.16776836065863066 -0.21080749664126586
-0.26905279773948365 -0.68166600417462497 -0.17337874429117051
-0.64777009090536808 -0.93838070601062107 -0.44305708057611071
-0.44880621023810008 -0.3750598748009466 0.64548780540227568
-0.23892021809587405 0.44244392775710395 0.70771605646044833
0.19313454146065823 0.9659289847215291 -0.28113299085671883
0.31572911024260364 0.75610648976842132 -0.28846048533569757
0.20459830104756094 0.35599523090171026 -0.55545280569575084
-0.64365671631372834 -0.81783886114493498 -0.38223253137894631
-0.11802131218067835 0.69984724161342449 0.72863653904131809
-0.58331706127306759 -0.69027517548578921 -0.32561285874626122
0.12280517406218294 -0.38537855051341552 0.23593093842056589
-0.24783722225152616 -0.2155049895393244 0.73902515541519875
0.67700892774154298 -0.2836254910248357 0.73043283987192353
-0.38749739856637788 0.021685499866805458 0.77446793452235596
-0.38162678238677827 0.27551554003619039 0.71621934198452664
-0.32967157036047112 -0.13382954523983948 0.81560436496454258
-0.14988841936926178 0.89271699525530757 0.16244019859483672
0.37515284027456985 -0.0018103064367274158 0.68806981733980876
0.94441561221677617 -0.2233120181575643 0.47934954294310472
-0.47411042024523908 -0.67731982706406235 -0.28986831812529346
0.7307074923029262 -0.13960173429724421 0.39751816037869503
-0.21432303190515611 0.28130757507127058 0.70060388981680433
0.44465045252904645 1.1818049395427126 -0.42702677156987789
-0.7255791136199452 0.38935814850618478 0.29415879702894188
-0.70055703502959332 -0.65304630811645303 -0.27181638789430451
0.384886325784219 0.57663736446925284 -0.10051697292332307
0.014165365679282615 -0.18016928037299351 -0.61168820609398011
0.043206680196181679 0.7777084832787331 0.66200803460379376
0.95212340765193204 -0.23388344082671697 0.53569415014528232
0.08594744823773226 -0.1558890103239392 0.75351270240162194
-0.29145654610945115 -0.076289027772737938 0.76604140062099191
-0.24572258634460908 0.4285770646470386 -0.72882263428595451
-0.35644392012321191 -0.12306958658197686 0.81669907585963841
-0.1878073058727594 -0.1544074670883937 0.74820685358185557
-0.5997771968184864 0.035693837220570401 0.53096702672199569
-0.65661105300363332 -0.64791611075331978 -0.39226070392807344
-0.28827062084610233 -0.39843301920266683 0.66441401779291454
0.70262111280206341 -0.43510913980193422 0.65074844440671598
0.30247409984108309 1.2030342858474459 -0.42156849756740655
0.81110305061513444 -0.096128300472761552 0.51060627632168121
0.54566358517608293 -0.59620750769871478 0.66892486323583711
-0.34734894736483923 -0.062611052119313726 0.77827262525385521
-0.73751985142487086 -0.29778838915423655 0.66535090835715494
-0.71367129705594579 -0.49400621884766949 -0.33114466321594449
0.67415719838073684 -0.47410601441092837 0.69108499795149214
-0.15711347726064062 0.51794570010445007 0.74756711116513941
0.28769818984668127 1.150427782785858 -0.45169104773729885
-0.24209443485210613 -0.20300109107590103 0.7546179701200586
0.060691977928325258 0.21116095530042678 0.66154203501886144
0.75757164309829506 -0.40730498807268312 0.6675623003696245
-0.24011371674802717 0.39975170435319107 0.77137021391089178
-0.77584198856855835 -0.97632061481005827 -0.42303285100973653
0.12323198028273552 -0.15487628679054843 0.81044929953503697
0.93435928312305094 -0.20066636321964815 0.56411727399241585
0.38990426738508965 0.92231363518909149 -0.37122534425725462
0.1483205482630332 0.91989624242841472 -0.21405443546867531
0.89778037081877216 -0.34893849804954868 0.6020916232155642
0.15900571171814448 1.105779773990653 -0.30560502885934682
0.37161310254607471 -0.49449831314785264 0.66150910767382953
-0.45044577494476634 0.54770413015777741 0.66099160337326879
0.36727408129392458 -0.51703985070593461 0.44136264124005464
-0.15598843924653494 -0.28860394900141095 0.70657423735414682
-0.56713351179506688 -0.61183820004065836 0.017211159856195479
-0.51699901654950509 -0.70315570952682016 -0.32541559464723235
-0.20835455109014589 0.4205845056694173 0.76424369098825196
0.031973111355771522 0.33032094540816992 0.77656199674601112
-0.42739469753740167 -0.18692872614137102 0.80337262211592275
0.19337105911071717 0.040057185729878597 0.75135009853143231
0.73800443936831783 -0.53628137769468864 0.66033832812932047
0.32411080673273673 -0.15375917694811569 0.74211949234952357
-0.46045042714538909 0.55590628740927706 0.76908838161084248
0.02297643727846399 0.85083429716941694 0.46793401194764783
-0.45150827964117113 0.0057495845898074549 0.77344179763959175
0.74714461771456442 -0.34211556682195621 0.65277610003634123
0.35877062813235838 0.69577173143896953 -0.21920377745544783
0.018414897258239193 0.62131784784494215 0.67678290298678689
0.2242510882932045 0.84006024467246654 -0.24749987998367828
-0.40606334742106753 0.15935383530091496 -0.74345774956685062
0.090147857807417964 0.75863655840284849 0.63834295710045552
-0.28775158336255657 0.41887397891789391 0.77638799356326871
-0.49102119576595982 -0.26092930780656332 0.73436731472259709
-0.0030171383861130607 0.40437125899402915 0.80776168430091388
-0.74103437875939449 -0.07370650402956791 0.72578552066967461
0.65031336966717035 -0.20975450369402715 0.36820778513115471
-0.56340899913750064 0.17532184568973719 0.74742764670084938
0.22566534898995627 -0.039423326435771955 0.81178737613144847
-0.19928817646613339 0.44842691818841729 0.75918301315976322
0.1437488722051512 0.233488366116827 0.72497480413400694
0.37679782376346793 0.60355853792432779 -0.11312083263645434
-0.10158109864289067 0.77773738750593147 0.3718083125555367
0.39619841095376174 -0.57610315906350529 0.51934953833520581
0.46641295461656185 0.70051657590351013 -0.16816670455341409
-0.7478163562399196 -0.46434780452647573 0.55456130900039113
-0.067253182785346866 0.21711521438701809 0.71519943629005667
-0.55707988438598122 -0.04049018297406981 0.75745640583896545
-0.63828842778155348 -0.63428647248901626 -0.24919131119709448
0.28864300639308027 0.18094987575144472 0.48962990596303513
-0.49587369182272667 0.060830034578986059 0.78961078618880265
-0.61953666842143207 -1.0015117698116551 -0.41217278229567
-0.012694126135331274 0.89787386477425457 -0.37044717997697063
0.24448350765123905 -0.4166447963371791 0.63314753726328377
0.32034604586204196 0.41985158088052188 0.51707105339968251
-0.69196892483373773 -0.19870601815598832 0.48164054144766055
0.11851984405563698 -0.19613262385360741 0.79147681335957998
-0.5804581523262371 0.14402977695194608 0.80885449925339259
0.27751793457481 0.76755911970449375 -0.29581140442109444
-0.24692015286039748 0.25839087723247722 0.78402584381949936
-0.42870884989223157 -0.73878184395289104 -0.31126373975590838
-0.24545986075892401 0.32616644674717676 0.77627746351774363
-0.56849966687640574 -0.33944442920026674 0.67770899412275298
-0.71455946158150851 -0.62055569628745566 -0.22816686390822838
-0.45981022222919776 -0.74584604725418302 -0.32224143879832923
-0.48211866189699037 -0.25255460673101382 0.74802398167530271
-0.69164948446490015 -0.37253296976570383 0.68142883149793221
0.28295281479196888 0.25043692189994005 0.59312297838757644
-0.63151352880936429 0.51038471267296526 -0.54368172574145035
0.66652295992254906 -0.4686395708208444 0.66135781830391238
-0.30472700326833291 -0.043540292063637409 0.76401751167774279
0.16517626811425146 0.50365273453130932 0.67415984675677976
0.37945928261530781 -0.11036862060342578 -0.17020157423485216
0.59038893100837342 0.89147407679036128 -0.39348068502174272
0.46177558979131383 1.0986205085991561 -0.47848511499030622
0.27054592356852325 -0.12293905897287871 0.77996007619377394
0.28043384353427925 0.7157892673234425 -0.085858656045452619
-0.20182979789106525 0.43476017878461626 0.76088816555897409
0.89100777215118043 -0.38543649957730786 0.51320834900877799
-0.13970962163529066 0.3759271624667182 0.79510631155919498
0.028339549838488409 0.12038478958869181 -0.69718282028225076
-0.25357329479452773 0.71054511549853494 0.68288855576033569
-0.67804075037854972 -0.95606901965215307 -0.4225119757713145
0.67468613642891029 -0.38122853615545438 0.68043147624658928
0.12005900825649718 -0.09364576386695056 0.76904395040156004
-0.87955544021492926 -0.74988787780559996 -0.38308437935538819
0.28362488669858976 0.75081095938323728 -0.28598753082200545
0.29513816487186162 1.1346840257590163 -0.44882518869349042
0.15377254147572117 -0.010029875124592635 0.76544214858303405
0.47312965541163976 1.2295767113077911 -0.51772427112685193
0.52357819586357479 1.0464384193243808 -0.41157532004545772
0.11551506932494782 1.0927602031742589 -0.29340553977885264
0.29326744443014974 0.72104134805721287 -0.22661246185695916
0.24580507682353137 1.236826710445607 -0.39253062702508146
-0.32013613973063038 0.63582233998629256 0.7742588874592613
0.51000980384925754 -0.11182510137365753 0.32778570694794951
0.26101706799878599 0.64149904278460745 0.55453822562122923
0.15771169351614844 0.66139537085062017 0.62991458644168574
0.75092346341136107 -0.33902355349000679 0.65991896446821841
0.13502541324327488 0.87147930394533724 -0.03851829023932396
-0.58388615426774138 -0.20150571972181908 0.67117376459305689
-0.19749163281051096 0.51097029756886059 0.71359766695841387
-0.21073599365665174 -0.24483722548157694 0.71543890592829484
0.21052222577331392 1.0530220441030522 -0.35580220952660113
-0.69681070648842081 -0.60325202049628679 -0.21289849813274486
0.40258401227136176 0.058033571780864435 0.52972194784324245
0.085032097968134934 -0.13890185580568648 0.75835013609903257
-0.87653231932799258 -0.6289133166824783 -0.31122383846224011
0.062661124320829487 0.36490011678838563 0.7681628445121973
0.30661648860431967 0.23764057346691203 0.45067842967415572
-0.40761719207077363 -0.24313119035268294 0.78997309536516269
0.67502501129267856 -0.35273900408712677 0.71662100795693817
-0.38644396540356141 0.4313299750154691 0.81709409734273919
0.75342685548687882 -0.49858461766753415 0.67313499045790337
0.35130459006259684 1.0405331738349499 -0.3995644801200342
0.18026590545194843 1.0099970222522385 -0.28873639582600674
0.19590192195280842 1.1723247746816501 -0.35262651899770958
-0.52127810837233923 -0.91016840404908095 -0.32319062029932155
0.93672570173838565 -0.28126258716000674 0.49143758141489968
-0.79647290824641104 -0.48218077635521972 -0.096759311315686602
0.60312747709668457 -0.68610187665305844 0.60178589496579349
-0.30851607655961644 -0.65109957677071506 -0.15704053452492417
-0.3738159634282141 0.28325757906341842 0.65818131352002496
0.24872632790781068 0.19348634134517084 0.64244165515463436
0.82266612409120299 -0.22975765260794212 0.6710729224793468
-0.51094665899408298 -0.25737596063314427 -0.59634159494117966
0.40421202051693328 -0.063899790279648983 0.7206406495047446
-0.34103302925786849 -0.74468401488361735 -0.318665416670882
-0.1166403565545302 0.33518730328770552 0.78740343405016233
0.39535527908251922 0.83293592380446579 -0.32736477877249115
-0.7564894936259563 0.021236957295153402 0.72063673765210012
0.21103551604349136 0.41362372753633103 0.66583319951130449
-0.48621805990146783 -0.70334013913189253 -0.31721157051982374
0.656877262582789 -0.49535138530899836 0.71404155616296805
0.061484416407417086 0.71887306408778606 0.65446791239111946
-0.21622917858496393 -0.032832080113093909 0.75433670462727065
-0.71309795254972741 0.051618630832725998 0.63673047246390979
-0.80772077151289778 -0.22694956803833222 0.24934660317737212
0.63032654468921123 -0.46060814712583564 0.7030121951785091
0.44122391830793539 1.1238890169196463 -0.48053173247876657
-0.31587950177428681 -0.69819282562446183 -0.16750122092656738
-0.41142315399784835 0.43379997368119483 0.81149902477670111
0.64944441900180294 -0.39233517351466318 0.71690255192384456
-0.44344326335533779 0.05897290040417591 -0.71778383079302444
-0.6800020572078509 -0.42376500053953059 0.65142282074912572
0.14450148016101849 -0.087619843161583333 0.77298490738204606
0.43420907481654325 0.62997887350278958 -0.28941305756392666
-0.19955739921336146 0.37259251204684318 0.76322173014445127
-0.047262786278935209 0.58716599223770061 0.70074344159210256
-0.15208344842391952 0.76724056167041432 0.65382908230745329
-0.57148848623948467 -0.080783942647435936 0.75038344993335215
0.040282007770816364 0.46373557366502816 0.78231441931559687
-0.56450095325478244 0.48220405539180611 -0.62323565676160086
0.19079979919627732 0.92376788786510566 -0.25300478617091926
-0.37566914934631512 0.25195711622928485 0.63465762139298221
-0.21250431048850515 -0.094711240512797445 0.75904423413956579
0.44112902931918185 -0.16689756770055197 0.73850597838423937
0.14789361806509049 -0.065444059757089335 0.77146622189928848
0.0050254624266337089 0.33727157788082529 0.80497972802952233
0.15238576241070589 -0.083494891109742397 0.79204174866524113
0.2793326454133549 0.72279298766309186 0.11031404112932108
0.18051715737554019 -0.20797316482348016 0.77746986280991592
0.55302847224802676 0.78563559842870667 -0.27254561840334901
0.26144257050029829 1.0352533883095223 -0.38381581173387502
0.68738008457748023 -0.52999322403124616 0.40915776485739741
0.20991365508512239 1.2036950090763039 -0.47069888075827748
0.55062676372505948 -0.56043260819711094 0.68969518408607655
0.39331783705692658 0.25077450879733121 -0.10428819283610125
0.28067625346244185 0.069019594715360455 0.61558927440457012
-0.53635068272630804 -0.33472842589702445 0.67856111893174642
-0.80036212135908968 -0.95366823370525289 -0.47310390153175774
0.73971313238218173 -0.37269283467604986 0.650954974420479
-0.74246643995124373 -0.41453459507390811 -0.39643352128305764
0.39447608483841812 1.2826365218495983 -0.48304900659575623
0.2510635842923179 -0.068160258217309533 0.80216752488265541
0.36863128089232688 1.0770376544007423 -0.42179213579884589
0.27253187692885206 0.66414948297710374 0.31064255234021232
0.68419827114130882 -0.11719362971626524 0.39594237865675552
0.36349434460121799 0.94602454837844796 -0.37246755411803889
0.82711861895855066 -0.48730090125631165 0.59650940948088049
-0.14303685252163945 0.27292351570151752 0.77101920792322431
-0.6980385094854924 -0.20143983432099333 0.51680812382907959
-0.72976343310830316 -0.41702200452789384 0.64026092657627487
-0.098215213025063974 0.37923661032505329 0.8143002926159042
-0.068967356589613615 0.80836561726816392 0.53465226027014978
0.3222939975554393 1.0790672200903275 -0.41057019904640413
0.10461149372030043 0.89268851234650537 -0.073695075392329557
-0.24650849937044583 -0.57126610226706553 0.16722593717228307
-0.082952800414592076 0.61566133259376166 0.71737682501522215
0.28357239104162346 0.16039006762228247 0.5045194171041345
0.4584687989312286 0.01766180730324507 0.63243955338614199
-0.78486458139444082 -0.75054995564080507 -0.39068913102962455
0.12866864638084508 -0.14017048378379648 0.81124181165782971
-0.14785139263544522 0.033818374300947696 0.74736788978022162
0.10103859120114578 -0.15325444022995605 0.80181598311677504
0.1119665664903664 0.40732494501272853 -0.60798831873454162
-0.13071155926587963 0.0084529455340911497 -0.72252609953617508
-0.565791543112379 -0.63573833503726185 -0.26632433619379725
-0.11315317575770578 0.95880996400195251 -0.24769437323752896
0.33745452798830655 1.1485882435574126 -0.46171950947839235
0.72922027639051024 -0.30836012815474945 0.7002437016206855
-0.083831901466314918 0.21267924683206196 0.7579923911750015
0.32065695703820296 0.4299657537811612 0.35695647249746543
-0.75460382548405747 -0.02692989138964208 0.71071079338175025
0.35751019841440623 0.06961153107846485 0.50585390354159898
-0.54819840536583442 -0.12008119124888594 0.75580999903455393
0.12253055691195769 0.43290959535082862 0.70850837500717034
0.65516044060040102 -0.69628187886586801 0.54475866000679218
-0.1357296609462999 0.28967333809201712 0.75865488212647847
-0.041346096190135739 -0.47296428856580697 -0.13102516594167923
-0.38855154752992149 -0.1768160623257824 0.81366198982885862
-0.70528706143193531 -0.18030508642005749 0.73845524556114128
0.41838721326026729 -0.066783398024622187 -0.054029156646912213
0.25859440174459181 0.80320493489934197 -0.28771471660302694
0.10886822995029277 0.43259811216580779 0.72684432950133271
0.32956584449526005 0.66560080841359159 -0.038922200541271934
-0.85200740530840235 -0.37248448878372287 0.1101009764576375
0.77668861344166373 -0.16205851016752071 0.40060711668614601
-0.23226839632245699 -0.11936879612621176 0.76133892888509536
0.78758524451559353 -0.35045808657312527 0.70239713343453758
0.74731282090027662 -0.33145012421617359 0.66472361787267431
-0.71435482010876328 -0.79206043289776851 -0.3806411771823619
-0.3916380853597019 0.4697079229508816 0.62532008418168061
-0.048784197520014061 0.60463249198674873 0.67918983793043708
-0.14958294980973363 -0.012067933176478363 0.74494803648679664
0.26653754176466293 0.78093605937810384 -0.28691713792940732
0.39487462508773774 0.73796582399601895 -0.28701443248665015
-0.49025044943232032 -0.68881455245392864 -0.31579326888213899
-0.20927980948473035 -0.22190154877895552 0.73906214505851864
0.17550143255188644 0.14453301820097586 0.73079450848623395
0.09536258291788613 -0.11039336410874334 0.76615397434431287
0.11051784378330609 0.51529730565684595 0.68817603818425255
-0.81726697347569655 -0.72550096907369088 -0.38391170860161594
0.8576153906850017 -0.37915057689170695 0.64092140326916791
-0.78451406842162896 -0.045587301600045649 0.35072875610217835
-0.35068764467308711 0.54256667470853515 0.79970174594379273
0.42333776300715797 0.69480852537053561 -0.1904292479856764
0.31241555422579737 0.67780613560214231 -0.093232008206520334
0.507019908064823 -0.60655948227896772 0.41020260221499427
0.11305224924784341 0.89537076684109795 -0.34217798019892598
0.43084420824364145 0.056952085237067962 -0.032991543241216448
-0.50756692212407017 -0.030968964112783937 0.70650326156772536
0.1604109854208744 0.86589420693444374 -0.17898894994795
-0.3512389599697805 0.2454273219573313 0.78603034269423944
-0.62533750477240702 -0.95222269985650243 -0.3857880702180978
0.20793939144913409 -0.36797637161062013 0.3581066228884211
-0.17136146510112837 0.32874409681832972 0.7562811879995337
0.11942204470883055 -0.20233534013302545 0.75522714793481072
-0.60061636597762913 -0.71320692837631583 -0.33425953877249981
-0.71147646558832989 -0.83501302176055425 -0.39893754148386762
0.13751156678608112 0.56685285669730945 0.67073894970715742
0.13633753673479276 -0.087531304418416056 0.76276476989559683
0.10111742246321143 -0.27353633482641193 0.64604999208322056
0.11611341964079358 -0.32541627171725196 0.5057379497562593
-0.18870368404234839 -0.1279588858907168 0.75183690785858204
-0.49151310784284163 -0.059944394234916487 0.75985612806479708
0.7961623222222336 -0.28715195198060606 0.6955100555610656
-0.17324519540359873 0.50596367923967556 0.75261952775834828
-0.90827290671849781 -0.65247207357475467 -0.33572687268352297
0.20875852776451254 -0.18321471528812339 0.78705028044233671
-0.67423511172017569 -0.60036979358948983 -0.20871390322900396
-0.4523434262821695 -0.61696411068800217 -0.16296729447928726
0.051680396214663915 0.46936700910754858 0.77565891739325821
-0.40749279495678081 -0.34685322860936374 0.69475210137316168
-0.59592498769957913 -0.92281580829588528 -0.3945527785366636
0.033991055433137518 -0.42406940555833827 -0.23185477256976128
0.20472603795161959 0.66546972288966444 0.59803007107014849
0.44126908888475924 -0.47580890057278324 0.70165442288375601
-0.98990660385845075 -0.91833835122142382 -0.46235371814747594
-0.058588000347576497 0.27542610676031032 0.76380409555756756
0.31038499308069589 0.48202919863672733 0.40159535648538736
-0.40958542582693624 -0.58656308662041212 -0.3956871702432565
-0.56815312288919273 -0.64997249321321782 -0.30295511116668905
-0.58724585169577637 -0.60010010568263183 -0.1657491765531276
0.36818925091914068 -0.33267417911824992 0.28953507721352878
-0.649208381935658 -0.3582770782375313 0.6801637305538577
-0.32495867639286757 0.28043683756284743 0.81009438826013991
0.32786435873586584 1.1815893497845478 -0.45761911315340598
0.077035398130757216 0.58356372846987981 0.67436329259773942
-0.38147355983769415 -0.29872976028118181 0.74901865888939057
-0.27736581156518625 -0.0052983326018551935 0.7658714917602012
-0.31621942378590973 0.2477501393523589 0.80671847274964392
-0.62169935442709701 -0.50378530610351469 0.58989073605977183
-0.36340186394140517 -0.006419687329740853 0.73634884774426013
-0.56241898154570791 -0.0083538305542205649 0.76699769769459181
-0.53529763086671878 -0.03566725103596724 0.75951725321950647
-0.38361883570846089 -0.27625643830063318 0.77739476477863434
-0.5941695741561972 0.71265363546223526 -0.32522459653184654
0.039056931766662473 0.090867164685500157 0.75443061620470786
0.17694348700270979 -0.34877293075908433 0.62956272082345777
-0.72122584907604192 -0.75888697686999151 -0.37121487186168878
-0.10797646691282381 0.42453526333761715 0.81143248620953301
-0.38333569638087539 0.28889660426635544 0.61513504887619064
0.21329917943186416 1.2150799774068908 -0.37324084504525956
0.73193363202176442 -0.44616588247793487 0.6681557278327972
0.55083836436299549 -0.093903897000538805 0.70260403048887099
-0.10427160489011911 0.30935874809735786 0.77707987294042624
-0.087762172025481533 0.090247962809208104 -0.7319971802113443
0.65882091704490264 -0.55724642601938612 0.40751915412123196
0.54049103435324852 -0.10363603083003881 0.35492151538394978
-0.18431019672261684 -0.30239784959841032 0.63948730260956665
0.46775987316303791 0.90395669205014517 -0.39341183588223316
0.83940418869330458 -0.24631680090974051 0.66607648319352819
-0.43311384302719702 0.022445994565094551 0.77477411120024442
0.23626537315779572 0.62411431130937611 -0.43046520968941593
0.4255882314463868 0.57893860845671519 -0.25072105177942916
-0.098935934590357988 0.23085358390691368 0.76375314097542457
0.82064236701284443 -0.1843205791531588 0.40599733246153136
-0.76065972302438212 -0.46228265698226956 -0.31270922463392026
0.29712714289946263 0.49718141508626967 -0.37492993090888405
0.89790401421353039 -0.32378001141121615 0.61806463857610794
-0.22634503045199494 0.38271854164610275 0.77285060921769855
-0.47297650714732598 -0.65157472903446134 -0.28571563522851307
-0.43458268981334669 -0.010702182476320488 0.7335984761781944
0.13580823704477396 0.32007515974548539 0.68723169109119908
0.44583407810662123 1.2503233989632507 -0.51211961035021147
-0.76266057664844666 -0.63948491828367438 -0.39934165112403974
-0.23608767201620395 -0.38143175139858521 0.59387944716596763
0.33668277947001712 -0.11106296986846687 0.73991779083267062
0.14866937522706891 -0.046769389720701326 0.78672283934253784
-0.57055585182396484 -0.89626892806391822 -0.40021095935399842
0.31496780561223403 1.0380036512220512 -0.3900036888563676
0.75735348762347243 -0.51345392624961939 0.66026904034954015
0.15587746014400139 0.47382590601272589 0.65951441092938978
0.85288659406548462 -0.45759878092772155 0.52264983419053124
-0.098799610945658145 0.79218009927161859 0.66591268798582348
0.40735776115195321 -0.41167533709061388 0.35454978634457035
0.094590960798218049 -0.31597197719693604 0.48983851998720951
0.18344810113747201 -0.21030978535477729 0.76877365602000225
0.25259957142300138 -0.36012837961307298 0.26992064663177473
0.052554148765612041 0.61550352956166243 0.6760849784659726
0.0046119998236431314 0.92935694534471835 -0.0031758533409629308
0.30196269959279576 0.58895187350007916 0.51379841489210065
-0.34066326927272073 -0.096809410553197139 0.81220888643709088
-0.15457518615464139 -0.17188998815581336 0.66438045591737449
-0.19998775393152357 -0.49576457291304976 0.39892047072476799
-0.43248831822354816 -0.77141025521375717 -0.27588853990654627
-0.18449702091017173 0.70633002096837316 0.73567274682944372
-0.21364747989394317 0.43656977295631094 0.76547613391525715
-0.73749631369005897 -0.25534010542946284 0.5963918592225923
0.56567975822606975 0.91151035861832952 -0.45095074738133434
0.22355458920665328 -0.017674100935384018 0.80853948211755977
0.26856159001041391 -0.37430074104527833 0.69000424879408939
0.096497393492988692 -0.16927330605448887 0.79451648303472666
0.21996939588591502 0.9084467514190262 -0.39032013980510527
-0.071674974476305664 0.1252239107713109 0.74620397980604736
0.51043334097576931 -0.34210965602884791 0.73736525955202836
0.25977116119933186 0.97504058027848295 -0.35472539221522226
0.44075452973652318 -0.58194098678134942 0.62802600350823212
0.015886132380160234 0.68733263872368333 0.66919278686822992
0.25131682756800089 0.76170829780148885 -0.015314447075873261
0.18627026382665335 1.216591395285648 -0.44083141454134278
0.18799465104859081 -0.36228411342110611 0.35103952502996094
0.08306463720942503 -0.1422863553566458 0.78341224518748476
0.33978364719303755 0.65222290803634131 -0.0072671154741712485
-0.21097514418844909 -0.33907042190286774 0.62972519678190508
-0.016680698617804524 0.34383740269960228 0.81076115734318677
-0.53194380416569587 -0.16422495876714294 0.73645663151591378
0.51063512291101176 -0.23679144451728185 0.3204038899949424
0.51887015763310274 -0.66351183769797295 0.46921953163030139
-0.46613186143740037 -0.21581008675894964 0.78480614684808359
-0.62209503718457171 0.38576766157912878 -0.62928986298943812
-0.97275091792556267 -0.90440683209806139 -0.4329556719228691
-0.55829038769931927 -0.042400786242453137 0.6569891007578903
0.058500397625383727 -0.29912636454106867 0.50791146059451364
0.52252676736522474 -0.03286265139885991 0.38702736023593332
-0.61963053582898553 0.016116486744623515 0.78881500945009719
0.35907427340218945 0.96656511746937479 -0.37931253033411849
-0.96273152503509252 -0.71277377333369252 -0.36945770814680401
0.67090468754590304 -0.47071424053797628 0.66886437099296359
0.39070938483165563 0.73219554300857403 -0.27400921754824736
-0.20066590168988441 -0.34839836147603265 0.6040223474730837
-0.44217499763336932 0.18239084636564229 0.60894814725799762
0.27480219148882412 0.76264481624125224 -0.28622277052839706
0.31495431177515343 -0.17251764607979503 0.7420272491743134
0.39240747615825988 0.89967315208254206 -0.35981079691666196
0.39260349074185186 0.67912092244780453 -0.20416744666391651
0.42749306588241609 0.73427303811931033 -0.26087630281108432
0.76123088826009422 -0.39587946769216487 0.66805225131039947
0.126667341882019 1.0311111861111026 -0.38008167144270999
0.037334440599680718 0.90115520953546646 0.085839479453028389
0.49925481883014911 -0.51939805005907047 0.37871119592129077
-0.16168407273018026 0.96154856787136733 -0.25248271545071077
0.74994846634810841 -0.30968894150979409 0.71581944897123861
-0.74315460709023284 -0.35335304977649074 0.56527906432024366
-0.61363480193035613 -0.208068970035729 0.62348531549678654
-0.65047625948646726 -0.2856991631985597 0.70867454276344688
0.19673829534418985 0.016887578203704123 0.75060575538577723
-0.48034311922700823 -0.55600029227683123 0.53879673144800933
0.31147909404383611 0.074371714691796598 0.54555109202298979
-0.35630569024678138 0.19857076947677044 0.7825073466145156
-0.4101281884422967 0.18124390801015799 0.7407636424784485
0.77190644397518682 -0.39900685771407751 0.69334285468519852
0.13620565890401792 -0.33807422572491852 0.56049297385737162
0.85534388423808849 -0.45787622008841211 0.5493127030617373
0.50051230269000868 0.84207612568465073 -0.30454148278501947
-0.37976486037296553 -0.51889323608828875 0.58072121695449397
0.36113325728346268 -0.018805852009897706 0.70708911700844368
-0.7986827804318537 -0.95137725221227853 -0.47672984225476256
0.66180270465606128 -0.076145042031516397 0.41504876567962867
0.36219145647922701 0.64611809073281279 -0.16256054113981833
-0.7148627813838111 -0.29081053719401773 0.39104298061536014
-0.080638401676520033 -0.21395807066676475 -0.62414821619589134
-0.71580380446550507 -0.5542782552905372 -0.30253762145873964
-0.23809374811648709 0.74811549156287072 0.32254734550774344
0.25013187091320255 1.1038005207404691 -0.4182474881233702
-0.63946825918974071 -0.068296661104023215 0.55623637604743692
-0.61904196330899453 -0.97009210878933061 -0.38059557842247926
0.33396252269291438 1.1785835421849615 -0.46776071885816606
-0.67690358640886572 -0.13805157908444521 0.53818885489948798
0.45180489517085043 1.1950709877606052 -0.43059413143528502
-0.12914126680169957 -0.033947938257741228 0.74416289412442893
-0.58600022275131991 -0.23834613807000871 0.71277251213506077
-0.18894868768003192 0.33727530783184534 0.76736341701219146
0.043246035106738745 0.88153895771495883 0.58917127607404041
0.45512861676936467 -0.083991413196928377 0.23467320987614926
0.538183849313004 -0.51131275850290336 0.70898177909981541
-0.44794037435793044 0.58636732775441835 0.68042729054239715
0.62051365416813553 -0.40637326649899563 0.73273187204452483
0.1044680391173074 -0.13422775792339792 0.80268651974807881
0.24182698486638188 0.0049964037837391118 0.74731204136856633
-0.43777295307198472 -0.085755514218469386 0.80397807890236095
-0.47294575789156568 -0.53821987658694326 -0.42824132115271141
-0.61065105020339416 -0.66537016356352474 -0.31225716726003583
-0.24116243104217006 0.4750014887749483 0.75873980568834298
0.12520290902059728 -0.18495862516209094 0.80527839380707888
-0.19969417830202119 -0.39996471240856479 0.644413676259461
-0.43269036245367154 0.81084473064113638 -0.39243014816742061
0.46582223367116171 0.83508747584494891 -0.33605760532363149
-0.62326151168277377 -0.852742350760197 -0.4689408903401926
0.37343277664846752 0.32150579260057999 -0.18242158530343744
0.72042125826002845 -0.51362758741894154 0.68669829615667766
0.12915701032538607 1.1302803169892126 -0.31623448676418064
0.10788367017563871 0.71779790905562724 -0.48320172154412688
0.19417589307600736 0.025992183727934659 0.75221533565071041
-0.17672249106275295 0.61055826872701502 0.73880832415300546
0.20396513731769694 1.2507141219818312 -0.40575497502481994
0.50913458409393186 -0.63624533748788004 0.43640896366242288
0.21441958734534694 0.25856131026124274 0.68422425497202966
-0.5152934552722428 0.10451645789256148 0.8112341355975019
-0.51635727157846034 -0.35663995613762189 -0.54191541538313714
0.40716846542389007 0.68387269338090206 -0.19646261138262133
-0.28257853762334406 -0.17346011413816953 0.79785520841019064
0.26255301802828868 0.77243949330773809 -0.25972613700091074
0.1702689395809216 -0.054961848588494178 0.80759018032022567
0.031969103194839477 0.42638853781006247 0.79471082788617764
0.6426972158719586 -0.46958893501390797 0.71008028890177144
-0.41052438371534805 0.02350783797705347 0.774968713153946
-0.057120039894838825 0.93362216369063145 -0.30619757352647525
0.36593514592530596 -0.361686645066154 0.31691999736879239
0.22338052768499672 0.92736964343616979 -0.30949174914731259
-0.41172003657688805 0.35146214983292623 0.69178145251164125
0.057312122764336948 0.36876923122318139 0.77710283039557737
0.14024380143238346 0.46936440720013906 0.68236073190792723
-0.67442401338007585 -0.96605934235766533 -0.40527534261125453
-0.45158015527198003 0.23732678607851021 0.58898001170292247
-0.74277591435694745 -0.25163914232697415 0.62654872141424534
0.30728773824640498 0.42149580389193098 0.56702577736207616
0.30131288017674507 0.25757281865340431 0.5154399591441674
-0.70838540080390899 -0.48435676674701433 0.44617228738687942
0.16256414281859577 -0.088489853691280373 0.80703763572349629
0.20005111663541264 0.98641098175275221 -0.30717608532987128
0.28567371995304569 0.10704792211085667 0.51488209244702432
0.10516790959156097 0.83040277872819424 0.26432204810494397
-0.22064245894606316 0.43735604303630993 0.76689075217672809
0.411771871952201 0.7002723067702048 -0.21790647833005039
0.14549039507987516 -0.083542789188399524 0.76020508986430713
0.9135436535805681 -0.24002632728714968 0.44235205359902352
-0.90928268795235212 -0.80466140944465003 -0.41799324617304023
-0.53361932310317073 -0.25689301002005394 0.70178801613498365
0.20155414015221496 1.0865284961595627 -0.45346280218488744
-0.21872197433198792 -0.58851009796817166 -0.24190484970253578
-0.94267500043140018 -0.68096185749558913 -0.38893055297092616
0.0047607620480896173 0.63201207229389844 0.68245620024789844
-0.079541211005201617 0.87830563976754661 0.2130325964957791
-0.62247471871649651 -0.6105586774580587 -0.21759843827115333
0.51752500394356815 -0.14341455052179697 0.72607714442163029
-0.21285153652256383 -0.32658986938647594 -0.5767329218979711
-0.30500787523489237 -0.22700035191333079 0.79698192975023119
0.4068077462478783 0.80039691093358556 -0.31463134895339095
-0.28401055133478437 0.56587871712240911 0.7762859739949306
-0.63683903712403733 -0.75854023509394608 -0.35544067518745948
0.25617807298818107 -0.11587983807914526 0.79209825807014766
-0.38200554646200402 0.62510494491462154 0.64058269053056449
0.50777972997520493 0.884360289035377 -0.35500403957222204
-0.71645322828432612 -0.40818176976752873 0.39905266388249316
-0.12096545125201885 0.45331978036373677 0.80482352209440222
0.67164078196322663 -0.67834728923645748 0.49233825974172163
-0.478926755471484 0.15627622989068612 0.68661447798668718
0.57093483032070935 -0.38180913620835 0.73550667072090192
0.64638902639755358 -0.26396068832634079 0.73086314863695634
-0.26349932685274169 -0.27196711983219224 0.7285239018405818
-0.75393419168900522 -0.43056284147293411 0.56907941279524721
0.12381405799874301 0.48938960045872015 0.69728278947483346
-0.002348715795911005 0.52403479346957482 0.76731451774860915
0.13143866147665051 0.40604384953747719 0.7184372702414521
-0.23679765210560788 0.31738933620479237 0.69958771114082197
-0.17470528395894647 0.72024470507608029 0.41264654826444769
0.12055974809555892 0.60629362974943568 0.57082147854175957
-0.46990394861124685 0.47664783273199873 0.69530654026890204
-0.34953533132107495 -0.63582489679753529 0.0068735729514273203
0.13659240857882438 -0.11205575250897937 0.80767063380406512
-0.95269769827602246 -0.78795549430727974 -0.39439532509880593
0.65815859768019536 -0.46585321697882343 0.65846184996204471
0.51356307677963997 0.68280469067689165 -0.27791315472078537
0.28314329624068435 1.2470541048854908 -0.40641089757502158
0.42431402572427501 -0.22646585846574929 0.25116780210765199
0.3722486573558168 1.0467747196261445 -0.41057622850788533
-0.61849711181002931 0.33287573992235941 0.42770658218792335
0.5513650240949417 -0.27589131652495524 0.73652889679669897
-0.47434594282310272 -0.58490348558151872 0.48016764534984446
0.35988327103271445 -0.2206244266427877 0.74176357244629543
-0.37337475201741199 0.70465861705710786 -0.54912078556642285
-0.27783899855165473 -0.29403276710156412 0.72143233040389276
-0.65084246783356292 -0.92768149699518787 -0.44212370531841572
0.93220144689825091 -0.18226043494279498 0.50140501130615434
0.32649330392501597 1.2771827473145141 -0.4283762658910959
0.53870436517884457 1.0552950712159568 -0.51185716107148238
0.663917036345822 -0.67039135474773026 0.46519333909679261
-0.18453115598211056 0.34053174958135735 0.76240230808523535
-0.64594897047724942 -0.61102985563775292 -0.21920407728109836
-0.93592406747898949 -0.72024081746234536 -0.35280186020207793
0.41583623565278671 1.2489713061675243 -0.53355105448663664
0.49731214019367087 -0.38921049805400543 0.34705526081338434
-0.65439557974008977 0.085505328680048009 0.80929404506400715
-0.19506712078754873 0.5193751704645404 0.75285046875691108
-0.091941258676314419 0.27206549510374245 0.74833750673938937
0.41502407583417167 0.94267917601345719 -0.39263480476211754
0.25083971269257432 0.82656425209089335 -0.28844444501689281
-0.56712393290946395 -0.64064836875263076 -0.28003267468229609
0.29151760631779666 -0.047713756607233648 0.74997815561782488
-0.49123940275588396 -0.66016824330383983 -0.31284613137522399
0.62546307917269317 -0.42536197091714634 0.7077284905351604
-0.47184912884285524 -0.10781514297875283 0.79196262567419495
-0.40905105630580962 -0.36611369134525695 0.67186580512516514
-0.68772751488798889 -0.95202531257975131 -0.45725368911059405
-0.37205682434154852 0.27491337588470621 0.76890302280283152
0.59908199049713318 -0.44526127073351773 0.73008953944587773
0.75456303608208231 -0.59130315566399183 0.56682946172547588
0.31758738128725028 0.52819021325370841 -0.35273744248333117
-0.31075375188645538 0.21458741332112474 0.80394873622176277
-0.58439909407002233 0.091015139760536101 0.81000875080366086
-0.30102187708547135 -0.25806821502270694 0.76508399800238891
0.83998443702098058 -0.16420185678426868 0.41889942128162261
-0.57655195667422632 -0.32120923709291738 0.6834513601734713
0.24592978376528762 1.0775491639512413 -0.40658588789160177
0.62304789098394053 -0.68593383867276891 0.59907418357575182
0.26328205168390539 0.80576300595622996 -0.29837853604539788
0.17806048878090763 -0.20417959532435681 0.78521007669964149
0.6727564816649263 -0.53677625899088355 0.69465684135474959
0.03970485030159665 0.31936194706680254 0.76578409245816914
0.12119473143468795 -0.19183871124159957 0.79905082432188834
0.89059517522645137 -0.15525029576340454 0.46910480167696278
0.043264968196737641 -0.29298133387287884 0.57746057783278815
0.74593158874094101 -0.38829164431316343 0.3900395239616401
-0.39628695171600192 0.46868002559140187 0.8158746330457376
0.14319406288373848 0.80799241380978337 0.57452542179771626
0.33557585626001973 0.90414250633471838 -0.34752474784493614
-0.29450856586355556 -0.056668958487376742 0.75684431895601989
0.36931572985016459 0.525029750339705 -0.27710743580969677
-0.3727261994699802 -0.53813202870151855 0.55547617443626507
-0.37320878492631948 -0.77035100648064514 -0.19141082418344979
-0.39065485108956466 0.20447741233236449 0.63345937710287359
0.48341909800717175 0.81495400206050128 -0.28562101999258971
-0.25331817346203422 0.71021210865183093 0.654089578069879
0.10298541992025534 -0.18782359829333295 0.7716650159043752
-0.34482070672100917 0.12698069024584413 0.80083384337315522
-0.37271565001774221 -0.24034191479772282 0.79570693342413534
-0.19042777740073191 -0.18792972104368744 0.74165676123877233
0.053135106732892012 -0.35157946035764276 -0.4109426181919531
-0.12450685438698805 0.96582031444690841 -0.12887724173217663
-0.74741035223405561 -0.6558086731677566 -0.27285844555494521
