# XYZ point cloud file
-0.049368492290454924 0.27418160463219809 0.762089277590416
0.31184265703802794 0.47555520496690251 0.39266288718832243
-0.41324613378902697 -0.58616646166162134 -0.40047365584335637
-0.57423138987652322 -0.64403485536148963 -0.30802020420236786
-0.59617871024214963 -0.59052538983327274 -0.170886758599611
0.35657724249197287 -0.34266538558365012 0.29220004148388945
-0.65663475710947417 -0.34487454648616289 0.67895673370146881
-0.31247795343203499 0.28065538205834706 0.81151931035842395
0.33275368747702494 1.1715980358545881 -0.45279109135734252
0.087304797490691755 0.57570214182785318 0.66796306322850363
-0.3836386824609086 -0.28816890528677508 0.75287489144555231
-0.27266116980835697 -0.00057351548993844759 0.76743558799459599
-0.30470012375659117 0.24846180107307259 0.80796827388675219
-0.63116812024592228 -0.49063307304930692 0.59316943366817654
-0.3588468235767337 -0.0005941445377697363 0.73803479654764992
-0.5589158075023164 0.0018391000458599649 0.76528870546552774
-0.53236759538704703 -0.026061202622468471 0.7584252908580229
-0.3850967681933426 -0.26575060323312316 0.78070219700140164
-0.53513796004591185 0.78679512708016297 -0.26553719373080042
0.04425546723486562 0.093647523365920637 0.75239039193796309
0.17258497218237778 -0.34082632910621591 0.63508966682540624
-0.72637532998039589 -0.75163522367245861 -0.37708205812364071
-0.095232712391290164 0.41986658885046779 0.80916336305313763
-0.36927344665166295 0.2954786990793945 0.62258269409117339
0.22441700527262221 1.2014981716023723 -0.36247496998443118
0.73062072204359652 -0.44134882755514937 0.67110853863522735
0.55332170062742847 -0.086403532164848862 0.69535948570640649
-0.093769779447953283 0.30740199934877133 0.77599943444166186
-0.0784706531021655 0.1118699819513882 -0.73427318949210907
0.64444650785725166 -0.56599280325504742 0.41447125342106972
0.53252993380942293 -0.11375235331997491 0.35049888443025345
-0.18720044187304552 -0.29461451940586603 0.64523312588802817
0.46631356772438082 0.90273512304288239 -0.39376101978828082
0.84250394186752331 -0.24244202101607049 0.66044209405897902
-0.42774237438652207 0.028888796439429321 0.77528406921621418
0.24341163685213374 0.62897348498642458 -0.42066747772904556
0.42306010617700807 0.57458988441878844 -0.25165858464873558
-0.090076451384115686 0.2304661562310053 0.76311693844161255
0.81300564172233614 -0.19559166464844058 0.39962920598036611
-0.76964540191038111 -0.4247382522832126 -0.32950371460568206
0.29890570529326688 0.49702470467278648 -0.37087211200899262
0.89854780578910187 -0.3252691273018421 0.61504973756526482
-0.21241017484206992 0.37999566916685668 0.77475117241723801
-0.47851316711128433 -0.65085287399069891 -0.28751406174278316
-0.43029854860163574 -0.0033758606365417165 0.73464738237866811
0.14241768550612299 0.31819891019156277 0.68116578241898651
0.44313784623161823 1.2381189812735727 -0.51702201147956561
-0.77039140334370515 -0.61810559577665636 -0.41360211341511288
-0.24084952412742489 -0.3728858825889203 0.60091343343814785
0.33872975727068599 -0.10253266809081807 0.73657934537492942
0.15211116251356671 -0.03907938699304081 0.78448241369223837
-0.5679806527850495 -0.90309993713675141 -0.3908724106553052
0.3203509668745621 1.0330292253127249 -0.38370486903810352
0.75480237289912644 -0.50985146130146375 0.66555369109285856
0.16328322834337783 0.46904163464182069 0.65119575750381919
0.84596287184259289 -0.4661822799583506 0.52486061888594371
-0.079704544625398555 0.77857101771175063 0.66880876714767012
0.39538115584709033 -0.41851061303796167 0.35922572851017698
0.088535291283193374 -0.31438501867093116 0.4952485815153338
0.18425168482561283 -0.19922573768198015 0.76991462792046406
0.24139001986140229 -0.36848897621444765 0.27413860772304943
0.063820455177294733 0.60665912575767367 0.67058126506173998
0.02379434609177089 0.92392761747053154 0.014807050455011961
0.30504294857273528 0.58248003877555732 0.50016350445867985
-0.33785819962982977 -0.089817613288435183 0.81335921725405136
-0.15469066624169336 -0.16625434290340335 0.66814908868663991
-0.20825356039263809 -0.49069507781028676 0.4079394433579786
-0.43615608078134116 -0.77653132836650052 -0.26984944012794898
-0.16409093983013712 0.6954499999319177 0.73980627512890607
-0.1986409894852148 0.43262283862991158 0.76764849790361644
-0.74554966598607919 -0.23588243542522402 0.5899243261747209
0.56124847627946473 0.91257561858067238 -0.45399067093060808
0.22793310794794408 -0.0088180829755932777 0.80398990476126819
0.26526367105289594 -0.36279009610973523 0.69518581484869557
0.098208194312082497 -0.15876766346219595 0.79545835914690421
0.23074584329178016 0.90925421725598454 -0.37677958379429732
-0.06524410397928726 0.12671607308473076 0.74594636258868086
0.51078272459623264 -0.32989145227068772 0.7386035446865975
0.26783666478135792 0.97189325578872943 -0.34510681795323173
0.43268846465340793 -0.57029078558394675 0.63858031765904499
0.029040927366324354 0.67635871877970422 0.66537856668972495
0.25518572899277991 0.75504319561489819 -0.014063703399912697
0.20106479165382751 1.2055440831793973 -0.42477621934648013
0.17847619285971916 -0.36638187158046698 0.35631770028615328
0.084966239328323923 -0.13306428712806806 0.7840668622746314
0.33950406542135525 0.64551647085175379 -0.010065934998163328
-0.21462316363601452 -0.33062755567043833 0.63606689463031252
-0.0066133878486454023 0.34168372445164596 0.80621774951702996
-0.53269757311909949 -0.15388591799620421 0.73588014101544985
0.50006959637561721 -0.24838886715478115 0.31932881995913753
0.50440610315768808 -0.66165095296005405 0.48167830619729379
-0.46700961311780276 -0.20608172942679293 0.78582058144207245
-0.58031662839669451 0.4800542609209355 -0.59771734946928134
-0.97788822539346754 -0.89761672679257209 -0.43844386662908619
-0.55598319566369625 -0.029402337169782911 0.65667823805564751
0.053189556559125606 -0.29689082790676835 0.51321830398801005
0.51635679341949903 -0.041092156125071444 0.38129739251874462
-0.61608102731450209 0.027642330619101152 0.78538758482048188
0.36217098587848362 0.96348875163362102 -0.37513498664215916
-0.97674808758690546 -0.68392257771821008 -0.38869036330137341
0.66836663143823039 -0.46415274429075115 0.67327358719002284
0.39074621304810542 0.72961137287946798 -0.27283484817525405
-0.20476818889009962 -0.34048200425735642 0.61058670154141836
-0.43140277267367821 0.19228937760050968 0.61447979083522597
0.28006128684081233 0.76176684557451235 -0.2791761828280972
0.31617849339784776 -0.16289733125094696 0.74065846821320491
0.393764742373655 0.89755579241061323 -0.35731509313387733
0.39159558171560427 0.67502771706338294 -0.20472092346145843
0.42598703833476037 0.73118662986693739 -0.26168423598472401
0.76117638005598209 -0.39175875362152962 0.66885871775326855
0.14393304852191413 1.0296104565926338 -0.35999659787858818
0.053262572410728737 0.89312186848050423 0.098449378062456461
0.48537671559374118 -0.52528522845203307 0.38587312142732699
-0.12604885921657072 0.97319480112668177 -0.2129595320458133
0.75322600001500284 -0.30181497560453235 0.71328200668659747
-0.75387130889174614 -0.33541253976576257 0.55958204739395612
-0.61740724836741734 -0.19362970739121632 0.62134136309144594
-0.65633071392721298 -0.27237678212489946 0.70608050896008123
0.20033096679792983 0.022398875436406396 0.74673369288681535
-0.48871153934304346 -0.54397845760642483 0.54714480522637743
0.3113050818466423 0.072510565364483082 0.54078193871594493
-0.34586592535291238 0.20117417017209416 0.7842381324201515
-0.39989277711674376 0.18626134910728886 0.74334562432611406
0.77320224923521863 -0.39338087430632429 0.69410555106867378
0.1307787227494579 -0.33341752998959917 0.56617372681882294
0.84971871415526934 -0.46479205715897876 0.55158370798615941
0.4966346275761282 0.83966728625922116 -0.30855839081585401
-0.38681395837439148 -0.50693292684083247 0.58992031746850415
0.36345239850942157 -0.013019099874598261 0.70128741466418809
-0.79443041158863892 -0.95546672826408319 -0.47108605885683019
0.65551391737373699 -0.084161222062456353 0.40783038825707507
0.36174936729669405 0.64145530948312945 -0.16273779472009231
-0.72386190989043797 -0.26691141331008783 0.3847926584663135
-0.080336637159838631 -0.21304967174628686 -0.63295473218079046
-0.72484324702007541 -0.53028005420753921 -0.31614158166500417
-0.21070837918492735 0.7502143791910294 0.34548479321520276
0.25990930172937787 1.0974157715657356 -0.40707935233789705
-0.63909118389981678 -0.048005063715325313 0.55450275892162182
-0.61415099231201964 -0.97766933547541512 -0.36542598456548347
0.33872362947491297 1.1690539752957587 -0.46290912470740508
-0.67980419323668428 -0.11647895227157612 0.53445627842010168
0.44781610894038515 1.1841474844343658 -0.43747779844711143
-0.12561251857440148 -0.029462566063818585 0.74572364728845741
-0.58952444462919473 -0.22640702469679042 0.7115335918420449
-0.17667052392066118 0.33513292432770747 0.76845408098628987
0.057067204214121148 0.86478673694658648 0.58508330959813293
0.445601262459423 -0.097542860374152163 0.23125116813082869
0.53498568014668635 -0.49835294428421595 0.71601539400028535
-0.42201519615883853 0.59072151172997511 0.69348618959292985
0.62113385297113233 -0.39499424612079381 0.73507696383098953
0.10688193408087088 -0.12423499667032045 0.80268399596964102
0.24519588774317747 0.01105886966096481 0.74282923739415452
-0.43523552823568679 -0.078226319436938141 0.80410001455872404
-0.4763573356168358 -0.53056475909123435 -0.43668748046628636
-0.6169299660962615 -0.65788792778087135 -0.3182103184114311
-0.22462898682692689 0.47075873429472992 0.76211952705882702
0.12696143615188049 -0.17329687774841762 0.80612299221127692
-0.20416985535936583 -0.38955748788295042 0.65219787282387642
-0.37873673120878948 0.86233635107182938 -0.33524730499418709
0.46381248689153765 0.8332730703133322 -0.33725304015798407
-0.62086592102372506 -0.85674356397454687 -0.46607998668844886
0.36850780133863026 0.3120486907063782 -0.18483645892042944
0.7185909911398749 -0.50700784173744018 0.69228438302658901
0.14562691766049696 1.1216024129344131 -0.29873139944950822
0.12371520705225159 0.72948816982765052 -0.46429720529878438
0.19791679819611652 0.031371213297756384 0.74818764516048297
-0.15862011280776223 0.60224902195029228 0.74184196005935377
0.21646920991897289 1.235971385490009 -0.39336493184079835
0.49438498758488514 -0.63666737919509031 0.44780809387461673
0.21946264446961017 0.25839970993541339 0.67658808460393338
-0.50775834010918786 0.11154535388975617 0.81030789964868788
-0.51624247812479851 -0.32915826528771142 -0.55509038538215094
0.40559691331960046 0.67954895101632218 -0.19784183270464872
-0.28136646652129293 -0.16504096283892178 0.80035827209335864
0.26811500847804659 0.77097084812320826 -0.25267771935647509
0.1740378498377595 -0.045997603161123113 0.80485764298707174
0.042273869644706252 0.42258449364480999 0.78824037920136014
0.64160555502608041 -0.45955530853088844 0.71463011921636621
-0.40505938444322709 0.029494520490529474 0.77571304233124394
-0.029538833871431081 0.94155954950682919 -0.27488773908437558
0.35436180572240872 -0.37015787587098137 0.32047327013238913
0.2326296930098426 0.92495230859375255 -0.29866359709987655
-0.39544125446024125 0.35637407620245476 0.69846722367456415
0.066446736566289744 0.36644635582250817 0.77086663644185194
0.14813561281640553 0.46474022160964079 0.67417237522858287
-0.6695041979607339 -0.97310086821263297 -0.39262970150182497
-0.43851841526729096 0.24838849278756392 0.59617648991605954
-0.75074667840871179 -0.23286618625789224 0.61987749325375674
0.31052331170021219 0.41793052762310268 0.55545142268408831
0.30271847623453141 0.25396681914054708 0.50824356044182828
-0.72086495730553679 -0.46896799396596744 0.44371255096190154
0.16585350454630365 -0.078853538169699089 0.80517464905405944
0.21086824293284678 0.98241305584823913 -0.29503316704117744
0.2855266516012982 0.10402103800854423 0.51051839576395253
0.11570958204303139 0.81932849377425665 0.26662255940400392
-0.20548379412658946 0.43346881912499535 0.76919292944010031
0.41029291316276506 0.6963601207732717 -0.21900838387931998
0.14790228452725351 -0.076124808162270075 0.75911573203653404
0.90715933907061697 -0.25149335426085218 0.43664347372297918
-0.91720832999919821 -0.7901942534150681 -0.42931251538896475
-0.53684944764414055 -0.24582684647785147 0.70218493392773595
0.21546012417749694 1.0830348984533877 -0.43691737556720511
-0.22573301115444622 -0.5965880325078512 -0.24000225527008112
-0.95596441824303113 -0.64916648079322492 -0.40913850436621502
0.017678157262933425 0.6225399162928662 0.67912098183094116
-0.057361022043933119 0.8718593288714116 0.23088467808639912
-0.63113609680608107 -0.59917209973065866 -0.22453417585873581
0.52003431163440084 -0.13432439601284951 0.72074877887391686
-0.2130122634373528 -0.32323643692123127 -0.58593584382998642
-0.30494255789887781 -0.21731019765809068 0.80013363041291363
0.40691748917358517 0.79837905388120678 -0.31336059792045035
-0.26425496108550206 0.56003050088277151 0.78101591676216131
-0.64077065502584674 -0.75573778516556445 -0.35791665187424115
0.25911150963409746 -0.10532856102379551 0.78959833249996869
-0.35597501772832096 0.6265997115708819 0.65491179898997665
0.50411527611369422 0.88273606508341196 -0.35837770393254686
-0.72832583870459899 -0.38923684642953571 0.39376931703481688
-0.10747861278045967 0.44793374383364748 0.80311937431452662
0.65748721607715765 -0.68107865677002755 0.50397785204890866
-0.46920384374327639 0.16547072428308951 0.68972814806268623
0.57136256316028344 -0.36978257134030812 0.73746275894239233
0.64928018954089062 -0.25401969940012203 0.72773459307825483
-0.26488804907602592 -0.26255308679824996 0.73311632752097644
-0.76618084664785613 -0.41424922943756659 0.5647932832814142
0.13232184640330757 0.48430420427092891 0.68911955474398745
0.0096452424889594823 0.51726120088596161 0.76219548770060008
0.13929793280328973 0.40303703158584936 0.71055374823572315
-0.22428045797992979 0.31702979177977131 0.70337130188777408
-0.15216106881912772 0.71685131398043289 0.42838572465769609
0.12923948692246334 0.5980435591376434 0.56500693949883107
-0.4480221114215226 0.48310285714020118 0.70513645842391526
-0.35853696485121134 -0.63627391029751657 0.012940702137477444
0.13949937522127165 -0.10209572913830622 0.80670013703927346
-0.96353301079311038 -0.76900698067659157 -0.40860462428771882
0.6551019160228666 -0.45970289595596747 0.66282150889436409
0.50912910239204301 0.67976055505336852 -0.28140365110988341
0.28938048641857961 1.2316854940864728 -0.40164870322407076
0.41319189110035026 -0.23948995106935733 0.25070423856479351
0.37471352828419313 1.0418518641658689 -0.40758489047559721
-0.5972982659239765 0.36575581881891672 0.44241079995707722
0.55307511105271701 -0.26489316860156564 0.73500690284868853
-0.48328733290089332 -0.57373824830890641 0.48910504762763907
0.36071611700825024 -0.20992225287799027 0.74108158888429188
-0.32699707106421805 0.75915001117266456 -0.50187703749910995
-0.2797491435288304 -0.28423770691137218 0.72635190025918739
-0.6463967335817884 -0.93428758923784727 -0.43314110503590797
0.92939664329878546 -0.18885908291194853 0.49341254674430779
0.32961552730682087 1.2602717030746131 -0.4276731022320277
0.53477439590409581 1.0541078690449677 -0.51519731994146944
0.64895930504519406 -0.67453954622426382 0.47645964891215797
-0.1722497545839996 0.3383213544514887 0.7635546017538033
-0.65497849440308542 -0.59814570041495507 -0.22699063176596823
-0.94910381079050055 -0.69484593570199849 -0.37007581752264329
0.41575716558708642 1.2371854320617084 -0.5348560189253071
0.48498093798928821 -0.39852592868396419 0.35012395511149563
-0.64900995867762568 0.097838729687341974 0.80498951325983725
-0.17852149368340875 0.5134421215701952 0.75544827432196193
-0.082452002837923644 0.27078749042633454 0.74780020760718457
0.41571821852766533 0.94051313646070689 -0.39086895886598683
0.25775264485994498 0.82534938090784937 -0.27986165046964118
-0.57372122357272559 -0.63425510525546613 -0.28504880388471321
0.29440303715785454 -0.040132773278268363 0.74570901479208374
-0.49627316471917737 -0.65902297122788411 -0.31527351774640167
0.62478485834137132 -0.41556525062291905 0.71081442865348166
-0.47019980852188326 -0.099494006803618085 0.79179985237910699
-0.41335481506112437 -0.3553269288631915 0.67672575060329265
-0.68206215223470679 -0.95900308448498528 -0.44735439348908912
-0.35918852844910631 0.27709443912561049 0.77178172636634912
0.59865318610550666 -0.43322241806764827 0.73408356599888691
0.74597052907474648 -0.59371956171845464 0.57485319259009415
0.31895114664750146 0.52737075813238032 -0.34899216005369915
-0.30016619446012527 0.21583656984621502 0.80506091673208857
-0.57787587871841239 0.10045393037908745 0.80762755872472702
-0.30186722025908352 -0.24821928391611481 0.76899242956276836
0.83318868603430474 -0.17456375186208928 0.41167504641442321
-0.58189644810517294 -0.30908458286680762 0.68371613077566096
0.25580064202054764 1.0721184337191234 -0.39517188551117322
0.61261540433830675 -0.67961006340477825 0.61188430336488153
0.2695831812088425 0.80492782307805211 -0.29026003578643333
0.17929637001621757 -0.1925020447272825 0.78610122347689249
0.670155641974711 -0.52796258215353031 0.7015054806146992
0.048372290383907668 0.31779437969520563 0.7609633183527329
0.12271282832676356 -0.18030334389323466 0.80017022870505272
0.88627461515412165 -0.16288913224688528 0.46081219118511285
0.039185021317823754 -0.28822864891230582 0.58274049156759311
0.73426503702860302 -0.40131071359135628 0.39053918173955893
-0.37743471406909812 0.46702821792741567 0.81976507414383093
0.15208718349469663 0.79438351886279301 0.56442281976828568
0.33944995357526331 0.90190591099462214 -0.34229207992841637
-0.29108754872569342 -0.050994505401218859 0.75869786229844571
0.36816544168650545 0.52125234861847058 -0.27614660291110837
-0.3801623262626741 -0.52640739476876508 0.56525723072745038
-0.37854723978390936 -0.77546761295613464 -0.18246941524249749
-0.37956283658604661 0.21129971517116797 0.63890114582259727
0.48006643112681324 0.81220942083348469 -0.28902724800082069
-0.22945228226835646 0.70326260438786914 0.66482870688808049
0.10398851939914344 -0.1777458301997572 0.77318359931287794
-0.33643736179088002 0.13019833833687855 0.80171805626635262
-0.37325881588362186 -0.23039779753989365 0.79842966762541145
-0.18995718309913556 -0.18021404862477119 0.74511848252630308
0.045855355460496128 -0.36694461257526889 -0.41559626663815408
-0.093605363284760656 0.96984626924460748 -0.095816082172852646
-0.75730800742348237 -0.63898173526815505 -0.28371001982003463
0.78215337813707286 -0.26573894776524704 0.6959866484696331
0.87078430349390423 -0.38017090804838555 0.62372459871821562
-0.64974274186042891 -0.54387623570824495 -0.38131658175255012
-0.74615965321084943 -0.83297403085901855 -0.49462587882709386
-0.60052048155449178 0.71923578031659474 -0.28438039865792142
0.16388367780674074 0.81924109945284984 0.49009376029686536
-0.36882871217894575 0.39638319126309707 0.64598189810324946
0.51102054338068292 0.9208566072491049 -0.38822242755813186
-0.47990298488932126 -0.57270286232221412 0.40130929521842873
-0.077712814930203322 0.48989257465228508 0.79086261414096803
-0.79415155987906871 -1.0187440804615058 -0.42318270657823476
-0.43968237568440394 -0.41899632573733658 0.65465885017464132
-0.3238645831637168 0.31442890102545906 0.81505173767698835
-0.2066674695050672 -0.13252697339477137 0.73408560530488209
0.20929914396513283 0.76295851197497422 0.25305957810390112
0.79112756091870473 -0.30588441714325493 0.7001626681104085
0.17772022481802274 1.1401929134313038 -0.31168827250137277
-0.092982666301546502 0.67006437330861779 0.72298390679961244
0.85304173863873345 -0.41137733039211549 0.62813136152623272
0.73380705406114188 -0.3141869860248574 0.66316278975474319
0.10279855741850952 0.83349903452205343 0.22011068277653401
0.10258139440427527 -0.41794321714301752 -0.15046596990095651
-0.28450467492867304 -0.7229634994575731 -0.19076414053960633
-0.2726260397367728 0.33294408217521809 0.79313859466089376
-0.20415906080162571 0.4832586877922278 0.75968170481558239
-0.23318454680880585 0.9594204351398572 -0.097281056347595651
-0.60218683521100402 -0.39490112181017167 0.65201558387015979
-0.67649286282065013 -0.27436112393176337 0.71143411749842755
0.067748734880945349 0.49100619217062436 0.73921240961487911
-0.81496885210343351 -0.7359405175170064 -0.41398032291918696
-0.44227242983375703 -0.25794631434260218 0.77052332111918354
-0.22191473523694683 0.36175244806106344 0.72033485909981643
-0.72415617281274081 -0.998844319095749 -0.40199930393571037
-0.035035099419854276 0.45846594706136656 0.79822643683694849
0.81592473852815139 -0.11788117105255025 0.46220925333741292
-0.48129209168606835 -0.37332715554943086 0.67725716178262019
0.64841676462553011 -0.026279390401865221 0.58765138727803645
-0.72752508588532017 -0.32844816973157975 0.45262531299126252
0.21355264596860835 -0.075289164983146639 0.80914882528774079
0.065017059245313646 0.39091752114086908 0.78345499738208346
-0.068296348396891915 -0.47957136109339782 -0.21306296501471778
-0.35763708853776777 -0.64004956347304987 -0.078208366900287984
-0.38700754202743148 -0.010412888667496567 0.76875501788379097
-0.73687909996807477 -0.32860573092747636 0.66679701697758986
0.84043732941989191 -0.42111090185594691 0.46412131200709794
0.35552298044682829 0.42701100200136732 -0.24069116277811275
-0.69335973679569562 -0.70282896429169384 -0.3517595362395376
-0.25385229902131812 0.44194755431779065 0.6725614660619339
-0.61548067803727236 -0.22781332167005797 0.70658922973129457
0.54507868673258209 0.012490714080406917 0.59059336070452417
0.18869047309561537 0.6932698695176005 0.58658155975959758
0.30277498663365598 1.1128532724350828 -0.43027118297776568
0.44133299068365517 0.044539892296253658 0.48555942897796989
0.61079431738593115 -0.44333335931678436 0.73103972324882172
0.52329386938024491 -0.22152001859315495 0.73447600493913434
-0.72869814367762586 -0.52480510454243934 -0.15737003225740054
-0.6200231900952744 -0.64306217283796485 -0.29690412755282125
-0.10018781026601431 -0.43403454498376171 0.38370898114967744
-0.90278339639802496 -0.12009320925758971 0.12713756758049755
-0.54260209842087903 -0.041285437061217678 0.7549614853357216
0.093325896174228262 0.55313045677657913 0.66835395497486871
0.64186872796909356 -0.61739834793226045 0.43259265187350593
-0.094465108768961414 0.86212983531953302 0.23656954662109264
-0.91674602541221262 -0.71231467315403485 -0.37505788356369862
0.29249262357459749 0.67232638916518273 -0.37327378636799224
0.29030483540780239 0.13425214438032551 0.4861861947867574
-0.510132585351176 -0.31157333098729456 0.67411650056920891
-0.42876138135690844 -0.39264563167910982 0.67327919177516193
0.39717822104332789 0.72112724184441301 -0.27143028651997803
0.46106343694572338 -0.0087596410062644736 0.37260963086867349
0.27603497054494852 1.1216730511527553 -0.42597719838614978
0.085965948385979374 -0.1660214260363766 0.75358006251409826
0.29746687252067083 -0.15288399462651503 0.74300974563846722
0.77642184245630297 -0.36523801316801963 0.69769105902321016
-0.11034682847006394 -0.054227202466977875 0.74913780505121963
-0.33853886180075676 0.47852767826986398 0.54186741317777987
-0.88465239278749408 -0.88819534373394404 -0.45393437625510558
-0.29493751871846818 -0.44834711148578199 0.62984767220982896
-0.66278094818042987 -0.85363152652067242 -0.4006814808718957
0.026794821044315853 0.6623265353321397 0.6699826223053762
0.19089457840474111 -0.3596566118935427 0.63661539669985423
-0.27105314150521131 -0.16622553984138921 0.78499876282151249
0.67242929488155312 -0.64887347984632449 0.61156604340793486
-0.75556051378852374 -0.40602020485224344 -0.37597929814308273
-0.32308840225569746 0.24616585238269062 0.80157585426426259
-0.43920324213802076 -0.7945800943393273 -0.24531892943974398
0.26065139144913907 -0.29076164176936503 0.72512360094989958
-0.82959943267049496 -0.76168509265067108 -0.42783825359770589
0.20975929631041268 0.18939609409618097 -0.57871589666009626
0.70156495199601565 -0.51338663092317871 0.41492031353364034
0.080057455694921842 0.59982866728056283 0.61726256420381453
0.62024511324385223 -0.44059902557146846 0.70993146236321358
-0.18875051365155748 0.32654603372742974 0.77485390441401769
-0.46180567679524387 -0.24981331399907347 0.76488061502691451
0.07054116750367001 0.38899261813959951 0.77848380057658595
-0.3772195330824637 -0.35680523395507713 0.68086926191286423
-0.74637403561874471 -0.44365899295146427 0.49168385535070769
0.16832432765451344 0.79113202234808178 0.27993443913742944
-0.084129187624995438 -0.35910812830993599 -0.51987179467497491
-0.20861987223489642 0.52054384987943125 0.67841964567941027
0.40451007290242558 -0.23470178939768438 0.2226085898144472
-0.79736301890011418 -0.46960045780724613 -0.012758694332383413
-0.33255993533045114 0.030514881007381867 0.77351833320810925
0.46688920329010486 -0.55066352883825287 0.39828749222743554
0.0083555036199349786 0.93417611218374041 -0.18682077287151344
0.28352513424844616 0.4616544166987282 -0.39451811995081343
0.33823948280459248 1.1200342800958349 -0.44042474850873958
0.72481121078785193 -0.31276498943356623 0.66518174164254873
0.67774324717331957 -0.6055101976514865 0.65296135681544953
0.38745090397263482 0.5376729270159526 -0.097323210615181566
0.19904481187407619 -0.18998264601628079 0.77568158588235647
0.34559756714099699 0.22040276641444745 0.29869683124181634
-0.33075716235991415 0.83357032947131415 -0.41294138479352505
0.039039585380601594 0.40196983869163594 0.79318801757421475
-0.70121538822071017 0.63770913400932905 -0.10214309479763983
0.0931305532006661 0.58140253959934629 0.66921623530935115
-0.54540599641899234 -0.28646516604097449 0.68139146348893931
-0.75577908695065688 0.34975687255830223 0.30720989435454271
0.042395735564729975 0.64799821274682312 0.67082397945203098
0.30133869173100081 0.10347952158741514 0.48631908864940421
0.2241909678540619 0.015192656921687142 0.74980464606851172
0.39334539956620418 1.162409309966411 -0.47662992226550749
-0.82131613418691174 -0.66855230215175077 -0.33312189249132018
0.45590291040305431 -0.16318723308207028 0.27250503270926885
0.83869571985091262 -0.19560198206253276 0.64734575171877395
0.58974803767094564 -0.22907307959147083 0.35098469528013077
-0.54834936751324115 -0.38668471554199346 0.65894639896195173
-0.92058172572533081 -0.74863029339545761 -0.50535986328763194
0.56114534856148168 -0.47347205588799124 0.7253344149539469
-0.55644141425497295 -0.36393924227601904 0.66755706914182511
-0.56616721460187591 -0.54166805392833872 -0.41111414114453737
0.6849084313353675 -0.46410908550297114 0.67979255793734872
-0.63623036702899682 -0.33724025058241214 0.67476372143664776
-0.87743765463610757 -0.89621396232277561 -0.47329101422426589
0.62711961883655754 -0.39626166625725645 0.73230789326581913
-0.36389444411423 -0.63842176911932036 -0.13520477012903953
-0.11482236102594001 0.74706286596115046 0.40349246775679504
-0.48019844122301514 0.42113677392267235 0.49266160818292448
0.28998476495134362 1.1449989584050098 -0.43532571404268872
0.46440035529087709 0.034105822882089631 0.59069294116669191
-0.32759400094059465 -0.076562003778898546 0.78964418306780182
0.11999166252159199 0.4899733128770114 0.69127742208616283
-0.092250510651231465 0.44007493238820494 0.80590190495085068
0.30241746438152539 1.0147328111845342 -0.37328930575866615
-0.16568343967553822 0.50617605507114449 0.75822374985724217
-0.32007050135050008 -0.64555162844408009 -0.13161232931063438
0.53812965876241847 -0.47785317809476835 0.37280753608069261
-0.13811037604402721 -0.29278304164541469 0.70301227822163703
0.70065368687656893 -0.34407562634483302 0.66918045335580345
0.034066007463831482 -0.32607393189005762 0.47571870114050085
-0.37543162731784463 -0.39133119527001092 0.6313548081627971
-0.58100980721670226 -0.93370366442711372 -0.3578352776313487
0.33935749474182941 -0.01404269042239914 -0.3538289969242161
-0.80697995169667536 -0.76643545379106115 -0.41276105568232424
0.74874087205169815 -0.38084592416574659 0.65288722427222901
-0.1529565085053779 0.38571969592244448 0.77609717645249354
-0.010338485591688595 0.39443806186351438 -0.67740520819088701
0.14562895751672045 0.3713409336738609 0.71102204603594998
0.12282011188182551 -0.24870458163777132 0.70301448258396704
-0.34284087691945686 -0.81412871840878864 -0.25774141529982231
0.10937185089264112 -0.14883080671329818 0.80523618559638166
-0.52249221754718711 -0.10078670513088017 0.74975698444265326
-0.59565771704678383 -0.34280550651479835 0.66780099168778406
0.38371285170485692 0.72112852963196605 -0.25710708276186978
-0.028781498901842895 -0.3529179993363547 0.52010324237946826
-0.76370109344873072 -0.50019556491310091 -0.089156029026007388
-0.72602759404345107 -0.54688379597323511 -0.21661174244753667
-0.40570915103996263 -0.016326728919854538 0.76404848743230502
-0.069125500992747391 0.26060178685514224 0.75328949357248653
0.2982034482341227 0.83444301992319048 -0.31266173142543963
0.058562904832955454 0.85511794480165904 0.607709175954815
-0.45049173805169929 -0.43587042691270206 0.64430198205293365
-0.61198898637173116 -0.98904342674106083 -0.36919049215455502
-0.60829191707328789 -0.041330099400031628 0.76171694605378804
0.0073172405692698561 0.51119719705199884 0.76799621994632616
0.42235462048541095 -0.60128915579833953 0.52739342642462539
0.2590503812373175 0.0020141388035253005 0.75869734242132481
-0.55658659933525811 -0.24582056074040537 0.70468404580080701
-0.053621027598735438 0.53270970009814977 0.75104074307659729
-0.42024196987122409 -0.77578113773097712 -0.36519184507745805
0.012040132469541831 0.52368238211255314 0.74973664478497781
-0.24873126803775314 -0.27095289452601223 0.73676205979250575
0.12233972375818603 0.40525991324056854 0.70404105199393996
-0.56563643368355976 -0.22143626649717341 0.72324238245130701
-0.51437323948672997 -0.60655163568270432 -0.13215829207980434
0.17474587280039877 0.27687722535013171 0.70049288873098625
0.033370252499537401 0.62016526806159167 0.6754138300457555
-0.78740526201406524 -0.58838329162155034 -0.24168345420273596
0.10401737748641438 0.53124781445573754 0.67265906872465742
0.40158686546921984 0.60064673047752049 -0.29560409333601179
-0.13249557723432659 0.75004043077064786 0.60368187423491015
0.30678795381958146 -0.50676706694162821 0.53199749252467399
-0.90701358679774557 -0.11714463541461129 -0.33940527077696814
-0.91045769175340752 -0.98493181579504707 -0.5208585327473827
0.28885102643748617 1.1732903237765333 -0.41413564823028004
0.25661113903923827 -0.016510558381008122 0.79798146704820105
-0.37496891661885101 -0.4071037435467737 0.60486949476480589
0.187139685466299 -0.11784701339943737 0.81092561250761896
-0.67037225301990944 -1.0055922957363244 -0.39010021371599635
0.83164228889258496 -0.37171614133722475 0.43371377634683661
-0.44902756766700591 -0.3461304340769944 0.67732193426547482
0.48964160406962165 -0.17865259449021709 0.73325896048890726
-0.45025782832228955 -0.35295348104428204 0.67969576451051594
-0.39503261335877227 -0.059333184871529276 0.78825941273790789
-0.45325823151889288 -0.36753299213355017 0.681681284670411
0.29653475539251417 0.20903245819607807 0.46985801383572934
-0.22734230767634322 0.68015469855225774 0.60943847437298437
0.12545499873200328 0.84595817693188691 0.54022002036963457
0.19217313914395895 0.77607834504249062 0.41458714660143592
-0.36109091487079326 0.25246454055908263 0.69014842709889024
-0.20725797947393687 -0.48320229059048359 0.54056647507850109
-0.1747216535438838 -0.33466986492255479 0.68424012018829572
-0.52381697967077656 -0.35785023157625862 0.67698647200056783
0.10522049539257772 0.59444370869623775 0.66713827229011002
-0.8953019624429075 -0.86434642671091666 -0.46362960690461108
0.035847010930838863 0.33740867258817797 0.78669437151513755
0.45999066682615641 -0.52100128263072865 0.68859348275456789
0.30775543176854292 0.7494685063251243 -0.28188594982617055
-0.47728392180880164 0.011474919173585008 0.69192972683708831
0.27435673560083451 1.1501046886756594 -0.41013046196522041
0.51059481857589795 1.0391026436668191 -0.42177196134347916
0.11426419298813251 -0.28290677129545871 0.64204797618616638
-0.25144502395682089 0.43714989722830033 0.77073210365754363
-0.61323946766315629 -0.06971695417674173 0.75517822732489392
-0.58775166796514533 -0.15372893084832917 0.73074043362611896
-0.57434338983598821 -0.63861541411771938 -0.2974072708030171
0.56937740472186071 0.83780988840984261 -0.39441603825733473
-0.23184841201199191 -0.20166526006460295 -0.65035783885131515
-0.65678305407356774 -0.54070213256770128 0.46547501041098016
-0.84274810551448454 -0.64621345430686894 -0.30596205580697955
-0.85953022578735627 -0.76396674441111045 -0.44581664659445863
-0.36688120116070877 0.21002893821729085 0.74201628604999215
0.026885034193707469 0.3044016736117765 0.76549198790703521
-0.15197066996043418 -0.30914666972837779 -0.58999949895062009
0.36086370439506688 0.74962668809605226 -0.35094966193797106
0.88433798835809085 -0.24997167019009447 0.6345308717187752
-0.22712764804086483 0.69602822889471483 0.71812731086772175
-0.20953339355350664 -0.35869374935608178 -0.55436601102792515
0.76678341188015153 -0.31623663512742084 0.70968614344299752
-0.39090969545963183 0.5771013363673454 0.65037855616665041
-0.17952627239050045 0.46857464661337334 0.74034823006480899
-0.26323801978778683 0.015325469627685884 0.76620643925029164
0.2674980940931011 0.062319642865158897 0.65042992174502245
-0.59467659316434052 -0.18983597180335199 0.71978413525555318
0.6987594291915542 -0.31402633547753278 0.69264551963192922
0.27734997539208983 -0.034152636537996051 0.78017454889889315
-0.60655970831146888 0.2260942439695981 -0.64175610658837989
-0.35342675115233035 -0.07621044105497532 0.80921807694643455
-0.66953179114746675 -0.56808495681677762 -0.16708094539273333
-0.63100666744405487 -0.60965660749664785 -0.38892985373749056
-0.38003516691748374 -0.75015376759640873 -0.18612294191187218
0.36767271676074387 1.0915583473557176 -0.42915895144190586
0.27869867717158314 0.75705810949259345 -0.26710071674163594
-0.16891103486064196 -0.16673835846719109 0.69033688878579547
-0.28509149496499475 0.49037944763806252 0.78252906237444719
-0.6975378670014436 -0.48307059417344966 0.29716108565018118
-0.064441362254484602 0.58020310542893005 0.71717040242044661
0.56628587448649448 -0.1375170079115331 0.35993117928179075
-0.65810288571819164 -0.31329467313794801 0.69176809121166016
0.42255581999579661 -0.54631842922630991 0.41681205202906213
0.12360892398556089 1.0517972179151052 -0.25466628307255945
0.29862719861731613 0.76202530614074426 -0.29630158076524893
-0.26307097646941457 -0.68184779073919533 -0.18819309689084918
0.49414453205103648 1.0010970671573673 -0.45639318112215577
0.17710185042314919 0.462378034095563 0.67157982555303519
0.16965602621887221 0.93923153219729372 -0.21674790342474992
-0.6040879179346792 0.18446754479453631 0.72069564273476061
-0.49802308749756108 -0.64809077128041004 -0.31334852982767103
-0.71260184553400663 -0.22286770854534232 0.71714637323023034
-0.039688770941816998 0.24468020787212641 0.76085825137882779
0.24100929581091535 0.011870440922499004 0.77663977420917263
0.28903823367958381 0.81177417459163959 -0.36192513565861617
-0.76566915843306838 0.54908218815381105 -0.11193145693585116
0.14244722058573345 -0.31081686332850111 0.63462180582897254
0.17941591501231891 1.006911965297828 -0.25923774722580717
0.58583382135724982 -0.69968398883447369 0.58527297582236315
0.0028357276524939579 -0.29525521016057876 0.6159479349613548
-0.37488076952492122 -0.6359315117548423 -0.14615282940972207
0.87291027216960693 -0.23121601308828388 0.63811040733489399
-0.30351108915392544 -0.011233046843269978 0.77281623487299633
-0.33863939235043361 -0.6395096870779593 -0.05387005258305777
-0.47881935038842371 -0.57518394678597318 0.43495647940136806
0.7498909636005191 -0.32600354114422181 0.66954262806323506
0.39531374010540787 0.87511253364618025 -0.34565654676259783
-0.22144768070649334 0.52718030279777883 0.65687832822584014
-0.34406431929072667 -0.22763288357805544 0.80065984202612661
0.11811336633144442 0.35235865136019395 0.72501285044866925
-0.40548290981576152 0.15567042884902715 0.80264371740775786
-0.85527347850290525 -0.58747953145574172 -0.28797772065479421
-0.14575490411736425 -0.41460692649838471 -0.45283355459081243
-0.38852355928174021 -0.23632791718782498 0.79452332694769723
-0.42707871057568347 -0.093803178265882803 0.81185464125451823
-0.35950977020027075 0.29400924631827419 0.64003600869035004
-0.79724830857599827 -0.95363934921243398 -0.44899703961769433
-0.32801044361091769 0.1913020259926359 0.79759200306154732
-0.53141465619776085 -0.33826382715932723 0.62470406674732715
0.48918681871596448 -0.65725141631744455 0.52127568885376263
-0.60742482874922743 -0.78671909326358147 -0.35930928006905205
0.27667922805681044 -0.15847634811857692 -0.3823478574587007
0.12975269430504888 0.92473862105566162 -0.32180296938547492
0.14820153281301174 0.82257695613113579 0.17523175850628014
0.166574917454545 0.96198018255080875 -0.22289312558745777
0.29255042684112631 -0.057174539435292271 0.75400863302154875
0.28499122403460397 0.091644739954316101 0.54774919179645565
-0.62740107721770499 -0.18265015438943522 0.72580297102954816
0.83788451252557117 -0.24610042350664951 0.40522224382750771
0.39725167909959858 0.53516867493169773 -0.13023467616129558
0.18948279634591003 0.47811212129290581 0.60167543544562285
0.70671538665796696 -0.17802183764621704 0.38146156089718986
0.0375251140827082 0.82453347492469486 0.34140058832390352
-0.54398983222803565 -0.60109936557066845 -0.19400756632477467
-0.53939163594671236 -0.13727633596984123 0.7481129368703261
-0.68882826508040296 0.13694547270874935 0.7838660998215019
0.81102407225133177 -0.47619239673106667 0.63467885878124086
-0.33287799620913994 -0.08290895429775258 0.80432318323767582
-0.48928967366485487 -0.027007221068574339 0.76710340421675127
-0.81931321344855945 -0.93282337998730469 -0.47198465128817091
-0.31632863186407256 -0.23325613001857537 0.7957457457958288
0.43213212693066971 0.79212589087140195 -0.30275637216908535
-0.68374270416636307 -0.94714667194361368 -0.4461746302701961
-0.05481543255365473 0.2331456312148128 0.76200197741885489
-0.07450993556260066 0.37150874707453552 0.81197914032072127
0.14783031559352544 0.25855313674452773 0.62032621297012547
-0.87572119790822711 -0.86710580017976291 -0.47520185711098506
0.26712424747511498 1.0962036458422793 -0.41323067846422923
0.55056921806643011 -0.060807996855640312 0.38494261907228733
0.6735650461668925 -0.48794754407298657 0.71515253038437088
-0.16878675890360739 0.3800301194668636 0.76507855244572198
-0.58258227185273626 -0.59596903174719706 -0.19759222578086622
0.37328915496684978 0.58403194378487733 -0.070950694357248878
0.39654307816522305 -0.23004107929381412 0.18056222337633088
-0.38726299883235704 0.19062532909736341 0.66118583896730954
-0.66719862514668726 0.077799646424382196 0.6222121132961469
-0.046513939343800104 0.3554346572499143 0.81113376927449643
0.39823817762330194 -0.28169413280790501 0.26858439426130332
0.1346666440992923 -0.067255412469990894 0.74928290098011985
0.71983348011706028 -0.48859949102822986 0.6998771198162963
0.69388621927530814 -0.62881483871453758 0.61349808900047975
-0.52773506610945731 -0.77527151422899721 -0.41147117336345929
0.55360437751980029 -0.1787170035424287 0.72582895986529472
-0.61891689491510249 -0.75199494457370086 -0.35189670135702045
0.4371274931748772 0.74102690733594478 -0.24569929683188008
-0.11353085955404119 0.22342800671435281 0.76254019865904255
0.20990295625227695 0.83350652305398754 -0.20368645840245136
0.061764354727170456 -0.14441683796109483 0.75935595083387142
-0.26642777473870005 0.94788157833434727 -0.22369026454118845
0.37055283410077955 0.9225350186377117 -0.36094360665008907
0.39691861295350783 -0.42964732421052521 0.71031635365114631
0.37945278571928398 0.554400766882444 -0.054219837208705712
-0.50840145072757714 -0.067554964504683568 0.73726591108293427
0.38162195426200363 0.83731985781524898 -0.32731961992319292
0.019395719903149811 -0.078491574388519503 0.75509029840430841
-0.10466050898569179 0.10104983665519462 0.74842444889486437
0.67328846502646122 -0.43508591945031261 0.65721716344532766
-0.20704586230023025 0.41700802860950548 0.77101226577957327
-0.10217075566965939 -0.32940637362822089 0.66085165130001577
0.19554603997610087 -0.20419890415107034 -0.46149746099945688
-0.082836944672395774 0.26562104954124877 0.75429471985446028
-0.18043833087080685 0.72804628514941205 0.64915958868848023
0.4639644838587671 1.1024050941721351 -0.46110485280224722
0.37494126162595975 -0.21710616451916742 0.031083094561914493
-0.48430987671549985 -0.087999073010890605 0.76554049230374943
0.13642526075102523 -0.11469537115902662 0.80970522525467992
-0.79506154899828374 -0.86285421297591292 -0.43096558200374346
-0.36929515941939073 -0.72315950359610337 -0.18607771498276904
0.46162504398517434 0.6588197327269123 -0.2956883053125523
-0.30700532465343144 -0.53341825623052053 0.43061588980623355
-0.15935458613980913 -0.45620509008895027 0.46528830509781827
-0.0056506795015636158 0.22672273817403044 0.7547425810625672
-0.19198316054168885 -0.5335818799219858 0.19369234927610179
-0.69374689792096689 -0.54316947764313639 0.077149626934705395
-0.54943434146702153 -0.21595069019912838 0.71395384176188514
-0.5115289633547917 -0.06912199650391404 0.75606988659382246
-0.045223504041603135 -0.30876490427430525 0.64421697859490656
-0.21716692981046748 0.96129688423545367 -0.22422774314062899
-0.49831459111823584 -0.40444042314073503 0.65838158621224352
-0.72811503273396738 -0.054422255700008471 0.74161658325632018
0.16528887156325744 -0.00076686431791395115 0.78643694844826761
-0.41731616241350267 -0.72864657164801283 -0.28244117893166987
-0.78617628265179818 -1.0058298531495034 -0.41567166969211655
0.69016401549174766 -0.33054861228275878 0.69329498316450788
-0.055433699297111616 0.46004318480517314 0.79999203124095786
-0.26108719119968349 -0.3504043251686122 0.69049337097498409
-0.21531186218032694 0.48690758019109825 0.75878227301234347
-0.76439863547855325 -0.54058579739591117 -0.28743140624365537
0.44284550657548749 0.017767547653924076 0.40874220618452384
-0.46019688863897912 -0.60960239710685116 0.15952511383491697
-0.20054320108543777 -0.14771773769566288 0.75595572742080108
0.31620580917896568 -0.089600865372343241 0.73945668657759533
0.44508987213454532 0.77229549727312286 -0.28002415640447609
-0.95235620933736698 -0.73432733297001285 -0.3916184505299718
-0.15155819943019999 0.31012581011650386 0.76179009920797647
-0.43940261735182418 -0.75122180754762269 -0.30754920152765308
0.76885816629153858 -0.40565367272682207 0.69360167369398518
-0.95476049527460916 -0.64930194737871538 -0.38189475500389136
-0.31815784765170818 0.42174192600919369 0.80445273676101969
0.1479628543658702 0.84456650325882876 -0.36370803307985788
-0.52605544067410293 -0.66966351686645709 -0.32346509820712654
-0.66879004553838151 -0.17146851840903032 0.74161592083761008
-0.12324621600645536 0.6270611884018682 0.72877288953028696
-0.86114098477992584 -0.20075535999328764 -0.38765088435719441
0.89119097822901594 -0.35629369664708221 0.47753654002894841
-0.24074378243423133 -0.026503723853827932 0.76272456158192448
-0.15760784063517619 0.54036595719728808 -0.67439874906896691
0.28638501129128713 -0.24545441161124515 0.73750918567787771
0.0062457404939308958 -0.32397831641054031 0.50052269149576745
-0.28207824597225972 0.94466148268715777 -0.092865041096150236
-0.39768245773645461 -0.75816405365281092 -0.20295845114288724
0.12203963738264534 -0.37562599003195141 0.31052682373411677
-0.14291875574140356 0.21514368805808814 0.76415939481849726
0.12152795849793918 -0.3342438358300468 0.50551612858566486
0.42475641851247481 0.73640416133540132 -0.27352588076476536
-0.40523378296586188 -0.27579550965940669 0.76683624950938167
0.23829937353396247 -0.0657662709229343 0.80432357334344928
-0.18401019048054224 0.30375553262150889 0.77443878271072286
-0.1110429441591041 0.27943002637780223 0.75714976788144206
0.44232806890516585 0.90921226368836727 -0.38701827408033473
0.091453023125485089 0.67465656083677761 0.64556891477639056
0.054576179789124879 0.27713370338691679 0.74937566339921347
-0.066510757174775392 0.83561070221854639 0.28310937763879274
0.50734187939740494 0.87758305612188003 -0.34408643482754542
-0.92424913084062865 -0.15145754788211541 0.043745032241822912
-0.25514344810342315 0.71212028807176431 0.37911985428694805
-0.52926522328621672 -0.31356089672626553 0.67425134084873051
0.40155330451530347 1.1743685113484119 -0.43253199828432365
0.57343124467018214 -0.37744707242614162 0.34756886866908765
0.12763686775980254 0.40480226857546731 0.7073367687564911
-0.12508380282239528 0.454150313581688 0.79568859715227802
0.34447813372967317 -0.31305483920865096 0.73363331512186036
0.5436045626646564 -0.69839887597535655 0.51812540728078993
-0.39290078576798493 -0.85910640589641574 -0.32638007280231562
0.31385280987285569 0.30823937852884997 0.52040049097492691
-0.32615103259268885 0.51111358245399074 0.61514484983603168
-0.03137486159340952 0.51797841957916191 -0.64617359330708091
-0.52429083559393774 -0.87968404582675852 -0.33936772962891837
-0.24292204972648435 -0.2074483591342009 0.74741168058652718
-0.64140413800139129 -0.57848132166152233 -0.10116877483835296
-0.72298559702161214 0.094419697809857261 0.65302018190904043
-0.72224890527850505 0.055828355957064701 0.63428738034729548
0.058890330957323656 0.83811651458226866 0.62693631477365308
-0.29136020353742076 -0.126700536230266 0.80384923589114798
-0.036880340975999459 0.15899729046853661 0.74697805341009094
-0.54883350174992351 -0.084780650427166648 0.75248238601182038
0.46385072098306424 0.78757097520347141 -0.27404713195599051
0.26825150898487138 0.04843145521054204 -0.50007244261274941
0.090980780705661957 -0.14612181028241489 0.79291104954221403
0.13635667554364161 1.0846585932720751 -0.3518155984923137
0.2478269106683193 -0.048973244359144186 0.80253778035523204
-0.84057379895974904 -0.74298213984163475 -0.42984695308953746
0.021977607462581261 0.3738833028776396 0.80128618043874944
-0.25047089407932255 -0.30708871880807909 0.71739487508630262
0.13422645393905874 -0.28035291493403403 0.66941655877684525
0.044850415138158795 0.35755969719101044 0.79258715097468446
0.026318205861970867 0.6726678429674422 -0.55158812701071902
0.1744400901846106 0.91727980763709027 -0.21271096451156524
-0.33654947826955528 -0.49041634144711654 0.60023391773376744
0.25513699633174802 0.0022393142734227212 0.78581567299068844
0.50731403249688789 0.96531964671540305 -0.44092028274285155
-0.2424904237162 0.34690153064353124 0.77848899058131238
0.29261520799836305 0.1994193916836986 0.53722465367797412
0.0085066325335301229 0.82686026242014732 0.48272680078730978
0.8215853802411015 -0.14197326056682869 0.43109085054572738
0.058361793729684308 -0.35619463460769829 0.4120204362380715
-0.36609264034196265 0.64414783702693956 0.70287867975667062
-0.29593054760792015 -0.7261747235999616 -0.17092661290272559
0.15718869820463333 -0.064848913892586513 0.78940208272799772
-0.94630888492574172 -0.77529519652961376 -0.41210694885610977
-0.54772431027127588 -0.35486244287171864 0.67379749979648551
-0.94605966998875246 -0.8105750223694308 -0.42193412791517915
0.76424026190180427 -0.36579580409998552 0.67097477663660676
0.17745448037683431 -0.026148458304402933 0.80305524732973232
0.045699784595196746 0.65989051426992651 0.66522033098253708
-0.79133739937293868 -0.81965927664358951 -0.41288915870048726
-0.5377804986561241 -0.40936591388918853 0.65030559840673874
-0.72856726792944038 0.5529100833077738 -0.31787100664925028
0.62688598078200819 -0.58685746249621062 0.68019617805665256
0.020629032606322539 0.043621899463721192 0.74538697259599473
-0.35050913031421871 -0.64115654439294545 -0.1207061367261737
0.43336829233771823 -0.13233400169406639 0.184408900329327
