# XYZ point cloud file
0.076095710222506607 0.43897587499884994 0.7640457172085684
0.41975451300055688 -0.19453550375395845 0.22539240645700209
-0.36126549073401293 0.92915310161462394 -0.12041438682437144
-0.23741733993306902 0.41343093261367236 0.77403681828410864
0.37399056390904661 -0.038618478626994523 0.70958641054080474
-0.77007435595734997 -0.24028184932209107 0.27025712867708007
-0.33390630477804617 0.014041828814539414 0.77590390048801083
0.087135452028684668 -0.33593121208265608 0.45370950993337056
0.58229290192092575 -0.55778373151298322 0.69747864495894252
0.59551300835767229 -0.03251947857265991 0.43463834949282898
0.68495551812155719 -0.076309059640970567 0.42850537764949959
0.3570856416528887 -0.060309392987599852 -0.2649914411846388
0.33259547140602219 0.79602187550105141 -0.30765678950255371
0.73474626327827375 -0.19614570858941205 0.68856331078364219
-0.7334388105793952 -0.83089424323824757 -0.4015268919184245
-0.42298680390270427 -0.25033850296767024 0.77188106755054875
0.21884397563287594 1.0447358907918989 -0.32184980755880899
0.021710214379765169 0.77936089706132705 0.66657168331717731
0.35899095860929542 0.75804325675343098 -0.29152331936805131
0.039742229443296306 0.83630008484493157 0.59470426808919141
-0.25313929177026395 -0.58488456651214638 0.10783806681296593
-0.23339088615295367 -0.2681042152834715 0.7290533258286449
-0.58334631548739857 -0.72308398802635621 -0.33040896314602897
-0.37295287360965901 -0.54584680112055206 0.38139903749958615
-0.15861303883389244 0.90263125067390204 -0.39633607594200893
0.65507860482761071 -0.15767532064786116 0.37405787897333642
0.2787382442929367 -0.0041898539150504455 0.73379372026454925
0.3146399783188123 -0.025583067221940592 0.72171747554933274
-0.62209538559033906 -0.64563311224563646 -0.30291257984915099
0.11818703921425122 -0.10039136050158004 0.79782204637159015
-0.78769782766533414 -0.66185130444982576 -0.34599386385326802
0.75226881521468059 -0.31760734428138093 0.68776833084849631
0.016637871511681723 0.93887739201861897 -0.075767094786684197
-0.44219342765862724 0.65795990630129975 -0.55419762463008082
-0.12870996208635255 0.42968476810199374 0.77780501895783072
0.19122099183963615 -0.13476315347042012 0.80347142216718348
0.34714153432519179 0.72253181810122091 -0.24222143641496618
0.018176424723081563 0.64702166462764277 0.67145818530095536
0.43100142041082368 1.1536200731946744 -0.52705148043795313
-0.029257799517959704 0.62372502229829663 0.69405513459055923
0.58803372085284522 -0.35320273526051404 0.34798494329743601
-0.81437123671330713 -0.37290312684390026 0.13902388422490963
-0.68319424378213878 0.65291394841936468 -0.0042563448161336837
0.32395572000003581 0.037375506981908835 0.6552600276520657
0.58856572014886011 -0.020631368721669929 0.6143635734310342
0.29694252247630626 0.73342953688420587 -0.25201742914959002
0.49552976052947173 0.87782965383106959 -0.37843582876181303
-0.45174488537724056 -0.58424907139615501 0.2420607583191341
-0.046647607354371345 -0.10664182986313731 0.7613394319885276
0.23549129930695756 1.0429757928001187 -0.35112749649533459
-0.68817026933183811 0.13927485836495113 0.6587517141732393
-0.82425177175700259 -0.85452927432989512 -0.44958296192085623
-0.74513786266439563 -0.2044296785932509 0.64488770613870372
-0.52565433475081491 -0.75782348336326733 -0.32324576585213416
-0.41446650906047822 0.18833021880419587 0.7476514269885719
-0.86995538861262212 0.22397171686809836 0.1955740785844724
0.011963217584078034 0.84807519863715553 0.25950593403282385
0.097005304173041651 0.81507259985253278 0.60022842302667856
0.15062952315955469 -0.036142727099135463 0.77256806459766469
-0.76224688807261121 -0.66809719551319091 -0.35425745121547259
-0.58164036544989006 0.020415090176528983 0.77193271037836331
0.77651074310484303 -0.38603695593094534 0.69553746960054585
-0.012740915326485691 0.31249077377885115 0.79122266087163107
0.69035855279521297 -0.38219773453082029 0.66068249587698658
0.22114155402347002 0.0097423494523001253 0.7909770974997703
-0.55413509877037814 -0.97224980272393458 -0.34072973233277271
-0.55480799350838428 -0.11387266294519954 0.7474227626911496
-0.54382107328319496 -0.61165030319141778 -0.23014448295869583
-0.4193744558933048 -0.62768449212311928 -0.097773722882401159
0.20908436645766315 -0.30892543279422613 0.69602007479333894
0.35268502027260462 1.1600206998903568 -0.50906282631985578
0.36366701779065558 0.81392274747692617 -0.31626201602744608
0.30218397917942941 0.25140214112848391 0.52490087421999876
-0.8408555860606608 -0.27542929536004523 0.15027528086511754
0.30768980108579491 0.53841092942876001 0.31807280268801152
0.17764353053483095 0.26501095984827394 -0.58501901949478485
0.0061998662283069272 0.47607355917803407 0.77733292234437634
0.01787808570422289 0.79728240003525297 0.65199134089600985
0.17791510268982424 -0.36541552117253784 0.60781289223520574
-0.44530830202097604 -0.62981893838052061 0.0028679123645276583
-0.26013537089487393 -0.25199150014170524 0.73936781317910061
0.55686265871876195 1.0459338942851812 -0.43941242591571505
0.38074660512689906 0.1403311703709611 -0.21626824351605789
-0.28367980042154617 -0.69445729171330139 -0.15210789988420936
-0.64375596952517267 -0.94252143161588053 -0.42603935052650721
-0.45530313334257322 -0.34747192718529657 0.65368606349993374
-0.20832884654839567 0.43756393463183663 0.71390861261761707
0.20770204786864976 0.96012484663563791 -0.26380528425240168
0.3157120415366883 0.75099135898703451 -0.2786031610680495
0.19963287420632803 0.3451021721032157 -0.54838008123410908
-0.64735320876084224 -0.81512752201561733 -0.37589023919501496
-0.082905614276345574 0.67467525505687864 0.7261169939377492
-0.59223935822091978 -0.68460594350687165 -0.32321259362537669
0.10623620034837788 -0.3934611773130996 0.25265148931975823
-0.24660464169384255 -0.19559189001558208 0.74541120297795516
0.6779894666642674 -0.26742564067081354 0.72317255016031856
-0.37349992166965773 0.036882711419494618 0.77696850677613005
-0.35436431905522614 0.28385585209730857 0.72411475565458172
-0.32326914764080783 -0.11398946371689855 0.81711628035649797
-0.10791167220726017 0.89067282198087139 0.19050020374530474
0.37600423934155902 0.0054279560433989626 0.6761447290092697
0.93497749525292795 -0.23760326118746922 0.46373472475803457
-0.48441852928831164 -0.68010361955349552 -0.28087032436976189
0.71748088512551744 -0.15364006693649923 0.38521456558802925
-0.19235334854294894 0.28254169952925345 0.70570834624832646
0.44416099823089983 1.1543122547549269 -0.42542533323551979
-0.67731772650915989 0.46620986696591604 0.32116368992745414
-0.71102727934798349 -0.63076540630580347 -0.2783626848403995
0.37623811542148733 0.56676774747182235 -0.10181930192663557
-0.0005939437529827174 -0.21216458556965012 -0.61679736033502985
0.067682121812629781 0.7466571357996159 0.64872737402948211
0.94580931694581061 -0.24353046997405903 0.52043403403911315
0.087799376944324159 -0.13975543435851989 0.75397674970606454
-0.28332712303518015 -0.060497417680203225 0.76954204654921554
-0.21826472773949313 0.47183935620059847 -0.69940934895962492
-0.34942464925667505 -0.10313849206891379 0.81779062316062001
-0.18419539145911745 -0.13757497807805863 0.75315986474108154
-0.58472973096732694 0.072299745961888262 0.53806583514378303
-0.66536106987986532 -0.63306810327296903 -0.39879165911237813
-0.29561558812683586 -0.37304921677426472 0.67689013010769283
0.69775585145787566 -0.42308548511495037 0.65503380589935922
0.31605202978443181 1.1782996229870202 -0.41084789500573793
0.80284817169074429 -0.10280821550872288 0.49202941015833179
0.53539344232134045 -0.57009913596269524 0.68745392680777284
-0.33794587467723147 -0.045805930489148383 0.78090551146744902
-0.74254185490850411 -0.25579933005663491 0.65549518918233529
-0.72418284941586286 -0.45677996878913074 -0.34481714228358973
0.67028295354821932 -0.45585425107281585 0.69820683545776463
-0.12663347218275156 0.50481608890197927 0.74732604049861084
0.30278915821614349 1.1321511105793181 -0.43598934654506394
-0.24009497437516281 -0.18317767006965169 0.76019981061554631
0.070467121376196928 0.21046806340499868 0.65797180661248866
0.75496846012339081 -0.39646528029047312 0.66851544355403858
-0.21063593526398972 0.39462701735642569 0.7736176296349826
-0.76902002808421788 -0.97084066268770508 -0.41058560707981484
0.12664246306163029 -0.13551413474588081 0.80745804890646244
0.92949481714844406 -0.20681285371937586 0.54712933934043839
0.38942020399823463 0.91216112015116135 -0.3622404914852515
0.16438948268919873 0.91652749037041614 -0.1959942591063073
0.89418504673432686 -0.35095183484430592 0.59610044625978897
0.18165116583965935 1.092833462415173 -0.28688204897406289
0.36172215102183136 -0.4697924125520645 0.67536128372379123
-0.40351837168088078 0.55454844924243518 0.67855683404518974
0.3495212298092758 -0.51155934351004562 0.46013263266511162
-0.15867198327662901 -0.26785069538936268 0.71580922265432978
-0.5806719275569252 -0.59418390927785936 0.024956637576351692
-0.52596223816585219 -0.70452557577714625 -0.3181574138886849
-0.17935169534243922 0.41363873208393565 0.76566719984604559
0.048540721239183959 0.32472792774597137 0.76608205116415506
-0.42359865477307235 -0.16280510264643366 0.80434042538714889
0.19898569590388471 0.047906253841920821 0.7422506562386042
0.73237808320195796 -0.52205121502201468 0.67171233368915839
0.3249008138261944 -0.13798540550896643 0.73645566846015109
-0.41244005042796328 0.55576173944682394 0.77978860193883337
0.048077599723194808 0.82423000343595598 0.46628616182309157
-0.43782886298621726 0.024156803705734697 0.77505786175627156
0.74434709653471698 -0.33358006730185608 0.64944422546451941
0.35403260707512718 0.68831681217166407 -0.21476897186558741
0.040897737195681572 0.60118452546249723 0.66780522468140502
0.2322480520485275 0.83698984667583998 -0.23308796799312637
-0.39060983785844883 0.20888591759991648 -0.73139270095885145
0.11013412733632189 0.72969219436131305 0.62258710346033119
-0.25532723924921452 0.41438624627436571 0.78012593450928858
-0.49166921216409865 -0.23327834850648554 0.7367433085550279
0.017570249733134702 0.39444299116450487 0.79593675172318568
-0.73311968692385321 -0.032432205887413579 0.71509372180971909
0.63557896322903051 -0.22432267905885994 0.36243575331040701
-0.53847132150960952 0.19756570679866958 0.75022819450688871
0.23138877862370011 -0.025119960491514437 0.80141905806937608
-0.16952438381833446 0.43992581331704339 0.76051687455577932
0.15332005757154565 0.23248100363220114 0.71372400932256497
0.36898367400693566 0.59429801984982245 -0.113509120447159
-0.069011124653460598 0.76657439326954169 0.38691490902552239
0.37910604729204955 -0.56128192394949283 0.54066891454776833
0.45512296662657192 0.68938185473006075 -0.17193942494420744
-0.7602161174033224 -0.42171638842246195 0.54812046128922143
-0.052273297017668696 0.21747557727719258 0.71449929856927774
-0.54581680851352932 -0.014964693575480359 0.75640498129449218
-0.64912042093052413 -0.61725254114138739 -0.25150447253884067
0.28708704426686094 0.17688179385138825 0.48249640860874399
-0.47857730370827234 0.079643439858288256 0.78996218735675905
-0.61333414460794256 -1.0069410048104004 -0.38440653163227201
0.020834643761855176 0.91179717325582232 -0.33468778341646743
0.23516393681523873 -0.39687335680536018 0.64525461050472721
0.32080806427656139 0.41133866745160597 0.50032820440191372
-0.69176673671358913 -0.15505450704588464 0.47925722880452737
0.12021296732175291 -0.17574294753029918 0.79095115612400946
-0.55732185562660241 0.16553185120234504 0.80695099222084288
0.28047538808585148 0.76420815880816606 -0.28325844756573604
-0.22365116956829034 0.25976074972993646 0.78544614163795767
-0.43803249927431409 -0.74830433538221497 -0.29636844161841136
-0.2191786218992311 0.32460310771109413 0.77822922152482521
-0.57364026277680846 -0.30732656056919938 0.67923455043541736
-0.72600386947620077 -0.59330900500176309 -0.23624611801767736
-0.46841032919923009 -0.75362104693781706 -0.30871732699399823
-0.48221216479050888 -0.22526908820499392 0.75016638589319795
-0.69944948339363755 -0.33330626618625503 0.67566859776336097
0.28521852465256936 0.24719091365081391 0.58036257758655196
-0.56749110973938777 0.62155353742224273 -0.49685046913511943
0.66102635643351926 -0.45320568629735414 0.66863214498388412
-0.29497380857052935 -0.028681888264525224 0.76740913198499605
0.17705440939497086 0.49015456033230409 0.65706563167230669
0.35777394227692305 -0.14833770157629678 -0.17397221776900729
0.57671363386421293 0.87666226650787804 -0.3942191913990678
0.46117008607229293 1.0784424457917132 -0.47104621027320626
0.27335741553793724 -0.10624317307411424 0.77299541889777501
0.2800935170217107 0.70944863808866077 -0.081186429032385821
-0.17253134181886409 0.42699626846383087 0.76223311390410808
0.88181727230508322 -0.3957203221261012 0.5100622014139824
-0.114873804698572 0.36894325293479513 0.79164472857552637
0.021908670674093855 0.10791912171420037 -0.69599462362211728
-0.20881715132435152 0.69276749800494464 0.69297586613633788
-0.67333812160610851 -0.95742932117972179 -0.40500506380486323
0.6718246114324975 -0.36686882022082123 0.68095926676459806
0.12387637933814588 -0.079529864039804776 0.7659399550679864
-0.8872728373416372 -0.71632887655880673 -0.40168892645067
0.28560913209310801 0.74715901646230853 -0.27430144423161273
0.30902611068222718 1.1173560162431042 -0.43334235206562033
0.15923740201196246 0.00031181020092474476 0.75876006802926987
0.47420132301719597 1.198104614760604 -0.51392787524833894
0.51540544895015472 1.0271335604529028 -0.41060509371907994
0.14217791961175941 1.0828145773054527 -0.27136710834367772
0.29322051751705391 0.71632433494398451 -0.2177851712670269
0.26533621723520318 1.2100518786982888 -0.38048298292611582
-0.27444166378235568 0.62104166228517388 0.78129298950110027
0.49617080795529489 -0.1256873514971979 0.32325713100262821
0.26635693190048082 0.62312445516198012 0.53257115953356404
0.171173319149307 0.63950980147518943 0.61139882676785229
0.74860398210455203 -0.33000691517058867 0.65618214696813482
0.14884132363174452 0.864562719597048 -0.026558696932616144
-0.58234724094325863 -0.17071240876415372 0.6711525675052421
-0.16568801201740602 0.50083159388945087 0.71767634790777191
-0.21129012099689248 -0.22505411794806152 0.7233447127136805
0.22768304201112999 1.0432956640827009 -0.33734734296165136
-0.70844716761084747 -0.57655370297874464 -0.2199340109324095
0.39839869688213092 0.056259377388231613 0.51982221963990138
0.087517702417000187 -0.12331322013971113 0.75808987153440821
-0.88855644762077723 -0.58192051709740511 -0.33472147790262063
0.07874181529581481 0.35755978952849676 0.75573250530524971
0.30430941391558974 0.23190534865899504 0.4424716823019077
-0.40667357708755247 -0.21746792961931127 0.79261730933288099
0.67448959391398056 -0.33582874844854471 0.71445532316743598
-0.34914598482743298 0.42922700896307209 0.82089213054524945
0.74960411914524672 -0.48485676674250211 0.68112529727750548
0.35654988932229559 1.0266492150199746 -0.38839560678969232
0.1974439050317649 1.0024765099559019 -0.27066695012296371
0.2178974921975172 1.1532121804769107 -0.33630019460386062
-0.52408610764299279 -0.91651842041693676 -0.29786696528231049
0.9276535894606952 -0.29497192573483222 0.47973777421227304
-0.80887882396802446 -0.43142030543954757 -0.1123294167439326
0.58782198756176252 -0.66518386602845991 0.62779943632043755
-0.32278716645820094 -0.6602333536663163 -0.13860492723421425
-0.34691939844064112 0.29324379914283183 0.66910738114495416
0.25257777430745998 0.19280303694992096 0.63102198094111417
0.82260733400265584 -0.22332871298144141 0.6578678563540743
-0.51608937600993432 -0.22981667640778269 -0.6044159846786008
0.40538543451161857 -0.052789887791941936 0.70909625240869056
-0.35135711519207735 -0.76108262514258884 -0.29960868361296189
-0.094356104091011694 0.33014468898643257 0.78366002055923367
0.39211884457604596 0.8242568247436991 -0.32043680502390703
-0.74228351331752052 0.064730755912216553 0.7109629767154777
0.21951954326031986 0.40486102221373255 0.64874607076741242
-0.49554304838097085 -0.70717205133807082 -0.3079836161015379
0.65350224156875747 -0.47339543444301002 0.72266929996107754
0.083028317298738497 0.69246280823933093 0.64128396168448587
-0.20713427684594699 -0.020362333924931586 0.75770296929178738
-0.69623078296771368 0.095322297036983583 0.63468360196782303
-0.81037512884026697 -0.16138426318816368 0.23915021156049709
0.62656369903487441 -0.44006249212200244 0.70962456400214435
0.44267097199373939 1.1025090028557303 -0.47254405982832015
-0.32976344084428533 -0.70791067346292569 -0.14657061944676997
-0.37311403297521473 0.43331392522462087 0.81616478513090263
0.64794971087104347 -0.37344462669197487 0.71800565961202656
-0.43382980220758061 0.10587377668165576 -0.71230043128112808
-0.68989116161689878 -0.38477394136437915 0.6481496192212064
0.14842277074603372 -0.073493958039278384 0.76879221481699833
0.42459203347952101 0.61899193989434742 -0.28781751877957529
-0.17305981728787323 0.36783822193698468 0.76434058207588151
-0.021269649862421414 0.56923566966049277 0.69575868336419733
-0.11259688806815982 0.74236068430136148 0.65842061976716604
-0.56265555843181136 -0.053472674133307058 0.74869278590244903
0.05993409266991101 0.45059690204901592 0.76827638743524806
-0.50847854875267551 0.58080938416445749 -0.58029686937255365
0.20386562342878811 0.91933428750176882 -0.23639307008655663
-0.35076774522536702 0.26381044528429587 0.64621049678421016
-0.20600642464243624 -0.07975054411421012 0.76282189565861414
0.44172052514828408 -0.15099826485438905 0.73014783631356606
0.15228993377208422 -0.052393620462155122 0.76649817693257782
0.02340795801650275 0.33118736591503994 0.79409714260790931
0.15694785207488504 -0.068565546771113262 0.78659604158733831
0.27893614400637112 0.71210331418158557 0.10704572614593966
0.18139478902190742 -0.18764255735647173 0.77656639644482128
0.53864455170374459 0.77263734941810769 -0.27697519974128504
0.27411109525819466 1.0250824225028174 -0.36724975260981507
0.6687044183553561 -0.53884249712227938 0.42171586538084149
0.23551948869627415 1.1847804552759216 -0.44965895016901491
0.54244234464281371 -0.53415962312712484 0.70507574862391253
0.37858726892084604 0.23054919969007281 -0.10838201480109744
0.28125743811603421 0.070971935372567296 0.60769432928505562
-0.54109075169725518 -0.30414676759992382 0.68159748881953597
-0.79351715836389936 -0.94721328598728771 -0.46672107580444244
0.73635110484564281 -0.36348471034250984 0.64997089334881197
-0.75143475474077004 -0.36489209101494158 -0.41362811050690595
0.40232240056121782 1.2471994779173212 -0.47918433154016915
0.25577293060974116 -0.05281785618640189 0.79254296490680565
0.37366124835699344 1.0605661767950165 -0.4113684911613249
0.27340772766796784 0.65058927821001478 0.30000823971544621
0.67124650051792845 -0.13012078728768617 0.38436870690889746
0.36542237719433102 0.93598536659783116 -0.36201209510043775
0.82036483814934247 -0.48532711900786696 0.60268732292697447
-0.12254180812999849 0.27154555382388623 0.76979094522595215
-0.69790859598712895 -0.15830688337062915 0.51337876301597429
-0.74004750240113193 -0.37525496113728152 0.63319922585292154
-0.074500983310196833 0.3711751160716561 0.80759067762830927
-0.036277058835631149 0.78414070316720219 0.53866432374979034
0.33113569289717804 1.0639856795090781 -0.39772274851194922
0.12205355589876898 0.88755157497423831 -0.058025019229994701
-0.26285153842350706 -0.5673986361713268 0.18979166641184708
-0.053506091335399297 0.59593633055813844 0.71362946714899023
0.28224911681306342 0.15701832527573378 0.49768408423496924
0.45676717115693455 0.021507167772514046 0.61843748682786348
-0.79141138333296279 -0.72883841813537575 -0.40096803391689706
0.13248599149741347 -0.12150535367793935 0.80754982045006107
-0.13712502530043125 0.0425471913771307 0.74939016534837588
0.10429959655243293 -0.13457741489126906 0.79971018465348331
0.11447012657151667 0.40708020109821863 -0.59413124721748911
-0.13556643850254435 0.0050556581654714883 -0.72289700176489102
-0.57646405658477029 -0.62694506178289577 -0.26423416836038038
-0.067954864633446022 0.97327845001592395 -0.2078393150971376
0.3479841930395513 1.1285969831882936 -0.44890522062435112
0.72909813356447239 -0.29558482897025096 0.69416976494264881
-0.06760586057664586 0.21333715864650959 0.75574776618976447
0.31781157276382199 0.42104810437256956 0.34673621108951158
-0.7437272844026479 0.016632346933921127 0.70049515510478866
0.35346014739615761 0.066944109657836481 0.49823137630564318
-0.54151248772660399 -0.09340463190724238 0.7546627954517362
0.13608957839205083 0.42258573437262137 0.69426204860316165
0.63757589217053523 -0.68391386527575815 0.57132775367273636
-0.1150573994382329 0.28755678600027124 0.75774420344297111
-0.059203528172288244 -0.49495350021622864 -0.1157822192067659
-0.38412863184016288 -0.15389330390541156 0.81490338272934926
-0.70336347185432135 -0.14231546910612247 0.72887037838824531
0.39808807637008492 -0.099091032282988767 -0.057886292197084632
0.26367876534259871 0.80016851163654235 -0.27404161543817418
0.12346662766633676 0.42207370471485395 0.71242709796482373
0.32521737599558431 0.65741135430450426 -0.038916106584422572
-0.86242116208344921 -0.30686839550559375 0.092385356166576393
0.76334495844338246 -0.17722116105171692 0.38767259372508578
-0.2266195419771897 -0.10304742137504985 0.76541343191551459
0.78815798608940968 -0.33853450275365971 0.69806483356306614
0.74528307640457392 -0.32200966944474807 0.66046643603910393
-0.71910248987108449 -0.78097009075310853 -0.38177454172638159
-0.35298403952689927 0.4768488246904613 0.64176690404169179
-0.022527572881584579 0.58645112410639033 0.67540467466850584
-0.14069402976497702 -0.0015574158607123412 0.74762386020352256
0.27047440992345795 0.77783364882998929 -0.27390238616513951
0.38942588925410337 0.72967228794641137 -0.28204334760632666
-0.49983405932585612 -0.69161565998337959 -0.30768508998906929
-0.20848765304157357 -0.20221456021815354 0.74564228444153935
0.18279569816898356 0.14741517905128698 0.72020191851414728
0.098813367166165733 -0.095718976231279118 0.7643933604426576
0.12564524874127603 0.50081300225755698 0.67387621464318359
-0.82513434329713675 -0.69745549478071034 -0.39851345686262052
0.85546874052038735 -0.37551626157486062 0.63792176357038288
-0.77467479031081865 0.022170309537914656 0.34823254396308201
-0.30853887149979453 0.53354447316729192 0.80513593673491579
0.41456676873736775 0.68495696927251615 -0.19084058824167993
0.3094196760731931 0.67079687173187708 -0.090260315390516599
0.48575257926824733 -0.60476404566419228 0.43250628449967454
0.13390578798400199 0.89922821243439555 -0.3162641686500649
0.41258692691549737 0.02964426871406961 -0.038590959628391541
-0.49623516326673212 -0.0076354335893273895 0.70943173774238
0.17333076654768487 0.86313151791450038 -0.16297086232890345
-0.32575524484532892 0.25097389505121881 0.78928381983590912
-0.62267749499098546 -0.95545184986450726 -0.364019665783752
0.19298467208082304 -0.37047367884239013 0.372662425874422
-0.14791912376372895 0.32555908829875602 0.75675309278336433
0.11985615727676802 -0.18382054993499719 0.7564370463374539
-0.60883681673547407 -0.70738860004424664 -0.33177217644813428
-0.7138910647561012 -0.8274538646977212 -0.39651893331049104
0.15168104933915938 0.54977071352764706 0.65412107335993541
0.1400076394156482 -0.073946703354139887 0.75926845517513897
0.096473780067529269 -0.25844605462144754 0.65403709923428099
0.10637509729508476 -0.31744764608806708 0.51864333947762109
-0.18393140766574412 -0.11212312960901794 0.75622452067709656
-0.48143430721728642 -0.037672758153164509 0.76077246702430124
0.79692258071430544 -0.27715239758158949 0.68652421344794279
-0.14234918963044274 0.49377612373707325 0.75299008114745636
-0.92009764042064024 -0.60374876520458587 -0.36173139245250185
0.21056453892064875 -0.16342582156350804 0.78403243683058177
-0.68584234968110103 -0.57606217245876978 -0.21406472070260874
-0.46495737862125619 -0.61468672127401591 -0.15269473346089724
0.070783657844966985 0.45600085995879391 0.76116983823583517
-0.41229347833064978 -0.31988394333328896 0.70243823078543155
-0.59487061034622268 -0.92805476230562656 -0.37449480012675851
0.01529474892495486 -0.45491753365070586 -0.22144640610173294
0.21458204990846497 0.64433462049060442 0.57732142383969709
0.43423160853501619 -0.44961300233130297 0.71229483619657552
-0.98715466508592531 -0.8902230848080861 -0.47725805954241229
-0.04086274150849345 0.27296482907378983 0.75945156990587837
0.30922907977704606 0.47216602628652349 0.38892529308229928
-0.42006814939329029 -0.59473719132251457 -0.39155344166784989
-0.57815685863996524 -0.64281005109071554 -0.3012682993715341
-0.59920389343980762 -0.58449246650941689 -0.16403789538125668
0.35090819951491525 -0.34479000125604164 0.2988878762151046
-0.65587453181442434 -0.32167674308782279 0.67714569690732818
-0.29803235209211021 0.28277466837123555 0.81174811479003361
0.33979689986664807 1.1588951660849101 -0.44560593362886669
0.095021352459855102 0.56545722996212078 0.66175200319793337
-0.38353839830657321 -0.2724978249861032 0.7547136162499779
-0.26609028431503745 0.0074910477672001097 0.76896275262087022
-0.29125749859193295 0.2512942322661913 0.80824397027361083
-0.63415890338371916 -0.46753808072517533 0.59379428488883468
-0.35159999339013215 0.0089719320673108394 0.74072996471627084
-0.5491711796106733 0.016657039045365696 0.76564207294524378
-0.52375032619910833 -0.011593418272179579 0.75922411802047352
-0.38433557112519523 -0.25002854484297632 0.78159700992368197
-0.5135158357574845 0.8093051102113753 -0.26401304497866462
0.048485714756813181 0.096192937467415973 0.74971652765010788
0.1694367309961935 -0.33197760297725942 0.63967014753928053
-0.72746969156315 -0.74452553848925529 -0.37525507936314506
-0.082311069048308205 0.414019252201278 0.80496958995594792
-0.35620892762317435 0.30122778821892837 0.62832285628226092
0.23526925102878238 1.1915148990585771 -0.35870776798892789
0.72833444779596146 -0.43332186535827022 0.67249926972590401
0.55087259519181364 -0.083286338975939067 0.68819307574291155
-0.083571822954767505 0.30560219801529298 0.77362679629392517
-0.090672183125457551 0.088204381079387328 -0.72958562967151375
0.63926614314066921 -0.56417611033518256 0.4228080842450157
0.5272802162920458 -0.11634113571617877 0.34869469047235446
-0.1885703286274989 -0.28385528262077153 0.65111318324481005
0.46206026468570371 0.89200868634614194 -0.38770285200016108
0.83923981569320683 -0.24067786603328845 0.65366279879690214
-0.418638603254883 0.039501912527090677 0.77673901124484512
0.23926872623601358 0.62314049367790192 -0.41476969796497221
0.4152261818680083 0.56725009643440194 -0.25045526024516862
-0.081510658987182794 0.2308488614232409 0.76158325994226717
0.80737675215967286 -0.20050866065097694 0.39257634275096454
-0.77115835192518478 -0.41464840118095436 -0.3296234711277477
0.29182405367523234 0.48844462948333556 -0.36752492063186182
0.89543147181551008 -0.32430338071338038 0.61016599718171038
-0.19818989436741941 0.37795584612809385 0.77444407234736312
-0.48369587591462881 -0.65319311320469575 -0.27804680872725207
-0.42234557555490504 0.0078400808379990305 0.73725484790555118
0.14625368503227909 0.31513321661771521 0.67617236201107689
0.44942422996250242 1.2174159257079649 -0.50802186323153276
-0.77203927237333758 -0.61057173874238213 -0.41427634900383303
-0.24381555782635544 -0.36109876503688065 0.60830104323172884
0.33811302397567689 -0.097140085629755291 0.73203495706070809
0.15397875581678155 -0.033857064312659668 0.78039993088579473
-0.57090379087957466 -0.90309221003989038 -0.3816054157200619
0.32304429077869035 1.0254931392430464 -0.37687463954964118
0.75257419370672229 -0.50083686251417348 0.66950145190736965
0.16741463827456471 0.46205246384902132 0.64474660497947367
0.84276716416695985 -0.46477142014531747 0.52587810522102441
-0.062408618652741943 0.76279074314615536 0.66513875259684596
0.38971530746552752 -0.41827327354969546 0.36677085213146032
0.084934326408556693 -0.3089709998722372 0.5030096566125124
0.18398323891911561 -0.19041805112118437 0.7682547005447633
0.23554088682645169 -0.37008748746170483 0.28334183143680969
0.072749854079521725 0.59547192657280257 0.66458162606565452
0.032504529016688544 0.92416619778847775 0.017601263724367211
0.30394804325728852 0.57422917175494792 0.4928298494562604
-0.33249678569144692 -0.078424745181537858 0.81347237808869499
-0.15352252091275265 -0.15754646120264693 0.6725317890829694
-0.21400319863906692 -0.48257512116920004 0.42008805473288735
-0.44182466692830147 -0.77972329235865434 -0.25760987303117089
-0.14432487976246122 0.68252998206860704 0.73761122760249975
-0.18367451588625805 0.42891254155912506 0.76706594091524005
-0.74051000328543815 -0.21165368325169542 0.58796989824414458
0.55518471344099396 0.89691831745406647 -0.44736621469185289
0.22959893843977941 -0.0045849304919773903 0.79757523044140566
0.26233427866560621 -0.35217158688510231 0.69796007514873715
0.099099397409798229 -0.1501949989192739 0.79340055860294179
0.23304124896690581 0.90671334524038794 -0.36960713609704143
-0.05906328011227302 0.12943536578049986 0.74519150472843609
0.50878948507105237 -0.32009132170202914 0.7373056679247032
0.27035373383698769 0.96764271697718873 -0.33867003746457458
0.42768820173392452 -0.55728713087436699 0.64747440170149551
0.040149529005552687 0.66306429811182999 0.65969107827933327
0.25346129628145686 0.75386645584020984 -0.011782976129897538
0.21387661625208976 1.19667521312361 -0.42005557427938323
0.17323734612128128 -0.36493485367124379 0.36576520345466701
0.086177515396349769 -0.12523687189254873 0.78221116278519887
0.33464585580737261 0.64344448130151932 -0.0089683808065763593
-0.21668018786975551 -0.31912517925129291 0.64239881726748971
0.0027902346364938602 0.33736907211606582 0.80055617182883854
-0.52776999190024032 -0.13731454786768202 0.73665449845882724
0.49473724244016193 -0.25125258241343529 0.3209804676938246
0.49788249972395349 -0.65361724573569258 0.49544620805287609
-0.46402989552344032 -0.1897316421417613 0.78573596648937549
-0.57245832068889158 0.49136567331367376 -0.59459312091657335
-0.97163141159958322 -0.87606962907585162 -0.44732262731312389
-0.54778530023395877 -0.014353978885764201 0.659920009026294
0.05004400504761719 -0.29098841376598106 0.52075801866141447
0.51129879499714193 -0.042991013877669015 0.37849155000852264
-0.60483133742750095 0.043983366714657857 0.78423127854646468
0.36187303590368192 0.95593931121648934 -0.36846247032984092
-0.97343899892476493 -0.66369444432188685 -0.39835401249381697
0.66583944190147326 -0.45464226515241535 0.67611213448436924
0.38525112901037328 0.72397367053743411 -0.26931288706608925
-0.2071646959235327 -0.32947418427108577 0.61763654241223342
-0.41982382986454603 0.20118758668380379 0.62051025208561361
0.27768941211629095 0.75932858106202317 -0.2738834348799335
0.31539096021734281 -0.15596629581371957 0.73748416839502928
0.39111606729102144 0.8899870985172621 -0.35138707213471188
0.38547051691650669 0.67027125988988989 -0.20233796090024958
0.41969895302728633 0.72469400805340067 -0.25879821922325208
0.75886851828967927 -0.38537301814378067 0.66807980953708546
0.15222222184233125 1.0283072640140929 -0.35378574128275142
0.060509601519489031 0.89133970722231359 0.10025273397184842
0.47939114832883245 -0.52361646768634573 0.39514859367978961
-0.11054441819038807 0.98081406138990901 -0.20853083284342544
0.75100274832938085 -0.29607256975943885 0.70908598440635995
-0.75110377471728285 -0.31003261181055719 0.55715445690564636
-0.6128751686644911 -0.17470168273757325 0.62314487093033621
-0.65360111210978822 -0.25000406253524349 0.70398683633904469
0.20182725038309401 0.025679291851421038 0.74217889238133106
-0.49421074709850465 -0.5256077033183324 0.55299109221239728
0.30949113248389359 0.073481198686168758 0.53858466733065669
-0.33326746439751531 0.2062329445999358 0.7856369215041541
-0.38735602867230501 0.19322051677673591 0.74619839796350718
0.77115492193510171 -0.38642164037671867 0.6930677258694935
0.12729580964051834 -0.32628161899183716 0.57250748529433038
0.84676793724618848 -0.4625095085299602 0.5525612824364905
0.49013525440383976 0.82986401035433865 -0.3048161239854088
-0.3923212160423688 -0.49063088316148129 0.5967762497592779
0.3625764165296923 -0.010058642434298548 0.69566099770292045
-0.79189803637763312 -0.94509381462137254 -0.47057237589995959
0.64996680145076446 -0.087005538199411259 0.40230477960179556
0.35600901446602329 0.63793463878576073 -0.16042777672205544
-0.72000986146230073 -0.24526281570105435 0.38680539220813692
-0.093449503196617378 -0.23905274111885966 -0.62859677630465294
-0.72680253491480773 -0.52221641235560901 -0.31461701343428006
-0.19511459246541119 0.75083848028957134 0.35022864602990733
0.26666127470640877 1.0902298228561136 -0.40042737468894263
-0.63093545620900127 -0.029965604001799928 0.5580498098581268
-0.61570118858447564 -0.97366990414866805 -0.35603722848963115
0.34563043747638034 1.1561725116592916 -0.4554152349705527
-0.67284917166891844 -0.096419364097572791 0.53678730894294668
0.45088112226723842 1.1661540329379427 -0.42989989737397183
-0.12140173115451436 -0.02282379771858678 0.74679964760652151
-0.58613740200131481 -0.20708471403194967 0.71143993957192242
-0.16431569504932764 0.33385424158318844 0.76785528538837022
0.069175213334367047 0.84542925826868465 0.57806268069752376
0.43980919644123073 -0.10207481829555465 0.23174021585329641
0.53199605645775128 -0.48506903843301208 0.7205150780847096
-0.39845310420679336 0.58994980225993099 0.69763124822102229
0.61913824414661001 -0.38466585702016554 0.73500331466086477
0.10827619505161978 -0.11646931495865775 0.79980779090747856
0.24607988090900568 0.014361232364523913 0.73774711106939872
-0.42879714474690633 -0.065121192355766189 0.80417174574773753
-0.48292883654529817 -0.53757407459187867 -0.42965761685950232
-0.62020579155749722 -0.65495736389272086 -0.31272610310297599
-0.20822605208616185 0.46650519322534656 0.76206240464001374
0.12762045142379908 -0.16429470158906434 0.80357376136465541
-0.20756966593608706 -0.3768103403468539 0.65854409147852433
-0.35885575210993004 0.87970262849997338 -0.33161164803416643
0.45816698220423868 0.82412943079770784 -0.33281920927231035
-0.62328350770620933 -0.85692924027503725 -0.46017547601892028
0.36018988475769476 0.30348422223834248 -0.18456843704355563
0.71642477547069472 -0.49652942543762668 0.69624491995403082
0.15623938138154569 1.1172468163840976 -0.29501664521644422
0.12443415358286902 0.72782781305658828 -0.45606037025647117
0.19952870967585579 0.034460172082867002 0.74350764721251483
-0.14132113947469893 0.59274962807244047 0.74010044119255181
0.2293092935804717 1.2249045846585838 -0.38985237058392164
0.48783766032461173 -0.63059501280582131 0.46082341492101575
0.22128706715896662 0.25629886449225303 0.67063496979405457
-0.49508124974250034 0.12262634249729371 0.81046904519271612
-0.52412881045017201 -0.33733090778884467 -0.55043867795997059
0.39921607246551094 0.67451906741690348 -0.19573446424531626
-0.2784264543827506 -0.15303707609698036 0.80098985527237909
0.26618178139160698 0.76918456059804963 -0.24750422645563797
0.17588177198863963 -0.040525597037040173 0.79984589781881743
0.051376753950563181 0.41531486419664021 0.78118723437169191
0.63935513531380828 -0.44844918799430467 0.71703553389981423
-0.39619433538386417 0.039556164053945686 0.77722724968653667
-0.018457128069128359 0.94717572889554624 -0.26896013312528089
0.34872551100190385 -0.37122944910405353 0.327695361185671
0.23484797358677856 0.92278523280866176 -0.29265752471063422
-0.37916703308777233 0.36036018696801964 0.7026092998807929
0.073905099630531712 0.36116397434776548 0.76436203062243013
0.15299065671714462 0.45749270435686418 0.66748925120274372
-0.66972848323333256 -0.96708095751288292 -0.38581148288473166
-0.42568556136556168 0.25698378765144869 0.60258781226438529
-0.7455983956786767 -0.20816868300452529 0.61705970300642798
0.30948140022154025 0.41297189547066182 0.54863049204777248
0.30103699112935089 0.25277719500603779 0.50467521847047658
-0.72105577890522365 -0.44530486719183759 0.4439829012387162
0.16742165057096781 -0.072482593064061573 0.80075287346405677
0.21512631696296758 0.97993239749459626 -0.28935421205097311
0.28379421947420713 0.10473022012810174 0.50906612814732899
0.12047111784226816 0.81342878832969356 0.26570354908069449
-0.19030338281505355 0.42982840359950714 0.76869993819414217
0.40396470153662367 0.6909327116549816 -0.21663554412083341
0.14911568225066585 -0.070231790040977904 0.75641749820071835
0.90194310095862651 -0.2567942719497589 0.4287570224398447
-0.91416989475280186 -0.77361008272311027 -0.43582306291938355
-0.53448632729220069 -0.22795135168772188 0.70342784735563191
0.22366634478101588 1.0777545310257797 -0.42977460506579224
-0.23350087802142383 -0.60668085578849129 -0.22674420383643312
-0.95369000489821687 -0.63110170430612689 -0.41782937624570815
0.028511155873929717 0.61113282385349299 0.67402024377021785
-0.045556031483998893 0.86917437172818934 0.23277066513803968
-0.63384988047007518 -0.59299498541020901 -0.21908317929424781
0.51811663649304229 -0.12954568833918989 0.71461328735298935
-0.2244148463432154 -0.34425798981260725 -0.57974118628656024
-0.30322196641400723 -0.20375593332281361 0.80081532930047583
0.40206652155962175 0.79160323373401997 -0.30896626174093678
-0.24414703288023087 0.55329012835437119 0.78088043200862423
-0.64331707035127383 -0.75239856305010733 -0.35280352492038736
0.25958896109128027 -0.098844205914624617 0.7847368662763512
-0.33385873297352209 0.62390331546903266 0.6589602037851785
0.49831403069296032 0.87148007696929541 -0.35340904997488298
-0.726672236273048 -0.36667370662898291 0.39481730510305058
-0.093802711888724133 0.44143215119004653 0.79924423289476776
0.65237756890944221 -0.67326037077969358 0.51716944174214108
-0.45678719125265843 0.17507205237127146 0.69388436988732627
0.56932464463807975 -0.35951708043654929 0.73689802999079257
0.6471646212019122 -0.24762503570083139 0.72299179071800923
-0.26478198580538503 -0.2497652682646605 0.73625185847484209
-0.76519539115163315 -0.38726180242618624 0.56116814492490219
0.13803476804857873 0.47620306834627435 0.68215893245758075
0.020584429103628565 0.5075476153609737 0.75594721573149215
0.14439708732960188 0.39704208382317097 0.70373325172621515
-0.2123767506403782 0.31804678753642013 0.70558107833205597
-0.13814368953673473 0.71408076072871096 0.43162754792549585
0.13425634358369098 0.58961757995809561 0.56021678006675613
-0.42691940879108969 0.48562805783551233 0.7093295088208964
-0.36481240752926869 -0.63443122630138671 0.02681179356096175
0.14100809666780378 -0.094989016728186826 0.80294058104803545
-0.95957611893298189 -0.74926580584306723 -0.41744186621929691
0.65242877682510914 -0.45047820985098985 0.66571757519683095
0.50049218007482033 0.67017357832082314 -0.28032112508769691
0.29921720066406632 1.2179485042530549 -0.39708282874668654
0.4075265344320762 -0.2435425442257213 0.25426409949242235
0.37614846952688463 1.0319487669830028 -0.40028774443946169
-0.58051536575136531 0.38079512499676826 0.44940638613397343
0.55118374756093846 -0.25710997006368963 0.73149339833384541
-0.4891754748609678 -0.55647581137284796 0.49634769764828457
0.3594695608402656 -0.20209139600651627 0.73828344093312381
-0.31336580040493445 0.771697168609629 -0.49550063532157873
-0.28012886409996263 -0.27092352856931068 0.72972726287627232
-0.64744198514795137 -0.93123809507085009 -0.42655717861323894
0.9239186937807462 -0.19358408907301561 0.48368069005266756
0.33924867560074468 1.2434951413121815 -0.42268240835027937
0.53303992497713581 1.0359746449713045 -0.5053518630799787
0.6436015849576604 -0.66801130497903749 0.48946221386516253
-0.16000494659937647 0.3369625058095469 0.7630092204805754
-0.6573257270028412 -0.59092163379651286 -0.22233871232202329
-0.94613994925454215 -0.67557979463311835 -0.37828101143372095
0.42336262904354971 1.2176670648445336 -0.52572239604834969
0.4794955993867811 -0.39952093471100159 0.35564829292878253
-0.63511190828002029 0.11410447140420804 0.8030372841711646
-0.16245495056411396 0.50706623544781215 0.75436995379356064
-0.07357731286308411 0.27021686725673888 0.74634064167578495
0.41353234807952788 0.93121855149231092 -0.38424046695612768
0.2571036545253218 0.82345598710530288 -0.2741603081831272
-0.57756103000584424 -0.63238809532209883 -0.27814581310637987
0.29454340065349838 -0.035861674880072192 0.74050443586960935
-0.50132233060626241 -0.66144793013391667 -0.30642894764654871
0.62253127537094599 -0.40548863302611204 0.71178701521623688
-0.46411577438640972 -0.085181141888999612 0.79189835489769544
-0.41490268786034346 -0.33917031072088255 0.6805403279624711
-0.68205729062777554 -0.95415895365236425 -0.44184449100170431
-0.34458408794684914 0.28082054460517747 0.77369900506937128
0.59648073985019145 -0.42168757628816822 0.73553867846812881
0.74270479223000851 -0.58612925304445529 0.58287905646742955
0.3120547179069133 0.51954008035130006 -0.34576647375313785
-0.28765104124431407 0.21942896374084975 0.80540164279538695
-0.56470943278163777 0.11403675395192711 0.80697206416327161
-0.30108545176019863 -0.23455121150579084 0.77081332091094756
0.82740895677428039 -0.1796278999629608 0.40366952878540596
-0.58086970001713922 -0.28902024866788911 0.68415436184747236
0.2618157244605146 1.0658393312945484 -0.3885017034316216
0.6079438129122714 -0.6663838134812039 0.62487460636284631
0.26825722673006602 0.80264649486361961 -0.28458326137908907
0.17928768724523181 -0.18354959742125554 0.78388577523743885
0.66773703037350529 -0.51590558123872787 0.70659947629716768
0.055462027505967626 0.31436143214976386 0.75573789542435188
0.12323468127877302 -0.171204275633138 0.79797204203167293
0.88050758769726611 -0.16775728238863552 0.45137716145205609
0.036662754250267326 -0.28081603313422732 0.58890108689161469
0.72953429118903879 -0.40374645689106337 0.39108900895692278
-0.3564141551475144 0.46535997331077894 0.82045710281517703
0.15877436795221511 0.77760689549938511 0.55620599490701528
0.33829358279310195 0.89628783598619755 -0.33621014731379173
-0.28558237924964036 -0.041652817854906266 0.7606319905541481
0.3607211048738046 0.51402821607970695 -0.27422192782886023
-0.38610688479346233 -0.51054289085072646 0.5728966378800231
-0.3851661984382071 -0.77821282556479598 -0.16805815874404839
-0.36808377838384665 0.21836706847453297 0.64438762212470868
0.47354283958361743 0.8034375455740902 -0.28569395992636393
-0.20884997342264322 0.6942347649762084 0.66595058084457914
0.1043637525289931 -0.16909206292434464 0.77204427981267143
-0.32556100319162073 0.13658449070906675 0.80243532838257448
-0.37153692622035894 -0.21538628909324109 0.79882296203018566
-0.18829161524848903 -0.16984952656776575 0.7474687372561819
0.035025790917218025 -0.38975664249194297 -0.40866507637722638
-0.079434679604397651 0.97462505885560702 -0.09212420493386686
-0.75808705863776016 -0.62817110211061955 -0.28302078855915624
0.77953351421058859 -0.26165084458644694 0.69046654566078303
0.86813622030214166 -0.37740689711906317 0.62121644829500333
-0.65341668996550872 -0.54139680235330934 -0.3778275581536259
-0.74659612752210158 -0.82769886622312816 -0.49379238936063574
-0.58010099848698982 0.7433656369033117 -0.28361195615977763
0.16936077945381456 0.80409386721606624 0.48311187566464753
-0.35290963130757724 0.39987761103955693 0.65107375169207371
0.50586667704311772 0.90840600932465421 -0.38233194617963218
-0.48521829108691783 -0.55766684029847491 0.41003680030358458
-0.064230267880842185 0.48172472962476953 0.78632730101399861
-0.79069688732029419 -1.0059362524993061 -0.42120126419289394
-0.44274496759717863 -0.40155040916112583 0.6587073836676578
-0.30828144852633965 0.31584993729719202 0.8152808316443334
-0.20392866683888577 -0.12303590520767593 0.7366560871174932
0.21008066975994666 0.7575276920760865 0.25134862731824681
0.78876639818728966 -0.30099469513982458 0.6957959662401807
0.18780081879176125 1.134122499962654 -0.30795167972705118
-0.076625635579440132 0.65721878282413626 0.71940837870620378
0.85058204338105314 -0.40753368890138253 0.62704969790997778
0.73118470316778961 -0.30913695947064168 0.66010208124128233
0.1078780171744893 0.82888379609716145 0.2200790666978345
0.094002413837422694 -0.43232813615408694 -0.13989831639863626
-0.29204794643424847 -0.72951456361656408 -0.17560296444375423
-0.25792228334674494 0.33307419240502367 0.79339592259245384
-0.18803027260398508 0.47825941469197464 0.75921244745248639
-0.21406974327332051 0.96881727198206291 -0.093802471291623668
-0.6032484600440231 -0.37326583586683681 0.65238196503824053
-0.67363496227597697 -0.25111573439265589 0.70851707434496047
0.076207692190674248 0.48212499244392992 0.73236084958394221
-0.81470967750455081 -0.72530306933949795 -0.4160538038917676
-0.44096705690419302 -0.24134160035774793 0.77113698292880439
-0.20881915876929735 0.36136517816467317 0.72186518183184445
-0.72279159434771856 -0.98973843074252099 -0.39705999552038618
-0.023151667074931659 0.45064791293662254 0.79256304099207231
0.81012594901437041 -0.12173232310540238 0.45344390469114559
-0.48287720588513316 -0.35520852335628528 0.67991972668231648
0.64400953137499251 -0.026522987888477623 0.57949093399612428
-0.72475500968165729 -0.30558615515713594 0.45323081143804922
0.21483876381805933 -0.069171269052311413 0.80382929865132269
0.07303736239462566 0.38460269541292602 0.77629801094193951
-0.076695285276590752 -0.49269427579303793 -0.20083785906056928
-0.3638974032330422 -0.64082984951691824 -0.064666437160917578
-0.3794414138286939 1.6107768759376917e-05 0.7704399249230871
-0.7346813896096398 -0.3026300069270399 0.66252207364991067
0.83655574513923714 -0.42244572172752592 0.46329658638127391
0.34767248745464308 0.41941229849592065 -0.23938707218941291
-0.69530123043482828 -0.69697802291022271 -0.34883369926387875
-0.23902503268509978 0.44117285963643327 0.67552055180261661
-0.6118777626025933 -0.20764364609971811 0.70597347917142583
0.54138793632928461 0.012775738996523511 0.58361052928122437
0.19312674691396525 0.67967026901303895 0.5782655888961683
0.30877507787176484 1.1035063070301363 -0.42310805071479507
0.43760726836093955 0.044387623549220212 0.48195150729522584
0.60861048400040074 -0.43176001905743755 0.73282608258127269
0.52149145149372167 -0.21453183354410887 0.73013915331481893
-0.72946197928781675 -0.51225690897408915 -0.1550918391792937
-0.62318955575262347 -0.63939307018829039 -0.29142757198220215
-0.10545685970995411 -0.4286054845365157 0.39581412426840057
-0.89519265063845488 -0.092292535500690054 0.12364262238522938
-0.53432665235535826 -0.026246646869632045 0.75562686824416314
0.10057944500363414 0.54362584800566705 0.66224076857392244
0.6365193760009018 -0.61389308970247658 0.44311766391089069
-0.081454988856592081 0.86047309992645238 0.23910138047191509
-0.91434043751855665 -0.6949293480572849 -0.38164700443213695
0.28823654559695466 0.66701367025104163 -0.36794890310178818
0.28834516884292416 0.13457545927755454 0.48472528746064736
-0.50978434282639018 -0.29378823196671355 0.67643853046051428
-0.43122223944277671 -0.37553716206543231 0.67697766561200856
0.3914270330807943 0.7152994141181237 -0.26809604419705835
0.45627613315098348 -0.010304885048995072 0.37069880125044552
0.28318683903586717 1.1130737471758898 -0.41914482501669736
0.086404348721638158 -0.15787816873464244 0.75311485657387767
0.29686165887568361 -0.14606508155317588 0.73983756268195533
0.77431658253372904 -0.35886082562658839 0.69556473955681986
-0.10670891971676078 -0.047212246979715378 0.75008021037944994
-0.32297317401699566 0.4821116307498744 0.54827312069990874
-0.88099058222791271 -0.87299137073361166 -0.4582841765185095
-0.29947278056035032 -0.43380003318765248 0.63661089018316241
-0.66425667716476688 -0.84965475163204651 -0.39564618383305028
0.037825771596996294 0.64948919721347398 0.66440412704521767
0.18750783471771548 -0.35048147105916616 0.64135908341540393
