# XYZ point cloud file
-0.43439477686551342 0.17642773162439696 0.74267048700708571
-0.89371138515226178 0.17636191679592272 0.1918850722035117
-0.0057673633380375122 0.85799698873572083 0.24735207486205724
0.077165579388630334 0.84706482736659616 0.61005901328384127
0.14679299691015402 -0.045359849184691825 0.77812423297132227
-0.75961287653131748 -0.68162740207626449 -0.35276425146903634
-0.59506201399124592 -0.0038363184725636046 0.7734907160884319
0.77869752174730422 -0.39698200879011747 0.69578117565002984
-0.028602013690566253 0.31703742958487346 0.79890045449266722
0.69398800857819154 -0.39323644220911724 0.65964787243585477
0.21694778865462183 0.0022742376033484391 0.80093779327162906
-0.55019974140641636 -0.97441755134761188 -0.35744484451247871
-0.56143349124472763 -0.13972586009849763 0.74765351156058557
-0.53835115685964752 -0.61473386511252315 -0.23988481280188267
-0.4117659188237468 -0.62820506299379986 -0.11383895029801749
0.2126666590904378 -0.32443442189763783 0.69115761655233143
0.34176744350182098 1.1788379903970565 -0.52075012615932437
0.36846926280152204 0.82063023959247516 -0.32271691787491008
0.30286219112024781 0.25370012241940465 0.53150070755283352
-0.844421266673411 -0.31198908568328854 0.15347456410086835
0.31033767544083446 0.54523541163327494 0.32216300476878246
0.19154820317519139 0.28715414836571895 -0.5852558097733862
-0.013351116179311617 0.48979604691031753 0.78729920755451133
-0.0079850834966368467 0.82815732531611097 0.65851195997358047
0.18394730624668654 -0.37833149507618913 0.59786484194150447
-0.43733639921467216 -0.63532275168780217 -0.013913193339757157
-0.25978820254044166 -0.27157047961489766 0.73338951776814554
0.5607193822853489 1.0697298703795042 -0.44372803240884906
0.39428897880340585 0.1564396412865392 -0.2126346346228587
-0.27398485621080582 -0.68584268039851182 -0.1713075321660007
-0.64249068854523017 -0.94770437469323099 -0.4358735391479982
-0.45126289368720762 -0.37226458979681532 0.64643399314010708
-0.23302030662396334 0.44151569742010643 0.70910779538470337
0.20122096954424862 0.96369762310785489 -0.27678474820828214
0.32035404399113432 0.755019202873493 -0.28583786164653446
0.21199799484752901 0.3630171447458892 -0.55028400535379873
-0.64426504459499867 -0.82060283484081786 -0.38255902794047358
-0.11204052825002009 0.696730701544789 0.7291490036375059
-0.58744422152457787 -0.68735349264870393 -0.33049961308660158
0.11546688604748212 -0.39111053323686384 0.23658701096476165
-0.24852390333737873 -0.21340040309204689 0.7402758607259905
0.67987651736320842 -0.27874717492212131 0.7292191337627898
-0.38632428541604469 0.022161928416847942 0.77451102412446104
-0.37709580718627222 0.27695486747635023 0.7171382710003904
-0.3293416156471487 -0.13269301093504993 0.81676561949051063
-0.1341450705205407 0.89332536700220544 0.16917596416004343
0.37650045650918429 0.00059134684591910514 0.68533915273284762
0.94126781931619874 -0.2308665595634567 0.47604188741158282
-0.47809585380615616 -0.67754830086696316 -0.29263607692934457
0.72584088530143376 -0.14853880882479054 0.3943988837534107
-0.21044126284530051 0.28063214377234225 0.70095483894480637
0.43980413760177228 1.1788878285850082 -0.4319387091410114
-0.71164896175842429 0.43152683133311243 0.30097157231823246
-0.70769276336233844 -0.6433023652367762 -0.28022697543619657
0.38531207161205572 0.57134302348493726 -0.10299036839908737
0.01513529017616122 -0.17828961763515672 -0.6158212763943034
0.046820163559294414 0.77497413569485474 0.6581621016759911
0.95092987289589459 -0.23892827426635233 0.53217994535152968
0.086033156658842813 -0.15250374525327537 0.75433404632498124
-0.29109178006979874 -0.075532118215113186 0.76654373102083184
-0.22016638861816062 0.47409175266319892 -0.71162351914369637
-0.35607982755589163 -0.12217327563428171 0.81769516417759647
-0.18805020834520647 -0.15271808724111047 0.74921556690402724
-0.59995303270666511 0.048207714242613164 0.52785033982522123
-0.66118718698216838 -0.63775224016784549 -0.40103497328325943
-0.290225169951281 -0.39453875618294276 0.66699082589144965
0.70169554603285178 -0.4346146033192575 0.65166553955154072
0.30425590031122418 1.1972313192766606 -0.42122881447001959
0.80975799852092933 -0.099586354919988018 0.5058112099685097
0.54234211214125239 -0.59075887382777115 0.67302639093333383
-0.34685901063249958 -0.061987651116050202 0.77863848721641915
-0.74278156825764086 -0.29373830875712237 0.6621143531660465
-0.72098047988233915 -0.46824458340705277 -0.34420157635121029
0.67383462932589566 -0.47133999300927876 0.69268149126061118
-0.15170786341371567 0.51584722755480428 0.74836726822235278
0.2920927562337976 1.1467744256339749 -0.44794298234268126
-0.24257420010255615 -0.20089831876570052 0.75593891113429379
0.062761272719615846 0.21014393414867705 0.65970371684823093
0.75797883994174597 -0.40677516326367158 0.66769018430958482
-0.23512172366125483 0.398280680092439 0.77264407142583735
-0.77039112629269013 -0.98712746140529717 -0.4152663344756462
0.12406476376810716 -0.14965251999202245 0.81148853326278569
0.93443561818883225 -0.20343927925690863 0.55997627965210128
0.39222085790028416 0.92205664688829714 -0.36939849457623453
0.15739680740077411 0.91775441186219098 -0.20982476481814416
0.89757435639436522 -0.35267389720096354 0.60056891024116865
0.16775549181297222 1.101003089131348 -0.30102669328122644
0.36860516346046523 -0.48839576283621433 0.66504244572293558
-0.44001749847013905 0.55302275955235913 0.66558646801650312
0.35996181487070444 -0.51797668274990372 0.44507536829677363
-0.15731613267950806 -0.28541131738086634 0.70848050581782829
-0.57477397170393729 -0.60824607589733226 0.013519264758784288
-0.52030869011535685 -0.70317650131695686 -0.3283085343681087
-0.20336682221945779 0.41895296524393544 0.76532088313936342
0.034936485703592979 0.33036520908696154 0.77506448794128957
-0.42757310102486201 -0.18577055462042225 0.80427457799039814
0.19497748815313187 0.04260088989946631 0.74993355252517091
0.73639093380469234 -0.53609812747006824 0.66247532832678147
0.32508706725469239 -0.14924135128813987 0.74170925975305124
-0.45131410659029036 0.55781097596712215 0.77332297042771003
0.028753218921192314 0.84663605592260538 0.46490588773172803
-0.45064308266507425 0.0067186102605862885 0.77312094350400073
0.74766985175496714 -0.3417506936362118 0.65201525966216067
0.36121426767386566 0.69300509048258796 -0.21907675765125845
0.02255782929565342 0.61927360899031747 0.67428207338729962
0.23119386571246636 0.83859837054565922 -0.24413547560765281
-0.3863990119130456 0.21678850935721883 -0.73748844980725892
0.093113136756466375 0.75643261569394227 0.63322802127717637
-0.28222248923364646 0.41760286420734793 0.77813601238915453
-0.49246029889190979 -0.25908740755279425 0.73460783884146963
0.00025836257235312132 0.40401988495897001 0.80661216505529154
-0.74414839039726743 -0.066827709512299549 0.72183716461328729
0.64411637917121922 -0.21980025633718014 0.36654115429829659
-0.5606236022280342 0.17989078452673191 0.74701265045614207
0.22765011873013208 -0.03422382515379141 0.81117343584288548
-0.19409453316797709 0.44668185030768903 0.76027365805817837
0.14603546087780117 0.23425621799077767 0.72244659117242094
0.37759654755057781 0.59869258038346373 -0.11532713069535561
-0.091359235183194443 0.77589312872134464 0.37363127566527154
0.38961610558330406 -0.5735160186335575 0.52400246839023268
0.46539812101313416 0.69718402903552956 -0.17141657255239551
-0.75442822702344614 -0.46102038523231137 0.55252494040160727
-0.064663078170806187 0.21625008747118279 0.71460418110478585
-0.55732732308122479 -0.038117932982167702 0.75611679239636587
-0.64500320665527511 -0.62643342909271738 -0.25666039479215996
0.28876471627089373 0.17730814441985387 0.4854529243158261
-0.49446433118502853 0.06201754110236557 0.78923818719929884
-0.61164345833828548 -1.0125132541261568 -0.39911363261666821
0.0061251496933891758 0.9043610693102675 -0.35557828288433413
0.24142504753803706 -0.41225281432093652 0.63595205378325304
0.32149378676259843 0.41850557932833965 0.51015626644430156
-0.69799694925340106 -0.18626633382352153 0.4755547933136981
0.11888301516421862 -0.19091577839807172 0.79281077923953092
-0.57825752777771555 0.14642999780286914 0.80838107150273686
0.28346916368899855 0.76697579045911191 -0.29214356248594697
-0.24338030250656573 0.2573799927271363 0.78479340243524121
-0.43110662582958881 -0.74242891141447309 -0.31058291989286957
-0.24120572185692524 0.32495698072777479 0.77726350959022383
-0.57127332295545585 -0.3370401065720845 0.67745238510260108
-0.72292313178965628 -0.60843041154194566 -0.23753443687223452
-0.46199038569316642 -0.74914039042426595 -0.3219359243819504
-0.48332246524879707 -0.2508342738943341 0.74843548489499412
-0.69558458382443789 -0.37040786517305513 0.6804751050789335
0.28433474120178204 0.24958575644889436 0.58845417067417571
-0.59456695504442436 0.5876300162791388 -0.51441674148985683
0.66526762381722904 -0.46704660384658325 0.66296263266591637
-0.30412335168564297 -0.042993227672633694 0.76435326536582338
0.16776670723436027 0.50365359494278117 0.66922569336561466
0.37113714145381493 -0.12629228401464943 -0.17207268227167916
0.58648106926930765 0.89444620084291948 -0.39540008922379499
0.45966138005367263 1.0988434204890432 -0.47889202935808939
0.27195343466646804 -0.11770499983029303 0.77971849022010176
0.2836874875925588 0.71185241552080392 -0.087350929475682904
-0.19674628589588039 0.43307095049673272 0.76195272500189759
0.88699859993565511 -0.39388508589609561 0.51270600000896849
-0.13574760658412899 0.37440703800295161 0.79550799243822112
0.037220999299325541 0.13662351307067411 -0.69585579059543079
-0.24431620995162007 0.70891295173188595 0.68639613105679942
-0.67257944851398577 -0.96593845849163351 -0.41438390408846359
0.67506959328092364 -0.37898627737411061 0.68070086785333217
0.1207989258846176 -0.090321568371445338 0.76928839704565277
-0.88660766336549557 -0.73813673365061305 -0.39267817589865572
0.28922469829509012 0.74999229963578884 -0.28269975098589128
0.2994233369240682 1.1314855281886285 -0.44510971900745133
0.15509634469485079 -0.0072186539620329171 0.76479100675329548
0.46717704083191514 1.2273179600219581 -0.52169092763538316
0.51887793388344683 1.0476059882784785 -0.41524378420357166
0.12640587578350981 1.0886351543602064 -0.28711516076420551
0.2977194166436874 0.71896780569016272 -0.22504465855889677
0.24936049131659566 1.2290456181530498 -0.39168353709145265
-0.31182067693583448 0.63401638717384934 0.77798981635129039
0.50454990446844761 -0.12166070255157102 0.3253030409387776
0.26219675822281019 0.64112243088563758 0.54600643960159445
0.16005119340425189 0.66046720804351189 0.62374085671363844
0.75174996896349455 -0.33833282796418018 0.65907231207038208
0.14226592168332175 0.8676259231344563 -0.038153050456084969
-0.58659883366901511 -0.19797480005209067 0.66901637923138679
-0.19137987791523337 0.50932573503873435 0.71489178407417597
-0.21177524902168088 -0.24243003696981624 0.71683522940817568
0.21835148520069758 1.0502427731627062 -0.35066653265504755
-0.70521383590661912 -0.59102218811039364 -0.22225316076641732
0.40205061646958029 0.055344609539501377 0.52578732084443303
0.085274488226300349 -0.13561351739426364 0.75905517709854209
-0.88721778211246161 -0.6055429555281826 -0.32482008985289568
0.065632770933888196 0.36511462846534393 0.76609026990064777
0.30674700882346073 0.23346603414457689 0.44587760620228067
-0.40804673475087938 -0.24132209367789415 0.7913603311739017
0.67682383006793501 -0.34878166795179233 0.71644851902745899
-0.3803514341342531 0.43034239476739877 0.81953329494196225
0.75288512513651185 -0.49811820843441357 0.67461070508346666
0.35381415201252331 1.038966547011908 -0.39774355637485215
0.18868777425576688 1.0071423694767763 -0.28418964554161263
0.20267027094392454 1.1660977800706576 -0.34929501615477321
-0.51868276049321338 -0.91736924105368089 -0.31445708460820398
0.93335052920091499 -0.28947669849655 0.4890930927745174
-0.80832133612255319 -0.45739803637910192 -0.1095826629912402
0.59692824281866308 -0.68332077446813688 0.60700493963338786
-0.31383410460376382 -0.65414049716535949 -0.15665035337424982
-0.36891668839827219 0.28580646337670323 0.65902789049561505
0.25027797291899745 0.19342673962846746 0.63877636936542359
0.82552171876140434 -0.2275676175237864 0.66790120613747206
-0.50767506714572619 -0.22040726293069923 -0.60651696320183035
0.40590060468725753 -0.060002670817213222 0.71851442226172324
-0.34321223341821039 -0.7500912447231034 -0.31607666821554403
-0.11305111708070115 0.33397120899413579 0.78751957595413558
0.39767781848557959 0.83228023141679941 -0.32596221840838169
-0.7585279319611935 0.031218662844972656 0.71671245406467676
0.21337466749760736 0.41408971504141334 0.66080751022012407
-0.4894500168406708 -0.70429394313601534 -0.31937352717253731
0.65687837024272611 -0.49123094033816983 0.71601712756510949
0.065004422902045889 0.71664657652502051 0.65043616394734727
-0.21555617127232907 -0.032327750661600874 0.75474783146989211
-0.71411806445865977 0.065101115685115118 0.63310423465489052
-0.81741902579361181 -0.1982605344722117 0.2390818392444416
0.630149229397162 -0.45666318418747665 0.70468138596644891
0.43939530458500897 1.1232194952239087 -0.4809109862992571
-0.32049793996070974 -0.70177775763940176 -0.16546409885440383
-0.40506883687548267 0.43334786645986512 0.81404768118005322
0.65059954333702663 -0.38817413326241557 0.7174771060506977
-0.42776487799703844 0.11483872611096047 -0.71677937534643732
-0.68398093393710724 -0.42161452596453408 0.65118530465051094
0.14540484555545419 -0.084037552658017489 0.77308446836705258
0.4353424142048361 0.62752513053710679 -0.28864150828183099
-0.19506902728262787 0.37114158890477178 0.76403306393646275
-0.042463519976926989 0.58496256237625843 0.69971471878348268
-0.144169689273415 0.76421238184867946 0.65541780423773943
-0.57230578019265721 -0.078312840631461711 0.7488594985555892
0.043510325447151388 0.46348861829784305 0.78020778963642456
-0.52921818649330277 0.55562319210492106 -0.59617096177998263
0.1987743585357471 0.92174110454953251 -0.24905787573730009
-0.37120409647695851 0.25499654830493412 0.63515849900564092
-0.21227818869050452 -0.093655305774326791 0.75975368159877377
0.44278726930756562 -0.16182977167071133 0.73744843634360535
0.14892755712321559 -0.062081824517884243 0.77134684784703822
0.0080703095269676339 0.33729878778634692 0.8039124131439479
0.15354657334045996 -0.079340294744511652 0.79217944184446765
0.28110432689687315 0.71801552190823514 0.10485729228392771
0.18088705725994814 -0.20256093681861564 0.77858844288444828
0.55010836185148193 0.78526679251201692 -0.27568613337502867
0.26771227542604592 1.0332726460839297 -0.37927094932506478
0.67804671637444258 -0.53853674991172884 0.41222449817601614
0.21786814880950622 1.1985109134329424 -0.46393551900174756
0.54832361046612021 -0.55478670680814712 0.69324035278523866
0.39032540135058369 0.24045832673373901 -0.10677580857619162
0.28125124445528016 0.068359649580104431 0.61267101727646178
-0.53887028183707741 -0.33232402374464343 0.67856287503193613
-0.79546515152649988 -0.96288816401828825 -0.46834508588088042
0.73979197657986617 -0.37251935874574382 0.65071150446047454
-0.74828748923381738 -0.37634290321211239 -0.41076925299981326
0.39023304606432774 1.2762835711466725 -0.48718917739740419
0.25294649794968294 -0.062776554110469007 0.80160228815825008
0.37007654721568173 1.0753017520980279 -0.42058663695782172
0.27381190922586285 0.66033956382689851 0.30321489413374536
0.67957167011164543 -0.12576158114144853 0.39271342408764909
0.36652046281529138 0.94543319420755623 -0.37021818631222558
0.82449654898274716 -0.49179686496770803 0.59759376710608336
-0.13975153504685522 0.27187507447417936 0.77121624749847228
-0.70393542029886191 -0.19024505081319276 0.51105296299490277
-0.73477387287932672 -0.41465775690973139 0.63901987181951014
-0.094563253206519704 0.37799028377249932 0.81436527376933654
-0.061414238376409358 0.80493559131264725 0.53438166171874713
0.32558855890818172 1.0767157797071683 -0.40814526937958462
0.11342174568239471 0.88942893096929332 -0.071594708330760426
-0.25281280295395447 -0.57160474220658841 0.16863987751156984
-0.077705276868893947 0.6131879500699835 0.71706309215323216
0.28368717811600064 0.15700274969555039 0.50056397427529831
0.45938551833747354 0.018738513054710637 0.6286216301064762
-0.78959256343511797 -0.74321706129906673 -0.39810348332427736
0.12961495597292938 -0.13506263893783377 0.81212584677783894
-0.14665915384237493 0.033934473300881507 0.74754128769512107
0.10170005618558164 -0.14850036260930466 0.80287661284373613
0.12385697786529803 0.42162596621922432 -0.5997651549956835
-0.12113530106947223 0.032624978656070169 -0.72419008161662646
-0.57139486764253888 -0.63082807101487504 -0.27236166922510563
-0.091533424955320797 0.96436508659124343 -0.23226545364563833
0.33959194329766085 1.1455133971878464 -0.45958106679862354
0.73147107536820144 -0.30533446280508869 0.69902541429883058
-0.081209495406227461 0.21206842882278032 0.75773371670679524
0.32116989327431256 0.42552213312963261 0.35066014966047732
-0.75745975358963946 -0.01769541607413494 0.70648300165590427
0.35677792766829342 0.066106750136240677 0.5021243870899248
-0.54911114630765923 -0.11822791077126737 0.75470570885282839
0.1253886801548596 0.43289029512249932 0.70494656172076731
0.64720139553150347 -0.69713987709222103 0.5500443858510593
-0.1323104202606018 0.28855587109907788 0.75876094266114791
-0.04877726634303059 -0.48016318000484404 -0.13179101326750242
-0.3885046418141691 -0.17558332089849316 0.81483221057497346
-0.70853654547156708 -0.1768714566903018 0.73560718647753376
0.41035856053639108 -0.082405331628306655 -0.056267272560468484
0.26502975686738139 0.80247807837724672 -0.28392516981977067
0.11178821476572409 0.43268202307139347 0.72356524065714467
0.33109791417738066 0.660875369989121 -0.042134545932000833
-0.86529849161087569 -0.34354345039941592 0.097434714602389505
0.77162964881087248 -0.17135822406751799 0.39760521912199565
-0.23220421279150472 -0.11812376009928727 0.76216272282041331
0.79011887287720128 -0.34812609503124126 0.70138643342988161
0.74834427928302105 -0.33044191445297511 0.66377757767479295
-0.71678349102599981 -0.7911523537261651 -0.38407399485157967
-0.38294654013665408 0.47384732143013686 0.62845591555105784
-0.043735069129796855 0.60230007764330296 0.67816629908100978
-0.14878959480533283 -0.011644390418902972 0.74523514541015601
0.27271131488741673 0.78022665688509463 -0.28327385627126134
0.39709567223279052 0.73642558702106875 -0.28601625672675013
-0.49378464592235005 -0.68899990853287996 -0.3186488103122187
-0.20998441304536186 -0.21954236421777118 0.74048013478225272
0.17743343255251887 0.14597738029911334 0.72859393215209778
0.095893018404865416 -0.10716489755738756 0.76662692752298511
0.11353451532688297 0.51470414298364986 0.68426812707920703
-0.82345512524729259 -0.71423836728319756 -0.39322075818827074
0.85824300647969665 -0.38095932033535629 0.64001230277135335
-0.78897894317998762 -0.01474209852265318 0.34377638323768878
-0.34336656623335671 0.541100665294028 0.80289973011004534
0.4236984103865673 0.69150572038182112 -0.19225257394519346
0.31483434660979626 0.67363232833811182 -0.095031756837514081
0.49749409808772072 -0.60926866856314366 0.41515818288415929
0.12586437489918367 0.89724500552906861 -0.33266546135133623
0.42455576834502651 0.04287040109950091 -0.035869598747861886
-0.5077212938823763 -0.02799737352717635 0.70509832033944164
0.16861174888997965 0.86372143193062278 -0.17581119415014967
-0.34748414896113999 0.24507418478589571 0.78697164840788503
-0.62035177701016764 -0.96153691369317329 -0.37653376693325669
0.20147088185299111 -0.37225954552228835 0.35921884263038351
-0.16741602703535108 0.32745303859402597 0.75671335356808456
0.119324166557913 -0.19805417409222059 0.75639332642205659
-0.60434851373954857 -0.71100456205250318 -0.3386155576365617
-0.71206435381378697 -0.83725860221713688 -0.39993285976171578
0.140262523482928 0.56633193338240595 0.66587858752274798
0.13710514641239868 -0.084301884802380656 0.76284165004170035
0.09918589139152445 -0.27121245457828458 0.64735266098213629
0.1120688949125892 -0.32590083297980854 0.50685633478433445
-0.1887487296075463 -0.12653698267465963 0.75270387909187519
-0.49154385487084795 -0.058461749841420385 0.75913627699492991
0.79913486528132438 -0.28448242168235005 0.69344719747918759
-0.16779130402369447 0.50392186509540338 0.75360848982642636
-0.91907959437618914 -0.62886793200498659 -0.34953774268590365
0.20954511797744857 -0.17762156267318652 0.78782980297908267
-0.68233105930667648 -0.5891579962369935 -0.21762458683692998
-0.45828947608420734 -0.61581275371819011 -0.16637610022728921
0.054864190682959446 0.46919417265054975 0.77331294978560905
-0.40918845375134794 -0.34408061901252829 0.69622842617918579
-0.59192514445856403 -0.93125160993872669 -0.38699647414745186
0.026646938011833043 -0.43360759624378886 -0.23313483792205503
0.20647511026172261 0.66485672933930928 0.59059188336855684
0.43956218045894246 -0.46928877801040159 0.70462517977193784
-0.99122987498144965 -0.92078509633150674 -0.46448009145488456
-0.055593375689269919 0.27471140483211798 0.76331826876836217
0.31125735710670099 0.47869230149141195 0.39467226830728919
-0.41274747892140695 -0.58435875132445858 -0.4011407646258256
-0.57310513451516343 -0.64541478248893291 -0.30888127343190064
-0.59451721452679607 -0.59350220737940695 -0.17238499481394598
0.36034777492197989 -0.34122355745176414 0.29008430237164262
-0.65269673940543527 -0.35598841407508708 0.67940127387137395
-0.32096408088316863 0.27940284708736307 0.81129536868089502
0.3295981422693437 1.177335484900496 -0.45622339041827331
0.080428274143448775 0.58222736064260516 0.67072897107099294
-0.38242195212257712 -0.29619126598575463 0.75068618073941096
-0.27640841339385247 -0.0049929927321183953 0.76621711689264416
-0.31260562630303568 0.24682009839050068 0.80773376489611337
-0.62534921444741443 -0.50119477131006285 0.59124894835089137
-0.36265308311494593 -0.0056139993016000034 0.73615610413025578
-0.56228379560259611 -0.0059516978102234219 0.76572539302021525
-0.53533353753760338 -0.033612285574390555 0.75840186166892209
-0.38420483011929463 -0.27391831791843124 0.7791319344790324
-0.55416713526653005 0.76952395337553625 -0.29254391818045278
0.040691576387175132 0.091690280951421954 0.7537518080728951
0.17429471616637215 -0.34564306790070454 0.6315775344688106
-0.72491394022749844 -0.75521141305462081 -0.37650172957612682
-0.10401959140630623 0.42295888590030728 0.81160568932676824
-0.37806395599530518 0.29271078588803867 0.6160043780014206
0.21875786736998215 1.2077113490426328 -0.37096678886357282
0.73168586957518045 -0.44538175657278689 0.66902153950972831
0.55307264564374847 -0.089699979520831974 0.69959729630529566
-0.10088823142827863 0.30829991755656394 0.7770321438131873
-0.076550687066507805 0.11506077907914047 -0.73114386246353291
0.64915978185853618 -0.56482247899193716 0.41113447667528646
0.5354774795961994 -0.11281861601077559 0.35220416885870875
-0.18637674962115014 -0.30005110062225704 0.64083739876863177
0.46789407011821638 0.90490049680912144 -0.3925660535646287
0.84210655931103062 -0.24468127572786269 0.66305987477257844
-0.43201573071790378 0.023239849373378973 0.77458965142962199
0.24491596474399557 0.62817317928502803 -0.4231077454129526
0.42630673079212755 0.57522505691408199 -0.25068139001990275
-0.096131736101948917 0.23012474238806391 0.76361045911152203
0.81546937185306234 -0.19393174133032165 0.40311538773160649
-0.76889463978327299 -0.43034398906085514 -0.32681585147803816
0.30171721995147038 0.49714885077391102 -0.37121698360172317
0.89858838104892058 -0.3262679734197711 0.61606337944919431
-0.22162997552118924 0.38124015799196798 0.77394305665268703
-0.47738824545651681 -0.65072762816295793 -0.28942675180279309
-0.4340446370767026 -0.009221454000048368 0.73300322789605943
0.13832478058016662 0.31991768388597741 0.68411548629565289
0.44048073854625613 1.2466460966616921 -0.5160033049314201
-0.76897391068365906 -0.62215904462974692 -0.41087017622144728
-0.23887195636229563 -0.37855202344293559 0.59563814069225884
0.33797518656249537 -0.10681008406257142 0.73892682259147335
0.14996882378876464 -0.043140913147519555 0.78653220122468426
-0.56740012401403916 -0.90393794278920581 -0.39406353616834267
0.31892828400795104 1.0361160583854101 -0.3872154104748553
0.75619491977221642 -0.51368349620900311 0.66196314285283719
0.15856731592524298 0.47343020998634522 0.65497945795273793
0.84811432897509675 -0.46570181545598288 0.523432131611834
-0.092169870571623846 0.78860147554934912 0.66611131381850086
0.39945261884118821 -0.41791298224928575 0.3563857154348824
0.090479161988238133 -0.31686724840743885 0.49073152112677576
0.18370141833178977 -0.20511961359345854 0.76985566753549861
0.24495425681630678 -0.36724134035312694 0.27070155559871623
0.056232273749872164 0.61380388588000301 0.67283507003438459
0.01651582103240834 0.92663621306049038 0.00078138338713884536
0.30290327539769635 0.58831393826124767 0.50512114048515855
-0.34016675699837862 -0.096062829784507642 0.81308589739183645
-0.15561972139400027 -0.17081574620307372 0.66480514351408004
-0.20493599812973429 -0.49397616437952152 0.40102878922541407
-0.43463422831225884 -0.77565482728156709 -0.27338308754377749
-0.17736485226687115 0.70325202878970572 0.73762723294509769
-0.20847858702890321 0.43487839951008489 0.76667521641785896
-0.7437519421316594 -0.24770873706684071 0.59144433099558213
0.56326659896700448 0.91513088041127943 -0.45055148323832128
0.22559275057060901 -0.012748157535913407 0.80771716595376475
0.26679883106780622 -0.36891574916389747 0.69234375178401919
0.096972712364951974 -0.16453835370537462 0.79569416883346378
0.22932818027198465 0.90944923816277878 -0.38267553644968544
-0.069782511857262364 0.12501273058240514 0.74594633738713156
0.51131607708575544 -0.33619936144752671 0.73816100737741053
0.26629660251890819 0.97367310566288445 -0.35026177291875982
0.43630592144623037 -0.57617660015566496 0.63252774842295167
0.020127653513574373 0.6849062092414524 0.66651443250846754
0.25470979530138749 0.75735246468653372 -0.017993670717832089
0.1946840986793088 1.2104011377490274 -0.43448132401521278
0.18158890478468948 -0.36660648507102955 0.35201014852834334
0.083538102302266992 -0.13832567243415994 0.78432061129484509
0.34084839844075887 0.64724532984144822 -0.011211506315781605
-0.21327371410062668 -0.33634209128290138 0.6313485551172775
-0.013548007144496665 0.34361726644048396 0.80995513653181916
-0.53323912219102354 -0.1622845395311554 0.73549010604880394
0.50362883684458026 -0.24694996102134681 0.31953327038046098
0.50983015982602709 -0.66327804508924526 0.4749599600632024
-0.46672999751965705 -0.21449595501519703 0.78546316947682371
-0.58989460561705442 0.46745235175274757 -0.6065907467014604
-0.97501165178569238 -0.90613875449699499 -0.43542119205807239
-0.55922077960413219 -0.037134252697390124 0.65462391005060994
0.054797883036737716 -0.29966380723720931 0.50866888201495897
0.51884183319219801 -0.040542950971937941 0.3834592279495439
-0.61952202590786953 0.018965555493236863 0.78722402758290855
0.36211051968755115 0.96584012293090993 -0.37703026450940413
-0.973344793968689 -0.69214405007720714 -0.38255545930092083
0.6698920422427399 -0.46886728204024752 0.67046217216884685
0.39289072408237047 0.73040182572275114 -0.27325540457927033
-0.20327524454264534 -0.34586255802208754 0.6055538763172521
-0.43877087783154423 0.18772830916207361 0.60865049472219468
0.28069445331851384 0.76189917638040328 -0.28274983937660281
0.31574846590455863 -0.1679079580752747 0.74188785937716872
0.39471398159270166 0.89937023966580121 -0.35810605895363068
0.39394665978683463 0.67589396263204726 -0.20497171166039507
0.4284308062876363 0.7322543764172309 -0.26122966842003237
0.76181633753648725 -0.39530675592905151 0.66798384520025067
0.13919848269980761 1.0304377409185879 -0.37042679297878323
0.046711546304086582 0.89724093234792868 0.086800506475732675
0.49015569779361101 -0.52469726154090068 0.38222003799035065
-0.13745779455639529 0.96958666831482176 -0.23469433231235115
0.75292509446347822 -0.30602330984397419 0.71444505537939307
-0.75019682801713472 -0.34739947505410029 0.56100100978640199
-0.61727460827574987 -0.20295624720778704 0.62034709885198325
-0.65366190373455879 -0.28331105182004634 0.70719551361478494
0.19822179476198798 0.019558643070153536 0.74935822151936193
-0.48335240764347631 -0.55219682131596137 0.54209571012902913
0.31130420603546227 0.071877882168372764 0.54217570297157991
-0.35310638708965669 0.19840522431863761 0.78318863158815333
-0.40702904395280015 0.1825618864230929 0.7410531372446485
0.77344554650988329 -0.39738869426955858 0.69320037464951056
0.13271628509195921 -0.3370126344515505 0.56207221620153547
0.85153973458716337 -0.46485627567971388 0.54997407706978763
0.4989605561356214 0.84181278529178627 -0.30648441834437179
-0.38236435198702878 -0.51443322518916546 0.58428816962070229
0.36260407985905374 -0.015834268454883116 0.70473331407896822
-0.79380076279024792 -0.96043763146306738 -0.47216368905714745
0.65802583958413052 -0.083499672727160856 0.41127133493623802
0.36388089917081601 0.64222385688466765 -0.16363595383786489
-0.72311512769401176 -0.27731880355141492 0.38376570834093116
-0.07869068354312958 -0.20764213623659344 -0.62941002454132544
-0.72364934130007796 -0.53463396239314065 -0.31442799581121861
-0.22347075461181909 0.75158134583141134 0.32875357130601657
0.25658083995996783 1.1008048283939473 -0.4132247567866969
-0.64215006011326992 -0.057302026254202332 0.5519625651103226
-0.6132679691310905 -0.97983511905523279 -0.36977631279727063
0.33567671374950159 1.1746724604519958 -0.46609840351957388
-0.68139305799328298 -0.12662845245822574 0.53298670728045039
0.44624883875812493 1.1920185691919425 -0.43616864808962319
-0.12852994289547226 -0.033295728589395779 0.74451421667179218
-0.58836549514452585 -0.23598294774121698 0.71152313721245619
-0.18487028646266523 0.33592671173117061 0.76799197579600076
0.047140757342614137 0.87759115785987341 0.58478275844524319
0.44892110026954768 -0.09568879675989983 0.23210019280937288
0.53688340229305709 -0.50529116926561546 0.71190663755968231
-0.43708800461944364 0.59090666842742401 0.68545957659035039
0.62171265799098308 -0.40118028680849349 0.73369447847719371
0.10525924940904119 -0.12966728547279693 0.80356772832957546
0.24338685003354854 0.0080942511536719053 0.74582096696058642
-0.43745812962040276 -0.085181182062513017 0.80420740299906868
-0.4760072012988168 -0.52966184450144738 -0.43644809322506717
-0.6157125962935126 -0.65992606746343263 -0.31862038972030859
-0.23531914294307121 0.4733650718807727 0.76039643534903689
0.12581650282517032 -0.17945008308562294 0.80656318110698066
-0.20197546403764477 -0.3959083529151215 0.64712826439108895
-0.39482850453521046 0.84946785114810908 -0.36093242551388727
0.46594363974349307 0.83496848335884266 -0.33605002419167818
-0.62073337993223987 -0.85795183271794961 -0.46746584818745518
0.37205630075894547 0.31337087869921554 -0.18378379523805677
0.71987032824258534 -0.51189832932613655 0.68856713066636388
0.13939747990758278 1.125260224348672 -0.31031369498085581
0.12269680599972688 0.72721717282210108 -0.47047563032989359
0.19571667993537289 0.028636187105988142 0.7509167274992059
-0.17035007593375973 0.60805763474637864 0.74022842263681099
0.2099615627203999 1.2425447919004231 -0.40261173490450375
0.49977980396669608 -0.63747486679223808 0.44181275340870485
0.21654104885953629 0.25925598167598984 0.68052227411175892
-0.51335064200996072 0.10550908110362656 0.81105494898204711
-0.51618074959961646 -0.32889657939360362 -0.55311889642129586
0.40803880061502795 0.68055299444732498 -0.19775398712732439
-0.28255315398293845 -0.17165075641476513 0.79926736381383989
0.26845218768237089 0.77124072658370935 -0.25672322968388528
0.17183093760105805 -0.050429620868561287 0.80746626276201638
0.035155398709186159 0.42630464913032284 0.7929317608038815
0.64274368306029572 -0.46549189980871652 0.71179186326422439
-0.40936714267593644 0.02412361279086106 0.77490777103768593
-0.037298517371809226 0.93900690115103558 -0.29146100294703814
0.35818544019667087 -0.36912032794789162 0.31794144397868607
0.23098918843755101 0.92609441714007978 -0.30483139137263393
-0.40564933057974173 0.35431240651671381 0.69346194232300817
0.060305200900522493 0.36902716973288818 0.7751236260510872
0.14303130028598332 0.46913710336185588 0.67818342682113553
-0.66876245619041086 -0.97619210633511599 -0.3960982427155102
-0.44695493676251985 0.24393844148406174 0.58927661598319503
-0.74868868252912435 -0.24495022948720901 0.62197184567047614
0.30875316068874525 0.42116613910128109 0.56021341103314626
0.30208318840620763 0.25497311814389434 0.51046486918178147
-0.71600239808705268 -0.47956575651861932 0.44309009850040582
0.16390420647787707 -0.083744762843721787 0.80725468200659733
0.20813891603914847 0.98423357368827702 -0.30243749785909557
0.28546218010724544 0.10375181407954237 0.5113634008161867
0.11040840070917923 0.82575434537744563 0.2605231391168239
-0.21541605273590037 0.43567766823865739 0.76816392359798868
0.41272852842404362 0.69736515239272201 -0.21885294180718162
0.14628757982889695 -0.080346020902892334 0.76018704066152054
0.90889757302486274 -0.24953464530897307 0.43972669067460401
-0.91462502069874674 -0.79705085003757326 -0.42569024089847929
-0.53574424734003046 -0.25466437291295385 0.70112055623719982
0.21143467183208564 1.0850775453731529 -0.44471054169498103
-0.22411735691382262 -0.59312701533414725 -0.24276583779874272
-0.95294817814835397 -0.65673690687721376 -0.40305239674733429
0.0090659542637929746 0.62984273188125073 0.68023241940982615
-0.067379449354071141 0.87621281266722839 0.2162374194543446
-0.62960560310894209 -0.60233836909163685 -0.22518655064701321
0.51971117481782159 -0.13852023254810852 0.7240886001423199
-0.21219258444850553 -0.31876385830402043 -0.58368625883922576
-0.30520666260272478 -0.2246487159038999 0.79877005217874952
0.40879151131722224 0.79953208810579213 -0.31355884637326525
-0.27696064123608011 0.56393254462747855 0.77900542699977393
-0.63958530349255227 -0.75787442823780715 -0.35863706502607684
0.25770472964140012 -0.11041688040532094 0.79193487267683693
-0.37084538463634509 0.6282709498549206 0.6456134360514838
0.50616501121196222 0.88512031786475198 -0.3561749668433265
-0.72525050736571472 -0.39957669017775288 0.39325915257721178
-0.11672633143199818 0.45149078968139023 0.80515172476848562
0.66243632600085789 -0.68186860968123764 0.49749300535625096
-0.47617662619732926 0.16037824184000549 0.68623234263831989
0.57196565879646499 -0.3761285850001892 0.73645490116220458
0.64909761487798079 -0.25889738066601531 0.72959442515483985
-0.26452652933511445 -0.26926886119213833 0.7301707058858824
-0.76072018805069419 -0.42672045394872171 0.56635645379300215
0.12670413051905527 0.48915257810971546 0.69330299373206472
0.0013505994216114203 0.52281285584379056 0.76568481748777373
0.13421706645454634 0.40634626927151274 0.71492873060402218
-0.23235005137225428 0.31685162158348312 0.70023205891816787
-0.16349311438833958 0.72032422236689264 0.41592004162268381
0.12381538492953936 0.60421597979670061 0.56609503356561675
-0.461133433522944 0.48149052644398616 0.69881155895554059
-0.35559945938270587 -0.63671832546306639 0.0075079177168646538
0.13769049398458932 -0.10730943861808129 0.80823980417184771
-0.96031577579744365 -0.77691365946123447 -0.40378344760109286
0.65678645994547935 -0.46425035180850838 0.66008035621299044
0.5124971829346272 0.68087758805465448 -0.2789159983724403
0.28461375947868994 1.2393410901731379 -0.4071545262347307
0.41680772755405116 -0.23750506262330617 0.25024168465901298
0.3739416391325765 1.0454689543995901 -0.40919723344386938
-0.60937093474181125 0.35666079048435506 0.43053958600565778
0.5531639982612937 -0.2704242501616152 0.73614223422535474
-0.47785561699678425 -0.58124436381127786 0.48351569317215848
0.36062932444102458 -0.2154259403539589 0.74192484051415519
-0.33810557196352775 0.74804350896075533 -0.51940144708243707
-0.27901088480978586 -0.29115266838246079 0.72320146764892712
-0.64609287133884052 -0.93648310507420973 -0.43580484363836902
0.93019753215784462 -0.18775577232892982 0.49731706816028876
0.32514267890369553 1.2691526170136083 -0.43136826978497922
0.53515525469970981 1.0585536861936138 -0.51204649562025395
0.65410296106205124 -0.67469595686616302 0.47038443537041985
-0.18042787005087035 0.33918589167937263 0.76298899745709292
-0.65338886143190322 -0.60173754602670115 -0.22729319681671356
-0.9458805690892973 -0.7027358689724359 -0.36477030882705463
0.41265133314072955 1.2450532684168767 -0.53500786177507109
0.48909603817487479 -0.39736566016773622 0.34843694188662155
-0.65358651173061588 0.088995099869137562 0.80776156318735204
-0.18926868458367352 0.51733051183249934 0.75417978276139763
-0.088830519833869914 0.27110762085029094 0.74805536147169249
0.41649353954770518 0.94284766586123858 -0.39109138149607148
0.25751349325733131 0.82576793399056214 -0.28453274542073714
-0.57250304714278144 -0.63582276499936086 -0.28605667985505079
0.29306503453332766 -0.043795036334037363 0.7486555134458861
-0.49527455062933257 -0.65897635955809797 -0.31684551744695
0.62576976433977904 -0.42127661754080048 0.70893073845966015
-0.47190290347694841 -0.10698170894331938 0.79190692556992559
-0.41103736458028806 -0.36321972435806416 0.67332719504084793
-0.68184801295376118 -0.96192891248540668 -0.45000256371180924
-0.36779354838854772 0.27508280493128368 0.76997360235647605
0.59959023025517766 -0.43978767708745448 0.73173130279234755
0.74905143283697839 -0.59540390007526156 0.56994926412669145
0.32174803135972851 0.5274598023736381 -0.34937923139882443
-0.30750899260283049 0.21377758706228001 0.80480855682207419
-0.58296041280892652 0.093079061517787665 0.80921328213687715
-0.30163806099249868 -0.25547235258757972 0.76684419539940052
0.83539150615789382 -0.17301279088046684 0.4155280184977741
-0.57933420730981666 -0.31881646015371601 0.68291207404176291
0.2527616585534691 1.0750436740921536 -0.40133623455331602
0.61680163761853279 -0.68389434426844353 0.60418230584366839
0.26972244844341731 0.80520144259608095 -0.2944056325340263
0.17854383767114967 -0.19859353279661462 0.7863433717305135
0.67176585565471569 -0.53365286337946127 0.69713224298540055
0.042606741015873695 0.31939175052284696 0.76418695899995015
0.12168098561742013 -0.18644496152956691 0.80037980954034893
0.88766766977864364 -0.16169823709732789 0.46500821945612358
0.040407593925067431 -0.29200020681435035 0.57858700926653839
0.73788838995191242 -0.39934152551048729 0.39072383739689087
-0.38962396583367642 0.46777229388940178 0.8186904479632382
0.14522885975252819 0.80565472861841592 0.56738257372418133
0.33970727203455908 0.90343182937898092 -0.34473131027871773
-0.29404808894664214 -0.056034572022843676 0.75718185359907153
0.37126155517272963 0.52165563924767788 -0.27592162328244285
-0.37553199123033565 -0.53359594142034972 0.55924729873424184
-0.37623890739875776 -0.77429361107530958 -0.18722048829792115
-0.38698675631728108 0.20778730672878609 0.63351719748139246
0.48245421494074137 0.8140906418791527 -0.28734430367932973
-0.2436424471006422 0.70904398981462791 0.65770071996980661
0.10311831320038678 -0.18340157450762895 0.77284752846998472
-0.34245964037016918 0.12664385137687262 0.80138249248125604
-0.37301804841872155 -0.23832192191214041 0.79732420205430543
-0.19092542887910469 -0.18590891746948657 0.74285027647482238
0.047962703620054725 -0.36051156602907497 -0.41365107902396048
-0.10447313803861036 0.96892044454490112 -0.11636302323464065
-0.75535055279109997 -0.64395801019512433 -0.28223114675452265
0.78176649642488982 -0.26920572832219047 0.69800380397103012
0.87116330899634065 -0.381630932339597 0.62349702648850069
-0.64895182659090977 -0.54624211712469872 -0.38015979762584351
-0.74552819118058977 -0.83618846072495145 -0.49410234433469569
-0.61914683440051377 0.7003498313764922 -0.30891481908182783
0.15773423294081468 0.83009251193807998 0.49138965761057918
-0.37946561973812365 0.39476547741063506 0.63901014950478441
0.51278606968616458 0.92361544481845392 -0.38584328750853913
-0.4751123453015893 -0.57903103438384385 0.39561645122520517
-0.08706612576052386 0.49448036553730468 0.79315363201121514
-0.79329612844701813 -1.0244844663679036 -0.42585963665259285
-0.43619146529042396 -0.4273339243960681 0.65083872183797453
-0.3329878629935763 0.31355486734887528 0.81479897619972519
-0.20830089430381804 -0.13768762649125144 0.73185870388852337
0.20650419081621862 0.76879556252052161 0.25052800550757226
0.79078043798437037 -0.30953314077075333 0.70131475734765658
0.17198777148692912 1.1446975722543424 -0.32190068885055823
-0.10450454759574512 0.67798235988131772 0.7222705960275313
0.85364716951909259 -0.41312836582029444 0.62717433720958482
0.73431276512886967 -0.31757411780152456 0.66387474512275801
0.097384325099891811 0.83925832428571212 0.21262753790895417
0.10558346440774002 -0.41254501997475401 -0.15159608134887037
-0.28231982259718791 -0.72032636373880798 -0.19511739334986089
-0.28168566218229074 0.33287612934078759 0.79240705100176356
-0.2147912248292112 0.48631591853557943 0.75817440801734293
-0.24831232471255937 0.95450171026006458 -0.12368011978671234
-0.5979939669535419 -0.40513667105150475 0.65075976316621009
-0.67352186119370572 -0.28571493733710795 0.71307912835197129
0.060725645005444306 0.49608530774735016 0.74330762443189968
-0.81314859135847328 -0.74084187603078178 -0.41160000513380623
-0.44122978147818515 -0.26642871205345564 0.76935327060668968
-0.23070635540591056 0.36231798727462916 0.71758406655838058
-0.72335904754202929 -1.003134815291018 -0.40529066647730971
-0.043535601917994882 0.46267619345643141 0.80167503641269278
0.81759795253672607 -0.1171792626505308 0.46665563769804308
-0.47826958575963019 -0.38207955240670444 0.67450693623654345
0.64909805700680323 -0.027513361362202282 0.59272998684338774
-0.72513542392306718 -0.33918789394690307 0.452396123561293
0.21163679372346422 -0.080227834079147797 0.81183989420016545
0.05850714846867433 0.39401815572631982 0.78827823462256674
-0.066226596730668774 -0.47496975243065798 -0.21501837098146481
-0.35523899616960719 -0.63964872238209303 -0.082831441569219066
-0.39062888256721351 -0.015953962990185033 0.76772568284568266
-0.73248350507852678 -0.3410330495114664 0.66907512162816118
0.84301835923558244 -0.41956522810275398 0.46401902147460561
0.35879193557210698 0.42770062367548434 -0.24028006265583102
-0.6919493237456642 -0.70596369530118785 -0.35131357129671059
-0.26404337872475381 0.44293902262491258 0.66734320089294386
-0.61411245204396891 -0.23778544359003106 0.70697160239172163
0.54563848143703808 0.011254476053693452 0.59517782389563578
0.18321921586816892 0.70228377784592588 0.59100213743349528
0.29997809844567946 1.1169235482026636 -0.43473995593657833
0.44251899398104655 0.044276882532217954 0.48807970412200063
0.6117786093447819 -0.44980923607787382 0.72848888620523766
0.523226308212557 -0.22675546182730422 0.73629394036634466
-0.72697176591962887 -0.5306385846500703 -0.15674922820454995
-0.61872178081169693 -0.64534800050997099 -0.29735279355620747
-0.097393715766017408 -0.43609926198547377 0.37724742194156136
-0.9050416967495174 -0.13492958803470145 0.12831315258281606
-0.5452303976323698 -0.049103151618433927 0.75502491705252694
0.086754044359018678 0.55917601810742035 0.67119644598665573
0.64686388583529819 -0.61658899119568655 0.42810913802570738
-0.10538108559759429 0.86568853786902977 0.22053214999199255
-0.9138445751837736 -0.71952913984803146 -0.37064276878377456
0.29415830326720993 0.67190815256197567 -0.37536953480059054
0.29031906770706328 0.13430111194302441 0.48702139680296241
-0.5080923477131023 -0.32021917825715107 0.67204699799040313
-0.4257181727678514 -0.40092708593905968 0.66973213997327719
0.39943745322405988 0.72191677710852886 -0.27165787861827795
0.46335158747189809 -0.0082391909815608955 0.37424872606716875
0.27263644098694506 1.1256241747451927 -0.4315832671295361
0.085092356680672054 -0.1712299608208383 0.75293857820948062
0.29692179458776025 -0.15782349080467117 0.74425401498056232
0.77646112766636222 -0.36919567698716449 0.69744335518399581
-0.11291882232610462 -0.058323678868658746 0.74796958214059472
-0.34999802458786888 0.47716236056738204 0.53113077854573731
-0.88282340322243513 -0.89465656675821492 -0.4524294417040764
-0.29165541466760203 -0.45531368822730656 0.62437198669486094
-0.66190317304914359 -0.85605479496393144 -0.40209900801644238
0.01796291720638088 0.67056110924403356 0.67117081909525211
0.19278874761012332 -0.36462538805470679 0.63297460939385175
-0.27222929137905894 -0.17261557021491392 0.78357298264602804
0.6760075595469921 -0.65243660103364132 0.60480847068903643
-0.75501423332983109 -0.41101634055591063 -0.37315535674190059
-0.33102707019184052 0.24427764964645604 0.80104190088584915
-0.43742188538293902 -0.79392983673430173 -0.2493104548191063
0.26131602889475047 -0.29682848893694214 0.72368121880972325
-0.82776044220804224 -0.76678833185432183 -0.4254479426849862
0.21337376774548389 0.19269914797496668 -0.57509036634646549
0.70574318088579702 -0.51183835692785706 0.41288662625526129
0.073314339050551069 0.60634064414874267 0.61828676392915227
0.62142105261936109 -0.44646724244884783 0.70746002215726378
-0.19696783415591668 0.32712171626354802 0.77444821569375932
-0.4608151229406019 -0.25835958934588454 0.76386976336160828
0.064156304078174742 0.39205594978530556 0.78325256337716453
-0.37502527077359815 -0.36443398902849822 0.67718913383904322
-0.74129103193485335 -0.45515217188038015 0.49205113861427563
0.16431024460620414 0.79767646232935085 0.27629336510492308
-0.082814470679021923 -0.35340842007691542 -0.51768620096818196
-0.21947653394401634 0.52343591397484523 0.67367544730273821
0.40818328682096094 -0.23242180030695359 0.22221112646086283
-0.79517293959276358 -0.47828359609321325 -0.011500087052144892
-0.33688329878637902 0.025918829006478461 0.77245579967657818
0.471807209092443 -0.55044994276027204 0.39399356549156295
0.001419094463901871 0.93346629621199817 -0.20208402680018267
0.28642065367285952 0.46193342963381312 -0.39460808803005065
0.33591665958281247 1.1246371320614355 -0.44351332361924989
0.72533228416869733 -0.31625302874439853 0.66588912952382628
0.68047311092606577 -0.61007604264369864 0.64695404976856707
0.39011746315508944 0.5385704756488181 -0.097245374073171575
0.1983770106316598 -0.19587279102892907 0.77596208848639847
0.34701675816796396 0.22140203011334769 0.29921045939669355
-0.34422807091278962 0.82191685693153005 -0.43491053872417496
0.032049036266723618 0.40525407008211367 0.7978328494078113
-0.72068784513073325 0.61735550047243848 -0.12570494595865611
0.08627690457942272 0.58810143660602066 0.67223756758740905
-0.54357303033026483 -0.29549978021589496 0.6800299527870699
-0.76872977677159327 0.33456882411455524 0.29550373837585653
0.033995556706212682 0.65600587808499888 0.67253262169285577
0.30157090884504001 0.10334746641856718 0.48713817936852166
0.22220301532868447 0.012216941987777119 0.75271231644422443
0.39118926305169843 1.1684189331074357 -0.47765182862438138
-0.81909539418916921 -0.67429264831027247 -0.33040382492376708
0.45927156470315822 -0.16152831832473602 0.27299962602401351
0.83835464605258991 -0.19750649318767799 0.650903538162801
0.59313813660242687 -0.22775651777540418 0.35225040259234675
-0.54471194699809899 -0.39616019528469693 0.65687723033314782
-0.91832243121149659 -0.75461614152715839 -0.50081463708816898
0.56263641556644828 -0.48032573436641357 0.72190140894070964
-0.55312058670365616 -0.37347803336891161 0.66585267072752785
-0.56565616410959407 -0.54236762735476063 -0.41054812058299817
0.68626753674776708 -0.46884398287820961 0.67702518128021794
-0.63268794823989793 -0.34792199018810521 0.67475900919056286
-0.87587113325851007 -0.90241309724753194 -0.47198036340767047
0.62771272691843905 -0.40235131999007034 0.73091169159284419
