# XYZ point cloud file
-0.067456483840942383 0.49644184112548828 0.33169937133789062
-0.095400512218475342 0.4797215461730957 0.33381509780883789
-0.11852383613586426 0.47013282775878906 0.33210611343383789
-0.16282713413238525 0.46651244163513184 0.32357263565063477
-0.19046813249588013 0.47169709205627441 0.31489753723144531
-0.22621387243270874 0.48244714736938477 0.29867219924926758
-0.26139873266220093 0.51300978660583496 0.30563497543334961
-0.25499904155731201 0.52876496315002441 0.3361515998840332
-0.25446194410324097 0.54344749450683594 0.36564064025878906
-0.053954422473907471 0.71913814544677734 0.36104726791381836
-0.037359058856964111 0.7026674747467041 0.33875942230224609
-0.016660332679748535 0.68330717086791992 0.32356834411621094
0.001159369945526123 0.64133810997009277 0.31728553771972656
-0.00093168020248413086 0.60474181175231934 0.32117128372192383
-0.0072861909866333008 0.56413102149963379 0.3259587287902832
-0.3226325511932373 0.53239750862121582 0.25094223022460938
-0.35366982221603394 0.56701755523681641 0.23194694519042969
-0.37887954711914062 0.59862661361694336 0.21620702743530273
-0.39428198337554932 0.63859772682189941 0.21769571304321289
-0.39469468593597412 0.6594703197479248 0.23643827438354492
-0.39859116077423096 0.67694854736328125 0.26111650466918945
0.079673171043395996 0.75861144065856934 0.36688709259033203
0.093063056468963623 0.73988008499145508 0.34426498413085938
0.10441279411315918 0.7171473503112793 0.32811880111694336
0.087584972381591797 0.69379520416259766 0.31264066696166992
0.056077361106872559 0.68655061721801758 0.30840253829956055
0.024810731410980225 0.67646336555480957 0.31057024002075195
-0.42043209075927734 0.62432456016540527 0.1871185302734375
-0.45294332504272461 0.62668204307556152 0.16663503646850586
-0.48606544733047485 0.62650489807128906 0.15328884124755859
-0.52118027210235596 0.64261078834533691 0.15158843994140625
-0.53203940391540527 0.6638031005859375 0.16407394409179688
-0.54068368673324585 0.68213486671447754 0.18574285507202148
0.29080253839492798 0.6528017520904541 0.40390253067016602
0.2977944016456604 0.63400006294250488 0.37724113464355469
0.29758435487747192 0.61045408248901367 0.35084199905395508
0.22134649753570557 0.61982345581054688 0.32680463790893555
0.17608308792114258 0.65202927589416504 0.32373571395874023
0.1379927396774292 0.67933559417724609 0.32067060470581055
-0.52257025241851807 0.60440969467163086 0.14331293106079102
-0.53927308320999146 0.57433438301086426 0.13991641998291016
-0.56038302183151245 0.53924703598022461 0.13631391525268555
-0.63010084629058838 0.51875925064086914 0.13414621353149414
-0.65180587768554688 0.53867626190185547 0.15193462371826172
-0.66422557830810547 0.5559394359588623 0.17494583129882812
0.52659249305725098 0.54230332374572754 0.42016077041625977
0.52943545579910278 0.52662229537963867 0.39069032669067383
0.53083086013793945 0.50747442245483398 0.3586115837097168
0.48192501068115234 0.50852417945861816 0.32380008697509766
0.42547672986984253 0.53249430656433105 0.32442426681518555
0.36085015535354614 0.55704617500305176 0.32467460632324219
-0.64989781379699707 0.46404695510864258 0.10508489608764648
-0.69589799642562866 0.4339604377746582 0.091933727264404297
-0.73517382144927979 0.40604972839355469 0.082135677337646484
-0.78760391473770142 0.39946508407592773 0.103973388671875
-0.80323970317840576 0.41626524925231934 0.13048410415649414
-0.81509166955947876 0.4305269718170166 0.15659618377685547
0.68101781606674194 0.43535661697387695 0.407257080078125
0.68006521463394165 0.42217755317687988 0.37944841384887695
0.6755339503288269 0.40674996376037598 0.34862470626831055
0.64242428541183472 0.4258418083190918 0.32212257385253906
0.61071723699569702 0.45036172866821289 0.32467174530029297
0.57380163669586182 0.46906065940856934 0.32450580596923828
-0.80068379640579224 0.36141848564147949 0.070898532867431641
-0.82705235481262207 0.34192228317260742 0.069342613220214844
-0.84696328639984131 0.31906819343566895 0.070918083190917969
-0.87772774696350098 0.30273842811584473 0.10420417785644531
-0.89451611042022705 0.31601810455322266 0.12994718551635742
-0.90621960163116455 0.32789111137390137 0.15467357635498047
0.72140264511108398 0.1792151927947998 0.35419034957885742
0.71897488832473755 0.16971230506896973 0.32871246337890625
0.71560263633728027 0.1609642505645752 0.29818820953369141
0.71801644563674927 0.21434402465820312 0.2693324089050293
0.7095758318901062 0.27913284301757812 0.28453445434570312
0.6926693320274353 0.33980226516723633 0.30104160308837891
-0.86085474491119385 0.24755144119262695 0.084727287292480469
-0.85344260931015015 0.1993870735168457 0.09813690185546875
-0.8367801308631897 0.14884471893310547 0.11702203750610352
-0.81589674949645996 0.11144065856933594 0.18401050567626953
-0.82337117195129395 0.12072992324829102 0.21584415435791016
-0.83000284433364868 0.13021731376647949 0.24130821228027344
0.60458970069885254 0.0044794082641601562 0.39935922622680664
0.60166996717453003 -0.004878997802734375 0.37120151519775391
0.60014402866363525 -0.015272855758666992 0.33616781234741211
0.64182806015014648 0.0044133663177490234 0.27689933776855469
0.6749987006187439 0.046465873718261719 0.26531744003295898
0.70052230358123779 0.095287799835205078 0.25879001617431641
-0.77670586109161377 0.058396816253662109 0.17466878890991211
-0.73536670207977295 0.022260904312133789 0.21133136749267578
-0.68892955780029297 -0.0086851119995117188 0.24928045272827148
-0.63371783494949341 -0.018597602844238281 0.33165884017944336
-0.6332012414932251 -0.0074071884155273438 0.36858129501342773
-0.63535517454147339 0.0023808479309082031 0.39776754379272461
0.43419069051742554 -0.089754581451416016 0.4460453987121582
0.43272924423217773 -0.097018957138061523 0.42407894134521484
0.42717546224594116 -0.10492539405822754 0.40103244781494141
0.47167855501174927 -0.10477590560913086 0.34554100036621094
0.5194089412689209 -0.084778547286987305 0.3244175910949707
0.56312769651412964 -0.060571193695068359 0.30682754516601562
-0.58804166316986084 -0.05756688117980957 0.31721830368041992
-0.53398138284683228 -0.076811790466308594 0.34637546539306641
-0.47559410333633423 -0.093481063842773438 0.37516069412231445
-0.41684561967849731 -0.091729879379272461 0.4348902702331543
-0.41907107830047607 -0.083337306976318359 0.45911169052124023
-0.41792780160903931 -0.075724363327026367 0.48190975189208984
0.16349500417709351 -0.58177566528320312 0.43525457382202148
0.13098084926605225 -0.58967554569244385 0.43949079513549805
0.098071873188018799 -0.59416568279266357 0.44511175155639648
0.057432174682617188 -0.56357157230377197 0.42939949035644531
0.050480663776397705 -0.5409703254699707 0.40702533721923828
0.044087111949920654 -0.52530479431152344 0.38470745086669922
0.080677807331085205 -0.5154268741607666 0.35243844985961914
0.12093877792358398 -0.50886416435241699 0.34195995330810547
0.15779423713684082 -0.49656987190246582 0.33463811874389648
0.18951815366744995 -0.4926522970199585 0.35891628265380859
0.18961250782012939 -0.51223433017730713 0.38424253463745117
0.19126600027084351 -0.53840017318725586 0.40913772583007812
-0.075633585453033447 -0.51573550701141357 0.46407508850097656
-0.090193629264831543 -0.49029052257537842 0.43751382827758789
-0.10517734289169312 -0.47099542617797852 0.41154956817626953
-0.086860418319702148 -0.47917962074279785 0.37690162658691406
-0.048126101493835449 -0.49671578407287598 0.37147712707519531
-0.0056414008140563965 -0.50919258594512939 0.36759805679321289
0.032253682613372803 -0.58793699741363525 0.46020030975341797
-0.00013482570648193359 -0.57730555534362793 0.46944570541381836
-0.031860232353210449 -0.56345760822296143 0.4796142578125
0.20610725879669189 -0.76201093196868896 0.52200841903686523
0.17280304431915283 -0.76764464378356934 0.53255748748779297
0.13953512907028198 -0.77040326595306396 0.54309654235839844
0.093825340270996094 -0.72393417358398438 0.52536678314208984
0.083000361919403076 -0.67757892608642578 0.49937152862548828
0.073502600193023682 -0.63312888145446777 0.47514247894287109
0.20260870456695557 -0.61271953582763672 0.45315885543823242
0.21269196271896362 -0.65873074531555176 0.47238683700561523
0.22514444589614868 -0.7070462703704834 0.49135923385620117
-0.03699260950088501 -0.67505204677581787 0.56856918334960938
-0.044356644153594971 -0.629921555519104 0.54196882247924805
-0.052596688270568848 -0.58663535118103027 0.51623630523681641
0.072803914546966553 -0.76142704486846924 0.56473779678344727
0.039128601551055908 -0.74973690509796143 0.57574558258056641
0.005059361457824707 -0.73525857925415039 0.58654165267944336
0.2730330228805542 -0.8951185941696167 0.62843036651611328
0.23880046606063843 -0.8941199779510498 0.64876031875610352
0.20357692241668701 -0.89166367053985596 0.66743707656860352
0.15162551403045654 -0.86921477317810059 0.65172100067138672
0.13584905862808228 -0.8427422046661377 0.61839103698730469
0.12047809362411499 -0.8088538646697998 0.58525514602661133
0.25538653135299683 -0.79976820945739746 0.53338384628295898
0.27220892906188965 -0.83946323394775391 0.55708408355712891
0.28944849967956543 -0.87201261520385742 0.58182907104492188
-0.001582801342010498 -0.82594394683837891 0.69282102584838867
-0.011615931987762451 -0.79672706127166748 0.66004848480224609
-0.021006345748901367 -0.76064157485961914 0.62771511077880859
0.12903761863708496 -0.87925255298614502 0.6973261833190918
0.089766502380371094 -0.86936938762664795 0.70837783813476562
0.049606144428253174 -0.85815727710723877 0.71744489669799805
0.32304143905639648 -0.9076608419418335 0.63227987289428711
0.3380812406539917 -0.91072213649749756 0.65694904327392578
0.35090714693069458 -0.90658164024353027 0.68060016632080078
0.20622348785400391 -0.8882218599319458 0.76337862014770508
0.19464719295501709 -0.89447617530822754 0.73987770080566406
0.18151205778121948 -0.89472091197967529 0.71328639984130859
0.041469335556030273 -0.85327303409576416 0.80892324447631836
0.030435025691986084 -0.8580930233001709 0.78364944458007812
0.019565701484680176 -0.85650062561035156 0.75545740127563477
0.42456483840942383 -0.89283037185668945 0.55806112289428711
0.44198381900787354 -0.89958083629608154 0.57695198059082031
0.45495885610580444 -0.89935290813446045 0.60220241546630859
0.33969408273696899 -0.89580881595611572 0.58533239364624023
0.36959928274154663 -0.89450645446777344 0.5663914680480957
0.39349716901779175 -0.88973319530487061 0.55345630645751953
-0.096620023250579834 -0.81124842166900635 0.74248695373535156
-0.068725645542144775 -0.82360422611236572 0.73715591430664062
-0.032060921192169189 -0.83514893054962158 0.7314305305480957
-0.09724116325378418 -0.80786287784576416 0.82248640060424805
-0.10938245058059692 -0.80923819541931152 0.79446649551391602
-0.11393356323242188 -0.80599462985992432 0.76719141006469727
0.40954965353012085 -0.76429510116577148 0.51271295547485352
0.44107234477996826 -0.78250360488891602 0.53889274597167969
0.46658527851104736 -0.79808402061462402 0.57068014144897461
0.40615367889404297 -0.86634910106658936 0.53345298767089844
0.39947754144668579 -0.8363872766494751 0.51827669143676758
0.38846457004547119 -0.79602980613708496 0.50578880310058594
-0.14238840341567993 -0.72097575664520264 0.68672847747802734
-0.13561075925827026 -0.75666511058807373 0.71041011810302734
-0.12455761432647705 -0.78411734104156494 0.73157072067260742
-0.14927172660827637 -0.70768892765045166 0.78854656219482422
-0.15715336799621582 -0.69744300842285156 0.74395990371704102
-0.15662872791290283 -0.6866304874420166 0.69997310638427734
0.35936254262924194 -0.56509912014007568 0.48509502410888672
0.3948025107383728 -0.58431005477905273 0.51890707015991211
0.42466896772384644 -0.60314154624938965 0.55682086944580078
0.36146146059036255 -0.69970703125 0.48550176620483398
0.34788936376571655 -0.64917254447937012 0.47644233703613281
0.3348008394241333 -0.59910047054290771 0.46756649017333984
-0.15668106079101562 -0.54733109474182129 0.59268474578857422
-0.15332275629043579 -0.59176111221313477 0.61510229110717773
-0.15012985467910767 -0.63641226291656494 0.63826322555541992
-0.17197924852371216 -0.53585267066955566 0.71934223175048828
-0.17569506168365479 -0.52301478385925293 0.66701889038085938
-0.1717832088470459 -0.51113235950469971 0.61558675765991211
0.34091782569885254 -0.74287235736846924 0.48920392990112305
0.30691856145858765 -0.74319660663604736 0.49190425872802734
0.27312570810317993 -0.74795770645141602 0.50026082992553711
0.22616100311279297 -0.56071662902832031 0.43123388290405273
0.25699877738952637 -0.55168294906616211 0.43369817733764648
0.28882306814193726 -0.5474853515625 0.44204950332641602
-0.14280426502227783 -0.50731158256530762 0.53929424285888672
-0.11957669258117676 -0.51713430881500244 0.51734113693237305
-0.09240490198135376 -0.53144502639770508 0.50211191177368164
-0.064800679683685303 -0.70391833782196045 0.6064915657043457
-0.097937822341918945 -0.69071280956268311 0.61850976943969727
-0.12614899873733521 -0.68200194835662842 0.63602304458618164
0.21687197685241699 -0.45698881149291992 0.34469366073608398
0.24014335870742798 -0.43382024765014648 0.36393976211547852
0.26210582256317139 -0.4131467342376709 0.39006280899047852
0.29308158159255981 -0.42968392372131348 0.42946529388427734
0.30195850133895874 -0.46580815315246582 0.43883991241455078
0.31173115968704224 -0.50640451908111572 0.44869279861450195
-0.16578537225723267 -0.46453142166137695 0.55013132095336914
-0.17133051156997681 -0.4280247688293457 0.53050136566162109
-0.17663109302520752 -0.39545845985412598 0.51262235641479492
-0.17217260599136353 -0.3843991756439209 0.46002292633056641
-0.16018617153167725 -0.40708684921264648 0.42899370193481445
-0.14320164918899536 -0.43243575096130371 0.40443038940429688
0.31068950891494751 -0.39354157447814941 0.45514440536499023
0.33579051494598389 -0.39433717727661133 0.49127960205078125
0.35653263330459595 -0.39708924293518066 0.5286555290222168
-0.19184261560440063 -0.35574817657470703 0.62901401519775391
-0.19283580780029297 -0.35607314109802246 0.58424758911132812
-0.18856728076934814 -0.35892415046691895 0.53931379318237305
0.29575449228286743 -0.27716851234436035 0.50756168365478516
0.28659003973007202 -0.28304171562194824 0.47387361526489258
0.27700889110565186 -0.28987026214599609 0.43607854843139648
0.27725410461425781 -0.26746511459350586 0.40019083023071289
0.27792739868164062 -0.24189233779907227 0.41279935836791992
0.2753756046295166 -0.22049641609191895 0.4245753288269043
0.25984090566635132 -0.2088172435760498 0.45570087432861328
0.25769978761672974 -0.20949363708496094 0.47801351547241211
0.25905376672744751 -0.20483827590942383 0.50267982482910156
-0.1809423565864563 -0.18685412406921387 0.54692220687866211
-0.18706917762756348 -0.19189167022705078 0.52135562896728516
-0.19756472110748291 -0.19184517860412598 0.49755525588989258
-0.21973901987075806 -0.20291447639465332 0.46799278259277344
-0.21946865320205688 -0.22289156913757324 0.4596095085144043
-0.21596401929855347 -0.24693417549133301 0.45065832138061523
-0.19558006525039673 -0.26649618148803711 0.49329948425292969
-0.19095045328140259 -0.25838971138000488 0.53418159484863281
-0.18721258640289307 -0.25147557258605957 0.57037115097045898
0.277210533618927 -0.37282586097717285 0.41434669494628906
0.27120840549468994 -0.35024380683898926 0.40755510330200195
0.26808679103851318 -0.32844448089599609 0.39911699295043945
-0.193045973777771 -0.3040473461151123 0.45873212814331055
-0.18711996078491211 -0.32383990287780762 0.47196435928344727
-0.18381273746490479 -0.34421014785766602 0.48406887054443359
0.27027881145477295 -0.15134763717651367 0.45832300186157227
0.2657051682472229 -0.14812493324279785 0.47356462478637695
0.2626575231552124 -0.1399538516998291 0.49456167221069336
0.26318591833114624 -0.18722248077392578 0.44204807281494141
0.25983250141143799 -0.17370390892028809 0.44675636291503906
0.26582843065261841 -0.16108179092407227 0.4486541748046875
-0.22288429737091064 -0.14750814437866211 0.48248577117919922
-0.2131618857383728 -0.15954875946044922 0.48192882537841797
-0.21330887079238892 -0.17212176322937012 0.47947978973388672
-0.21325123310089111 -0.12646007537841797 0.52817916870117188
-0.21941202878952026 -0.13457989692687988 0.50731611251831055
-0.2275233268737793 -0.13791322708129883 0.49184608459472656
0.29458039999008179 -0.14372062683105469 0.44115924835205078
0.32599341869354248 -0.13406991958618164 0.42774534225463867
0.36573702096939087 -0.12665772438049316 0.40810918807983398
-0.34636551141738892 -0.11318683624267578 0.4422917366027832
-0.29849016666412354 -0.12073993682861328 0.46136665344238281
-0.25983703136444092 -0.13043785095214844 0.47447586059570312
-0.046308815479278564 -0.53854966163635254 -0.62198495864868164
-0.029858648777008057 -0.49792051315307617 -0.68478631973266602
-0.0083287358283996582 -0.44565391540527344 -0.74224996566772461
0.10629212856292725 -0.37572503089904785 -0.78240633010864258
0.18925195932388306 -0.36852765083312988 -0.75629568099975586
0.26452618837356567 -0.35977697372436523 -0.72305870056152344
0.29888039827346802 -0.40842461585998535 -0.6551814079284668
0.2779579758644104 -0.45260739326477051 -0.61683368682861328
0.26565313339233398 -0.48508477210998535 -0.57118368148803711
0.18769651651382446 -0.53405416011810303 -0.52826786041259766
0.10967135429382324 -0.55348765850067139 -0.54129123687744141
0.02657473087310791 -0.56597614288330078 -0.55104780197143555
-0.14028441905975342 -0.56216979026794434 -0.54147863388061523
-0.21755743026733398 -0.5463402271270752 -0.52326774597167969
-0.28692185878753662 -0.52446293830871582 -0.50401782989501953
-0.33858489990234375 -0.47821235656738281 -0.55308294296264648
-0.32869046926498413 -0.45022416114807129 -0.60945558547973633
-0.31941819190979004 -0.4119105339050293 -0.66181659698486328
-0.23976176977157593 -0.36880278587341309 -0.74326562881469727
-0.15844601392745972 -0.37486362457275391 -0.77048444747924805
-0.071012973785400391 -0.37898373603820801 -0.78972291946411133
-0.064733982086181641 -0.61377608776092529 -0.29840993881225586
-0.067414343357086182 -0.60784649848937988 -0.39113807678222656
-0.065068721771240234 -0.59286665916442871 -0.47583532333374023
0.24711471796035767 -0.53014755249023438 -0.45223188400268555
0.23701971769332886 -0.54495525360107422 -0.37837505340576172
0.22781264781951904 -0.55246996879577637 -0.29613590240478516
0.15774250030517578 -0.57670783996582031 -0.20612573623657227
0.088705003261566162 -0.59620404243469238 -0.20570039749145508
0.016264081001281738 -0.60785198211669922 -0.2033848762512207
-0.12761622667312622 -0.60080695152282715 -0.18611860275268555
-0.19459068775177002 -0.58262729644775391 -0.17246818542480469
-0.25604057312011719 -0.55769610404968262 -0.15953874588012695
-0.3280717134475708 -0.53168594837188721 -0.24491977691650391
-0.34002804756164551 -0.52706682682037354 -0.3340153694152832
-0.34592324495315552 -0.51573431491851807 -0.4161067008972168
-0.0094161629676818848 -0.55292594432830811 0.12303495407104492
-0.026703417301177979 -0.57527041435241699 0.021573543548583984
-0.043292880058288574 -0.59570217132568359 -0.088015079498291016
0.21639519929885864 -0.53924965858459473 -0.11007022857666016
0.21456712484359741 -0.51998543739318848 -0.010933876037597656
0.21440541744232178 -0.49636721611022949 0.087195873260498047
0.16376388072967529 -0.50373959541320801 0.18145322799682617
0.11250782012939453 -0.52310502529144287 0.18739557266235352
0.059841513633728027 -0.53247880935668945 0.19766664505004883
-0.048186779022216797 -0.52555584907531738 0.21451568603515625
-0.1017223596572876 -0.50965118408203125 0.22013425827026367
-0.15299934148788452 -0.4845578670501709 0.22815561294555664
-0.23163414001464844 -0.47260260581970215 0.14522171020507812
-0.25999319553375244 -0.49605929851531982 0.047564506530761719
-0.28690171241760254 -0.51550817489624023 -0.0519256591796875
0.032449603080749512 -0.51133215427398682 0.33944988250732422
0.025970399379730225 -0.5124967098236084 0.31021881103515625
0.017574429512023926 -0.51958227157592773 0.26845788955688477
0.19966036081314087 -0.46716213226318359 0.24755239486694336
0.19312357902526855 -0.46735596656799316 0.28449726104736328
0.19064563512802124 -0.47100019454956055 0.31143426895141602
-0.131583571434021 -0.44930410385131836 0.36422204971313477
-0.1458771824836731 -0.44539475440979004 0.33794450759887695
-0.16631686687469482 -0.44461941719055176 0.30244350433349609
0.23876547813415527 -0.42337417602539062 0.24553966522216797
0.25150412321090698 -0.38318896293640137 0.29351234436035156
0.26257157325744629 -0.34308600425720215 0.33725357055664062
-0.20978283882141113 -0.31981229782104492 0.39422607421875
-0.20935404300689697 -0.3591313362121582 0.35230064392089844
-0.20897877216339111 -0.39896392822265625 0.30511379241943359
0.75248259305953979 0.11465144157409668 0.095586776733398438
0.73706871271133423 0.12543272972106934 0.15288496017456055
0.7238619327545166 0.13845562934875488 0.20924854278564453
0.61585748195648193 -0.057039499282836914 0.23418807983398438
0.63328969478607178 -0.090814352035522461 0.16746616363525391
0.65249776840209961 -0.13043093681335449 0.094271183013916016
0.71554994583129883 -0.10226035118103027 0.020596504211425781
0.74551182985305786 -0.032560825347900391 0.023467540740966797
0.76353156566619873 0.037789821624755859 0.029062747955322266
-0.81571155786514282 -0.010868310928344727 -0.082937240600585938
-0.78970247507095337 -0.064264297485351562 -0.048116207122802734
-0.75477153062820435 -0.11699295043945312 -0.010570049285888672
-0.68824714422225952 -0.13135409355163574 0.095757484436035156
-0.66925287246704102 -0.093522548675537109 0.16460895538330078
-0.65198546648025513 -0.060742855072021484 0.22888755798339844
-0.81257814168930054 0.085552692413330078 0.086992740631103516
-0.81799113750457764 0.069526195526123047 0.023499011993408203
-0.82509756088256836 0.054876089096069336 -0.042992115020751953
0.051087021827697754 -0.2982022762298584 -0.84569692611694336
0.085336387157440186 -0.20428085327148438 -0.88824081420898438
0.11740559339523315 -0.10121798515319824 -0.91857528686523438
0.24651980400085449 0.014468193054199219 -0.90123176574707031
0.33993470668792725 0.017139911651611328 -0.85670185089111328
0.42183941602706909 0.015648126602172852 -0.80572700500488281
0.4564475417137146 -0.097228050231933594 -0.75674962997436523
0.41412955522537231 -0.1940462589263916 -0.74334335327148438
0.36965721845626831 -0.27914524078369141 -0.71927595138549805
-0.30354368686676025 -0.30024051666259766 -0.76786231994628906
-0.29670655727386475 -0.22678494453430176 -0.81965017318725586
-0.29001784324645996 -0.14278697967529297 -0.86360931396484375
-0.18743324279785156 -0.03227543830871582 -0.91861915588378906
-0.080136597156524658 -0.016546010971069336 -0.93608999252319336
0.032318353652954102 -0.0028998851776123047 -0.94215822219848633
-0.018981218338012695 0.68611621856689453 -0.41631937026977539
-0.052205383777618408 0.70203518867492676 -0.33388614654541016
-0.081242084503173828 0.70468354225158691 -0.25028467178344727
0.0027171969413757324 0.7043614387512207 -0.13004446029663086
0.10925018787384033 0.7069852352142334 -0.10085391998291016
0.21095603704452515 0.70005345344543457 -0.079196929931640625
0.32089471817016602 0.69857549667358398 -0.13615131378173828
0.34321701526641846 0.6996309757232666 -0.20547389984130859
0.369376540184021 0.68781661987304688 -0.27454423904418945
0.31344896554946899 0.67870831489562988 -0.37281608581542969
0.22014707326889038 0.68055891990661621 -0.41165781021118164
0.12050336599349976 0.67288589477539062 -0.45498037338256836
-0.087614715099334717 0.63846278190612793 -0.53671550750732422
-0.18903052806854248 0.6135411262512207 -0.57076740264892578
-0.28263622522354126 0.58273792266845703 -0.60062837600708008
-0.39309364557266235 0.56901335716247559 -0.55650043487548828
-0.4212874174118042 0.58278298377990723 -0.48272562026977539
-0.44718360900878906 0.58522820472717285 -0.40503311157226562
-0.39513307809829712 0.61338400840759277 -0.28472185134887695
-0.30720537900924683 0.64654445648193359 -0.24420499801635742
-0.20922476053237915 0.67335319519042969 -0.20361948013305664
0.12240386009216309 0.50393962860107422 -0.73357009887695312
0.090674340724945068 0.56797981262207031 -0.65948677062988281
0.054594278335571289 0.61901259422302246 -0.58014249801635742
0.42717206478118896 0.63286113739013672 -0.41068601608276367
0.4553188681602478 0.58863186836242676 -0.4765019416809082
0.4803202748298645 0.52939963340759277 -0.53958845138549805
0.42682623863220215 0.45843410491943359 -0.64640045166015625
0.34275239706039429 0.45357751846313477 -0.70097637176513672
0.24906498193740845 0.44147086143493652 -0.75475931167602539
0.037231028079986572 0.41057968139648438 -0.82802534103393555
-0.073490679264068604 0.3935084342956543 -0.84344196319580078
-0.17897194623947144 0.37259531021118164 -0.8499751091003418
-0.28728610277175903 0.41643929481506348 -0.80761623382568359
-0.30876433849334717 0.47166132926940918 -0.7541351318359375
-0.33506035804748535 0.51386928558349609 -0.69310188293457031
0.15936130285263062 0.11934280395507812 -0.92430686950683594
0.16530072689056396 0.22917437553405762 -0.8978424072265625
0.16115158796310425 0.33282566070556641 -0.85543155670166016
0.51302260160446167 0.35435080528259277 -0.65381717681884766
0.51689571142196655 0.24303936958312988 -0.70051860809326172
0.50998222827911377 0.12573885917663574 -0.73557901382446289
-0.27531945705413818 0.053124189376831055 -0.90703344345092773
-0.26937979459762573 0.15747785568237305 -0.90292501449584961
-0.26772314310073853 0.25724244117736816 -0.88386297225952148
0.52994620800018311 0.44276762008666992 0.19801807403564453
0.5298125147819519 0.45070624351501465 0.24336385726928711
0.53046488761901855 0.46664762496948242 0.28518104553222656
0.6641845703125 0.37531352043151855 0.27839136123657227
0.66062736511230469 0.36303043365478516 0.23947238922119141
0.66002601385116577 0.35593008995056152 0.19849967956542969
0.63260281085968018 0.38909721374511719 0.16265392303466797
0.6020275354385376 0.41165447235107422 0.15972805023193359
0.56924128532409668 0.42908310890197754 0.15315628051757812
-0.72587257623672485 0.32088327407836914 -0.10199880599975586
-0.75369554758071899 0.30272603034973145 -0.097011089324951172
-0.77893728017807007 0.28125333786010742 -0.091341018676757812
-0.81063741445541382 0.25532341003417969 -0.038016319274902344
-0.8242003321647644 0.2637174129486084 0.006084442138671875
-0.84059292078018188 0.27541756629943848 0.043656826019287109
-0.75028860569000244 0.3637082576751709 0.042576789855957031
-0.73096680641174316 0.34902715682983398 0.0037102699279785156
-0.71256744861602783 0.34032297134399414 -0.043533802032470703
0.55195653438568115 0.52261233329772949 -0.016455650329589844
0.54255443811416626 0.49368453025817871 0.040849685668945312
0.53583967685699463 0.46595954895019531 0.096332073211669922
0.67229580879211426 0.36596941947937012 0.11184215545654297
0.68472558259963989 0.38082218170166016 0.066453933715820312
0.69923579692840576 0.39625358581542969 0.01961517333984375
0.68213957548141479 0.45106053352355957 -0.033586025238037109
0.64735764265060425 0.48514652252197266 -0.047237396240234375
0.6085008978843689 0.5149986743927002 -0.063114166259765625
-0.68250572681427002 0.37001466751098633 -0.40621757507324219
-0.7204405665397644 0.3397057056427002 -0.39120626449584961
-0.75592827796936035 0.30760407447814941 -0.37261056900024414
-0.79136174917221069 0.26632523536682129 -0.28692865371704102
-0.79376614093780518 0.2603154182434082 -0.21760368347167969
-0.79613995552062988 0.25442147254943848 -0.15085315704345703
-0.68264788389205933 0.35236716270446777 -0.17192411422729492
-0.67061161994934082 0.37043952941894531 -0.25049209594726562
-0.65845239162445068 0.38913416862487793 -0.33225631713867188
0.61560553312301636 0.54074692726135254 -0.24801015853881836
0.59671610593795776 0.55335092544555664 -0.19060420989990234
0.57933676242828369 0.5553886890411377 -0.13274860382080078
0.72810918092727661 0.41098141670227051 -0.078667163848876953
0.74117177724838257 0.40582132339477539 -0.12983942031860352
0.75370854139328003 0.39234709739685059 -0.18192768096923828
0.74185639619827271 0.41658902168273926 -0.24705886840820312
0.7120593786239624 0.45310759544372559 -0.26637887954711914
0.67655402421951294 0.48542690277099609 -0.28735733032226562
-0.61320817470550537 0.32695627212524414 -0.66267967224121094
-0.65745633840560913 0.29411864280700684 -0.64271402359008789
-0.69814741611480713 0.25999212265014648 -0.61749458312988281
-0.74802666902542114 0.2418055534362793 -0.53771257400512695
-0.76328021287918091 0.25716423988342285 -0.48109769821166992
-0.77659279108047485 0.26633524894714355 -0.42034721374511719
-0.62757694721221924 0.4060971736907959 -0.48635482788085938
-0.6084253191947937 0.3998253345489502 -0.55433797836303711
-0.58830803632736206 0.38508772850036621 -0.61685466766357422
0.68746954202651978 0.39688634872436523 -0.46434354782104492
0.67303240299224854 0.44899106025695801 -0.4143977165222168
0.6550295352935791 0.48896098136901855 -0.36072635650634766
0.77834641933441162 0.34055280685424805 -0.28750038146972656
0.78773844242095947 0.30561637878417969 -0.33754682540893555
0.79114508628845215 0.26914262771606445 -0.38163661956787109
0.77982085943222046 0.25538277626037598 -0.43284749984741211
0.76024484634399414 0.2765800952911377 -0.45907402038574219
0.73155742883682251 0.3013150691986084 -0.4854588508605957
-0.56535798311233521 0.16404438018798828 -0.81009387969970703
-0.61182230710983276 0.13914155960083008 -0.78388833999633789
-0.65022921562194824 0.11944127082824707 -0.75392341613769531
-0.68818402290344238 0.13014912605285645 -0.70987606048583984
-0.70336490869522095 0.16112732887268066 -0.67891931533813477
-0.7177777886390686 0.19220232963562012 -0.63806247711181641
-0.54963910579681396 0.3342900276184082 -0.72718238830566406
-0.53360497951507568 0.29773831367492676 -0.77267932891845703
-0.52162659168243408 0.25173544883728027 -0.80805349349975586
0.79438591003417969 0.19229602813720703 -0.42386054992675781
0.79534918069839478 0.12488508224487305 -0.43758773803710938
0.79060423374176025 0.049784183502197266 -0.45011663436889648
0.74699664115905762 -0.047448396682739258 -0.50206756591796875
0.71508967876434326 -0.050422430038452148 -0.53999423980712891
0.68351811170578003 -0.046814918518066406 -0.57599163055419922
0.67709809541702271 0.05767822265625 -0.59893989562988281
0.69220954179763794 0.15507292747497559 -0.57753610610961914
0.6983991265296936 0.24801945686340332 -0.547210693359375
-0.51542043685913086 0.12525105476379395 -0.83738422393798828
-0.51953297853469849 0.048064470291137695 -0.83003950119018555
-0.52438324689865112 -0.031958580017089844 -0.80994701385498047
-0.575248122215271 -0.11883044242858887 -0.74469566345214844
-0.62271702289581299 -0.12300848960876465 -0.70983648300170898
-0.66914910078048706 -0.12139487266540527 -0.67494010925292969
-0.70658373832702637 -0.045617341995239258 -0.67407846450805664
-0.6967778205871582 0.013494014739990234 -0.69977855682373047
-0.68549412488937378 0.067409753799438477 -0.71834564208984375
0.62103760242462158 -0.026375055313110352 -0.64296579360961914
0.58623409271240234 -0.01309967041015625 -0.67648601531982422
0.54398030042648315 -0.00037217140197753906 -0.71320915222167969
0.56183028221130371 0.43132686614990234 -0.56679916381835938
0.61371868848800659 0.40067052841186523 -0.54455375671386719
0.65793406963348389 0.36540055274963379 -0.52705574035644531
-0.46532881259918213 0.23186731338500977 -0.84322166442871094
-0.4114307165145874 0.27180814743041992 -0.84983253479003906
-0.3488088846206665 0.31098389625549316 -0.85204124450683594
-0.36038851737976074 -0.066346645355224609 -0.86841821670532227
-0.42388772964477539 -0.082833290100097656 -0.84041309356689453
-0.47793853282928467 -0.097703933715820312 -0.81046342849731445
0.47086483240127563 0.63691806793212891 -0.32697200775146484
0.53383290767669678 0.59978342056274414 -0.31897401809692383
0.58817392587661743 0.55869483947753906 -0.3134455680847168
-0.52575516700744629 0.40634441375732422 -0.67462158203125
-0.48068141937255859 0.45367646217346191 -0.66548061370849609
-0.42833614349365234 0.50127291679382324 -0.64881515502929688
0.38431519269943237 0.65461254119873047 -0.0658416748046875
0.4535219669342041 0.61954641342163086 -0.070468425750732422
0.51299065351486206 0.58180403709411621 -0.075244426727294922
-0.6093066930770874 0.44266843795776367 -0.40481758117675781
-0.57162719964981079 0.4864952564239502 -0.38573551177978516
-0.52665531635284424 0.5314784049987793 -0.35769939422607422
0.2938535213470459 0.65060210227966309 0.0019650459289550781
0.28906095027923584 0.61043381690979004 0.068201065063476562
0.2879905104637146 0.57088541984558105 0.12953090667724609
0.36736822128295898 0.51933503150939941 0.17424631118774414
0.43264412879943848 0.49466252326965332 0.16301727294921875
0.48678404092788696 0.46943068504333496 0.15347099304199219
-0.6650804877281189 0.36622929573059082 -0.090135574340820312
-0.62891727685928345 0.39613533020019531 -0.069633960723876953
-0.58380556106567383 0.42816853523254395 -0.041121006011962891
-0.51339399814605713 0.48525023460388184 -0.073009014129638672
-0.50091779232025146 0.51748418807983398 -0.15184974670410156
-0.48682749271392822 0.54973030090332031 -0.23702526092529297
0.29070502519607544 0.52790260314941406 0.2284541130065918
0.29137450456619263 0.53110218048095703 0.26534128189086914
0.28952932357788086 0.54817795753479004 0.29591798782348633
-0.57222664356231689 0.46756315231323242 0.10555934906005859
-0.55564475059509277 0.45277214050292969 0.080397605895996094
-0.54009377956390381 0.44991660118103027 0.044268608093261719
-0.12132680416107178 0.66558980941772461 -0.077184677124023438
-0.13285994529724121 0.62847471237182617 0.012013912200927734
-0.14119040966033936 0.58738112449645996 0.10175895690917969
-0.020764708518981934 0.56041216850280762 0.19159793853759766
0.091321766376495361 0.5623476505279541 0.18970870971679688
0.19581955671310425 0.55528402328491211 0.18796396255493164
-0.45136582851409912 0.49051284790039062 0.034869670867919922
-0.36336302757263184 0.51645112037658691 0.081212520599365234
-0.26503747701644897 0.5357673168182373 0.13331937789916992
0.19813227653503418 0.57171130180358887 0.31175088882446289
0.1204497218132019 0.55805611610412598 0.30920171737670898
0.045859754085540771 0.54185795783996582 0.31314611434936523
-0.35224419832229614 0.50337362289428711 0.22221612930297852
-0.42778873443603516 0.50438022613525391 0.182373046875
-0.50643110275268555 0.50265645980834961 0.14857769012451172
-0.077326059341430664 0.52789998054504395 0.24972438812255859
-0.043221950531005859 0.51778507232666016 0.2802424430847168
-0.025992691516876221 0.51379656791687012 0.30463933944702148
-0.26891535520553589 0.49165487289428711 0.25235319137573242
-0.25012630224227905 0.49900507926940918 0.23589754104614258
-0.21729046106338501 0.51500821113586426 0.21927452087402344
-0.14664280414581299 0.51218914985656738 0.25285911560058594
-0.14323312044143677 0.49034810066223145 0.28163862228393555
-0.14050471782684326 0.47416472434997559 0.30550098419189453
0.75412774085998535 0.17994284629821777 0.069294452667236328
0.72921144962310791 0.24761343002319336 0.10189914703369141
0.69737052917480469 0.3076932430267334 0.13317012786865234
-0.81906396150588989 0.20940828323364258 -0.097669124603271484
-0.83144855499267578 0.15814495086669922 -0.10772609710693359
-0.83624768257141113 0.10178184509277344 -0.11321401596069336
0.77836018800735474 0.11005306243896484 -0.00082540512084960938
0.78730535507202148 0.11476683616638184 -0.039004325866699219
0.79541003704071045 0.11879110336303711 -0.076229095458984375
0.79345804452896118 0.20525503158569336 -0.088561058044433594
0.77218091487884521 0.28188610076904297 -0.0606842041015625
0.74500560760498047 0.35039973258972168 -0.039258480072021484
-0.80954551696777344 0.22060108184814453 -0.34530735015869141
-0.82518208026885986 0.16380143165588379 -0.33860015869140625
-0.83338940143585205 0.10143947601318359 -0.33229827880859375
-0.83547842502593994 0.037367105484008789 -0.26643466949462891
-0.83645254373550415 0.03882908821105957 -0.21612882614135742
-0.83528470993041992 0.039952278137207031 -0.16400861740112305
0.81154561042785645 0.14112687110900879 -0.15509939193725586
0.81567728519439697 0.14555263519287109 -0.18883180618286133
0.81988465785980225 0.13799715042114258 -0.22489309310913086
0.81215488910675049 0.17616367340087891 -0.25437545776367188
0.79935181140899658 0.24227070808410645 -0.24203920364379883
0.7845655083656311 0.30977869033813477 -0.2341771125793457
-0.75715982913970947 0.17025947570800781 -0.56348419189453125
-0.77504515647888184 0.11610221862792969 -0.5393366813659668
-0.78849965333938599 0.063537359237670898 -0.51919984817504883
-0.81036049127578735 0.036561965942382812 -0.46289968490600586
-0.81951665878295898 0.045773029327392578 -0.42287969589233398
-0.82768678665161133 0.045668840408325195 -0.37883186340332031
0.82527190446853638 0.1052849292755127 -0.31363439559936523
0.82047188282012939 0.075291633605957031 -0.36075162887573242
0.80899429321289062 0.031692743301391602 -0.40855789184570312
-0.74759763479232788 -0.058927536010742188 -0.62090587615966797
-0.76817291975021362 -0.022798776626586914 -0.59086036682128906
-0.78530603647232056 0.0035078525543212891 -0.55249261856079102
0.34575092792510986 -0.3538978099822998 0.12432956695556641
0.30323344469070435 -0.39761137962341309 0.13210487365722656
0.26184386014938354 -0.43480777740478516 0.15269565582275391
0.27441412210464478 -0.52109086513519287 -0.20828437805175781
0.3219800591468811 -0.48891258239746094 -0.21085929870605469
0.36601531505584717 -0.45678019523620605 -0.21324729919433594
0.40643590688705444 -0.40978908538818359 -0.13294649124145508
0.40627217292785645 -0.3813927173614502 -0.050615310668945312
0.40542840957641602 -0.34445428848266602 0.033782005310058594
-0.43364250659942627 -0.32131171226501465 0.091432094573974609
-0.44876605272293091 -0.35725927352905273 0.0094709396362304688
-0.46020209789276123 -0.38575482368469238 -0.073077678680419922
-0.43227380514144897 -0.43312811851501465 -0.15450906753540039
-0.39529919624328613 -0.46434783935546875 -0.15015459060668945
-0.35567235946655273 -0.49660086631774902 -0.14800882339477539
-0.25896292924880981 -0.40975046157836914 0.21403408050537109
-0.30697298049926758 -0.37268829345703125 0.19337034225463867
-0.35354125499725342 -0.33011031150817871 0.18311405181884766
0.59861379861831665 -0.32280206680297852 -0.15025997161865234
0.61535358428955078 -0.28699445724487305 -0.099359035491943359
0.63967216014862061 -0.24124717712402344 -0.047104835510253906
0.60216611623764038 -0.21431517601013184 0.040340423583984375
0.53651416301727295 -0.24221372604370117 0.06519317626953125
0.46968591213226318 -0.26870226860046387 0.092492103576660156
0.4544607400894165 -0.40153384208679199 -0.21386194229125977
0.50054967403411865 -0.3806297779083252 -0.21161794662475586
0.54650038480758667 -0.36419320106506348 -0.20823049545288086
-0.59815388917922974 -0.34434318542480469 -0.15759420394897461
-0.55391210317611694 -0.36034917831420898 -0.16020298004150391
-0.5106666088104248 -0.38038325309753418 -0.16063261032104492
-0.49132823944091797 -0.24975180625915527 0.14045047760009766
-0.56472927331924438 -0.22662091255187988 0.10551261901855469
-0.63505405187606812 -0.20366716384887695 0.069232463836669922
-0.67870718240737915 -0.2310183048248291 -0.018987178802490234
-0.65859699249267578 -0.27193260192871094 -0.059802532196044922
-0.64602530002593994 -0.30470561981201172 -0.10354089736938477
0.4233248233795166 -0.15346837043762207 0.31871795654296875
0.42325884103775024 -0.19251203536987305 0.26181602478027344
0.41632336378097534 -0.23910737037658691 0.20062541961669922
-0.42047226428985596 -0.2205963134765625 0.2472071647644043
-0.4232335090637207 -0.17631006240844727 0.30289983749389648
-0.41963756084442139 -0.13904857635498047 0.35551071166992188
0.36571586132049561 -0.1509706974029541 0.38086366653442383
0.32667267322540283 -0.17292642593383789 0.3950042724609375
0.29368692636489868 -0.19033265113830566 0.41365623474121094
0.29008066654205322 -0.29552006721496582 0.33125877380371094
0.31836903095245361 -0.2915191650390625 0.27590227127075195
0.35256433486938477 -0.29270315170288086 0.21206569671630859
-0.3434566855430603 -0.27129936218261719 0.2651524543762207
-0.29135149717330933 -0.27019286155700684 0.32858133316040039
-0.24564707279205322 -0.27402853965759277 0.38413047790527344
-0.25177711248397827 -0.17458796501159668 0.45283126831054688
-0.2961840033531189 -0.15772342681884766 0.43308496475219727
-0.34634274244308472 -0.13649916648864746 0.41744327545166016
0.74490314722061157 -0.12322068214416504 -0.47404623031616211
0.70657318830490112 -0.20042204856872559 -0.47133207321166992
0.66939496994018555 -0.26751446723937988 -0.45463895797729492
0.60110986232757568 -0.32008028030395508 -0.44815206527709961
0.56315356492996216 -0.32501935958862305 -0.47429323196411133
0.52158915996551514 -0.33580756187438965 -0.50268745422363281
0.52547609806060791 -0.28307795524597168 -0.5763392448425293
0.57341015338897705 -0.20834136009216309 -0.59908246994018555
0.61664026975631714 -0.12684226036071777 -0.61035013198852539
-0.52411258220672607 -0.18127012252807617 -0.73733139038085938
-0.51680111885070801 -0.24617910385131836 -0.68653345108032227
-0.50585967302322388 -0.30521011352539062 -0.62643909454345703
-0.53778612613677979 -0.34386229515075684 -0.51905202865600586
-0.58082401752471924 -0.33307361602783203 -0.49043416976928711
-0.62222170829772949 -0.32708096504211426 -0.46154117584228516
-0.67431175708770752 -0.2874305248260498 -0.49858522415161133
-0.68735361099243164 -0.23791909217834473 -0.5571436882019043
-0.7013552188873291 -0.17973732948303223 -0.60518121719360352
0.44756579399108887 -0.34557461738586426 -0.59010076522827148
0.41932368278503418 -0.34138250350952148 -0.62775135040283203
0.38032656908035278 -0.3440854549407959 -0.65867376327514648
-0.36807894706726074 -0.35664176940917969 -0.68664360046386719
-0.41424399614334106 -0.35401821136474609 -0.65568876266479492
-0.45263320207595825 -0.35645031929016113 -0.61364173889160156
0.61201465129852295 -0.35288810729980469 -0.37885808944702148
0.59591609239578247 -0.3684694766998291 -0.32442951202392578
0.58915871381759644 -0.3684992790222168 -0.26534080505371094
0.41811829805374146 -0.43002152442932129 -0.29673385620117188
0.4318544864654541 -0.41981625556945801 -0.37789487838745117
0.4493144154548645 -0.39698123931884766 -0.45643138885498047
-0.49152451753616333 -0.39246129989624023 -0.44301748275756836
-0.48669654130935669 -0.4073340892791748 -0.34552383422851562
-0.47897720336914062 -0.41158294677734375 -0.2501835823059082
-0.64029109477996826 -0.34994220733642578 -0.21758413314819336
-0.64351189136505127 -0.35454487800598145 -0.28773021697998047
-0.65144580602645874 -0.3466942310333252 -0.36056661605834961
0.31400686502456665 -0.48229765892028809 -0.51169347763061523
0.36387377977371216 -0.44974541664123535 -0.51347112655639648
0.411826491355896 -0.40977025032043457 -0.52261066436767578
-0.45497554540634155 -0.4078371524810791 -0.51559829711914062
-0.42568576335906982 -0.4426729679107666 -0.49439477920532227
-0.39048713445663452 -0.47240281105041504 -0.48609495162963867
1.0498790740966797 0.17118382453918457 -0.32391786575317383
1.0524978637695312 0.1855320930480957 -0.32626867294311523
1.0563466548919678 0.19354486465454102 -0.33523941040039062
1.0170283317565918 0.18422603607177734 -0.33955192565917969
0.97760957479476929 0.1727452278137207 -0.32811927795410156
0.94273519515991211 0.15891075134277344 -0.31805181503295898
0.91555601358413696 0.14490318298339844 -0.29314041137695312
0.91984599828720093 0.13966917991638184 -0.28393459320068359
0.92502021789550781 0.12866759300231934 -0.28140974044799805
0.95548224449157715 0.12664556503295898 -0.29249763488769531
0.98276716470718384 0.13750290870666504 -0.30263185501098633
1.0136029720306396 0.14609050750732422 -0.31443214416503906
-0.9488951563835144 0.0086624622344970703 -0.63760948181152344
-0.92737174034118652 0.0079605579376220703 -0.60712385177612305
-0.90855860710144043 0.0048038959503173828 -0.57866716384887695
-0.88388645648956299 0.011132478713989258 -0.55742883682250977
-0.87553387880325317 0.019412517547607422 -0.566497802734375
-0.86639493703842163 0.022807836532592773 -0.58014059066772461
-0.87731963396072388 0.026811122894287109 -0.62888860702514648
-0.9014580249786377 0.030814170837402344 -0.66230964660644531
-0.92924362421035767 0.032072067260742188 -0.69798851013183594
-0.96511250734329224 0.033156633377075195 -0.71316099166870117
-0.96845370531082153 0.02915644645690918 -0.69460296630859375
-0.97136741876602173 0.019957065582275391 -0.67993640899658203
1.209688663482666 0.19575858116149902 -0.38506984710693359
1.1607968807220459 0.20178723335266113 -0.37501764297485352
1.1101845502853394 0.2000892162322998 -0.36367321014404297
1.0889151096343994 0.15628290176391602 -0.34084844589233398
1.1309646368026733 0.15578031539916992 -0.35417079925537109
1.1717309951782227 0.14878177642822266 -0.36660385131835938
1.217860221862793 0.15259885787963867 -0.37369632720947266
1.2293884754180908 0.16797733306884766 -0.37465238571166992
1.2416286468505859 0.17750000953674316 -0.38092470169067383
-1.1174860000610352 -0.0091869831085205078 -0.82083463668823242
-1.113141655921936 -0.012865066528320312 -0.80063962936401367
-1.1086453199386597 -0.021089792251586914 -0.78261280059814453
-1.0706984996795654 -0.016615867614746094 -0.75590658187866211
-1.0365469455718994 -0.0050857067108154297 -0.73285102844238281
-1.0038142204284668 0.0025134086608886719 -0.70274114608764648
-0.99754565954208374 0.026512861251831055 -0.77289772033691406
-1.0372104644775391 0.018798112869262695 -0.80653047561645508
-1.0787912607192993 0.0065591335296630859 -0.83118963241577148
1.3315974473953247 0.05832362174987793 -0.40767288208007812
1.3154755830764771 0.10892701148986816 -0.40307188034057617
1.2891573905944824 0.14982891082763672 -0.39870738983154297
1.2367432117462158 0.10695910453796387 -0.38583469390869141
1.2573280334472656 0.071581363677978516 -0.39272356033325195
1.2693022489547729 0.028564691543579102 -0.39889621734619141
1.2873814105987549 -0.010478496551513672 -0.40159320831298828
1.3043229579925537 -0.0031132698059082031 -0.40153741836547852
1.3212893009185791 0.00059437751770019531 -0.40548849105834961
-1.2470428943634033 -0.13367629051208496 -0.71949052810668945
-1.2337280511856079 -0.1337282657623291 -0.70686578750610352
-1.2201046943664551 -0.13663101196289062 -0.69630336761474609
-1.1899175643920898 -0.10957765579223633 -0.72242641448974609
-1.1658085584640503 -0.08005070686340332 -0.74862384796142578
-1.1368809938430786 -0.054168462753295898 -0.76458072662353516
-1.1624976396560669 -0.035208225250244141 -0.83440351486206055
-1.2008812427520752 -0.064787387847900391 -0.81151580810546875
-1.2337040901184082 -0.098993539810180664 -0.77676582336425781
1.2809574604034424 -0.19730567932128906 -0.43988943099975586
1.3107596635818481 -0.13231992721557617 -0.4328150749206543
1.3294626474380493 -0.065250158309936523 -0.42322921752929688
1.2654155492782593 -0.074370861053466797 -0.41235971450805664
1.2495995759963989 -0.12933492660522461 -0.41845798492431641
1.225249171257019 -0.182037353515625 -0.42144489288330078
1.2037403583526611 -0.23334097862243652 -0.41855192184448242
1.2160954475402832 -0.23952007293701172 -0.42181587219238281
1.2287701368331909 -0.24719142913818359 -0.42941474914550781
-1.2350181341171265 -0.28543710708618164 -0.51407289505004883
-1.2213819026947021 -0.27886223793029785 -0.50915908813476562
-1.2077220678329468 -0.2738652229309082 -0.50880241394042969
-1.2119094133377075 -0.24274969100952148 -0.55988979339599609
-1.2191570997238159 -0.21059679985046387 -0.60592889785766602
-1.2175936698913574 -0.17630434036254883 -0.64920520782470703
