# XYZ point cloud file
0.7139105146524769 -0.25992834337464821 0.67705558447272196
-0.085784655460069525 -0.74824900112719872 0.25570319790561236
0.86770836980597987 -0.12289151724350411 0.50429357024902011
0.52832913566961159 -0.099601754713646962 0.69089623435137959
0.28820266920174331 -0.22403470360384947 0.73536102415401139
-0.5135151144611243 -0.66618841987720367 -0.27394294312644263
0.38823808250327208 -0.3776922943118004 0.3348597529436006
0.63482895117678617 -0.41306475655281982 0.70981491700187327
0.23598065968446569 0.0076261229399792185 0.78993605648871146
0.67771111003455509 -0.60994854237634843 0.49363086333734785
-0.39757021602693554 0.18319469074543004 0.73126287934970513
0.40686912143031234 -0.38199356241237359 -0.12842746290588813
-0.20866339967848602 1.0040135411364637 -0.1185492187799273
0.20633510861032045 0.49806540537692312 0.56685454210316166
0.20616363153949369 0.038502123890838291 0.73057240917000499
-0.76563250870670285 -0.59265328941936213 -0.31602147117978774
-0.11838267257995505 -0.98158956053496227 -1.3004461655036721
0.036602047876052451 -0.35730404883792577 0.42048318736417833
-0.60454359180205075 -0.16532746978288415 0.63958866045255292
-0.40467355375474146 -0.062470594746768526 0.78327548721679108
0.79905093752604639 -0.088862914334893794 0.44221104576794268
0.59184961264702551 -0.6231736262086498 -0.10208134943832903
0.32454951178405667 0.66527523975852754 -0.071984902442814303
0.02914823340281314 0.50227370255733117 0.74883978651526917
-0.20367198236022965 -0.28838613851402606 0.64875938079293149
0.019741538623953225 0.56878870789021585 0.67720084915550594
0.29903552672171602 -0.034985905155086705 0.73657119801125503
0.26438369612012735 0.79012102211149626 -0.29594976411432405
-1.3185520332455316 0.74029508437758151 1.1870328336554037
0.23623076727611031 -0.25736953115344274 0.59147578688740055
-0.33358801440909358 -0.76530718800452746 -0.15009126884312529
0.32138743791110458 -0.82654531041586621 -0.7149804194698639
0.23464995510927436 -0.38968858719134225 0.14071830341860725
-0.63604278130507541 -0.206088283157154 0.67684019767821724
-0.78216258726613097 0.21301064207232301 -0.50703549738041964
-0.75134552668067955 -0.98719338128350742 -0.37938940998690285
0.32887111346222953 -0.16316294378761231 -0.16037081545563581
-0.52110044742524841 -0.52502849982787669 0.53760489600260009
-0.82641350385510903 -1.0148359705170016 -0.4345642844190909
-0.076317134954176247 0.41663941543047711 0.80141440716854184
0.49537978940031557 -0.59829046562954513 0.66972586470244977
-0.73597106794600575 -0.85184033232642253 -0.40536160136240085
-0.31050822011716983 0.49929938812604524 0.80418094465987267
0.26531874331114025 -0.085441984234847723 0.77908087023313577
-0.56543630416170054 -0.39005187870270053 0.63274236589569632
0.21852774684000187 -0.40443309276582351 1.0201950255012608
-0.046874726108017128 0.22955182988722989 0.75353896319382407
0.24393193403918267 1.0503629052939671 -0.33293409558872256
-0.083303541004921544 0.29698627658201016 0.76922231306198263
-0.049709652252216463 0.3097879045387737 0.79757777957337161
0.66676359513639993 -0.42935495006945867 0.66828560927656433
0.26528127799117862 0.76420681438320548 -0.2868554901287812
0.56980470810753669 -0.69045060469711039 0.75613113451803216
-0.4527933666002395 0.027255112528121739 -0.33304405226114575
-0.39969556024611336 -0.87655517736903876 0.31572819619466941
0.24877427973451949 0.029933352906202693 0.75933181265776284
0.15656267245582128 -0.027076051197586715 0.77627772359016944
-0.76927683531084079 -0.36068105325040811 0.58966248496754048
0.32546427111198956 0.45119336030985657 0.30371319228738614
-0.26119747000857285 0.2081322595075541 0.37773648024359119
-0.315769084405217 0.49334522445080431 0.72415826963920971
-0.13622235758507478 -0.16301788854551935 -0.15051518303873124
0.33146363398714174 1.1814514690843376 -0.3940502660309857
-0.3268998091143045 -0.9473283721673138 -0.93067778294875403
0.086536111480709832 0.48587740746054298 0.72013826199526498
-0.37977785202998116 -0.85881474920566081 -0.081999706387676952
-0.36966227454029366 -0.45447195177042943 -0.45265193237577783
-1.2009273775144411 0.012449976992204181 -0.21817571482929665
0.17322198723097137 1.096150099100067 -0.33800187675720927
0.39680098853356977 0.66270291239022283 -0.21817902739006101
-0.18085894515750511 0.20262738113777212 -0.094110465845258062
0.2984531502623155 -0.15955077894108038 -0.25517765346015864
0.048850362589360652 0.099425737331934272 0.7424103359157268
-0.042700711366615907 0.5633409089907353 0.70520837070127484
-0.31925819470079903 -0.44119844368584094 0.63633794968918522
0.24723647890409606 0.29457846442118418 -0.015113289491084814
0.78335978812582097 -0.32554210370608239 0.6750147201729142
0.0068887409522148113 -1.1236882919977829 -0.34227295408224201
0.23225477938199635 0.7975249784231031 0.21652221753908485
-0.56784757217417714 -0.26811868518889437 0.66004994927679661
0.34024281850644511 0.62442888482495906 -0.094119697275814929
0.70234264149837156 -0.40821062525965335 0.6710806764877475
0.1043527852448588 -0.13350230883043679 0.80339192679117133
0.32999591359725666 -0.36336719766017112 0.30028685432873026
0.074378025298343142 0.15131156784847777 -0.16134813570280038
0.12776529192695241 -0.13328470608291365 0.81114293330107934
-0.4267525192283802 0.21044995586658821 0.58898203547367167
-0.5155122405719017 -0.69454136166578095 -0.27417909697169129
-0.49539330695365102 -0.59454851139338372 0.1525234161511424
0.65393718840697823 -0.29947061720576862 0.34930381544907263
-0.07774536870453358 0.50868990521434654 -0.037980471772723234
-0.17949305719209291 -0.16180285568118347 0.69021502966058002
-0.20026289063425362 -0.17893076677100073 0.74849731341108239
-0.40290138412572446 -0.26517489756110457 0.78122107217726189
0.1149392332223297 0.28480302514018918 0.18499178906957781
0.096585599098386488 -0.098343401447687384 0.78165615654241805
0.29355279323957195 0.31345207022853572 0.031729356326659186
-0.263593285960809 -0.423869422114028 -0.54482057197544975
-0.47678087688674664 -0.63111053982768617 -0.0071872895690159311
-0.83458510891044768 -0.82736088267625885 -0.45657920158171628
-0.23876051236234486 -0.11390685767868725 0.76498843501889446
0.67465609967467643 -0.079163869942860288 -0.087154775751480784
0.2995636225674847 0.29327299405657747 -0.53262834055009911
0.37269509691488473 -0.43237598687240375 0.37419015551081714
-0.42464318968248882 -0.80383521040055239 -0.14822347543364423
-0.74205314037811787 -0.72607523997197454 -0.38618271546490845
-0.35461656225922406 0.25468663812925296 0.67497086626777936
0.35294697021384747 -0.53876438233450763 0.60173344384341476
0.36962302439651396 0.50509801901091711 -0.15973552199473851
0.95526873154909986 -0.42705800049737741 -0.094812746804182169
-0.76102279891962343 -0.8174385125125796 -0.48786777245998891
-0.66099775376305048 -0.52644111291453299 -0.39574084075150395
0.30433635844858198 0.57725862233066261 0.52546766353170149
0.36177100581013211 0.54045549555951 -0.31157506344815999
0.28734256447938678 -1.5508492071890827 -0.39701444253711138
-0.018576481689444924 0.61833318725676412 0.68425973905375947
0.26236345881574463 -0.34419889893210165 0.70474073567583773
0.23420375431740376 -0.44008547198229397 0.4692484984709786
-0.75932163569607902 -0.36695962485070144 -0.37652197305006396
-0.43873229491457277 -0.0983019293027656 0.80759364524466726
-0.81311382220485939 -0.72485383676268 -0.43179635434203689
-0.36376016532407729 -0.4814656410831839 0.6049774338053453
-0.0099080947891237725 -0.28769612416543122 0.62201927602102813
0.76204975879515868 -0.52404034293113266 0.48141442135872659
-0.56279546262531777 -0.93774161031399172 -0.27015613416764239
0.12891513135045707 -0.54290236180818408 -0.86688397073601031
-0.10561909034997907 -0.95106686776326743 0.43097136671702607
0.93937555796554517 -0.43991283030323824 0.62074674594969714
0.079855905568940511 -0.32898535830666109 -0.82740891415097195
0.25366800917364707 0.81567928733139183 -0.27394045363867114
-1.034085445392009 0.3923584423969797 -0.41378109298396026
0.16200091353792889 0.0090202973609452286 0.75132052806569938
0.52545635473629893 0.52846641478220446 -0.32002951902759591
-0.037960253575847175 1.0138535515696327 -0.10889758267138738
0.34917438577638293 0.013454100046868867 -0.23880325415901105
-0.28164499794182052 -0.54953916948631942 -0.39067066557153396
-0.49974812286724807 -0.34447293710352778 0.66746691656204682
0.23257159835351848 0.79505501218908181 -0.16189484910637297
-0.29635039979853617 -0.28119967299642212 0.72996012965914758
0.081147208865673615 0.3637057101708363 0.75457754067949345
-0.56459149294601552 -0.0066029687310447116 0.62558347657247637
0.27256880907397874 0.74641291322417347 -0.29612769721209808
-0.26267365504593154 0.31289175078297049 0.79023928514160957
-0.48918794165747959 0.67836073720527068 -0.53665167579425344
-0.28490000141338628 0.39084374680074951 0.38618831292619404
0.28571401018509762 0.18134243750296086 0.47485732096620303
0.23488604128872431 0.89447414175559858 -0.36917095837731218
-0.09367747004895921 -0.20573536833455863 -0.10411898965159061
-0.37564761711681582 -0.014938859657650738 0.76251489457485633
0.46522334152816669 0.83397869002173453 -0.39065942067202819
0.17177748270136961 0.89693326038174037 -0.11277033002911629
-0.15277925938578707 0.30036164413016664 -0.68131801964996797
-0.38406342512481711 0.48183777612586942 0.044707050454793062
-0.4136383205182243 -0.016845848126426866 0.7554716919584088
0.053789670299072556 0.6062770819375376 0.65301304774088997
-0.39385256426147125 -0.41071508245613142 0.65601976784710025
-0.95826884901150211 -0.81638233672960814 -0.33693107887956231
0.25659985756287018 1.0456680790651793 -0.35642349971880805
0.76184403573257309 -0.26002172415152547 0.68281398914226266
-0.48406986971804367 0.023597672637185596 0.6711023565402332
-0.20097430829188401 0.67250475272414167 0.68407635463317007
-0.45899763167939184 -0.13783755907331052 0.80216789583758619
0.32556253189110929 1.0178603388598892 -0.37307680915542285
0.42246891108555323 1.2001265991639736 -0.49858981719231465
0.51690732849547816 0.76125376220653429 -0.40751718598498066
0.3038182816867136 0.72904370178507705 -0.2934306702416265
-0.38997449445145577 0.34386401456887938 0.71321924401727799
-0.23938275777240614 0.39407339207456049 0.76945992036754518
-0.29045831200405581 0.34069380502712576 0.32327601269948936
-0.004211121808888052 0.1714669961752153 -1.8489173960127756
-0.04939561260177916 0.3901647100691914 0.80461542824830268
0.54547521693950207 -1.4806736664149223 -0.11915657160133186
0.29511250930160937 1.2585607271374659 -0.40803218823643306
0.22106573760138931 -0.075431380015653637 0.57429623054685131
-0.01255554466053177 0.17964260316559333 -0.66145705450069592
-0.76293539422640777 0.030751972692347085 0.64849785707597185
0.66729024272905701 -0.54972491078654606 0.69664448966771353
0.43974980497372718 0.57997290121252609 -0.28186183598168668
-0.51693162632642675 -0.55409210836878664 0.48003765545875865
-0.30416075027577349 0.5134900969945706 0.59575155846289896
0.28971138764557181 0.19968690691615709 0.4488381856192909
-0.36041331926134101 -0.68604727121079856 -0.12571450788481542
-0.024392007487954226 0.33300426138313899 0.80337711519755928
-0.86910823911732926 -0.25443802021260042 -0.11184349180676456
0.45252160409953834 1.0744315482797551 -0.42793633740069303
-0.25066039013607178 1.2732645845092927 0.24533775901671717
-0.074114368469986869 0.26057227135253047 0.74586175548710187
-0.65150434332433615 -0.86960567352290763 -0.43746595733745153
0.43962594411525346 0.77957862671732681 -0.34153778212176711
0.16567935376465093 0.47538197506946833 0.64548028562252036
0.81581952476521502 -0.26288143989726276 0.367683263015401
0.40446600566539437 0.75186543471565237 -0.31663449339347594
-0.42422068096875382 1.0442902932102185 0.29183330191119872
-0.16277140544344437 0.45118325463583053 0.73296168765485525
-0.21457295331457782 0.31356742090634881 0.69274645766293119
0.047077131524697724 -0.23960956447363557 0.93418535633555599
0.67811217168743831 -0.42833185937883833 0.69762547714526768
0.34674882913709848 -0.28819648020851574 0.7350685921550415
-0.073587157640868761 0.26643096972682656 0.73882715598163351
-0.33820014304486679 -0.52524036288697484 0.43561122487822068
-0.32599267136960686 0.28737027107616253 -0.50330561738534563
-0.58650462933800784 0.77845868612366242 0.44982920659792391
-0.40033695357478816 0.40767342773251514 0.79648216361576196
0.0060126231952621345 -0.027903812008662321 0.42305841843637459
0.19465875476369437 -0.1276527773835392 0.8043500472212628
-0.19120955429764785 1.0060649894237721 -0.24060914848331727
0.36546667918582421 0.6935499268847467 -0.28846303431904019
0.35545165952108598 0.41017075997171215 0.014800605533107358
-0.73098086707004839 -0.57605409802397078 -0.28093050104661543
0.16042859039583257 0.38120078033778704 0.68533685988934501
0.17608143095744244 0.85800790972138463 0.14527474090313142
0.26393293240793403 0.048664649736139154 0.70069502936283001
0.13754273167128317 -0.086422182540404346 -0.39663250191654065
-0.69591755695327118 0.092011447220209597 0.5647370186895504
-0.87713477630144898 -0.00021681277183249748 0.019690856141203028
-0.38103971377492729 -0.52955805320315363 0.4937050002958312
-0.00054693727851107266 0.1510156756193064 -0.12112152551774891
-0.061762162465406667 0.12734370235969905 0.73879118375431929
-0.84876121472079225 -0.5148923737502149 -0.34205698711410371
-0.29587868044629229 0.19990639249402431 0.80281959532772973
-0.058536286811193938 -0.30208111311139518 0.65189422954119358
-0.60455427479374424 -0.13762278844876885 0.70479887204606761
-0.28022067592288202 -0.26015834769747403 0.7368692274162516
0.28227707810967229 1.0226816177608944 -0.3625482671748852
0.55114036810212141 -0.71769003683422072 -0.78344894888172512
-0.51173954255759113 -0.22794896801131159 0.031205048394065571
0.24538706242563624 -0.047935784101124312 0.79305682940264433
0.40538499609360701 0.71261218772154855 -0.29060371570230537
0.97035026336256791 -0.82297298729725687 0.53370578254081913
-0.67951360995879462 -0.24676553246525668 0.67200621328009547
-0.55264416653298198 -0.5964759680854308 -0.10698190828780341
0.093744952705969387 -0.072719983118904707 -0.045435766982071968
-0.91495263473073885 -0.81792318705584188 -0.45481318751898669
-0.84927600378947632 -0.0060916720237069732 -0.42818133795628199
-0.83210472306247785 -0.71541353567524668 -0.45016649970277633
-0.5773824331462758 -0.22887527958289589 0.68254659445397614
-0.07288911843649426 0.35613959360574921 0.80741840057186742
-0.012394734612283465 -0.17677314660874899 -0.21938956376884633
0.38332085617099254 0.51838841906485644 -0.27299598794355262
-0.54910752536527208 -0.34122562235629417 0.66055026408147022
-0.099837217022330171 -0.92083266530879593 0.012530896403868397
0.33791053304357288 -0.51877496483984142 0.47696637560390265
-0.068884774913247016 -0.22652170564948193 0.97428535389745008
0.35469092139713398 1.143187585799331 -0.48499123456564597
-0.93697241797219311 -0.73565897079354059 -0.46235324427381741
-0.26238706988594129 0.66731821683607873 -0.28507522400053631
-0.31176326496312212 -0.72557175642021754 -0.15001461725834808
0.07562618793420961 0.61977457383654011 0.13697394713173416
-0.033249744276236171 0.33964225925175384 0.80483982974898005
-1.5468692963141604 -0.3718231601257096 -0.17927597046989519
0.22954492213178287 0.96877213676683738 -0.28319116289425672
-0.46565213883848899 -0.81711974705968426 -0.32363108008753372
-0.49680346533549391 -0.084142589908191567 0.75232287628810113
0.015552375313378983 -0.32250046626182893 0.48157070197883201
0.32005774602293435 0.77226417725633922 -0.31973401042429472
0.41134529888174298 0.038167573504042096 0.37350925358939868
-0.56485176044418228 -0.021624766185555977 0.73402933665948389
-0.51264816564326265 -0.5547701708967594 0.42484361165161566
0.098486190822351549 0.20063069136251155 -0.068014985545612916
0.36746071983575679 -0.64162441824811633 1.200587175543868
0.17573227673068914 -0.25531428550621982 -0.26499428702863348
0.60076185384789027 -0.75922534910663897 0.42633911729123852
0.20398915226552461 0.047238817048653736 0.73176552944359941
0.33021531854178299 0.74300037779984995 0.79956410557591973
0.27719565709858474 -1.0768162255582059 0.048315210395038832
0.18306533120493362 -0.18127296971882778 0.77874275894180833
0.13960795054212993 -0.10378519244239826 0.80790535109706951
0.90466617428618956 0.31529856919886612 0.00017247370718642685
0.70252354064702538 -0.67321905606208077 0.040215050321156909
-0.53641992832813312 0.11202010359634196 0.55775357406960779
-0.77322050380437257 -0.38926317162455382 0.43613177137634196
-0.37241355876512972 0.1693847746246715 -0.7229222968530653
0.4998850972855664 0.065244016693887019 -0.027982702988888164
-0.12284471496942639 0.49071512642995918 0.74197140180862675
-0.33652768977540559 0.1186042931691178 0.7984991049527892
-0.44209931190899998 -0.80490759949265334 0.2218829705179548
-0.21663870517880157 0.7398057685447208 0.35043099037001291
0.29236788634356869 0.74320065817294889 0.070554713430057703
0.18117720213933042 -0.17744062036948005 0.78642987421867794
0.5522195090783123 -0.28247046619470861 -0.13098448328203993
-0.76021063244948628 0.077086053668379062 0.65926193602629368
-0.065924617345344411 1.0175016260449987 -0.2199917395348443
0.76889008775767065 -0.33049875070765644 0.64998639900487198
-0.71402737883882239 -0.48872566026563291 0.031194214817908517
-0.60613830895406839 -0.9216307664299439 -0.35433897920394841
-0.84246872000490591 -0.62552440045324964 -0.39232142632080347
-0.74911778992257116 -0.32763742254130657 0.62487238678100887
0.18344935612782803 0.93544063566224533 -0.20714007327054418
0.28574500561290284 0.11327566754381202 0.51730733183175914
0.32937557482950958 -0.38751269483164652 0.3311059081905583
-0.29335519200915516 -0.57677969908503801 0.1877309238781848
0.94046334670646392 -1.2570532395883061 0.7651990611382633
0.77903062509488064 -0.58127837107841529 0.45900588121659247
0.1410251759020289 0.61473179656573462 0.62865292501689396
0.87244329879615723 -0.32331969328315502 0.60434921629068761
-0.3164122601474828 0.4957209486193408 0.51631295985664138
-0.24902676778835509 0.65699703491140626 0.6684901567633581
-0.5519203979942916 0.25153468703200188 -0.66426373780897308
-0.17149766608686989 -0.10078248732515283 -0.68763548595491741
-0.3650804546844566 -0.12181512007232786 0.81899718910409902
0.16175529160016308 1.0732268496047896 -0.25109244990512813
0.08609660437187483 0.36157548626792479 0.74486299989138338
0.010361774174726002 -0.63547218892213397 0.027589461437509399
0.5295756463287945 1.0103530992379044 -0.44190944460989634
0.51094681263678243 0.83369327108694691 -0.45626986143312998
0.34866135590394898 0.78763328935642907 -0.32852853721445463
0.32498623295961748 -0.38102254381837364 -0.73049914613659972
0.18281925302249238 -0.3989392227842794 0.46607770699160689
0.29093099004848078 0.71886574879203691 0.43493989382627518
0.16988198166023893 0.44154295279997324 0.65173642978985491
-0.61995508937047727 -0.16348106002879614 0.61207725552305625
0.86935807591525194 -0.18040206404980985 -0.26232211113367043
-0.60693365193028737 -0.57907372346316732 -0.21036575457586615
-0.75646104203697351 -0.27604168804232776 0.43238388675711192
-0.57008971913912754 0.42070168112690443 0.38615704375911442
0.10326338822897607 -0.16724527862218785 0.77515405437354801
0.6925792549493146 -0.60072124988814224 0.64500148620549957
0.37580210084114879 0.88721256097458134 -0.36836477501176113
-0.45364927630095248 -0.38183462339670537 0.66801391383151376
0.59218301494321612 -0.18356233870566729 0.70358427712359273
-0.47711782854019363 0.12387985945447078 0.80334790418048563
0.82419794952628667 -0.42799689903332272 0.45267705476917719
-0.86011111023490716 -0.2304763947459203 0.0049122387625732955
0.096695052481553634 -0.064698411711215265 0.22225299495872974
0.35473925000192807 1.0145456324176205 -0.38492537578134645
-0.30814248194678795 0.19475712263114486 0.11613519358769331
-0.12426794336455416 0.26212062735206487 0.76519648050675926
-0.44237774270086422 -0.17976817518494848 0.8013989594590214
0.4002599806246343 0.07764399285408885 0.48671817384019178
-0.40090359098478917 0.54422905140090316 0.65484391403416886
-0.10073074278954675 0.33848578779225846 0.79646873104815441
-0.50137773579607325 0.53043537272808283 -0.62499329178681506
0.046584174650375162 0.9245953834579983 -0.33568928534866238
0.73478159165545853 -0.40627431239456779 0.66523118014089277
0.39599135822474707 -0.21801884194191512 0.21398053896173863
-0.44290850074135546 -0.26404649081740228 0.76796424300423993
0.2641528817395451 -0.14895066875677454 -0.33874880126446527
0.28571375859492237 0.70368339201391006 -0.23713067089935436
-0.22502281950569875 -0.23338551522942996 0.72361345488883266
-0.90617741174184718 -0.5381965327842293 -0.41377896795058078
0.091366048720517234 0.38402785861524968 0.74860940016630373
0.84221170147466851 -0.45297815492752758 0.54364143917447016
0.2782896134084335 0.72092609415385001 -0.26560802738116429
0.12749886519486209 0.59596969683356393 0.64134329983161997
-0.23166820426003509 0.32907151721085803 0.77440021024923134
-0.74388029537749334 -0.35481700161007668 -0.41813676475591599
-0.52378128063065832 -0.023037078383674636 0.0048573594116820829
0.23144835077710818 0.43338138287455541 0.24800787441246719
-0.20723132402062588 0.42327861211868978 -0.68465931922542467
-0.40846083513715248 -0.81633898736047739 -0.43735280726080639
-0.25559829487378161 0.88639418327023867 -0.42326234064730883
-0.31520989079951506 0.29116549982377649 0.8134502525254117
-0.27473266863011092 -0.64929314402569194 -0.2038784029164038
0.41321628603752603 0.27852695125926807 0.49303267664215689
-0.017133815645725248 0.60032067017802282 0.69352561428644321
0.3833148601136307 0.029892725048338953 0.65181262489375591
0.43507523926641228 0.066606618916066118 0.55211876040912955
-0.71862974332954066 -0.37603582327214768 0.61245105466155181
-0.15980890385707636 0.48972701372938054 0.74977874984389459
0.57376897115462389 0.6891402895436527 -0.14036439909009779
-0.1865429725902174 -0.22756704859587451 0.71416369402599855
0.027980490452371831 0.32653150887748428 0.78947816648566871
-0.50769955724130011 -0.74087712358893754 0.47673197655185184
0.68450840011782887 -0.30371986353109293 0.6990610406020199
0.0026962143769589941 0.22671343419545131 0.74378648430614724
-0.050999960791086152 0.89459950822442025 0.21126795979526314
0.48059470049788661 -0.13426435912415613 0.30022321358674375
0.44724327911012163 1.2014268030711621 -0.48411707021594275
0.14838099148465445 0.90351041062081228 -0.31886536548809019
-0.88012094088029147 -0.84762028966911052 -0.48602782416254087
0.23097079223326783 0.53522333203174099 -0.052979226690581527
-0.95886570062274723 -0.75165995537567909 -0.56181570218447874
0.43291747254068291 0.027294869786667064 0.37333499550923932
-0.51604119754264421 -0.09839744697523134 0.38019564646570636
-0.30428779612297618 0.94379122666925319 0.042404938794467384
0.46391390159096052 0.61781069279873968 -0.3054921504966881
-0.14984602970140148 0.48746886440576587 -0.65075555183231515
0.15630778377057397 0.27728905714470997 0.59339622079964016
0.21376610383319089 -0.15479169071840637 0.7842337279331133
0.30107056489207096 1.0410103523732297 -0.37515842020435031
-0.078099602234030119 -0.98593315236684953 -0.073334919087985284
-0.12846131620487133 -0.5690824430721082 -0.17458996718732323
0.37077305696376606 -0.30537336193379172 0.26916944228046091
-0.84108236604575581 -0.58119724533902195 -0.35157490739489106
0.68605941886553878 -1.2801432983843819 0.58098591312172942
0.78837371876020379 -0.30708109171888509 0.67702843376193123
0.46186357989172078 -0.079178885217872974 0.29702800958073894
-0.72542856660486721 -0.33950591473092739 0.93993995698524024
0.34735568454197052 1.0371051372993811 0.012379449526370934
-0.043233324076839663 0.28905218980473979 -0.64817653620178106
0.28396886985958114 -0.073620758634478811 -0.065808970090262875
-0.19782397256320627 0.46361080240324615 0.75364451534710852
-0.55497302209196508 -0.1271998916626158 0.7288833905624319
0.65891703551968028 -0.76323892893355216 -0.17307342712198093
-0.032742815267565784 0.034333040784741975 0.45759411655771665
0.26342017981867805 0.021168643457981418 0.768356601475082
-0.33720305991068922 0.02606365713089609 0.76890141185699079
-0.047449160916774993 -0.34804678719681359 0.52785766553606805
-0.75454473406920519 -0.021996925360989739 0.66776945525097631
-0.7367062753908411 -0.47024125743328948 -0.20170853850581949
-0.14731225489195565 0.48297402488818308 0.7524697176039723
-0.1721565380015817 0.41164222212238011 0.75739126575317783
0.61817851460840789 -0.40333962571192306 0.73335164725730628
0.1086535936174432 -0.11491768322005402 0.80253940241281185
0.80379661269082769 -0.14792269604314523 0.37903243117003704
-0.66734117836171269 -0.95607676055886692 -0.37283669384290974
0.83339334389415987 -0.39996215226491971 0.18131684097641099
0.29780498848123471 0.23260713239203312 0.43226365758280494
0.37171996449866118 1.0168027555387233 -0.39632897088281638
-0.66702213021277468 0.11609671876883887 0.57225112021816571
-0.31377573247466273 -0.50798190496071749 0.28244506844915129
-0.20680481540417311 -0.29535900967689521 0.39392288011428178
0.24904919658486196 -0.12655810733588879 0.77813031386913423
0.54100230872368116 -0.55124816390249975 0.70820663938612682
0.0066684244703006934 0.3300732789039813 0.79739634779870272
0.80197097589032884 -0.11586288638347053 0.40627856387880357
0.45580542149504627 1.0326670554374764 -0.50275960126630004
0.33072277098084452 0.58192398118965372 -0.34278550049171308
0.301559125346617 -0.1306002668785835 0.73226076030766407
-0.85393017189661724 0.70118720306199878 -0.7478313866778219
0.27230182164887684 -0.71662049452494792 0.018961172976130314
-0.40147544299124138 -0.17237876804496111 0.81537976776672849
0.12364008918171532 -0.16922510722446304 0.80276101073076944
0.35944289308288485 0.48301511310451417 -0.00061474223104518444
0.17618591118756663 -0.65336590579632592 0.25018013975409659
0.080064664109119388 0.45627692834220479 0.75180383766680414
-0.57736518561650274 0.59671687485473202 0.42523382515268437
0.18144622827117401 0.67416003293798177 0.23253346015522425
0.58123802784460832 -0.67572929156463424 0.63532331516434759
0.11489652569262243 0.58262125281312738 0.64441580259858178
0.12278604315131181 0.14572831569013411 -0.56445072978100441
-0.44062248911187774 0.61531890711471693 -0.60440308694179024
0.35861187223720603 0.89429480074715162 -0.36032382620224901
0.026197291187294025 -0.28045991356477185 0.58740995912475746
-0.40029112086431828 -0.54551010881268525 0.36993546337849992
-0.10152021085350615 -0.17696235701054652 -0.380405372438684
-0.066102381350057526 0.082784903651197617 1.0646203955382596
0.45947538638402963 -0.5279388303143171 -0.23885594775945762
0.050231588361773494 0.97488093101146678 -0.092329275855048465
-0.40518785515140504 0.14402666834150946 0.79629916713046356
0.13338037915757117 -0.62144170019504097 1.7437078012391609
0.38154667484339577 0.6514748632672287 -0.22195605876903457
0.89695722468909211 -0.30098824279028857 0.57566487661720345
0.13413332920245324 0.43355470635333759 0.69551632809647934
0.51504931612167226 1.0791441664346322 -0.49369123856221364
0.39798456019632344 0.67627595930241124 -0.23616698786087831
-0.41545489514231593 -0.65498864562496095 -0.12909500834381582
-0.67281329094271147 -0.81536316695870115 -0.3689164125872697
-0.028000712171709255 -0.33573429749903294 0.49064160704016224
0.49362753706637919 -0.13565792638903318 0.094329411093916349
0.11807292622928359 -0.3255978189979345 0.5738779145190982
0.25206200523902678 0.68976281940356898 0.52184374313307558
-0.12728503882687681 0.41380809143304775 0.77507291477968998
0.085849379880448551 -0.13766357995562295 0.75458063052408875
0.48683794407608283 0.99412962089256762 -0.41703074271846141
0.37539296599876781 0.13391977425974755 0.92511831363505159
-0.62121226766344284 -0.31936415071285218 0.64134432371788641
-0.13866766165282485 0.53488801948957265 0.73523068986240858
0.026307804086550118 0.68304244657447377 -0.1580806323074988
0.29043022162263288 1.2218512135260502 -0.36294026544476488
-0.38174625782517058 -0.48543516628354677 -0.21393859447127639
-0.72645366309713222 -0.26157847573748239 0.10711178580990932
-0.74263823421510677 -0.38333870515531165 0.59691234926653713
-0.70803676254240755 -0.11861268097782185 0.41770006332922804
-0.31698396099995962 -0.24825131871158845 0.77288968704708161
-0.80695651879345742 -0.98079812791365395 -0.40259309155376855
-0.71976543267260817 -0.42148833659769025 -0.38115118896186928
0.258487423810976 1.2377976134890836 -0.36980862577108731
-0.81345970022506275 -0.92620682744853866 -0.44179599118504242
0.031737137142569538 0.51048654545909722 0.73536483234465067
-0.33946090270490231 0.30356928857733845 -0.28694833617638871
0.30699601565581608 0.67323418662054113 -0.11951580819194874
0.46071143989559799 -0.49167369905118186 0.71084046662231692
-0.2537042213926553 -0.19454180153628453 0.76153176859218163
-0.42987394167513338 -0.68719325837422041 -0.18523334902348054
-0.70112960073478736 -0.97213453173088116 -0.3643364945437888
-0.073664985385995307 0.65632513967351791 0.72193432705731198
-0.2438910446884448 -0.45375385089329257 0.60323698081458588
0.34921755100223439 0.54187638246171277 0.14275640573777792
0.19545104131883412 0.93374680304811752 -0.21823337718756441
0.13158913167507025 -0.51807001757812454 -0.044719306768575606
-0.62625301133265709 -0.92893969840346147 -0.89463851594547883
0.78967104053363124 -0.22566836293313131 0.65760683905095618
0.23235063391004387 1.0089876668528226 -0.30339203964246586
-0.86495929900160928 0.49501236655614544 0.024793849792219547
0.7382143187501583 -0.41953648157157453 0.69771454642829767
-0.61556476056224585 -0.68433569514163439 -0.32604175555314008
0.14975151999037706 0.23742053400714758 -0.53416772065542872
0.15387266315212361 0.29070149307970006 -0.27129388710245017
-0.93441504652082519 -0.60951456973904117 -0.42682057167114529
0.62506307705324571 -0.62305820089217168 0.47046396325462148
-0.56767083320923595 0.0086254329751973557 0.74354000476991722
0.7548781405013969 -0.39841358701692986 0.6867101250859946
-0.18684930120009446 0.46036635886222754 0.75448969436786584
0.5966464038757382 0.010499320031131631 0.57439337421137715
0.28539216397410638 0.73742856076624053 -0.30394643070863303
0.11867390761309776 -0.18072573985940821 0.75875433716170804
0.69654852864338279 -0.29321976305010189 0.67303163673303068
0.2300664091531609 0.98895627868768088 -0.29185715530604739
-0.46367031825450777 -0.19492345714493231 -0.48811396831119147
-0.32763149855505058 0.59679165386380006 0.62268171372810777
-0.9564974190868839 -0.59189990550886051 -0.45030603386165247
0.23764009890679516 1.0747613729080685 -0.41506462600576199
-0.15893406247484754 -0.60558809796735691 -0.83499672804808966
-0.87776481406067897 -0.52048315008696244 -0.38605571118957371
0.56980189492026745 -0.37061143524376838 0.34475031030014947
-0.090650237294418901 0.05076872519174902 0.010266727484678384
-0.50376318820359911 -0.23488860813191259 0.73848137628643684
-0.66601369341991268 -0.74858191672151442 -0.35351560982880592
-0.64123364541433281 -0.63676090044813716 -0.3146698088003177
0.1098550981091235 -0.2803617576499855 0.32871962674759203
0.20087199375296061 -0.65410015445006664 0.29877054700302708
-0.2948385616892103 -0.14988085028877141 0.80616978646954784
-0.48456598591303818 0.45327495181658772 0.20122974517534509
0.2846435596851129 -0.070384555962106354 0.76396228427590351
0.33101926134266535 0.87901639873048509 -0.34282490597851556
0.64720311827419685 -0.42278438774859861 0.69458237270283973
0.05492787946192168 0.39211085110426325 0.780058517869616
-0.04588383914879629 0.0722420784473643 0.41470610982498712
-0.10681200587742412 0.21758289977276934 0.75609046752755305
-0.84008992052415343 -0.31623985805313426 -0.57245051571242911
-0.18525290900843605 -0.034579177225230406 -0.8896294255125472
-0.39854738596029271 -0.65568648992335632 -0.062051042735037143
-0.14692302038751448 -0.47536054662568938 -0.47170121646679597
-0.83854528124965555 -0.19796496621877724 -0.38734098876974699
-0.35932100232160874 0.30734573038662516 0.60123193972345668
0.094555957066924323 -0.23757351803492455 0.68926458341448615
1.0917142465166532 -0.059531672030710858 -0.035896767333644775
-0.3473434824689981 0.00099948824672146941 0.76985084842077356
-0.68907162356124174 -0.066134891747120506 0.4796226420297458
-0.47583423002215453 -0.033883060036686174 0.74899102647284366
-0.038091468046569654 0.29893698853471307 0.58774971540101717
0.051877662529938307 0.65245280475819767 0.65058165944539503
0.099216841476519435 0.34250274335692854 0.70493719151003731
-0.1047202814401158 0.1714067253841618 0.74912346173021049
0.34710408862007913 -0.084986495756460556 -0.50016583302302742
0.19151202525298261 0.51062663242304485 0.63311699097251051
-0.68549476678934829 -0.52938291309138386 -0.19769501515409438
0.37425446505285809 -0.26422258894475714 0.21937014833358859
0.11101921281435334 -0.027535117411248144 0.58483882674038767
-0.51191107411409242 0.040838182769322273 0.76028950260365846
-0.60937980071176923 -0.72683549544027981 -0.32795506057698987
-0.085898368594453212 -0.24423396978002998 -0.46638701232304314
-0.90681304274243124 -0.68444715961926805 -0.53877781071619069
-0.37650633341263129 0.60499659631384661 0.19787886959182721
-0.30421766957200558 0.39297010371097851 0.80266725461425104
0.15070709760121581 0.61404421248832097 0.5333751063977008
0.39932652658856516 -0.48937109841619186 -0.72613720669820125
0.45978268030996239 -0.63149004952372056 0.52589511312678994
-0.40107538905669998 -0.31271302225576658 0.72137520448955783
-0.29228858674679892 0.15871967010947907 -0.62970865724644476
-0.22275693860404766 0.30849716288772377 0.77393722611596516
0.1761600487508253 0.023574014123788345 0.7583633916188397
-0.11427408874584677 -0.052776469570947171 0.74840553470450288
0.45118923144239675 1.0622057303952186 -0.44485776722774339
-0.7031290459841022 -1.0055632917765327 -0.35764557373481587
0.13379998242101326 -0.29971952616823128 0.6413148728335436
-0.031934253292861703 0.50388027728493778 0.75707934737204141
-0.56424098018237578 -0.79977002649407591 -0.38217669784188146
-0.30805846121278291 -0.040354173892176881 0.76289192132546013
-0.27538603222801661 -0.26265261260621209 0.74058669862069237
0.90034968145506089 0.1033246782347339 0.25486368047322649
-0.83119260369138992 -0.90084699400969814 -0.46935053840521057
-0.53176980221949288 0.45336858663660573 0.70307178348451949
-0.28012608331574751 -0.34562361469122571 0.69626548022712953
0.94750868167162283 -0.84293444430897235 0.71484814942371244
0.12387376230714808 0.53581184867326348 0.64711620001827086
0.91582078753286134 -0.29600831811267803 0.44289026669149223
-0.58448596047651535 0.88932413454251913 0.064321691178639284
-0.74890578505261063 -0.32852119404918012 0.33449959283565001
0.17911169174727104 -0.49162151041106084 -0.56665578580072129
0.16097721820818756 -1.2608271999628702 -0.11594269757432585
-0.35563422491103247 0.26773700953063573 0.62141396199413101
-0.33151057834889897 -0.79710915136803928 0.57105493230572435
-0.57687268316099027 0.42009346695917227 0.31890404848933684
-0.060153784878961336 0.67522172853003193 -0.37202524058119302
0.21677299157759761 1.0169204970848273 -0.27311249065486365
-0.21717922743242635 -0.089729694801928161 0.761952296468424
0.2144130791845672 0.56810530118401692 -0.41721290309484971
0.29192970875451896 1.0107739151580022 0.8971880643938448
-0.46489404019807423 -0.089969741984178953 0.79364996746367744
-0.63005747841272153 -0.37000921413266674 0.62572930039991626
-0.26435490546958723 0.63814208901910296 -0.050718600970872885
0.15490849921541572 -0.37490464734402007 0.36715562287297665
-0.36030205180115199 0.26801697441663297 0.34024888874991532
-0.52377900717842252 -0.64605749297326875 -0.28633047507549669
0.82041451946639077 -0.46774423993936143 0.59747626161867551
-0.29230528758529972 -0.68884335927615181 -0.15102110910772204
-0.54391615625965195 -0.10878750947740734 0.72906108089963695
-0.55270846887146396 -0.29594937101133123 0.65521976609571908
-0.43308092092198319 0.014280052245761787 0.76561831969995886
-0.11450649643626853 0.35397643951736413 0.78996351554664734
-0.052799628927317765 -0.11135594584188002 0.76286914734366817
-0.21167444185601647 -0.61025815023746555 -0.52399192654305615
0.15920404555427931 0.91039325829562712 -0.13510537914107346
0.48317515218779394 -0.17822507216392314 0.41375168273118845
-0.55793015637078647 -0.68001916942594365 -0.31231342641289395
-0.089453098503020689 -0.61133500895937409 0.31761500331102788
0.13152560184274664 0.40553062790266736 0.70173494347576693
-0.6643537901271136 -0.17455241876221894 -0.26902625773278821
-0.5105394203428173 0.17843098874653984 0.66552981024418223
0.36313218196063574 -0.45968410126209136 0.68973480619034788
-0.55338131915679756 -0.033220840282119468 0.73441423020584118
0.42914059356583867 -0.54696723023874405 0.66943829774535146
-0.43892511658231037 0.51858550701263351 0.26158208279088768
-0.68898704691913426 -0.50031067432027765 0.42900564206500391
-0.41064024538023547 0.88333945044753026 0.5560475976528334
0.86937334573274927 -0.16681301490939493 0.40334851421565787
-0.61415949128449865 0.47733126023067474 0.31344760113887737
-0.49987007043823634 0.82092630187017468 -0.3430281153375514
-0.46105200530662754 -0.00024032085996150698 0.11466106450235714
-0.76918080293846947 -0.23993032411354198 0.60810008663231052
0.44518414067637596 -0.60959566371014695 0.48680826305650804
0.76549140574673924 -0.35685656287569945 0.65235649122215378
0.39768640930925825 0.6930265717256292 -0.28060773381907644
0.41853165833354306 -0.12047798848157498 0.2115023963319107
0.75631168946722771 -0.45699428890975913 0.67929533755489757
0.33738663523056878 -0.03656337975128654 0.43216796894595966
-0.11971146788308518 0.62583902002225322 0.74053853179074558
0.36308561042210097 -0.26618600852545438 0.17885655076850249
0.7495234167309941 -0.43842241710104712 0.41057941878328563
-0.095159812884654027 -0.42866744722418648 -0.56593604687952137
-0.67524740134330075 -0.95332332633920513 -0.39999873200946823
-0.41929067510957546 0.34133777406863297 -0.27425770851211695
0.18938950461566587 0.88138396658741369 -0.17855201085339978
-0.13701090367801205 0.65737656629301533 0.73502634183839
0.39587120213665306 -0.2831006657235644 0.51220192590617941
0.56116342768549621 -0.22813973880106708 0.7170539478925857
-0.66577484687235566 -0.59915002339188828 -0.27309668833743928
0.2059532351410972 -0.40609045785730924 0.42599746134770022
0.87029642225933124 -0.35397848950818389 0.59625890525760994
-0.23273444381315223 -0.47776940675271184 0.55194178768906532
-0.42119007894630572 -0.3848433345253266 0.54507147601252548
0.23244843112468039 -0.62042488890839653 0.58363147349324151
0.37135002780995513 1.0472409020221045 -0.40455640718337804
0.31456031302246806 0.58511162139963346 -0.1793397232333529
0.11864130092517128 0.92786738814270331 -0.23039075184743574
0.31745277614906792 1.1115770954602597 -0.41819253880033358
-0.6494477784746352 0.529819176420391 0.2368887894853664
0.30793742174371147 -0.059480858745403431 0.72921808932222199
0.21991814078601235 -0.059324196098518023 0.80036344564687489
-0.34207593264063707 -0.088639382712024428 0.80451075181519194
0.41666986038768855 0.86402754504011581 -0.38848951025591738
-0.38322025500190915 0.58172767092443234 -0.0083359514607401763
0.67751507168266822 -0.069912793478491331 0.38742348668445459
-0.9336605881794301 -0.42411969231198787 0.20734518586309569
-0.86200401574058916 0.056997043116467694 -0.92891167946893738
-0.61174960122845268 -0.56907722458027621 -0.11543040800586546
0.17349533876080986 1.0370651312737249 -0.34752348568038371
0.24043174514182175 1.2052156428403249 -0.39880582186797575
0.47588194509467574 1.1124076304696269 -0.42335890359690609
-0.42693545547800221 -0.073571846723503143 0.7963495541925294
0.4725127945319223 -0.070686378061163069 0.024701148001248896
0.065549124193514441 0.49036037800423848 0.73841412160233055
0.18067226637127309 0.48301381405574029 0.62028279490882987
0.25547173183233951 -0.030547950897227061 0.78943884160388578
0.045734316405680153 -0.35019306071287426 -0.36847750248797517
-0.21981809979826694 0.514507385928201 0.76443108541967497
0.30735326694233878 -0.15714367524699746 0.73223819713911986
0.095387870404164424 -0.38738849997724945 0.32256094236441157
-0.1784631566206506 0.31173039211265952 0.77015049717152273
0.51412347599429464 -0.0012513159111087191 0.40480454167782653
-0.3590520938057068 -0.23019775721671465 0.8040157231333307
-0.61327044391674956 -0.17159147089371007 0.692841173871237
0.46632806372146846 1.1769808655878995 -0.49223636950706506
-0.82210239058662649 -0.30932979199857913 0.061967684282942415
0.26502022467935626 0.0023854410260355507 0.78201122419087454
-0.71900808695460205 -0.5442977641891571 -0.25483933059020814
-0.49298883916127834 -0.76948517851649179 -0.28686195732764297
-0.26485150395773505 -0.079492226996645599 0.75601786194742893
-0.48107646580592073 -0.245118064257694 0.75752644596623142
0.20986075531501946 -0.82769139380206491 -0.33643785767986145
0.006367776798641811 0.81941259497593455 -0.45034974138265937
0.13657690935819444 -0.054964634516450062 0.74207613379882886
-0.52509209548449243 -0.75929349071345031 -0.29959655777022043
-0.15010312003633164 0.70550351888312868 0.63734993660091988
-0.20562494378831997 -0.44565529834199502 -0.04825815533254918
-0.90396649129695739 0.31127843548497403 0.16345188258573984
-0.63983128343132956 -0.64753759955982648 -0.32264025394309392
-0.16992983766661485 0.38517815212619588 -0.66007085138203792
-0.0099168807327043584 0.30590487001825561 0.78743194852160059
0.97952624353348372 0.20106155407874171 0.048570926912615775
-0.87688044477167515 -0.81778986673886944 -0.4907152719113359
0.28681815724524307 -0.029868952599762189 0.76199678029278139
-0.1284288411959561 -0.023129774134198477 -0.69493284067773509
-0.29896136896645276 0.23036874107998973 0.80588805676621433
-0.22706505125997256 -0.11030950203631118 0.76909388243334398
-0.41581058989833175 -0.49556279872134823 0.59081298489201295
0.007574197298924279 0.39211175353106853 -0.18676594194298168
-0.3487579553519623 -0.55018791277774337 -0.33970741193681064
0.45847863573242975 0.22349183542084106 0.25265555231209902
-0.44252087157017994 -0.90397556967265924 -0.27330676637586748
0.16228347890665507 0.45731983690690203 0.28755303249258368
-0.39460331262523174 -0.54062439114226546 0.41875655544839674
-0.71042731593634434 -0.68043818514992793 -0.36199200723788039
-0.10981383378108123 0.52036292279517404 0.51555001123732147
0.026485373792542011 0.028652639441987482 0.059710104985819967
0.73750867808451548 -0.26685016349974067 0.65816340636571269
0.44999187617253084 1.1576382103015477 -0.41823056650454582
-0.57350471392384239 -0.54324969523964173 0.38422511738917287
-0.15291985403308284 0.25523251769009647 0.76566704784299766
0.12430938425204258 -0.074790439501296824 0.76371042419060053
-0.71205703623936334 0.44463050354725508 0.21830825674254584
0.64820325174354732 -0.42022175797790773 0.71753034195325327
0.1455644290592773 0.0023489864274734984 0.73412558814263029
-0.17397546423710897 0.33595333551215401 0.76367137331243917
0.4764082744120714 -0.26637211877161882 0.31008587306448732
-0.65792168052949851 -0.78973478880877801 -0.35626167044643431
0.47665706656811685 0.49175358353935605 -0.090978468128090739
0.43219669462981064 1.1107018300233724 -0.42459473655060442
0.32970445076647453 0.059583656711967414 0.63151709660700561
-0.53605596032660729 -0.09244347078399251 0.73171234474997782
-0.47831453201320484 -0.35017421283778738 0.63921426553843652
0.26508740632668681 0.62041818464178311 -0.37547892323428833
-0.19983480135104692 0.67907463872542095 0.6540249376303251
0.46449248156369433 0.94521900479994825 -0.44867848396024179
-0.64600985841534797 -0.16229436429513999 0.69505266018461676
0.19187550222791394 -0.10336439258310737 0.80661191493467399
-0.37894432143379908 0.68874061750380777 -0.57273876338872398
-0.77873242676195287 -0.1817169973705286 0.19301024383072196
0.51364928768189377 -0.12154667942719044 0.32282196238504568
0.50162152195341492 0.4847746769115755 -0.015064651621937486
0.33089880588537895 -0.53018547864439824 0.3815171685239136
-0.34733545475481659 -0.096408811639718373 0.81426872133955897
-0.52786434046561681 -0.35437821955262727 -0.54994960563486472
-0.41408024541837229 -0.75124379847252909 -0.1565347992947661
0.11625828035165808 -0.35362619915824922 -0.42008969998652468
0.56975868862857992 0.36547928653852235 0.23838651704603819
-0.11361148162736741 -0.44848487327356779 0.585085605915042
0.52734488944332547 -0.42061200344563687 0.36012978135782525
-0.61665921292952997 0.7420377776595708 -0.093583759746769246
0.18215114489323436 -0.80101249196777413 -0.47704600310653866
0.085584715348216878 1.0711894973527873 0.1989584541804561
-0.05609097130566798 0.66199122448366499 -0.31409746314232301
0.21942415774549473 0.15929409880388334 0.66835346740533375
-0.3922750434536677 -0.66193233573618082 -0.10143126098684263
-0.55760446275475917 -0.77257323166823522 -0.31070661589193627
-0.30642987292705898 0.040981596212118721 -0.090913458020359883
0.41883300022739101 -0.95244022632888869 0.35009715932509167
-0.55416796377562538 -0.033792526099957865 -0.64837861138541442
-0.56812881044079322 0.047255844927339474 -0.25581169470867238
0.28497862281167247 0.091727193568419629 0.58260938638794535
-0.40514308527248249 -0.23734105537801575 0.79492520579604431
-0.16021239156166467 -0.66373502132994533 -0.92318519472068239
0.85926914026384482 -0.34937052696403992 0.61342517758743753
-0.5987665572573897 -0.3067033229080236 0.65502838069908087
-0.93793598438744996 0.68143215897739329 -0.65471856469466871
-0.76927669193977777 -0.63758288716514677 -0.37869754003617473
0.84672748234087492 -0.20744130980425979 0.61292196313244496
-0.32779428286787704 0.61275055057384265 0.6388063659591996
-0.59560332327853305 0.36416518035951917 1.1369729414257961
0.073311929354288763 0.22290296333780102 0.640116173754679
-0.21011602185525508 0.35350481201343786 0.71109242775149895
0.38201586285299771 0.76001541113868676 -0.32436224242716882
-0.6904121755203223 0.57143250946035717 -0.56422934720015405
0.63847129862646945 0.19029920347010743 -0.31613894809044218
-0.11948388386879587 0.28288221460166429 0.2183207924444126
0.30763013120358085 0.25626815085878274 0.40533920938112189
-0.5251196595879275 -0.38857116826097293 0.64565445725926374
-0.78919852665827694 -0.39744325658951363 0.49689466487717837
0.49757322212087446 0.01448146859902355 -0.28001042666782716
-0.45600160470202727 0.45615617632698058 0.45321871494974353
0.19218648534762089 -0.38522773893932793 0.61724579197385765
0.004368735500966503 0.47520367796511609 0.771721762013442
-0.031100647940795145 0.24158104296383431 0.75153612597729946
0.083894900264070316 0.51135201338168246 0.59004930927372001
0.50631116106835783 -0.3973939471770942 0.73598096129050283
0.10882891562556962 0.5770627136850619 0.64352220462685494
-0.72142209908020027 -0.4269064103520992 0.24591094940884872
-0.60052578673516388 -0.64130599536298982 -0.30779198589948464
0.29093605094422986 0.68960464893449913 0.2595900070365289
0.041141168774465164 0.61390405103248646 0.66044012974591304
-0.12515894766801472 0.49267309180187846 0.74594358234399927
-0.58236796449145234 0.33990583747725855 0.482371367559848
0.70529439516956094 -0.27649817688528255 0.66924427877630244
0.14220724825160269 -0.0830022122948888 0.79830607509654428
-0.67269180699149989 -0.95767374622937762 -0.39357347049300806
-0.34728349805139286 -0.10741744530517705 -0.15992576653184898
0.28054805017698425 0.90264196618011017 -0.32578274740351709
0.53127880879676415 -0.18626026887332436 0.71381930270436911
-0.33477972705251302 0.20903686604004079 0.78024560229300377
