# XYZ point cloud file
-0.061563614718947779 0.13612307138305735 0.72712176417942098
-0.78318355857373634 -0.48276029430041811 -0.36209199641096523
-0.2741847590913033 0.22193368964120685 0.79264111869282905
-0.091469428194448865 -0.26253155839948283 0.66528594259350848
-0.58318970794452907 -0.08135059481347573 0.69700622591636363
-0.30043994882697922 -0.21030369732004134 0.74528171076248961
0.29434723364737481 0.98305010980777885 -0.34812319769588118
0.5671855393209464 -0.75532084897016616 -0.71454376463702873
-0.48707500756239769 -0.20924766568382336 0.033859079367491773
0.22775745088831939 -0.038616695467435069 0.77427365146782812
0.3888055977335742 0.64546227000415002 -0.29473620212301332
0.95639548760421444 -0.79426418944389721 0.55428753021080901
-0.66060698475893465 -0.1788103348474635 0.66445365515008348
-0.54954002203475549 -0.56301139007879031 -0.084303072972438997
0.070244980888762909 -0.093760570790395792 -0.034160207272613263
-0.86221600169065504 -0.76664796458702356 -0.47389095352836152
-0.74979580272474466 0.0095123673270564035 -0.45642970499327928
-0.7815930390416862 -0.67930111452874675 -0.46128897273998781
-0.56829524757661276 -0.16916051823390554 0.68047308540549012
-0.055372655567933568 0.35594619317226139 0.79298032988562728
-0.028740530389610275 -0.19527985665880543 -0.19854115656868032
0.36298181112793554 0.45578441338634457 -0.28023915000036714
-0.55522175241117644 -0.27515129568698632 0.66659552269891531
-0.1826543995440772 -0.86438209579011249 0.11264120573966352
0.2853799088838741 -0.48179466824297523 0.50991278226705505
-0.093344471028200704 -0.17113976201472758 0.97093089181175096
0.37514963665301304 1.1011251297009814 -0.45342501647063416
-0.87184387213520487 -0.68983063654467935 -0.48908650149597044
-0.2118924796764885 0.67940877747178341 -0.28814169725008476
-0.34682363989146492 -0.69651016049866887 -0.093365184061566797
0.083704698251604204 0.59160300846836944 0.12382363924561268
-0.019413708716637584 0.33710116265501622 0.78912395143998748
-1.3532483928499439 -0.2451956775105012 -0.31703336352259526
0.24118776812456488 0.93347951661055117 -0.27588608145272153
-0.48288355338276256 -0.78692635453951409 -0.27586651369373039
-0.48281159688145225 -0.03610681817801209 0.74687705513766511
-0.021937111140011123 -0.29541283150534031 0.50130640731876142
0.31313983305020765 0.71812733449877619 -0.31989302301645495
0.37937494631436713 0.0075167028942815239 0.35825617145940081
-0.53663589326149364 0.026235309033823651 0.72393874157180527
-0.53772746380314129 -0.48740847277351906 0.45091189608651217
0.085709926542264725 0.17063667255746018 -0.071186180809899025
0.35211350556215137 -0.51722008470514269 1.1856941809042447
0.14680139082305027 -0.28107725627859226 -0.23550200650990583
0.54750255146870108 -0.70887889693800921 0.48148054604138091
0.18927360893728301 0.04624124856964662 0.7131374075363901
0.34555599266198267 0.68592840922656562 0.78331601268321061
0.17550016343675318 -1.0078136926988206 0.18855536239561399
0.15789571809277303 -0.15525721690680178 0.771178341004358
0.1200045140213889 -0.082285502289727142 0.79649245676459302
0.85766985118081407 0.19828169394197115 -0.033058674052167003
0.65250027204342842 -0.67435687950468048 0.096836621251399357
-0.49284268399626319 0.14449304982431221 0.54546693681516301
-0.74589973007481902 -0.31812504302460454 0.42755775230875148
-0.32457350953070696 0.15968569802642729 -0.71208015312166051
0.46209658811743148 0.011333717192284043 -0.034349950819314135
-0.092397574662949719 0.48895980703297048 0.73052905010741531
-0.31849704682215418 0.14695646362107107 0.78963788033197657
-0.49741413110401822 -0.73004894408309084 0.28021246647598863
-0.16033011782453616 0.74830521304113606 0.34376609527453184
0.28381569966096609 0.6881307737648068 0.056446441886800258
0.15647755904955846 -0.15124596963392922 0.77835512271635254
0.51045556699814132 -0.32047070041932046 -0.10859971179362837
-0.69364755604639106 0.13281381982838886 0.63568207552674472
-0.012603901412192253 1.0332941925735613 -0.21174004170824245
0.74744503764717929 -0.33329499397070339 0.62484876325227301
-0.68449167364546448 -0.44297321125068534 0.031066983337464826
-0.61656189393899075 -0.87652613068193275 -0.31487840741657491
-0.78509108460084531 -0.59058144778625876 -0.40792206755346871
-0.72907315776818438 -0.25038910987399021 0.61589029815823593
0.19682324560534292 0.90439558293850442 -0.20435074839240919
0.26445929259290923 0.091640458900578814 0.49893989583527709
0.2810221742075481 -0.37652507320361073 0.35644728477566856
-0.33087918066763006 -0.53591791611993767 0.23091605284252603
0.94762400575852235 -1.1638295962336827 0.82514042263995169
0.74479009479271119 -0.56607488761068947 0.47396698855878627
0.15563557727317837 0.58239976902147939 0.61216420200100519
0.85223141835038141 -0.34125631535584083 0.57356218298881068
-0.26670058246472561 0.50777138782076048 0.50544172308013358
-0.192706765697231 0.66645678868129421 0.66277140046193916
-0.4821971272019705 0.25474809203541704 -0.66434752314355716
-0.15081443662815197 -0.12580865671501251 -0.66550958210396161
-0.36791643707911514 -0.074830704701014716 0.8174627621980517
0.1898280635330416 1.0550767212619836 -0.23812077384481189
0.093036051062603431 0.34677012782285244 0.72536897889285834
-0.046520767516687822 -0.61156100237320221 0.091810882309777853
0.52297712434504018 0.92672382377736229 -0.42107722377725842
0.4991362308064845 0.75314840493676749 -0.44543429701518855
0.34029214032768285 0.72962843890665552 -0.32788626700911516
0.32588352108226254 -0.42286589878741554 -0.68387618130905148
0.13628894305232542 -0.37105662258478878 0.4909899512365099
0.29153584891322831 0.66406464178759728 0.41670888843775722
0.17338108625123333 0.41300367490281154 0.63015404461418645
-0.59541577776392196 -0.10980977943815096 0.60473440943689072
0.84202895312509474 -0.25816631012392238 -0.26103008873937306
-0.58925555641273986 -0.55084759811963568 -0.19609956126100725
-0.7176806460098879 -0.21519050599795092 0.41957794723905706
-0.4918889841736227 0.45075748384148684 0.36926139612670239
0.079103757028311461 -0.13954043074672284 0.77023776576758607
0.6634638156011784 -0.55958422813658093 0.65431315736108608
0.37104102236476044 0.82722373806333649 -0.36130765143271271
-0.47351309778209161 -0.31677164389898416 0.68146361267970113
0.56963117480779513 -0.1865118707001073 0.67633970181662795
-0.44597829922662313 0.16154804153653507 0.79246824880985223
0.79320175921822123 -0.43729938370574928 0.44681213861318048
-0.78175188123980077 -0.18914198672748883 -0.022720991052851858
0.071226268834127471 -0.075401695603649843 0.22732628757600493
0.35985861604477043 0.96207023191702978 -0.36945827195704717
-0.28165801541913787 0.19689425548330863 0.10897231973820487
-0.11040803610976965 0.26849953169203689 0.75240138788394773
-0.44508134130889598 -0.12483241857839567 0.80127145075538553
0.37330475829743825 0.04932823847579243 0.46577840232527912
-0.33695084892220828 0.56606753042289082 0.64530574569750443
-0.082713323959029333 0.34081710592477166 0.78275059116080459
-0.42528828381710526 0.55143497454410695 -0.62251179593724171
0.07700893114723506 0.91780131109081242 -0.32829778546164823
0.71236927829884222 -0.39439842338829234 0.64853433179802566
0.35328206066732937 -0.23390845481926015 0.22464642247236322
-0.45370974681441928 -0.20381449246101285 0.77276585614416149
0.23887937100793993 -0.18610476118403041 -0.31646610306264966
0.27690359964752054 0.65231736645940686 -0.24270401579422174
-0.24536443113245271 -0.18931117540529707 0.73091738877022339
-0.83052172994761131 -0.5050430504957919 -0.4418118546754255
0.09941288886612637 0.36773709347259809 0.72899521352653918
0.81726260250596572 -0.45451567235774748 0.53222639590059151
0.27140662264166648 0.67112492947765767 -0.2694592435963612
0.14245251123476396 0.56577835664246923 0.62475246683482477
-0.204453492898825 0.34084214443449762 0.76314012319050462
-0.68025768372685946 -0.34168463828419904 -0.43099793506762119
-0.48191279433556172 -0.0098720881264927618 -0.0021340027778218307
0.21852647893959423 0.39177025444662228 0.22912984354154053
-0.1678649922805443 0.41743721710846093 -0.67137841765307282
-0.42324452523465478 -0.79777002979521683 -0.38627396264661007
-0.1878306039725044 0.92005310622506031 -0.41612586198817358
-0.28426982913147342 0.31141403483597818 0.80270167088526923
-0.30238092042533005 -0.63184561560452324 -0.1531614776906487
0.39167198196679776 0.23332626913106641 0.46422994374104976
0.011601005675531906 0.58601739718464319 0.68210219228960245
0.36184578995762812 0.014897556194099493 0.62774242569603222
0.40963465103511143 0.039529524901047552 0.52750466008826491
-0.70793777724126805 -0.29791763882585265 0.60881219391194774
-0.12615877295947792 0.49139487511855046 0.739083675588043
0.54123771104631491 0.59611356934658533 -0.15491633068507094
-0.20813779696304682 -0.18625625747746727 0.72131086158413682
0.037127567704661135 0.31952744429872526 0.77172434635609477
-0.56309214272248653 -0.6469759846697869 0.52201373181847277
0.66306547252164272 -0.29884389174021081 0.67455712322435257
0.0060462666724860337 0.22553841982044942 0.72810121611997225
-0.0056720139298641059 0.89071498116586867 0.20921457661392817
0.44099800086868557 -0.15820093541428915 0.29676596233177444
0.46438663835940919 1.143196773135307 -0.44529261673275733
0.16511713992884169 0.87925624031618532 -0.31320202731185875
-0.83393979887214442 -0.79961091494892245 -0.4986353604489131
0.21890984173362715 0.48938874761687523 -0.065786736442392524
-0.88707714482607092 -0.7105863398414376 -0.59363230870984118
0.40012341044125149 -0.004043847506555176 0.35776012709299465
-0.48965851911471781 -0.067528012581619112 0.37594963779418045
-0.21945828912292498 0.9814328894975527 0.042515462755903455
0.4417540193019831 0.5437747655993983 -0.31143584216771236
-0.11458452119878115 0.48081359664000489 -0.63809483866217231
0.15044809384950625 0.25692826260145118 0.57364151543042841
0.19035211002080171 -0.13279261427477185 0.77329139826835736
0.31303662824838319 0.99924110044198056 -0.35873003726673147
-0.16537501772972396 -0.93084290466939568 0.038329316730913554
-0.16275104027991413 -0.56074031675837743 -0.12305315438691578
0.32540730395623385 -0.3086890942939694 0.28705719020476517
-0.78192226995771696 -0.54632580114380158 -0.36817681677204472
0.63515843006179484 -1.1581941086640684 0.70150241569302985
0.7696774934841486 -0.3131790623760865 0.64633747536410313
0.4238483814475888 -0.1069434869459307 0.29025296694561842
-0.73287279115892823 -0.23881282058323805 0.93248532877830059
0.34989068764435444 0.97611902556668562 0.015068623944132442
-0.023633457605769514 0.26538284530118927 -0.63355180001894773
0.25079461217321752 -0.10600345030260083 -0.055888931906526107
-0.16282713833442758 0.46905116254086354 0.74310128440818013
-0.5388619753444861 -0.073720378264093833 0.7230049954281863
0.61033531748455672 -0.76923103466186726 -0.095824920721979012
-0.043263841346601661 0.035124061294649733 0.45368672493359297
0.24788949488755996 0.020971730285923029 0.74653864274069237
-0.32688674024079795 0.058278873463117553 0.76266061365608762
-0.084748441266616154 -0.31301322667406473 0.5488990783605332
-0.69983377956011616 0.03771444160460935 0.64666156949984588
-0.69085020243491813 -0.43962822084521469 -0.20809650895139153
-0.1152639808894441 0.48370890930462584 0.74142143655398174
-0.1434711654214797 0.41608217628719024 0.74575007068572852
0.59447044925972559 -0.37675256355284859 0.72000446464190082
0.088475132398523504 -0.091167796506697818 0.79327026275871759
0.76846182223247217 -0.19333277688791162 0.35392531935936455
-0.6728266602739239 -0.90510039247685281 -0.33953140169345231
0.79416785682293622 -0.43156435678221433 0.1878586328093923
0.27783908079699599 0.1986759515283405 0.41133686564900485
0.37590487140883977 0.96166141584387399 -0.37991516805938397
-0.60607817428743815 0.158947118819174 0.5537652559644024
-0.34570279074575516 -0.46562319753580228 0.31706578973829025
-0.22944016534439271 -0.26783748546287728 0.41220914198718228
0.22698701877025573 -0.10985005752989918 0.76400177892602272
0.50699996474531728 -0.50022175573306971 0.71776658359316992
0.017395742768100436 0.32475322092450637 0.78035228642453003
0.76759147793744487 -0.16333659972936332 0.37745287980185482
0.4600639363989153 0.96614970833820157 -0.4768311782350072
0.31769866602633012 0.52564217001023339 -0.34561576035074681
0.2776312038882911 -0.11914654212177966 0.71778512531587113
-0.71863961854513025 0.75043040552844131 -0.75605071602749385
0.20412231406864267 -0.6932584777494275 0.098107579162175718
-0.40688679298483971 -0.11943866205635223 0.81565561991141911
0.099950337501963304 -0.14031483618708351 0.79599812437120132
0.33579615850628164 0.42406479992842416 -0.017657279305183682
0.10938841466501831 -0.61399166275581574 0.31421273258540072
0.093184011059376876 0.43767434710529063 0.73351215664289882
-0.48222672993632143 0.63411919935412053 0.41029072914637466
0.18351456254740992 0.63357508120512362 0.21704022527203337
0.5409922294557562 -0.61600525788303162 0.66337534801275089
0.13011841345355035 0.55418225744587069 0.62786802766064942
0.12355275976360203 0.10821341869811973 -0.54961982065273896
-0.36747887996182715 0.6402918502116014 -0.59963593779658897
0.35532947051791286 0.83706931549502972 -0.35337990501078487
-0.0077661907119184193 -0.25067088765995132 0.59994671369274899
-0.43232325544765238 -0.48914624103048671 0.40283260673549082
-0.10463984091500533 -0.19712680590470344 -0.35924121460544534
-0.06608913906069247 0.11162414574860924 1.047473014359968
0.41413184556092375 -0.54809510024791019 -0.18420404743528707
0.083631181290531265 0.96518124177991949 -0.089318547822712091
-0.37884337125598055 0.17554950181474915 0.78641352401318576
0.13088314038895876 -0.42376071759104811 1.6869444859783818
0.36304063481682874 0.58718564613209168 -0.23047188098432247
0.8755939245699278 -0.32659002659834818 0.54306024573885558
0.14086915083208518 0.40972072811648919 0.67500684148929202
0.51721656369456948 1.0017786669324749 -0.46365160184540333
0.37930370664359003 0.6096969115410058 -0.24379225117578418
-0.43366675241563374 -0.62572427696449351 -0.088479207902994794
-0.6605487216410022 -0.77675610789365201 -0.34877751723160877
-0.064966476827281683 -0.30519168812723108 0.51159172382992502
0.4515776550341184 -0.1704777580891978 0.098385699655748393
0.078891252128329148 -0.29543183713866461 0.58881518620404982
0.2579054475092975 0.64125052115358172 0.50384452760862541
-0.10197632708938474 0.41496631986431648 0.76258944937272588
0.063345602303540194 -0.1136247866384249 0.7493151685075099
0.48100530501808292 0.91760630970908141 -0.3997881456991057
0.37110115155911927 0.12283554686833026 0.88763687033473904
-0.6161808436204077 -0.25179658607237732 0.64174531596328976
-0.10347595020445778 0.53379960915440616 0.72508134849694716
0.041467843799185111 0.66313489427199579 -0.16408852858070722
0.32081554241894705 1.1936129294410049 -0.33206314503905432
-0.38378446404760008 -0.47478647452658651 -0.18602957349582461
-0.67622452229425578 -0.22354519256310712 0.094707616022207119
-0.72895466237893747 -0.30366449514661464 0.5915734645201467
-0.65871047604039834 -0.071501132911603704 0.40242128275400435
-0.33464227264546875 -0.1954283211904837 0.7794091106062071
-0.79419115185174249 -0.91901571554660655 -0.39039670289177186
-0.66537037943352062 -0.40542412038225129 -0.38914170397029402
0.29510550303561101 1.2183577239122161 -0.33749798299833111
-0.7893546781422327 -0.87294328449044234 -0.43674174004799049
0.051204117397842003 0.4939951603762246 0.71998379359918196
-0.29963751890049639 0.30211078976973182 -0.29132631068027814
0.29358171794528987 0.61776506950161703 -0.1305303013762602
0.42442719492298098 -0.44415067146091847 0.71899910842968051
-0.26934460657930764 -0.15032154766272882 0.76557088430474618
-0.44649354048861001 -0.65882116367881172 -0.1436567871215324
-0.70503619940149775 -0.91628001596148634 -0.3342745565691998
-0.034985089469386207 0.64785879666338886 0.7143921356903693
-0.28377491146702327 -0.39519402777254742 0.63029688640858383
0.32917707647864203 0.48322487308676126 0.12206488956277317
0.20743563697120926 0.90093271369984973 -0.21522838983847903
0.081831330960951451 -0.51356772322023625 0.0083065352565907524
-0.59138946743426224 -0.9244737116627032 -0.87459726853022568
0.76953316001553762 -0.24406773366375675 0.62193734178407523
0.24712965550168686 0.97573222861945508 -0.29277926565963885
-0.72985307173419756 0.54395177943755491 -0.0078118369851092329
0.71820657055913484 -0.40372175117256415 0.67939641838126041
-0.60016997618524281 -0.65644471863883669 -0.30734075860003784
0.14920615877887577 0.19853378398833121 -0.52307029351969891
0.14353942288700849 0.2526103286665573 -0.27223743215932394
-0.85966970504207629 -0.57040198230325956 -0.45704621070059259
0.58044067338755068 -0.58860592963317282 0.50167584147317212
-0.53638861700164153 0.055543552268110807 0.73243342336614825
0.73509715589308988 -0.38795393715129195 0.66594326973568307
-0.15309168015279317 0.46494358671715286 0.74373408907619787
0.56968980320124973 -0.023029895461991412 0.54229920490017536
0.27953759618287854 0.68746997623117512 -0.30565609441468578
0.093117959339159173 -0.15333026369419367 0.75476391492456463
0.6739212523006991 -0.29262537824668089 0.64864167861991362
0.243314099050852 0.95476099977927797 -0.2829873662113811
-0.42683933314881406 -0.20236450196278943 -0.48147324907704991
-0.26762811069661296 0.61253558149166232 0.61459175408572841
-0.87579290299705537 -0.55371494370873187 -0.48473572049961167
0.26068575186177578 1.0483143330418758 -0.39453624435737478
-0.14526324185399708 -0.62925471602108396 -0.78584363892516018
-0.80628227787276163 -0.48874360596392508 -0.41032935216021871
0.52562111213300389 -0.37342955200850281 0.35702567601897028
-0.094736321356728381 0.037978661674997971 0.012699622933874277
-0.50504014133150776 -0.17576162721153954 0.73980210049916817
-0.64850209726646968 -0.71469995308316969 -0.33712481639788683
-0.61848879665805767 -0.60979948213843094 -0.30208810407994502
0.071570037683867604 -0.2706262218742897 0.34819383866083964
0.13394052871954876 -0.61110039585564069 0.36099772202555558
-0.30461099709426226 -0.10487829121886333 0.80677728186160991
-0.41603184625884532 0.47470580371700088 0.18663042496788718
0.26471867658043591 -0.062618470035081086 0.74547676438002508
0.32873435130657891 0.82552979294999551 -0.33757372621318549
0.62198779225662659 -0.39879670413471691 0.68396503113024609
0.066389401874842768 0.37933932183176611 0.76172623514682058
-0.053406286639475858 0.07007850496798218 0.40989059476830558
-0.097403501584790123 0.22464878032878011 0.7434692028137555
-0.75583886241703935 -0.30654209656131193 -0.59638136381511231
-0.14977258024289397 -0.059757224006833476 -0.8613200132831289
-0.42247392536560802 -0.62216949342103278 -0.019100668237600704
-0.15637588858605583 -0.48856670132446689 -0.43073362422767891
-0.75161796401263092 -0.18069730931660555 -0.41363387122083273
-0.32042964827583242 0.32452799107980973 0.59006468461540829
0.063871977097216814 -0.207835161945433 0.69293753025052807
1.0571577541143389 -0.16966605092749665 -0.065506441791586045
-0.33853704021321218 0.035400956678328377 0.76433281366045813
-0.63962119694823316 -0.019634979886212212 0.46407771100181106
-0.45858301238129046 0.0094128845216134849 0.74240606870724957
-0.030058298670852801 0.29215781830704129 0.57387415364120953
0.077246181777116632 0.62961858619293776 0.63871416792368008
0.10322863968906815 0.32645873216201055 0.68529372540440181
-0.098812900001282553 0.18057561972911867 0.73731983387898192
0.3309687026269531 -0.13280858667596218 -0.47850079701955917
0.19656593594566557 0.47650720768640631 0.61178707912002928
-0.6527364658124124 -0.49851333188228497 -0.19508359729684921
0.33007673095282125 -0.27455527481211506 0.23495552539664777
0.091004829036399559 -0.02440567177159908 0.57795558025627303
-0.48395262405502915 0.082943224205087041 0.7503368626571485
-0.59892972832477831 -0.69630015582833593 -0.30537778816982275
-0.088870732317165357 -0.26655204557282686 -0.43940973359166025
-0.83793709467752742 -0.65110436233366453 -0.56413491278114236
-0.31156567314663824 0.62364830496877655 0.18657673667553576
-0.26550040620427406 0.40943295500529542 0.79232554884924067
0.16124502068304775 0.57954353432436279 0.5162915184269099
0.39958727169793001 -0.53017013542910707 -0.67219419501453403
0.40753657591712777 -0.58086981299269336 0.56434676027406905
-0.41882706974196382 -0.25329632585529077 0.73116917422002548
-0.25591351905716653 0.14543428842384443 -0.61981321594646221
-0.19792076552586801 0.32026637232862687 0.762575741735942
0.16167854886186894 0.027745351175515798 0.74110416572167059
-0.12456957263045559 -0.027776986294642592 0.7442691613476291
0.45398805312578772 0.99513008409985981 -0.42105022559582927
-0.71213582282282217 -0.9454097833686621 -0.32419236273743701
0.097535762152253902 -0.26810710888109257 0.65070058984038859
-0.0076921004677358157 0.49392233620524528 0.74363821626137816
-0.56352686747016767 -0.77031626230046291 -0.34937179606533464
-0.30589424507668456 -0.0057575486206612458 0.75923618081165833
-0.29619326895520998 -0.21250987413845712 0.74912606690784278
0.85875530222733942 0.013924233823583598 0.21508886643542446
-0.79939251895473906 -0.85090130863612656 -0.47003570234526881
-0.46068897734391112 0.48623093722802641 0.68978399039722404
-0.30839329692002537 -0.29015145553373728 0.71154505932848622
0.94572684484227632 -0.79342424275761769 0.72282488038621873
0.13564406362730222 0.50787640957058999 0.62896197050359759
0.88749060252872658 -0.33261695781585304 0.41741275327625704
-0.45971762734006616 0.95098864314054754 0.055401059930078711
-0.7120996990168561 -0.2710102288215368 0.3244428936451933
0.16035630827535025 -0.51939208551383498 -0.51328961717320176
0.039336731287535454 -1.1832099428699783 0.061373932300765599
-0.32062363907685171 0.2858441948251117 0.6106308432595986
-0.41137367986846529 -0.69373535899193173 0.63368351592516792
-0.4972637684531902 0.44953878940565828 0.3015037593769101
-0.033267057456574434 0.66735487038610608 -0.37065324599681615
0.2333702124309085 0.98593296449073187 -0.26323930848318788
-0.22526270644762175 -0.056106988999024832 0.76043992193360399
0.21225997283759679 0.52620041782597526 -0.41530951441126618
0.33264189074554418 0.95572212683945235 0.91057674724217774
-0.455915614175877 -0.041196817985701017 0.78907682773036036
-0.62959114130563298 -0.29831753040801201 0.62864736261815968
-0.2151376197724586 0.64747007388869415 -0.05908613936463647
0.10933623756679073 -0.35565897979506733 0.39394294613831127
-0.32318319250839372 0.27919825920253827 0.32947171665484598
-0.51902011867428466 -0.6232654336549861 -0.25943768490974772
0.79773178890365426 -0.46105195272087862 0.58523807087860513
-0.32527189371430831 -0.66374444257630272 -0.096871219284557331
-0.52695360790183265 -0.057306870229071327 0.72292411384633737
-0.55274504437994942 -0.23409973672650314 0.65832442715665151
-0.41559523143166788 0.052846591587572656 0.75844435461876136
-0.09445537804058235 0.35653975161202744 0.77667265325204315
-0.069997935219099028 -0.083297436237102618 0.76002830566655089
-0.22094991634317229 -0.61789594937451708 -0.47603281880088311
0.17330469158611372 0.88060889864722358 -0.13556481742323823
0.44544016351619425 -0.19181477447899092 0.40872227398862959
-0.55051551721753544 -0.65481316102872411 -0.28696107934984028
-0.14762023678660954 -0.56344304781469057 0.37146843584568323
0.13706530861189753 0.3834419875731262 0.68102178020425241
-0.60570688583707766 -0.1626804095172717 -0.27968528970261541
-0.46667558628200589 0.21120884520319161 0.65297739287228862
0.32272683428053806 -0.41353670772861439 0.70175552415212161
-0.5276342236746363 0.014497375284311498 0.72516263833105699
0.38637766052232414 -0.49359236503965409 0.68875082539724808
-0.37165263587354264 0.5393557604072905 0.24838458494123472
-0.68696449422930106 -0.42651470527804469 0.43579897871512951
-0.31102563415971463 0.9206562740398555 0.55696405302648411
0.83642437646794809 -0.21590597874532624 0.37355804515174729
-0.52373699053116529 0.51162243473480107 0.29487603038902788
-0.40202789979635589 0.87093076374922951 -0.34582779231958072
-0.42816483261303534 0.012985676534023383 0.10945782105824131
-0.73433819206353579 -0.16914348608242269 0.59311800483190713
0.39175254639607615 -0.56475636492606784 0.52579848749865921
0.7439785763853286 -0.35559401057405005 0.62963157810667836
0.38077436467114661 0.62692011318210872 -0.28566686452856249
0.37867452703808024 -0.14604505279695151 0.21298226523226926
0.7357154448315526 -0.4390948392903079 0.66466472519578668
0.30641986335897892 -0.053279902299464665 0.42254957870288656
-0.078949010893911931 0.62238955459720868 0.73295782239003593
0.31872677124540649 -0.27812447269747159 0.19642918415989019
0.71289322964488167 -0.44226239912139576 0.41457301685739445
-0.099496150570225594 -0.44947850710671211 -0.52593890883299332
-0.67703589599764136 -0.90450348541013426 -0.36920872812501226
-0.36717645157546064 0.3469351564324098 -0.28150310176226068
0.19819261909523922 0.84662757129592503 -0.17940762059713466
-0.09203849803689429 0.65570483833071147 0.72895689824120358
0.3573264631998111 -0.27409286368507813 0.51579134241730884
0.53772639813673895 -0.22212728670981402 0.69427301389614238
-0.63839778857784979 -0.57023778250167789 -0.2651240057595996
0.15822812026089328 -0.3812610330170968 0.4527787677306514
0.84969634027619978 -0.36811961938147214 0.56891463026755362
-0.27473098566654297 -0.42102063014570507 0.58266667384235182
-0.43940786025436646 -0.33010044922542819 0.56157898755879154
0.17288048045519888 -0.55667694157387082 0.62664809171090141
0.37806396263500686 0.99358024468500428 -0.38548553620960813
0.29840249353343801 0.52951742256864753 -0.18933961317032022
0.13928100434214852 0.90739866048028439 -0.22686013992052279
0.33535196305270987 1.0721163592515683 -0.39393230313696437
-0.54847187526580465 0.56829873645325213 0.21709139213547402
0.28699342416216378 -0.056289634591563775 0.71043553055519926
0.2020956529353124 -0.046982937425918525 0.7831439209668285
-0.34287144211385118 -0.046368007014417179 0.80200901348149678
0.40850982367118938 0.79750148667654841 -0.38130715948632554
-0.32088134277274794 0.59905744594854093 -0.0191447159473912
0.64131524470775103 -0.11120192973259219 0.36447861442542262
-0.87187507140780984 -0.35129229690267416 0.17965280205992817
-0.75871545303637822 0.054709181397541218 -0.94330500658935268
-0.59750933503336801 -0.53468019979062498 -0.10105876825345916
0.19841578905128021 1.0173922039441052 -0.33325089368925598
0.27621225536996175 1.1879089524465059 -0.36851862433378146
0.47890802183051906 1.0410884842495838 -0.39645061179517382
-0.41957963075002586 -0.028112641157561624 0.79204695550639581
0.43249930527582486 -0.11186530661298999 0.026726884732304335
0.081385812360857374 0.4714364002359302 0.72136753902790041
0.18455979115781829 0.45089631592101304 0.5989824469898708
0.2384826512082393 -0.023831616175953696 0.76945688486784869
0.024175501458376492 -0.37079064007714835 -0.33122781541749768
-0.17864360852700484 0.52143589257328826 0.75525341726721074
0.28225481230315741 -0.14301544455155824 0.71914587586990875
0.05031789828808067 -0.36788174189506589 0.35275650238584833
-0.15690530925292639 0.32005223435839747 0.75815591344371258
0.48020212792019112 -0.034816122029790397 0.38576286373231294
-0.37307571972378717 -0.17497069304451124 0.8082815599468065
-0.59419654681350598 -0.11302885520473921 0.68603352253091354
0.47997964142325955 1.1136192953105017 -0.45472125725337409
-0.75926507044907088 -0.26416238579991547 0.041489334568845848
0.24918371822863167 0.0047293979270607855 0.76036478638864757
-0.67984662317183853 -0.51408203099263206 -0.25606607339386134
-0.50443557148933893 -0.73899755577843962 -0.24596265608481938
-0.26908312639703297 -0.044668886519350526 0.7542397620823531
-0.48627255033888717 -0.18517403373840291 0.76008346564519247
0.15119156903284753 -0.82114300319532307 -0.24017369633488928
0.036374034612766004 0.81398573217174008 -0.44181502333248401
0.11802117888264835 -0.042207451108567551 0.7307101831264684
-0.53069163051947243 -0.72891027176160217 -0.26359684824436247
-0.10069025884158347 0.7052624255663491 0.63221816194681857
-0.22930338889612578 -0.4347414397623055 -0.012743641010819484
-0.77722962031890652 0.35953015037939906 0.12563614783282295
-0.61783058862816176 -0.62049341237691835 -0.309322882830664
-0.13635116675573178 0.37440412145367685 -0.64742849096330701
1.5466302107969288e-05 0.30275372366762543 0.77103936952600693
0.93371845608158366 0.084541175714444916 0.011630272140912723
-0.82765138839815988 -0.77303607707587563 -0.50457538856405115
0.26859961596452647 -0.026637186289625858 0.74144609500581149
-0.10831875591505458 -0.049301619322852819 -0.67360138528843549
-0.27447235794479219 0.25143088024789129 0.79540006647180128
-0.23648009944643295 -0.074129736972697979 0.76847707502849283
-0.44950533264449177 -0.42630058426194739 0.6161079382358623
0.011423929731187776 0.36725142941185707 -0.19171136509485498
-0.35287658375378722 -0.54499720085286252 -0.30507937842874089
0.4263219857784194 0.17106491953409281 0.23057146112435811
-0.47659572235140379 -0.86277530965897742 -0.21193344380768186
0.15671045087463611 0.42238536204045363 0.26988206797124947
-0.42858039644514168 -0.48119810530046081 0.45116798662848234
-0.67936524435709944 -0.64930913749049535 -0.35618170822733353
-0.081428173657782155 0.51369374705046844 0.50340931062704919
0.010962336350567758 0.011243548729844566 0.06272634083137163
0.71559255451676052 -0.27454235011404426 0.6295969013928957
0.45876790047632676 1.0933218151111239 -0.38800089863482667
-0.58837176152622195 -0.4766724154573152 0.40453695543775003
-0.13755723631559927 0.26390914506807728 0.75351377923674079
0.10537445011859364 -0.058232769217922198 0.75310320737019509
-0.60807080862906437 0.48380787032546824 0.19461390768107911
0.62467612212897106 -0.39488025638242785 0.70476725381942273
0.12985119100317871 0.0088668725587979225 0.71991281971259946
-0.15093121220923722 0.34290350325245533 0.75161597913751255
0.43317072725727962 -0.27676746036666922 0.31814151026671889
-0.64572492325772279 -0.75327410824028007 -0.33575438200900676
0.44613059553593459 0.4186314018073789 -0.10794753923031974
0.43906591226726266 1.0483383461098859 -0.3984783556323146
0.30924354444630231 0.044468137017988463 0.60968641138581203
-0.51825793307549106 -0.042427865656651798 0.72525258228280132
-0.49112556390904882 -0.28897285313031051 0.64965647082390232
0.25910768849679711 0.57273192104466186 -0.375626487624519
-0.14711003803141287 0.68378295830827152 0.64859988319390705
0.45970746869321988 0.87318156799365487 -0.43263489716127879
-0.62225003803571 -0.10180735933539381 0.68590510450146125
0.17203462280828558 -0.084504556163270406 0.79278701449826805
-0.30921156846012121 0.71608133928327022 -0.56651411537110929
-0.71609155394571888 -0.13835324808298555 0.17312006965431692
0.47468698059230485 -0.14777203059357796 0.31580924195707905
0.46895461683303419 0.40926116378117894 -0.035562480240463046
0.27530476167687723 -0.4994577659888037 0.42110876615352044
-0.34874982010226963 -0.052682740168777942 0.8119039953507674
-0.4887560100546875 -0.35937560172376826 -0.54179198296776487
-0.44123340754628909 -0.71599944185082998 -0.10646793330212745
0.094133488980890134 -0.37898057607193725 -0.38077272939509355
0.53471251833138023 0.29183444271263315 0.20821732652902947
-0.15806608402598277 -0.39631344949295577 0.61370957053504283
0.4809576542312663 -0.41399847146465246 0.3793995256004199
-0.50428828002921267 0.79187558200060737 -0.10705471384502552
0.13791998821848622 -0.80617921547947247 -0.38776438380731504
0.13016835855308528 1.0563061579640123 0.20780811608582361
-0.031344786342973663 0.65222786573685898 -0.31516059772701333
0.20744813410696697 0.14497535177844606 0.64704509620153905
-0.41532100941098132 -0.63112618904479267 -0.057753111527944601
-0.55983060284310993 -0.74014602614816083 -0.27763384221270249
-0.28691548684556695 0.03770442366076765 -0.090668321613196046
0.33751603308840705 -0.87267098838371826 0.4515705431045185
-0.49508685707218381 -0.041022365856729248 -0.64804451519154904
-0.51110597125478785 0.053902009492522995 -0.26536320488162701
0.26503309255575819 0.074626284859008907 0.56318708834425646
-0.41664356252696011 -0.17974635294763874 0.79883548420052053
-0.14000996179423031 -0.68861174529075031 -0.87056438962545801
0.83930956888204467 -0.36172327133939558 0.5853074845270978
-0.59532252580824274 -0.24086906185179785 0.65608095187920212
-0.7887045013724947 0.73159834688284608 -0.67424100932977749
-0.72473743738379337 -0.60645570371074253 -0.38339714976985828
0.82520106486104017 -0.23717777976885038 0.57457870769433539
-0.2663480218752694 0.62894555254590023 0.63133473431442799
-0.54645071237800424 0.41591459201119341 1.1217725556510649
0.070383487059360206 0.21335360812981863 0.62364978756877099
-0.18279317244314813 0.36126680463607252 0.69962569847709277
0.36985633567904075 0.69678738569275644 -0.325087690248131
-0.58532691586703489 0.60624050508651284 -0.57239021894430753
0.60792081864714831 0.11071792602052877 -0.32123030648625894
-0.10894157984860969 0.27367186006541622 0.20909292204285146
0.28721728459741142 0.21925091061662361 0.38398248056532758
-0.5386523104735107 -0.32049520974029 0.65631732637839679
-0.76461403640203551 -0.31976916265416183 0.4875279130182808
0.46659099746742727 -0.043075870836857377 -0.274533663637194
-0.39151560130926893 0.47869523085677385 0.44002860832011281
0.14962189298796191 -0.34771083299415556 0.63357877354221959
0.024244580913601751 0.46313234011510884 0.75651504090626509
-0.024746191483062452 0.24213916038138505 0.73662529575209557
0.095578625078539259 0.48720037752161327 0.5728778672796937
0.47734118843385043 -0.36364251168816564 0.7298406724932005
0.12415657036807867 0.54940213993053399 0.62702284799712005
-0.69517562313836334 -0.37035321697969303 0.24338901537811308
-0.58412795109079041 -0.61602599545104186 -0.29004140638870135
0.28407926868552091 0.6349124579175317 0.24116071943874884
0.064998665839047662 0.59288302734069886 0.64751036841564602
-0.094326485360471071 0.49116013031978573 0.73460879704711868
-0.51059897019428524 0.37149998000316703 0.46540713448442816
0.68288786922179601 -0.2791726871526562 0.64310389126039258
0.12352939446529021 -0.064384598275829319 0.7860666573959505
-0.67593318886454801 -0.90802897963936346 -0.36172597050668465
-0.32986823080968974 -0.10921535844226327 -0.15385878262276842
0.28368235341531678 0.85751445120916914 -0.32016564544283233
0.50779586830091683 -0.18362543510543949 0.69025591691504262
-0.30869844574129435 0.23247298831270102 0.77005224762361046
0.68113228618863242 -0.30945301941509007 0.62837212608093251
0.39198415477415738 0.83949981341093061 -0.37971494523552041
-0.008136651343183636 -0.47843027234094559 -0.0013496734024598389
-0.28588956787564473 -0.21850170271103919 0.75084006067910991
0.17201067878298965 -0.32817812085129361 -0.31688655916080144
-0.60868475482723028 -0.81540167645560391 -0.30958373557148988
0.29994351831270183 0.035870592312311933 0.63900480424822081
-0.20004339141045444 0.62993719783710223 0.58497865974671215
0.096082244720861854 -0.14468356508444158 0.78946094586263404
-0.88742787865024375 -0.58988361740283357 -0.49331307241498212
-0.50878310213295053 -0.15459178303599946 0.74972624780268271
0.64989122277660227 -0.38733193897409052 0.64321162673717414
-0.14462982598036384 0.32811104302494548 0.75082638520569067
-0.61288740044654455 0.23041318537461575 0.62177381331881665
-0.53469218327407242 0.49083293334007283 -0.28234143300909009
0.32211138474594303 -0.51314734285428631 0.59447203749213795
0.12847819761777665 0.60053637231944634 0.25138063891671858
0.92922723342395841 0.58917038513329323 0.14352872451783716
0.17497600054403095 -0.52130764834117493 -0.82655555719402596
0.13665115651322857 0.10987365288902806 -0.23133584283054454
-0.2041713077640589 0.97199746298079148 0.28617699212937531
0.045912974693929465 0.48038484754833277 0.73965985681684399
0.44562671943466958 -0.1511925178212071 1.0554239621638939
-0.6342176571770346 -0.89597144545187368 -0.28084806002300411
0.16336676560263419 0.89091153429682834 -0.078877973686516611
-0.30845755674117564 -0.52474249327452616 -0.025906592616179225
0.29511595266180052 -0.66136256647365632 0.28148866230711578
0.19263345276892907 0.86658814535838624 -0.18617026561969796
0.71475000519360143 -0.28759509627226881 0.6110642736872105
0.47769201218028401 -0.26696642342155458 0.32611883016957632
-0.26429122957420548 0.54895433837154384 0.796342649793224
-0.29155007298977414 0.25142235762324516 0.78797980675571266
-0.54211451931011789 0.13371255253924019 0.47145161778382572
-0.33666270704958001 -0.040295752595391698 0.78609638239348834
0.16850703709886258 -0.99868579345805986 -0.048087502439262853
0.29470877809591134 -0.30346104861152401 0.10716106791625579
0.5533451598472483 -0.59287463116715233 0.68192661265428578
0.032040079294514828 0.4551106619971077 0.75696654450875367
-0.091959090199065771 -0.31201667061724736 0.3481439475553616
-0.35173009835953084 -0.030133159294403966 0.25384795685755268
-0.3974329451717285 0.21875633291840269 0.22809588144201998
0.20516434776471304 0.78191187033990883 0.23545341110421014
-0.78582220202706199 -0.87899897106084568 -0.45579702520291177
-0.054089753504569127 0.72383126818205423 0.64421065620912521
-0.24991764170010874 -0.11214843469114066 0.76586876399711068
0.19671027156578502 -0.32068215903578368 0.58712114263188209
0.37514928563726174 -0.14777538187841138 0.36553524736957721
-0.63438480667732833 -0.60644136497140422 -0.30892876881469844
0.5278977993619236 -0.29705106853922392 0.71539840564704171
1.1743011128498526 -0.58208270285219443 0.026154486668085841
-0.15900557130415449 0.17817319744757421 0.75328945596486752
-0.33404532371358336 0.22922874848445884 0.72125156348474295
-0.78094704118962066 -0.87101074660763733 -0.45363002199396885
0.32132722670785618 -0.34049001971034965 0.60943646436419474
0.74053458017045282 -0.29202342288178218 0.6345928266763714
0.34157959889850797 0.45511596386530195 -0.14163939354545185
0.41837563304666903 0.71587662474670122 -0.34719735597711399
-0.062771878427627159 0.59495915924359477 0.71157530651624579
0.061961642990604221 0.093212565869644104 0.103074427394243
-0.28661082543372524 0.32996171319340994 0.9626858262192528
-0.78502840554491882 -0.086653060223064293 -0.33778696922410623
-0.13996634385079176 -0.36934116018114183 -0.55303857631490905
-0.18029503247522113 -0.24277883893577085 0.7220696945788414
-0.50663622037938716 -0.77925904286573766 -0.16451971868404192
-0.51663690997944844 0.27373721537369666 -0.35059486717258626
0.094932893283910247 0.36890335296512083 0.7426550713349982
0.96726716392764511 0.19547286909541517 -0.34745399838858404
0.33304455003339717 1.0574843757028292 -0.38712801619361792
-0.030529958156290962 0.63268127506811711 0.70554220664960043
-0.73979725970453314 -0.25577505891543395 0.10663231795952122
-0.71742377121419865 -0.46422280988660591 -0.31297402637292349
0.3409393201102518 -0.27416851612717208 0.26086464747174531
-0.52553629774643507 -0.037296474430522641 0.72941658638888462
0.0014499396315968416 -0.051659544151618886 0.74683007330564921
-0.30378669505273415 0.51742154449439381 -0.0045463753860255363
0.060925664324315787 0.31570041649252456 0.73909855147624715
0.11110061886868416 -0.2039653602137308 0.7193121811523393
-0.05114852803105735 -0.89561941805158263 0.23034183244881268
0.84786910117215419 -0.76553416718969802 0.34156406342301615
-0.44945248958424971 -0.26702479172392585 0.70469302167210168
0.66406857855650603 -1.1270636781529864 0.045069915178876485
-0.023232699301805382 0.42320669402991662 -0.6084163290325364
-0.35694647594043455 -0.20295391115732553 0.78382788565829475
0.13111360458749399 -0.052508746988069621 0.75351188629213706
0.25893193190586639 0.74371856142935477 -0.28697864768778114
-0.16321832824166471 0.15462141052809031 0.84966714921973518
-0.15844236723429383 0.37107440303477679 0.077947200924108451
-0.46849874983892009 -0.092005465038275669 -0.029245898136085025
0.57997558433813867 0.3956731508064717 -0.18655615446231044
-0.46957115490753182 -0.19437918745230515 0.76926646635760965
-0.030903223655024903 0.16490154940753171 0.72494159192608887
-0.051392207434562992 0.25801907535158214 0.73021466878892727
-0.32384253301877197 -0.051073479831570623 -0.56130934273990452
0.32940963856106298 0.80230647271281075 -0.33413808898456798
-0.63551495807242597 -0.49766443240141212 0.060502589777591709
-0.48703004570337644 -0.33987235413640304 0.66351812288253598
-0.83923492252784049 -0.78690157142998141 -0.4848000867529807
0.22299234806791757 0.828561633596401 0.390695305173415
-0.71856196935872052 -0.55514756414818378 -0.44812748204111008
0.17370834937062624 -0.14557356741500582 -0.45198084769748403
-0.10236526019998715 -0.46712455867319996 0.99090397780767425
-0.72146116612938194 0.056378414738267768 0.18683481954171621
0.038168057903918973 -0.11069210345503588 0.75543483337373596
-0.91839340335482278 -0.77743306461136363 -0.53331509669124921
0.15018100830198458 -0.50054484636139296 -0.0087953095074762011
-0.78629772929291941 -0.65842731213527395 -0.46936841337593105
-0.34128563594459838 0.24348857207483332 0.60823200593614901
-0.44397103085155698 -0.6065214466999973 0.079100455029883499
-0.33817090334462585 -0.32218715198410275 0.63957344247412884
-0.58350467073572787 -0.60307793966252998 -0.27000491703492369
0.28800095434650497 0.76586865029571793 -0.31526020442504743
0.071206962880448615 0.39822629754138361 0.75621281385481143
-0.60681784525715754 -0.10857405628908201 0.57528730563060382
0.089977681445780694 0.37018975864682691 0.748526911289499
0.20704450915107675 0.099423378204885837 0.664788952723117
-0.49033780795865056 -0.73722560431877315 -0.23424602558121688
0.09686116540402509 0.81338159024126777 0.57797684953026351
0.36122612102687934 1.0540184769517522 -0.39587872797334001
-0.52885885845554925 0.19195082600576358 0.773672703383953
-0.25261169674319667 -0.28740690359797089 0.63147055541296293
0.2905335568562214 -0.4319951437315932 -0.16363779086809149
0.013872703870936393 0.058757689930765356 0.72620371178974708
0.48743423268405217 -0.38332139892147288 1.0867527017797398
-0.1384167986083617 0.74226821368914886 0.59483361196852003
-0.30922842461003397 0.37677126460879262 -0.13643241271304607
0.13520233281905353 0.33969854318008175 0.68152332439383523
-0.52979196020303265 -0.67964641792808433 -0.26881590519779452
0.33776026725439257 -0.28873138598448567 0.58341643560092127
0.082246582123517389 0.43204870968648668 0.74209786743864403
0.41262507703050244 -0.036656412248940451 0.32608805797745477
-0.45551453498677541 0.51942719074568044 -0.41606916993990284
-0.81429854924394374 0.3431034657003379 1.6225384427042107
0.30688287648351575 -0.11206714469912193 0.71033785097042479
-0.44020175299698916 -0.31326641736368366 0.69179786630869788
0.62220307331017777 0.060311943051755773 0.57472807994760711
-0.60414519641472675 0.15319566834619452 0.75913362215914981
-0.63735853089241068 -0.50750485788533184 -0.12287604421677845
-0.16898681973981045 0.81688453448379472 -0.14970626833419654
0.10556661836806415 0.57794729642496478 0.633312008355708
0.082125625652444523 0.95994775245657438 -0.18768338469041335
-0.52131667036400908 0.71292896742088108 -0.40463937419147955
-0.41691788807311997 -0.71132866003519646 -0.37882185123387213
-0.75317964862326325 -0.64760548738804424 -0.42885125227301035
-0.30572799201797651 0.95555845509520565 0.9013255946169707
-0.31957943490447616 0.28646548236872782 0.75371837146484211
0.2178252333953361 -0.030122806689256265 0.77807253703240287
-0.3525098098710352 0.54882305215986926 0.76018356481801108
-0.67769212424747216 -0.89322155069543774 -0.373198667002133
0.22791706270849865 0.33175269967511434 -0.39391810193081289
0.73232916888821142 -0.2980395192420211 0.61678601834450442
-0.78778877082919629 -0.88008889566900961 -0.45235570814018633
0.33338619874660202 0.67939077303619377 -0.31625445324948442
0.18635002921464616 -0.22921856210419955 0.59020246614317795
0.36336939886475661 -0.36320334658944392 0.72477761988631029
0.79088807023238838 -0.43978266007453393 0.61310942352439524
0.59339831045088187 -0.62576501309905375 0.55609275110807799
0.13230900542240842 0.00032567241027381399 -0.048748952719473326
-0.75268189888247627 -0.6640448549659157 -0.42638064595522929
-0.44800580057660444 -0.36146091368765232 -0.062500539919220444
-0.076446665140839865 0.74698599268494026 0.065547857069308657
0.36468786381830287 0.7338974379947254 -0.3324111689082887
0.21688717272676816 0.26034438583974029 -0.65475519928945358
0.23581810017220245 -0.075665681824756414 0.19930394851789801
0.2354377656096962 0.93692409228525464 -0.26217078804759364
-0.37869125980928287 -0.69842681414068641 -0.070213299405865293
0.24961499061406578 0.019854197828659992 0.71905224168662718
0.12225219629840001 1.3378031601779878 -0.36626682776395802
0.73200081207531864 -0.30808591894041276 0.60900776270701718
-0.063523547024200822 -0.088690682331551307 0.059679790052922232
-0.50824559506309586 -0.096564422332840461 0.755712120402114
0.20927184130694809 0.87678984638798441 -0.21483013641160498
0.20812796749882012 0.95029816834595604 -0.21994383846963994
-0.068472752148439231 -0.52098083812391094 -0.14245279807208089
-0.70244828811889126 0.30464067157701047 0.19313667554580483
0.48782258608225648 0.92010040493822542 -0.39678258769937069
-0.47711620847687819 -0.73985917346093966 -0.19029944976937818
-0.78426384294154572 -0.020833481017278443 -0.34934455721574409
-0.34919304318512023 -0.020410729332718924 0.77312562538767837
0.57330642328547177 0.095506997635319557 0.31733521963021039
0.15347677878549759 0.31051003781170439 0.63416031186934774
0.064516623825228603 -0.098537481292778173 0.75187618063745498
-0.30888425847670264 -0.087899866932070858 0.80645064823827783
-0.2221957868879012 -0.85461716984755176 0.78318689719348233
0.83266136782020217 -0.39147915037921299 0.58364820578005805
-0.27703020852596505 -0.43979224340318301 0.45108731155813153
-0.56479296319318606 -0.028895616072995622 0.71054707666645101
-0.33306290063500499 -0.43151772807184779 0.60001281975038712
-0.71094671714566615 -0.24939763853354169 0.63196763554275037
0.072201261547580581 0.76908183142825992 0.63791081794460069
-0.29417521204280256 -0.12379942850678383 0.79035413296376666
-0.3733208092034187 0.058930617428019916 0.76196790700437877
-0.48746142827870692 -0.27881224062400978 0.68062027650791279
0.47410989400057418 -0.14538145241859751 0.68674650575405316
0.031391251801511644 -0.31467794104917701 0.47377910695793757
0.22318210430174601 -0.32845535871910081 0.7635803868933464
-0.77330066323880364 -0.78585638345093267 -0.43647227599418237
-0.28572975053863753 0.20464891413213915 0.27896887486080235
0.70227939783517568 -0.38450317153135016 0.63128405438996671
-0.084329199578026481 -0.68052374060203424 0.51279870509703418
-0.30759236677413526 0.41700992877594512 0.61548034355415249
-0.33389672767697937 -0.16790089373761136 0.80928903298932475
0.14373807567585595 -0.038808528295612099 0.76855483917386946
0.084276264214879548 0.27810922569720797 -0.56557693328923486
0.34983357132834408 -0.51722193438768538 0.48429631186793065
-0.72756521259823281 -0.11926624820790688 0.57643047949058679
-0.43459060513510234 0.58357735573906055 0.48694151555822063
0.031211600447913546 -0.070366853735452539 0.41034822662018211
-0.46927300922720483 -0.74628914756278397 -0.12169654234538951
0.51310725059007067 0.63074496973734828 -0.32416738416266799
0.70543950607144157 -0.42730855278513069 0.68740390600518753
-0.49261669902977223 -0.29166969765312989 0.68391861139989008
-0.10159740604011888 0.28442735857731677 0.73871611896106826
-0.40019304248136178 0.44138574444071343 -0.13518017657870018
0.30114968472662046 0.64810613659894079 -0.2600627043542092
0.020444117295451286 0.29750081745993479 0.75135606116472342
-0.72013304844686465 0.36129423235605396 0.051051861084796313
