# XYZ point cloud file
0.0043505247256960602 1.045058320456085 -0.1201331303866866
0.18622742203035791 0.37206669978424523 0.52079250446885172
0.14133249054305658 0.032567950102057264 0.69083879414099547
-0.65809322733137321 -0.48922525204204947 -0.29972094988986142
-0.20236578688305012 -1.0465216079550452 -1.1575700628104384
-0.071308210218535173 -0.24958953878254597 0.47218962902666539
-0.50524004174383419 -0.023610118572756189 0.61252534967229799
-0.35353994178988424 0.051418075164631372 0.7514203718364556
0.68415243466359188 -0.22115183648549652 0.39479492752168022
0.3859134594328481 -0.61956384923168684 0.0096845621940111482
0.28310588016901789 0.50193587687337837 -0.070837476126753729
0.057128075402377604 0.42175869096668772 0.69232360558472306
-0.25083367797004091 -0.14637757214273739 0.66357076540068638
0.059322302497829077 0.48092617131068272 0.62636530002187063
0.21743439971461709 -0.034991684694815728 0.69571250234693927
0.26042569262541043 0.66154963191809935 -0.27516351606879252
-0.89127284404800355 0.86873621469573903 0.96358982147583072
0.12656085796099503 -0.18419816194450234 0.60008997767832661
-0.4434721387106651 -0.63115212953880362 -0.021901975211314317
0.1078091202493402 -0.87850605187120578 -0.54490849599374269
0.084792450275880504 -0.34165025114135172 0.22295811443755276
-0.54036124176524569 -0.048400579940825583 0.64787311751116294
-0.45450374033670921 0.29765472848871033 -0.5500510843555102
-0.77653776934515206 -0.82964586983675703 -0.31201291139203979
0.19082566735763778 -0.22671285586603163 -0.088830049184265736
-0.54377077671043206 -0.30856569872182882 0.57334800211512871
-0.82928849289452977 -0.85737394174614434 -0.38813378054300607
-0.031655989754413139 0.37731819749061346 0.743718652940907
0.35893548990341534 -0.42221425362718312 0.68662391264522316
-0.71511429404014759 -0.72744442879453264 -0.35416565050460669
-0.17308215362698501 0.49798650752706464 0.74101085025937996
0.18361213019610589 -0.057843096362533597 0.73923362093007983
-0.54181217350080024 -0.19539736859552637 0.63760293493089337
0.11799045131294439 -0.21308756413047014 0.97676013494596248
-0.038986736587429266 0.22185364971326815 0.70796831224405243
0.2917002044959684 0.94436959983759294 -0.29992558067214437
-0.055521013212849579 0.28220040818467873 0.71903422970751951
-0.028839281161143343 0.28610401327106127 0.74352721183222137
0.557613488055692 -0.36687847234676663 0.64008342691236852
0.25691620448428992 0.63435123076183952 -0.26699489715802105
0.44845107914674109 -0.47491057822281801 0.75873205806485644
-0.32584000903242399 0.060580595074132937 -0.31177387779863097
-0.5521213500541795 -0.59218414255053231 0.4394452819867869
0.17942162635602582 0.020109735177696653 0.71353666334787469
0.092045131752209519 0.00042885203331088917 0.73899581770884892
-0.66721095708750933 -0.16691986908746248 0.56487598218193891
0.26681351027124989 0.30294480712076366 0.2784850884794603
-0.19085412434371496 0.22950773888568099 0.36384059640086464
-0.17516736421714543 0.49460595238948701 0.66665767700217737
-0.1687633091219729 -0.15088461238066397 -0.085239651472148958
0.38492432850033187 1.0579748100978936 -0.34356074214368326
-0.4209851186242608 -0.94797264260680303 -0.80269037939853116
0.096942390943138695 0.3935148830564219 0.66475636907753199
-0.50832717193655119 -0.68228724748072267 0.05438634783502283
-0.37129040658007745 -0.42143462618963912 -0.37163405419138829
-0.74006105317304383 0.13086461643969605 -0.36574188839612964
0.25418514572311535 1.0261772914090885 -0.30257029136888658
0.34181099483098765 0.484139087911164 -0.20678805424937041
-0.13607287791997594 0.19646130889056712 -0.071188245625421365
0.16560823232413402 -0.22889863178623893 -0.17704950824124355
0.016811412329795772 0.10602069502328715 0.70420507432959445
0.01518917674554926 0.49254257688035197 0.65293894974833422
-0.3755837412176577 -0.24451417972107681 0.66845556430279407
0.18021847793319276 0.18951111660234998 0.0011181836185168992
0.69086998466151828 -0.33978602984644324 0.61653957850882279
-0.27025637143567427 -0.96489141736548389 -0.1121412283409593
0.23350264588226466 0.63692667533551428 0.19745951218789537
-0.51060838501749162 -0.10243597505147006 0.64733923433355178
0.29055973311257643 0.46021862436911309 -0.090853387392956675
0.5982365253564712 -0.36413703230423855 0.63465165325098649
0.033346928358860439 -0.059365819069918446 0.77532021203973089
0.18273797528013697 -0.31088716394482474 0.35638069331811262
0.03121029499875172 0.096174931417512877 -0.12041457088140339
0.054406018327284367 -0.062079261009602371 0.78061607122902399
-0.29898592537797497 0.26349713134906194 0.5488512154581906
-0.53754945910207286 -0.58926185820203858 -0.18837534155188629
-0.52222996755533257 -0.43082970744851967 0.22284602427107481
0.51312123500031359 -0.32731652372000908 0.35805323331619721
-0.020954790557805553 0.47078071251318643 -0.033907940386652569
-0.20681594223354227 -0.054392690446557923 0.68580003941756118
-0.22704919381829286 -0.057872933211328137 0.73912520975942497
-0.40078240342150395 -0.096541487468257525 0.77124927801256349
0.080754564413881402 0.2170163865791801 0.1876540357451979
0.030681125541941745 -0.036988049109416332 0.75356076213769185
0.21957041817194806 0.19492126619938821 0.041054162932167015
-0.28978130168281951 -0.41631144059207981 -0.45184575993097575
-0.51102897765634858 -0.4900629840076578 0.075852801780444512
-0.76281548009499955 -0.7073502000548203 -0.43834040248324913
-0.24365904616273348 -0.0057779178847181534 0.74625536910453971
0.51983783026145436 -0.23146661791247602 -0.059693091114599195
0.2358239125318006 0.17366711679808189 -0.47835573286808775
0.21986535300813248 -0.35137012801662837 0.4276755330778661
-0.51849387465600172 -0.65523772870006125 -0.028290784377997813
-0.67922983490279165 -0.61775127211427172 -0.35112306445088648
-0.2470213927479788 0.29322970808948612 0.62999495249526238
0.20635114242240721 -0.37434979535991864 0.63786346088009949
0.30094966314747151 0.34423025698682319 -0.14815529736633259
0.79958510004012417 -0.58185910159404164 -0.075640539196509926
-0.71117625508720794 -0.71168625319741818 -0.45169934123755739
-0.57137986366837412 -0.45107093479530991 -0.36260029197914512
0.27062610657023572 0.40745562047257722 0.47747552651419356
0.30287188489974881 0.38585641291223638 -0.28813927487914603
-0.084555303371468771 -1.3287142703704689 -0.098635506171229848
0.040433799573715817 0.53406302458489763 0.63334503363507666
0.14743676429963731 -0.2281373680599954 0.70514201598697079
0.0929834711567748 -0.31993137753159928 0.52019309860462526
-0.58716147803697716 -0.29206339834261419 -0.3807507943915458
-0.3871972061424217 0.030244013659094904 0.77494553232921359
-0.71789149137196484 -0.61755082548329798 -0.41767198657124149
-0.41894409062108595 -0.27449843772645899 0.64323664323452934
-0.093817267624620393 -0.16819709241468028 0.64043930480778122
0.63568594551193569 -0.47734219809982226 0.48273643497737972
-0.6463768638829821 -0.77849032268138085 -0.15802352210708537
0.0070366325549705566 -0.61634773436233725 -0.731191474453316
-0.32863042942521464 -0.61035848635261303 0.58016439023840016
0.86155152942483193 -0.46765658821778455 0.55705171758851435
-0.00061711286539736787 -0.3985530740807457 -0.71271018998602731
0.25541912109295073 0.68888680596683383 -0.25472476527655974
-0.54152592790391552 0.51611832602205809 -0.52757698579494761
0.10024628966043952 0.022131450518623197 0.71395907170393325
0.43775841511070512 0.32183656242891323 -0.30256473949385099
0.098390541133991635 0.99024993657370208 -0.10101067623219284
0.2299609628294681 -0.08950175919254777 -0.18326930322594015
-0.33902204680287401 -0.50585572524855194 -0.28565318827761921
-0.48496801705265313 -0.16172571793428681 0.6704673581325773
0.23346327976734982 0.66495050202921013 -0.15203131087055044
-0.32250007735646252 -0.12281697804700253 0.73220839500927082
0.077532212964556035 0.29819836567305447 0.69907579931022135
-0.43723706300625087 0.098673965283334164 0.5880940850443388
0.26017574466292104 0.61490181270003519 -0.27556134451660319
-0.17847809574519519 0.32949583748196631 0.73613922389662778
-0.20097339651550727 0.78858469602245718 -0.54165006863001885
-0.17150450346877097 0.39834864469871811 0.35822753971418064
0.21375890353048027 0.10453075154546343 0.4504833008660214
0.25960518729660992 0.78829816957659249 -0.33997537048710158
-0.14744729189241368 -0.18878316673084017 -0.033449393499272784
-0.32157218155846634 0.082707162375373677 0.7297023147523487
0.4274000548634716 0.6402548782765991 -0.36363920710842446
0.20602690169468033 0.78460008547506965 -0.10475863858122447
-0.075729970311169292 0.29544325713895891 -0.62846611215064607
-0.20729534721867873 0.51234769727472962 0.025771234302079837
-0.34786427214628246 0.08483840126470632 0.72136086240029451
0.088649953813424442 0.50387302107197862 0.60341690036816131
-0.42511132441190974 -0.21628473151281957 0.67738514360548208
-0.84782926758883237 -0.66395263757619394 -0.35002626934879766
0.30115390788565533 0.93763681842599711 -0.32150039012840248
0.66897342176657526 -0.29366334248391812 0.6196561055297134
-0.38102165269690264 0.11814662645384089 0.63524669905151243
-0.067723975930038594 0.63242002970634159 0.63158119957500181
-0.41077143330185995 0.0022324491308147731 0.77268326411505384
0.34644853545186521 0.88119320850112759 -0.33800074266816182
0.46711680269955491 1.0570934072156379 -0.43382941293551686
0.46223390166276263 0.55152447925113446 -0.3819876614869987
0.28098525949470121 0.58641900147998216 -0.27352029599041283
-0.251940624026745 0.37633751922552872 0.65834272953298456
-0.14709586921733039 0.39278667371399556 0.71426678734984383
-0.18389112133639818 0.35306125175718339 0.30227139917971424
0.22411325189041365 0.28747427324726971 -1.6763954898522728
-0.016378811840033258 0.34987689362313201 0.74697878814765351
0.24957830983252749 -1.2243025392941158 0.12420716468638981
0.37950701718998137 1.1654027733970664 -0.34828356170975017
0.13431164928009326 -0.061088270993905791 0.56517690473056748
-0.0035972489570289257 0.13597863608554395 -0.59500463795189518
-0.55194249807070184 0.15115779080836433 0.58042281708148291
0.55773744212793452 -0.43179844444497006 0.67787347977489687
0.36934103838961407 0.396109989008816 -0.26499095771927139
-0.54566690648754812 -0.33945588867131593 0.52458328729848525
-0.16128879676131153 0.5125764207594119 0.54715950991681461
0.21785303272222378 0.11635606871421711 0.4257717021430415
-0.44120534001739431 -0.56322396436983202 -0.014276038773184396
-0.0064980529466717174 0.29904353710454368 0.74728405846249357
-0.63537087470771514 -0.15150660791786863 -0.15174540026472227
0.45741283009949096 0.89423129370790089 -0.38323334433303768
0.070698483887603109 1.3305056489209204 0.23457055571646135
-0.05449586506804327 0.25102474692404919 0.69972868636772589
-0.66495422456057685 -0.75559725189646076 -0.36359086602301049
0.39607000696012923 0.5911483076223647 -0.319965749145807
0.15430933105226188 0.36431114016480004 0.59425163642224099
0.68908772074949654 -0.34721478879982315 0.34599752745461054
0.36296606081868926 0.57474020584372632 -0.29678584483301029
-0.088913008653157655 1.1093710191144368 0.2488425942188297
-0.085189006480695689 0.42527228276560014 0.68022346287713098
-0.14409494499218384 0.31935202552276709 0.64807750738787739
-0.029361879169642946 -0.10428320810589753 0.90072557784060514
0.57417180950583757 -0.36559687665391349 0.66229971146519406
0.23823544890439041 -0.20432249916407774 0.71648584177233943
-0.053194775537798888 0.25532616139175923 0.69306903382339158
-0.40477882160242878 -0.33593746332178731 0.49735522405149113
-0.19535181777860691 0.30979136650457484 -0.47603823997998163
-0.24795078489766545 0.83833028978592972 0.37795387412800929
-0.24807144009672949 0.4344224224020854 0.73208537828566267
-0.041695084691293016 -0.0044196046572189118 0.43335743762776291
0.1152195251921132 -0.070044941679955119 0.76997656030428141
0.016653210380796951 1.0572840316238417 -0.23325932477593658
0.32346476293865895 0.52973740648729595 -0.27016609584945972
0.27950340595382572 0.26126152653701107 0.016725719085910806
-0.63525054960001637 -0.47268731010040588 -0.25718418377597274
0.14023394316886517 0.2915922654648897 0.63301030593145691
0.20193673410725285 0.71992757557162723 0.13367246254570375
0.19203742759808379 0.02595391128526181 0.66028947113458658
0.049660001820636512 -0.14772881265895621 -0.31765165432898113
-0.48807569885942931 0.19199999390468725 0.50597601307283346
-0.57952665123651814 0.098121777309537972 -0.044212334840317835
-0.44021985664631219 -0.32620721943278119 0.54770291811289096
-0.022944049072762901 0.1126472779481793 -0.084240783684128129
-0.066094122680306733 0.14592269057928475 0.70178053241710958
-0.68178426579565965 -0.4157708786954244 -0.35554034409195645
-0.22327576224237988 0.24335238995763731 0.75291502588323767
-0.13667903980821172 -0.16873551974560197 0.66902305187142708
-0.50283809365277965 0.0047958040585083239 0.67019738047333455
-0.30561723535671453 -0.1086196451424013 0.73638362791999756
0.31531696506398438 0.90307542536867857 -0.32829163579980525
0.36788095481779154 -0.83817605978988929 -0.65233078365147701
-0.4300985185089341 -0.1471889321550679 0.055777918968236584
0.16991011195005423 -0.028498390257060136 0.74928310743685067
0.35743920999398243 0.53412977286608609 -0.273312165405725
0.89290680887787843 -0.72656086231124739 0.52044233175842725
-0.58061711135352434 -0.07657811165123185 0.6423476748732222
-0.54416271899882607 -0.47584688461225444 -0.041095406141326452
0.012845477826065266 -0.096917962413734848 0.011159015857757915
-0.80927370304155666 -0.69062828267479959 -0.46122222331200136
-0.54379760453237702 0.07153633374938928 -0.47791157444008547
-0.72468801571379893 -0.61035048686469806 -0.44307662183167085
-0.50791156523246794 -0.069561706479634333 0.66254151060178734
-0.038737373612960369 0.32784479968484059 0.7509772185344008
-0.081788396006105102 -0.18763900601313099 -0.14242707211136163
0.31610550841236151 0.35640032368968022 -0.2528428535678211
-0.51834838223150015 -0.15721495449123846 0.65878271201107408
-0.31438511564127936 -0.71081726242751353 0.19002051487171157
0.182966359320128 -0.38236736282949368 0.53134736003769012
-0.12980015568217923 -0.076849059478514503 0.93893868307102712
0.40273315973262369 1.0232378482797644 -0.42877301540280421
-0.79364037429237388 -0.61871559303149426 -0.48434286644160207
-0.096782777703932926 0.69889758787056033 -0.28056557226562473
-0.41689636989198914 -0.60191404463916642 -0.025114781434137701
0.097398739233666376 0.52832696361691234 0.12661337976829889
-0.012115827883488944 0.30619804932294548 0.74854912735502566
-1.0973621497521264 -0.17721694152627054 -0.41242107559215646
0.26367609747375037 0.85653185414254218 -0.25893781012453865
-0.53784208842055059 -0.70239433509411264 -0.21141458354568354
-0.42034455906378965 0.041095671462116679 0.71899416720394038
-0.081422044643153391 -0.21420676073581379 0.52152111677684232
0.30047581766615145 0.62590691647333041 -0.29765710110507237
0.30493195608165935 -0.035519957480038 0.36539519399013876
-0.44853103361657737 0.094969665680024296 0.69008403952334785
-0.53911661566130009 -0.35034774756897025 0.47356073691718659
0.055156952402975801 0.1393452123613077 -0.037930303124875442
0.27691538476264871 -0.33618584728227319 1.1296431791973853
0.050808629906409664 -0.28984880706435256 -0.17215705449757746
0.43278626520501562 -0.58515018400034746 0.49589028372280897
0.14045597515074448 0.039097633162538781 0.69129626974476088
0.31792936021937485 0.52330674101108454 0.73183803762081623
0.00065661500066754863 -0.82515105461245075 0.25722165441814893
0.096936943980606705 -0.10509612098153176 0.75444646537249693
0.068660661491539987 -0.045015431151593344 0.77426569838615622
0.77482645021579777 0.0050418683248512064 -0.038302658287532987
0.50966116228381508 -0.64669854378595204 0.131442790905127
-0.38720255976672996 0.1913476116036954 0.51748591916193676
-0.6628955268944432 -0.21052404000408087 0.42093244181037526
-0.23006764200227064 0.19571906294081143 -0.68385057733275245
0.36873873501944449 -0.066215927925014073 -0.0034745891003169493
-0.051515005943386705 0.44984367567079775 0.68785799462541164
-0.26743691726022767 0.18432118401209974 0.75312159460300121
-0.55456203556720385 -0.56830023512532624 0.33172763003447936
-0.062521899809959591 0.71878224177487482 0.31794568140353219
0.26847458386111356 0.57577873925350964 0.060483628667088007
0.096038778260440383 -0.10153158204697577 0.76070170777160095
0.38116004179707824 -0.36388282774721548 -0.061947284819501069
-0.53847635827467755 0.19093524433229447 0.58711226853707843
0.086160431904450135 1.0201423754301051 -0.20584435744659779
0.67128528776960161 -0.34088600649769463 0.59860577585948815
-0.62239289784977392 -0.3534718026325534 0.049860296395818349
-0.66140291447210087 -0.78308043872336541 -0.25811854441883808
-0.70750475479061237 -0.52180110288901949 -0.39497730860889591
-0.64701229468106358 -0.13860770624566032 0.59743628161428086
0.22300843147322852 0.83042977824659214 -0.19061531564238232
0.20880291090223763 0.056262733137610654 0.49346871713102747
0.18099020895916373 -0.3220963879417178 0.38689352020470369
-0.37710262840465336 -0.4215429155720074 0.2790007975456088
0.93120259146551088 -0.96729970377728658 0.75660671143838854
0.6501457158096392 -0.52089526456573676 0.46857080055926126
0.15255437072848166 0.48586645577671805 0.57872404461594096
0.78121253887327735 -0.37562403956599866 0.54341943519074465
-0.17109214133396117 0.50031569812303656 0.47299552294692071
-0.099781878745274111 0.63079364498679258 0.61527990067618799
-0.31845212943462686 0.31398203210281594 -0.65834717554607602
-0.15631985417263147 -0.12412618947938592 -0.61139359891201883
-0.34070443394886468 0.0069998005045543987 0.79146188486910973
0.23701980745819592 0.99203097800820017 -0.2244718618595275
0.080922094059314081 0.29524508240840652 0.69023649965155609
-0.15337810146422326 -0.51680690616785796 0.15860400625152882
0.51019591029896794 0.79719027265925102 -0.40116132245145841
0.47092679366565648 0.6307030892234593 -0.42340617366733779
0.32487224404099219 0.63158099530502065 -0.30599406811872398
0.18467913022653981 -0.48288571603635844 -0.61277297675590259
0.051436062821130613 -0.28723476295578876 0.51409399971263969
0.27251163801028322 0.53306573127071077 0.3960818199494196
0.1537734714547222 0.33625002527691361 0.60051653079051381
-0.51266463861338529 -0.023787974739002182 0.58479056665190043
0.71301640648019249 -0.38956171591886091 -0.24101626547757882
-0.56620699870589208 -0.47467597525787997 -0.15755280387127946
-0.61677111016841635 -0.12283244781018432 0.40679657137383507
-0.32744710465921639 0.47674928726829946 0.33159259338462233
0.026809907017039669 -0.084204372528917659 0.7546438556240076
0.57742422060823062 -0.4756410395557471 0.63860773677062754
0.36252770095881603 0.72550709827566395 -0.34023006291259006
-0.46210770614122987 -0.19087962289733351 0.6798634979411915
0.49212625742455224 -0.19803192718663576 0.65228551950744207
-0.36056032000083549 0.20694054877798318 0.74938229895297637
0.70462458257767047 -0.44248698959661681 0.43612374088177353
-0.63147197218326312 -0.11988042286746081 -0.035853436911719383
0.019804343852800999 -0.065223959382503471 0.25585519859263783
0.36833677904017698 0.86716310837659849 -0.34891547263360023
-0.21987129404294808 0.21706577934326821 0.11806031048425147
-0.090855998994757714 0.2624099261860724 0.71745116749308235
-0.40934068057642203 -0.029982562745315411 0.77748289659330205
0.30518562718840775 0.00289485313225879 0.46174126637622925
-0.2130516331663205 0.55945413911501207 0.5956712589491503
-0.061621011016335159 0.31938825618476718 0.7420288336576637
-0.23548966481355063 0.62370452556222689 -0.62276293765244695
0.13746306763836608 0.88844954137522092 -0.31153079159022756
0.63374536408024718 -0.3731663946169741 0.62471919888045369
0.25611615453871506 -0.23342878195036332 0.25556244367935288
-0.42903751958659164 -0.094495368315428374 0.7566670286141528
0.13990550414130926 -0.22220835206751888 -0.25646168505928668
0.26177472484425435 0.56309359616852417 -0.22162729547948978
-0.25701093219611837 -0.096514951003960903 0.72287399660347074
-0.71663818024356185 -0.43977263617990647 -0.44275983220984272
0.087939530433091384 0.31147160937085894 0.69266504869799561
0.737439963769283 -0.45055288145533812 0.51209276643905444
0.25959317515955294 0.58490667876977809 -0.24767514126143964
0.14038034818306308 0.47385430653512617 0.59074244881929583
-0.1541889046008178 0.33693445901985175 0.72161413124385265
-0.57267753456693193 -0.2860741303498171 -0.41991884764793852
-0.38944316567446491 0.037957752756430096 0.0079467048316568256
0.18881132554436914 0.31498071018497953 0.23276405721748006
-0.087874501931294272 0.44359373823598247 -0.64093455663590049
-0.49072636162042543 -0.7301596279001874 -0.31729684610704956
-0.039070608133140464 0.9624514956265231 -0.41074172250135865
-0.21848971949665782 0.32113542450481192 0.7568410304826646
-0.36802416965619006 -0.55567457701108069 -0.085203229734347241
0.33377579476122643 0.14539550124790468 0.45142051900568192
0.038615141663274316 0.51777387262851349 0.64184697347228747
0.29604151178225258 -0.01587966604985791 0.61042177061623337
0.34041516843875275 -0.0091735781713502274 0.51673935361214485
-0.64074046909147175 -0.17853761743152741 0.59644178596683606
-0.076559847193454988 0.45750404790438659 0.69480033523171725
0.48922176695420316 0.43946738107065531 -0.14409870818680959
-0.22568248588374396 -0.097256158050230024 0.71445023959268172
0.032121172571651591 0.28222843159796374 0.73360636446412508
-0.59917582557004556 -0.46491543701710669 0.55273000850863663
0.58534188131229636 -0.2949029945038939 0.64867704825780059
-0.0017512916049151062 0.20964396718973721 0.69831175363006914
0.064351530482287478 0.83355536023135901 0.1950768529996203
0.34901109557191523 -0.18080849580798275 0.31419498948813596
0.48441753715434616 1.0434813033975212 -0.4203836005003484
0.19857322769826502 0.82460592605187766 -0.29447153611966881
-0.79509303986521451 -0.72500085167321893 -0.48046940349011513
0.19639514673256622 0.41065034984006155 -0.047361288723154815
-0.80336411034995892 -0.64495211401040431 -0.5940440012681516
0.3235765113084963 -0.048365869317199994 0.36463371697346214
-0.41647288743258548 -0.0020022242125685707 0.37320772232008737
-0.060772020147117051 0.98917344587144118 0.022596758837157283
0.39456915221168409 0.42482033603170577 -0.28820500987056419
-0.043942561300145955 0.49914894093711037 -0.60714861340530712
0.12212618315402082 0.21103064915404923 0.55577105785345537
0.12861483231792781 -0.092666052508173058 0.7542351537394627
0.33309041289165819 0.91650595008671076 -0.33850244102616256
-0.31277301206742514 -0.77995411205626974 0.12175585554010482
-0.24438505168366742 -0.49719626083819435 -0.053191223575288493
0.22600815189381274 -0.28267549915301471 0.31802430645420499
-0.69639526705661758 -0.47703393880785561 -0.35697760985895011
0.54863777247383316 -0.89423506748975323 0.6787718025052254
0.69695186766274109 -0.33032603572332331 0.61555008111655551
0.33609648450562668 -0.13794275906169551 0.30660160506961343
-0.67341554462502629 -0.10108734029318933 0.89649418293335881
0.35068987819324349 0.83773107656131507 0.016681727684933478
-0.0084145005302148357 0.25746101801710464 -0.59011568588373742
0.16506361923272328 -0.13406938284399228 -0.010349199173971479
-0.10649102142517594 0.44350646875765753 0.69842327569707685
-0.4689284000698607 0.01102239630822166 0.69659145923063659
0.44034596863772146 -0.75403458493497066 -0.045963274274469113
-0.061116609361917373 0.052544906100211453 0.45804359264649985
0.19214776312179732 0.011827996554135245 0.72094650030613194
-0.28616884793095826 0.11028496401374022 0.7336292110234266
-0.13757523985766146 -0.21863607566858279 0.5661817562589615
-0.56344179759988178 0.10767494412799827 0.6045942928210899
-0.61378847495164368 -0.36845607195884411 -0.18979669569223523
-0.069423469072839472 0.44883828245486646 0.69752708644027483
-0.098747952684696771 0.39385437480010155 0.70372318852229487
0.51343809450981981 -0.33078864224881599 0.69709194524067142
0.039627982914100857 -0.047895120136129954 0.77251428873082095
0.68083055620873567 -0.26721594089569645 0.34539747887488714
-0.71144329721942645 -0.8101498887983174 -0.28746043930249843
0.68353605258486139 -0.47086537973161557 0.19699081424876907
0.2272753738113229 0.13885543567804226 0.40813027804586055
0.3823929059185367 0.86410334892881902 -0.35907715540433116
-0.46526358242953059 0.21032160202587669 0.51512673792215491
-0.37721446602956665 -0.35256933288184666 0.3551821091448748
-0.2516004004463161 -0.1855641199111735 0.43506355828379695
0.1641238620833505 -0.081374338163323845 0.7436137571441328
0.41735808483956344 -0.39939544036066343 0.70552422038243834
0.016439564700693743 0.28985395317010409 0.74121851997777399
0.68270083648100521 -0.24293862659393839 0.36599693796706489
0.46107387088755186 0.86304151226927406 -0.45312213750027075
0.28485523731165718 0.43741672703958434 -0.31699165561685527
0.21010399702256205 -0.097998551795414945 0.70092714352089747
-0.36007068813338761 0.88294286623370044 -0.81261927407799162
0.061403395854159437 -0.60089533454500788 0.16411041530319359
-0.37883560357766211 -0.026574247315478638 0.79169354099452094
0.0456360519806841 -0.085591188404440022 0.77734577211859945
0.29017393635049005 0.32370927047785369 -0.0012704953166855493
-0.0071613877863438979 -0.49362942401868848 0.36526279643632131
0.088689124358853122 0.37129227192615821 0.69419648651844335
-0.28985039497981707 0.65134637324133982 0.36021599336817978
0.18054156673557331 0.54089485024890394 0.2127271703781547
0.44502215578069582 -0.49065330799811369 0.65799460970554047
0.12938304397756811 0.46632972065984912 0.59394897154977833
0.081289156799980583 0.070903128436119678 -0.49756228874341502
-0.18673534078573537 0.70993364537193426 -0.59702392450120823
0.34988516716747564 0.73840710869445769 -0.33251085008147818
-0.062801549649094679 -0.1719683746371361 0.60860442829834915
-0.4532098537303208 -0.35918775722910201 0.43388893410799279
-0.1405007886666273 -0.19055056144718518 -0.30161000314427522
-0.077845414934237855 0.13481385780750643 0.99236581930737744
0.26122158642325571 -0.55322897530927229 -0.11988633305170704
0.1417396604850967 0.9107860413392983 -0.084472127655369933
-0.30826199911089353 0.21367714217887701 0.74604092372897046
0.058949153482801386 -0.19942965613905828 1.5815014816108615
0.32849504428544968 0.47908654411502583 -0.20957174308754878
0.80488256915574308 -0.3738953638554301 0.51312228043523667
0.12611115146843641 0.33929915574767278 0.64174600112165303
0.51564629620207136 0.8837439893432617 -0.44109709984872963
0.34493807220551997 0.49779558603967788 -0.22336505214298885
-0.46986791788108995 -0.53606810326613052 -0.030773791589886024
-0.66680995584660496 -0.69543739455439058 -0.30459027473487543
-0.11976940534062031 -0.21754267437447261 0.53159602158651587
0.3488141818912609 -0.20848332747381781 0.1303968366462358
0.0092491700852828651 -0.21482624527931948 0.59992385593679076
0.24219154247005883 0.51747072009668194 0.4772348395327759
-0.067814317885651121 0.38614405564122367 0.72006174939093304
0.015070724719978279 -0.064249288312346442 0.73471420862884917
0.47028535983997105 0.79495596584646733 -0.37982603207138299
0.31338164748517305 0.06902673222571809 0.83893938242412491
-0.56012856408835354 -0.13918356564691603 0.62992237824259512
-0.054398471748010796 0.49171978295856311 0.68084964391391711
0.07548267384601981 0.62191827977615532 -0.14856698618353414
0.36307812472436946 1.1166195799369456 -0.31167263651760635
-0.39911304332149666 -0.413582430731253 -0.13283546921571121
-0.57017264124940792 -0.14956752456993105 0.096132928925620975
-0.65760077179679732 -0.18460475665726395 0.57894401151220398
-0.54093346851756507 0.0018256309256832193 0.38400274436534598
-0.33208124017204366 -0.092622301195988133 0.76582184157153144
-0.80719356429189026 -0.82505893139458086 -0.35328307778843793
-0.57860735878583469 -0.34749600782186785 -0.37137222705022954
0.34616415118309457 1.1518042559951045 -0.31685081393719272
-0.78637696960143677 -0.78879431247595733 -0.40443065490237284
0.06004814192006247 0.42796360713544956 0.67986988662971404
-0.20939198756744989 0.32571696618080614 -0.27339820566054096
0.27115816062058651 0.51824692698802211 -0.11401835147365669
0.33472372627388702 -0.34839915394492049 0.70985088440395416
-0.27168385145023827 -0.062066274050300629 0.75148361782060702
-0.4852892075268726 -0.5718817048348922 -0.084210067182423964
-0.74008514272487691 -0.81829997793532083 -0.28483355448337377
0.0099453000891038534 0.58188049753674487 0.668739343749713
-0.31892785336260654 -0.26294997648556784 0.64411686654386013
0.29047211027918418 0.37467203188481935 0.12764127887258792
0.23125982999510916 0.82528804907183506 -0.20083448077083588
-0.029720320079910767 -0.45747761746332793 0.074009676479910746
-0.62089622502436703 -0.89241924554816376 -0.83309633413892392
0.69678016027683043 -0.28433200434740935 0.59128877576220751
0.27401980388651886 0.90062245190194257 -0.27545332282162238
-0.44617347486514125 0.60128552929488066 -0.066360010655523216
0.64184072940495907 -0.37788281640687726 0.65228547501086087
-0.5937753087224853 -0.58256514469111176 -0.26361227746465432
0.11236063889615577 0.15593283587020768 -0.47518043921981601
0.11064423903761528 0.20570262224368285 -0.23381732309600411
-0.75410311768992622 -0.50269138552005288 -0.45822913759143158
0.47532369022906917 -0.50140104869348634 0.5087571651060927
-0.44337079561571802 0.12018512872246623 0.69587989894451807
0.65947219453681594 -0.37207101753447125 0.63834385343620315
-0.09984312647754498 0.4383326308606128 0.69946114039152807
0.49367533597107183 -0.086904040201569721 0.52470668535654863
0.26880393590845075 0.60217288512797795 -0.2828517631718761
0.038038156883470564 -0.097029994511132811 0.74121993580708012
0.59553627708539392 -0.29489735486967805 0.62436563908976939
0.26811841371626138 0.87873044771635045 -0.26593508777690567
-0.37028542031213851 -0.16740737881533541 -0.44654759868788152
-0.1582002855426147 0.59440154466386796 0.56912744868871668
-0.75974958778405111 -0.48743879793421474 -0.49057502712632006
0.29840632554789293 0.98742008942646997 -0.37307780149914771
-0.23136625910110675 -0.63409457839780781 -0.71238732728684173
-0.69695176936290681 -0.42329383606730353 -0.40789586378822618
0.42062654251371623 -0.35415173375665954 0.37397424729796769
-0.10245286704683298 0.045160205381860941 0.045099293849868882
-0.46292552460148761 -0.072731186263561121 0.72181165309333295
-0.64246125377015062 -0.63754086042236779 -0.2955651645554187
-0.59640725335914213 -0.53802493322546208 -0.26358928856585973
0.000587829550907637 -0.21725235521904529 0.37891934879354339
0.018070217451522097 -0.48573002259236353 0.40752813733343318
-0.29456188469225975 -0.021429596912261539 0.78535876552165051
-0.26990189364036876 0.49843532402465418 0.16484466343490556
0.20220972655017805 -0.053090114591641147 0.72344511638647258
0.32557503845955182 0.73151746626099978 -0.31685549024431736
0.53965443696167426 -0.35442508630180991 0.66363645981729036
0.061495898576758329 0.32690495196020697 0.72206174818681945
-0.065443287939984107 0.081824965396759541 0.41560527204185771
-0.08542067760691513 0.22385279598863295 0.71170459553798993
-0.6071690932144258 -0.25087008410391309 -0.6019242201590973
-0.13462596267367788 -0.053097925299212756 -0.81082519543455589
-0.46224786652510336 -0.52441379326425819 0.038040451842072498
-0.22518636727470637 -0.46707754662792644 -0.35999954130225542
-0.58719405770734245 -0.12182837293795212 -0.42338309025286192
-0.23709830366490883 0.33786070440442262 0.55843526874084737
0.0060765054222329251 -0.13883849432940409 0.68923676275147927
0.96524484013005973 -0.35340093247818993 -0.080417005759707449
-0.29865471197466298 0.092294768209795208 0.73625174978659036
-0.51971681712602769 0.04976484476461418 0.44061264959343593
-0.39368540411725528 0.077606499925831907 0.71277242478939562
-0.023143950289939513 0.27056722610655903 0.55440162998422504
0.094117999888641363 0.54430143951609811 0.60150936131472121
0.087912256820005641 0.27680493709910214 0.65462541782578654
-0.091386589805935392 0.18739164295186272 0.70838860185978747
0.22487090756128877 -0.19555991473284129 -0.41975353962276118
0.17812603084700754 0.38544848169411861 0.58133573695827545
-0.60057591280675071 -0.42388707070760456 -0.16764847378534697
0.23113471166263161 -0.26166004561632983 0.26808414252316171
0.046588488443326859 -0.0074283484099046948 0.57464227576188542
-0.40027513466385362 0.14134205549242052 0.71363442812546252
-0.60256807895910591 -0.61913144311847224 -0.25878789166020666
-0.13772656781619469 -0.26339368306517619 -0.37651678538414113
-0.7520054442091535 -0.58784155314387787 -0.55996276222946006
-0.1790401777648388 0.63104634434514728 0.16599925573364926
-0.19055989956216049 0.40451477264498137 0.74292035083235941
0.15729844475973667 0.48530749446980082 0.49090524236698274
0.23655542715327776 -0.59563342275326814 -0.60116921296835235
0.30058706449906691 -0.46051903089775093 0.5775975938392377
-0.40828824863830004 -0.13814450021583702 0.72318349532449888
-0.19111528591206151 0.16794415541064067 -0.58517135974660794
-0.15193155492824412 0.31831500217136766 0.72232082048868962
0.11453805872102418 0.02996989622644608 0.71800113477147831
-0.13646389119314362 0.021775082223808084 0.72622724036087893
0.45598948473233447 0.88518601086810889 -0.39934749305478834
-0.75472191693481827 -0.84257457273697201 -0.27308026888396375
0.029984346216820279 -0.19063130164580655 0.6538900837347652
0.013534697499239107 0.43868837392543769 0.70101032438585831
-0.59201920538072339 -0.69356828853447516 -0.29476574542174094
-0.27934728663024466 0.055844548988534859 0.73528684859836324
-0.30258390024498105 -0.11026966445712971 0.74014066867696338
0.7772520267321098 -0.13937739703994545 0.20148467394374858
-0.78534295430386503 -0.77163917921425451 -0.44206884303342098
-0.3115256404556952 0.49745792489685314 0.63286753122785255
-0.32395665316740158 -0.17302497916892023 0.71086476808182675
0.90000925013399868 -0.69776238444804595 0.67520551393145867
0.1299799997501471 0.4248983894450411 0.59639359833886285
0.80823642041112231 -0.39265706384672394 0.39719007064735412
-0.20726066208699961 0.99620409681646893 0.0093049834055420888
-0.6194210534579524 -0.17787795872838275 0.3200837413164952
0.026778525689524935 -0.53831852744622477 -0.43476174969907833
-0.16484130742201764 -0.98589675503182828 0.1436821801788486
-0.24344759718477435 0.30321181298022104 0.57971990447032218
-0.48323391074027022 -0.48092246286966378 0.66590179575421371
-0.32918875266624087 0.4782761319583051 0.26708532894517378
0.02645549487938828 0.65712971774783013 -0.34922323946769052
0.26323359407637431 0.91115158452955902 -0.24741910606281003
-0.22247622219889363 0.0089931444489550483 0.74146939088547614
0.19869279830691505 0.46537090451319196 -0.38300928863234807
0.32499196992593682 0.76716182687626211 0.85094693578418867
-0.40256610196515147 0.037612787518031876 0.75972934464024555
-0.57997093197275185 -0.17798572267146762 0.62061169013291351
-0.10890872177600233 0.65174054653803237 -0.060225967012705106
0.025767593326414484 -0.28350524545936029 0.42523518216730305
-0.24051846830964188 0.29860731019905873 0.3182513126543054
-0.52810860971027662 -0.55044511356807435 -0.20875129234870915
0.72019790315835652 -0.44469073876326304 0.56215127088952555
-0.39314072743431272 -0.57485412957258664 -0.029286826825073886
-0.45673319448215022 0.02422454451909517 0.69593836199181269
-0.50764832069152077 -0.12473951844510989 0.64785645238336564
-0.35447311678323179 0.11199944683786645 0.7266253269309737
-0.068902317240814165 0.33459551448830216 0.73561816254875767
-0.097431957466339536 -0.026306472141417903 0.74390939754203811
-0.29695875080120715 -0.58784356409341032 -0.40259112863853996
0.20031484095809388 0.80562698537178967 -0.12505477269113108
0.35604471025490092 -0.19880767114226439 0.41798424415980984
-0.55754714446487363 -0.58100806411893435 -0.23764864174594136
-0.22904809212807886 -0.43093456291633792 0.41790065323140557
0.12082135353559278 0.31795456048895887 0.64822690641461944
-0.49206367604234252 -0.10914451649258239 -0.26898529740783927
-0.36122325343101302 0.24992851776844605 0.61527271576126008
0.23350904906260683 -0.31532069096647009 0.69878468633481106
-0.4440153967406153 0.084661911497776021 0.69262974523036469
0.29173916057673449 -0.38041494201666115 0.6871004840037489
-0.232054336315832 0.55386160554328012 0.22356739187152352
-0.64305359167142795 -0.30109181687438635 0.44354823353157347
-0.133386141714573 0.90234957297119878 0.49944841835794374
0.75352635969555803 -0.29849131925707284 0.35819818527540803
-0.33490941323360313 0.54116131207652418 0.2541411093261684
-0.17927297532853143 0.9414250682756764 -0.36357562136020749
-0.35121502931637244 0.058406829979329888 0.11889876815879652
-0.63087740344623988 -0.072132580980924343 0.56808214175269578
0.28313056765606665 -0.45263784375373417 0.54329901796363234
0.66735702396929797 -0.35509702875440952 0.60391038301151811
0.34845514886950602 0.51726650702621924 -0.26393381069220812
0.28701782488350247 -0.16751298929425529 0.23931853568841843
0.65904709850066934 -0.40723329992227741 0.63864726251468196
0.23450785949154956 -0.068492937076321869 0.42988403780012585
-0.025742666925972713 0.5667530145250721 0.68553713973616381
0.21847685353407997 -0.26686972929124408 0.23304070856880577
0.61544719693003802 -0.43258753241103909 0.4142140938395118
-0.17319260231360617 -0.44388794704259582 -0.45440893267087401
-0.71274171667919406 -0.81355195648939826 -0.31853325131063737
-0.24738160345362256 0.38004808648736321 -0.27232419579534728
0.21698541163035001 0.7692117138543908 -0.16584245408534082
-0.031082429442540555 0.59980366841755073 0.68042496816533804
0.26938164309476331 -0.23817932706976941 0.52348252946036622
0.45899278764945273 -0.21580774416179982 0.67178101744785446
-0.60344614755678716 -0.4970432499642099 -0.23133027142857321
0.069431878515284984 -0.3013580595257217 0.47927337350503185
0.77761468871883777 -0.39413119155860965 0.54016508911637884
-0.31488848118796153 -0.28848114957438709 0.60223246717972678
-0.43286459220459322 -0.21378618394059234 0.57064067008399899
0.072194412993914436 -0.40881740183440463 0.64492460887618619
0.38819923282284496 0.89748447575798274 -0.36442236797057659
0.26718191628329718 0.43639024655207881 -0.16709537468347568
0.17943244042772477 0.85076745416744948 -0.21288234250017868
0.36226705478132526 0.99262866183907406 -0.37206020494909708
-0.33775889667475056 0.60270363625593859 0.17386855545457636
0.22287725387989749 -0.053445652538782529 0.69094202710305197
0.14583236946491202 -0.030553079207003009 0.75840134414884508
-0.3158933816473431 0.027477470883136679 0.77610101636954343
0.3924844196221931 0.68876855608563781 -0.359766114109212
-0.1854512228545365 0.61837190754964411 -0.0283983648680044
0.55371542903760462 -0.17702671143748305 0.3618342291928367
-0.75138218254892464 -0.25758085944629183 0.16740174773019878
-0.51018820174456314 0.13749088306722279 -0.97420667658901261
-0.57279247740250805 -0.45051797660352788 -0.064693611152721653
0.24242599765306133 0.96247989496013497 -0.31497335946989902
0.32842485461724585 1.1291193749403554 -0.34723508752848153
0.48205318261009439 0.92244149095601902 -0.37565722798871437
-0.37239207753930614 0.046518719285134402 0.76305607861848479
0.33260405865079523 -0.16211872617025991 0.06140668145325634
0.08215079777683193 0.40256668001357188 0.68197610560200395
0.16613268077049478 0.36651960704270081 0.57063963792830097
0.18074735567261191 -0.019343958553356799 0.74392273879258597
-0.064314401099669682 -0.36607476968694441 -0.26159954442199296
-0.11149084179877414 0.49242108131860851 0.70684003147694774
0.21290889416235126 -0.11603686545743708 0.70314527413397099
-0.029394152607632673 -0.29235278061268821 0.38891356197292803
-0.12080756642094304 0.3126271869414603 0.71929616234893401
0.39906705259164477 -0.085611143758339558 0.38786824901001504
-0.36081299509898912 -0.072577953281814933 0.78986814717750131
-0.51694010951049085 -0.021971078151480361 0.66170218452853269
0.49506820012627711 1.0095926935172923 -0.43013758265389673
-0.63618939048059331 -0.18789872603771673 0.036775120849884102
0.19240713100822521 -6.9807924389930776e-05 0.73407934427597454
-0.62077913816702557 -0.4422607415296208 -0.23133230728252863
-0.54419752705686175 -0.6544994466041657 -0.18626804869025748
-0.25584665979640331 0.021281861657752366 0.73419680594891568
-0.45088686267353761 -0.079462493977626503 0.74220978126207182
-0.020275152774805127 -0.76688907150791064 -0.15458541459227293
0.09875724624913354 0.80180351688134444 -0.41970348714854877
0.069902549017683779 -0.017783251484639884 0.71314081508003402
-0.56105216004033065 -0.64664100443458761 -0.20718546490868572
-0.029666231294537881 0.65136775046167927 0.58947738611754619
-0.27619108515594692 -0.36906805360484474 0.04358413390661342
-0.52003985922910845 0.41114344049427154 0.069020102769136504
-0.59810713748141264 -0.54868532585515539 -0.27011116051986162
-0.073679859442575935 0.39098789020920677 -0.61360369331174813
0.00035998929003247526 0.2744641324132242 0.73369482957067755
0.85009558143415165 -0.10885288775873403 0.00039905418505836732
-0.78221927205440678 -0.70075102971470504 -0.48774879371133761
0.20810736663397017 -0.027220921712578727 0.71797409920884392
-0.11336687872400586 -0.051879088686890729 -0.62046143660741004
-0.21944627124359986 0.26850680129663185 0.7537720905628249
-0.23419180517430527 -0.0040533628956673784 0.74974869743831518
-0.46135660153970753 -0.28389105345572041 0.62847171978694161
0.019212770717339067 0.33851685881354721 -0.16362087725805441
-0.38677872388124995 -0.49199966568809406 -0.24428076320431447
0.35658044196268446 0.084620593611538508 0.2382836989626822
-0.55340975462359165 -0.760138996374363 -0.1417932989908044
0.14001669933869751 0.35387240832950972 0.26968459590368798
-0.4499422826819276 -0.34701023830010835 0.47907210203856132
-0.64785675809614229 -0.5774018153183581 -0.32337061604367245
-0.037907855635786081 0.47587131390489468 0.47853117129436873
-0.022176501543571037 0.0094410801678037615 0.096454854892137787
0.63903080274358093 -0.29273703056336009 0.60344144720610382
0.46992747422548031 0.98108577866896018 -0.36656603059623349
-0.57502556975082286 -0.34654852195324093 0.42518249013148357
-0.11256262486851484 0.26225269222392256 0.71825918079169415
0.057396225631797471 -0.027264195206841313 0.73436668666063709
-0.38999128216773138 0.52440469297272263 0.15040376390273558
0.5438484537748054 -0.35029346476416423 0.68193347311208807
0.084622732315658422 0.01927068761438 0.70054160330102211
-0.1133640678944822 0.33143896385921945 0.71233555343957111
0.33356864645249723 -0.27005769783055578 0.33982678643671016
-0.65027722287614975 -0.6729871352756871 -0.29116472262570325
0.38710628138316666 0.2967315503528305 -0.089957376946694145
0.44790650552182243 0.94078690667351705 -0.37705726466133771
0.24835527331953117 0.015093354328802322 0.5946903919742873
-0.44745775278612743 0.036397011885788588 0.69747578183628223
-0.4694790155063015 -0.17130007781101542 0.6472834573344004
0.24124107195974326 0.49874566906595752 -0.34654773564354791
-0.065441059995516609 0.63945207821173478 0.60354128800853213
0.44790029622334554 0.75991972537854569 -0.41082345779207996
-0.53616280961140117 -0.011842963943456741 0.65885405589145551
0.11564378641794482 -0.053666343163274011 0.76975773202616549
-0.14037575941078681 0.77983658347548457 -0.56116144558348113
-0.58429426556683239 -0.066525834578061271 0.16139488211885489
0.38325565084904428 -0.17690406920225388 0.32938643696813297
0.40801898057678104 0.28109096430969616 -0.022061161369407056
0.16723032249295217 -0.40621316666335394 0.45200953677190925
-0.32185614926919781 0.023279604834298695 0.78542481647941553
-0.43962363010490685 -0.32061744262373493 -0.50578260568009559
-0.49489517259557875 -0.61731745377477099 -0.043183770381416853
-0.0082279323475583643 -0.38632238744546066 -0.30922872765976672
0.46606050555148315 0.1615804278374513 0.20749904538659791
-0.21200248129965049 -0.27125963663783081 0.63045029601306957
0.37431617240086162 -0.37477043470844484 0.39902128704459949
-0.26060474813922557 0.84899872039082513 -0.14328253554477466
-0.034137690795362274 -0.78003411900176789 -0.30005450446408233
0.18395671738590702 0.96449926014914622 0.19553706869985632
0.024150813022855849 0.63687077344058496 -0.29514696266230422
0.1634608665689764 0.11153267495786934 0.62654892441948395
-0.45763688727211549 -0.53751774379985484 0.0012100023892387402
-0.58517610371166184 -0.65742102735073948 -0.22354158037414451
-0.24389688630179601 0.063971296263601651 -0.063729786010022105
0.19941280243421311 -0.67984377294972564 0.48752264789916833
-0.37924665814572917 0.0027271840886446963 -0.62983654958791568
-0.38955408929276447 0.099039858601573494 -0.25614247374262522
0.20913046774597199 0.044529460676221655 0.55257830309149647
-0.39625059672973756 -0.075014359269174991 0.78023417624119284
-0.23411694661320076 -0.69928928348473829 -0.79697995721923265
0.76755374369422502 -0.38562424663900785 0.5558166502386459
-0.54228531082386189 -0.12949520882975629 0.64381928930927024
-0.41077950969336569 0.85544585552105423 -0.74428322565359395
-0.66882596461736799 -0.53749411890830245 -0.36018784619723276
0.75395063482670266 -0.29615349154093096 0.54360332740868778
-0.15516331217102267 0.6089083761478058 0.5839759694332739
-0.41242695750395664 0.43520931552865139 1.0349194008171771
0.050871206690694171 0.18878480938751774 0.60393343438139258
-0.1341018079112814 0.3522616965568317 0.66301786693508702
0.34676211072732843 0.59167735642810348 -0.30317021793479526
-0.32310859154786103 0.69797393569886257 -0.59877819176221869
0.50778949726700418 -0.015499779327105445 -0.29112369029438434
-0.084724993787337194 0.26613763688756453 0.2164906692484575
0.23672653433335072 0.15377891421897427 0.38189947758156029
-0.51392167064205585 -0.19477218998434465 0.65368172657411727
-0.68222086724266018 -0.20679697078126358 0.47745095038661667
0.36018054273840439 -0.12657369173492827 -0.23070027010849181
-0.2586643224229635 0.49102108531147448 0.40524230063174871
0.069994875036979876 -0.25610785631750033 0.64145305553219489
0.035353691154544759 0.40580077264743064 0.71412458784837674
-0.025291848235167391 0.2280021867563331 0.70518404570903925
0.095940978905098728 0.41664639602661802 0.54586380519723032
0.3930991835416211 -0.30041158125550882 0.71306360310941908
0.12415776718152172 0.46347117444097519 0.59332356896560634
-0.62487482010588791 -0.27115185819713883 0.2513737500154376
-0.57322545745521236 -0.5440935478577047 -0.24701001067448125
0.26408286541480475 0.51691939138917675 0.23440898209633687
0.08093910481261013 0.51386432420852612 0.61052628350418126
-0.052769279648655687 0.45202579288144995 0.69146329055093214
-0.35679224014317201 0.40062515415054323 0.42552266487808776
0.60506691452553596 -0.28788503950700139 0.61823856682427303
0.073260938755588201 -0.032628872906071082 0.76390647356505337
-0.71332794355645146 -0.81574746880408955 -0.31044970023966312
-0.29618907502317049 -0.073784746456945882 -0.11942428621718371
0.29100911579955646 0.77322146536937142 -0.30029012272170941
0.43011406558113185 -0.18354126037943574 0.66834398442785981
-0.24694218148960895 0.25571859989303558 0.73038183062148831
0.60150399052566472 -0.3097118094800293 0.60618078996793701
0.38257387835439377 0.73503174788745906 -0.35839440718644555
-0.10248745088886035 -0.42140675373530412 0.063002046735574524
-0.29509975297779384 -0.11535133224994754 0.74232049282803136
0.064870616828630601 -0.34324248989015849 -0.24923642510103527
-0.63958851946866901 -0.72770852370225558 -0.25604183735835462
0.23968555763193061 0.011030064318651611 0.62185832059165447
-0.10887669950819373 0.601111233033222 0.54449619251975534
0.041721435374071136 -0.08876919044365561 0.77180863222024909
-0.77756986184065879 -0.52246080301789044 -0.49861878115164981
