# XYZ point cloud file
0.4942652703439181 -0.37826677693841276 0.73286821411086878
0.11849689778037198 0.56479509128745797 0.63425888001989605
-0.70701302449498171 -0.39765693136811542 0.2411914041801182
-0.59154566341510051 -0.62982591891434181 -0.29954713140091316
0.28858034987372183 0.66432777559582035 0.24662158714762583
0.054789748396824267 0.60491624311310643 0.65378540225949733
-0.10954482464065118 0.49302156626857796 0.74172013622486999
-0.54503111417812666 0.35800790918039122 0.47467728245602925
0.69674371318246964 -0.27579928723555924 0.65389150393930362
0.13400560797514016 -0.072053802510473663 0.79139703178963683
-0.67438715863473042 -0.93274045587359189 -0.37508605556590863
-0.33715251919014178 -0.11061765851801184 -0.15817397463518235
0.284066899277792 0.88011965343140042 -0.3230794006986637
0.52267456356215414 -0.18253276248041417 0.69951768452200191
-0.32356026030249785 0.22165978100996364 0.77686561907299145
0.69542727026478479 -0.30822822111164128 0.63788255209534306
0.395589991722268 0.8698977612207015 -0.38324449969197594
0.012791166401723841 -0.48587081601544957 -0.019539320438908658
-0.27805348292914478 -0.24361094398088601 0.74720402062232361
0.18747947354986738 -0.31828122280948168 -0.32907849888436219
-0.60706292531356532 -0.83601230782804714 -0.32425682826808955
0.31199639682006786 0.042766244568252176 0.64777123905624812
-0.22570683188959006 0.6272496942950665 0.59075376564977922
0.10866923211884005 -0.15773457428831644 0.7921813087407461
-0.92537814279927344 -0.61057391755024337 -0.48173971609111277
-0.51298120683500437 -0.18253766710105945 0.74964070480791256
0.66500022443960893 -0.39427735706515932 0.64925157303916436
-0.15566080784651137 0.32541909937576496 0.75824611488158444
-0.64653411280631101 0.21083173590195459 0.63211674660161821
-0.57634030961644755 0.47639432258829817 -0.27555140893421615
0.34661983844729827 -0.53972117896783978 0.58413493464906141
0.12712472738538416 0.61855083413228562 0.25654138127246029
0.94790171687803926 0.67783262273992073 0.15045213491065207
0.17619553959362821 -0.51044554200612391 -0.84037492591380669
0.14567816434153813 0.12536278159056474 -0.23321971808625919
-0.24319840093205858 0.9607236820347218 0.28633280560395535
0.037516228504760774 0.48939106356182094 0.74752962007288626
0.45330718605823916 -0.15700888259091572 1.0699143993564879
-0.62727987736278845 -0.92209282555049699 -0.29821844556611365
0.15783856838073018 0.90770685068229118 -0.080419568365198812
-0.29684337374188841 -0.53793885180347534 -0.043381889479866209
0.32570514255255345 -0.68603898511657491 0.25931332954524755
0.18958285888489801 0.88453160623483351 -0.18787266964328952
0.72858215515720093 -0.28241837209360693 0.62204604068026814
0.49866990376519649 -0.26332856902971713 0.32601796204191774
-0.2920439531481811 0.54270294762054105 0.80338933016983671
-0.30647007327155729 0.24134589946980745 0.79500207731734007
-0.56719368975015638 0.11796599802746266 0.47834800075040618
-0.33951274412926535 -0.059849420828170241 0.78820375230265038
0.20781769622286672 -1.0289000350915103 -0.088943112528538815
0.31674876351695413 -0.30088386038730364 0.099212893717552597
0.5721679439071099 -0.62194729505290491 0.67645453881332529
0.023730330363347596 0.46281963032938567 0.76503242451892217
-0.075755752773921659 -0.3257508191855274 0.33810231833896986
-0.35862535421652775 -0.0385483535888691 0.25334553378036229
-0.41711929174375184 0.21176605206982135 0.23279706577034798
0.20215698933390991 0.80570951955646231 0.23759823631764032
-0.79743150818354103 -0.90385891321518641 -0.45894476290672559
-0.076065981831589413 0.7283701701380606 0.64789086959130926
-0.24610957677620804 -0.13186795514901906 0.76586075522946162
0.21711847267067386 -0.33653647850732887 0.58255037368805374
0.39422930253783606 -0.14204384717675062 0.36743847076619163
-0.64629925102885333 -0.62108080975552415 -0.31559466318871116
0.54335952324487247 -0.3041291444746706 0.72212377091778901
1.1751758479269503 -0.54889900898886279 0.041415037987779346
-0.16450921283399156 0.17154351869235929 0.75955573400954091
-0.35004056365472613 0.21811159679487546 0.7279265173782179
-0.79271181476308716 -0.89541273790343956 -0.45689003364921749
0.34169338256646631 -0.35508621287600067 0.60706988928647387
0.75334783535094019 -0.28630949673255951 0.64672806402790683
0.35267971916048879 0.485386693228195 -0.13763856078859804
0.42561611606877359 0.75020767435457258 -0.34766070340275301
-0.080486066122262612 0.59915234699798903 0.71754592210226198
0.070798429275696018 0.10226907721835279 0.10344969540336868
-0.30533024002937026 0.31964438510416737 0.97067055136380653
-0.83168072506856694 -0.099840910196395016 -0.32660073715474403
-0.13960038615137504 -0.36320948163191652 -0.56544765245563422
-0.168427643860112 -0.26606721467465699 0.71758657503777434
-0.49564128982242039 -0.80134915317579503 -0.1852348522567453
-0.55077904005667255 0.26503530723853386 -0.34609007573735229
0.092193864994789543 0.37814161252459955 0.75174663617324544
0.97831016893975553 0.26280956817600831 -0.33799519230012964
0.32827722358248601 1.0776698888645577 -0.39712845776262218
-0.048087790342218106 0.63878983698180758 0.7109257497546535
-0.76514155642491455 -0.27753511319874896 0.11069441687416437
-0.74246952697084656 -0.47857362021421102 -0.31184578492969339
0.36267910721635332 -0.27351737215688698 0.25647655226161398
-0.53771735020710976 -0.061104892257601184 0.73295060052126448
0.009775031859399208 -0.061617580388990234 0.75019906327362262
-0.32710640832909521 0.51258093897124646 4.5033382048087489e-05
0.058794025417144846 0.32187521132665164 0.74789813627306634
0.12638861778138177 -0.21841968882545171 0.71944969150654592
-0.0097084101003921397 -0.93809247300276066 0.19033821928913858
0.86107888553797474 -0.78164709295879309 0.33621151558639251
-0.44509697670493487 -0.29700161126790592 0.69981946920500326
0.68703531638815152 -1.1591840581179371 0.016924942573770974
-0.031515297375707102 0.42529361250232656 -0.61133447328343249
-0.35201518382057606 -0.22984785624922921 0.78104839883630661
0.14171647386784225 -0.058659288205140103 0.75884812427800452
0.26139943536619503 0.76658892504635179 -0.28733322551074947
-0.16840773589638358 0.14580121596543738 0.85623976190979567
-0.16738636883017655 0.37411954997546415 0.08141289584630218
-0.48377013615386566 -0.0990845872581122 -0.030128472071519696
0.59567241670275606 0.44096660481626515 -0.18042162515137411
-0.46945542700151544 -0.22339129400223867 0.76744758194401008
-0.030880267624191493 0.16288129212058911 0.7317475001055499
-0.055520052499143713 0.25783772678900307 0.7377293517267276
-0.33980355704923765 -0.049915032893527611 -0.56558778179321534
0.33258704733271743 0.82912430971706552 -0.33609681318882145
-0.64115851535815238 -0.52117926445608576 0.052793777714703283
-0.48030606190246883 -0.37310067299043936 0.65604898082662766
-0.86181372684154367 -0.81045523641075456 -0.48101037035444727
0.21652476730251013 0.85357215187682256 0.39153086612618759
-0.74397093366446232 -0.56801002748770424 -0.44710852151071057
0.18329566797287117 -0.13087846922433097 -0.45984282997137327
-0.079186958308499866 -0.51193164645975298 0.97993670950250067
-0.75966174889480809 0.038270599297180685 0.19708438841595677
0.049164936047632057 -0.12273585555337918 0.75781575268091217
-0.9489846297838862 -0.8038506972951085 -0.52253110306801798
0.17451476714749792 -0.50607645691013381 -0.027018359564323968
-0.81223110349753802 -0.67604353410384199 -0.46622813163073884
-0.3582655346327841 0.2338030042308864 0.61461560730641751
-0.43193890419373737 -0.62977126063025457 0.060518329787430325
-0.32738726813445918 -0.35032840509561669 0.631388186444511
-0.5908299653744471 -0.61712870548842624 -0.27944409591517533
0.2907801779137934 0.79013789948614754 -0.31627249467877017
0.066447894302170241 0.40684144243233522 0.76500217745466381
-0.62162603578811426 -0.13364625769904204 0.57816951663731886
0.086937480448209703 0.37915307742913051 0.75759371181773338
0.21594041617891047 0.10509589145588649 0.67325409716969564
-0.48364396222464356 -0.7542735432822163 -0.25255358977766124
0.080582117774005368 0.82770065192464648 0.57908475092668787
0.3574463346664728 1.0767518073969073 -0.40619827025063737
-0.55361520365157157 0.17272208982518555 0.78200874625169181
-0.24093872987465459 -0.31181314606262156 0.62439501770949335
0.31228564655710667 -0.426559079507637 -0.17760965528714873
0.01889245151825425 0.054429728197068372 0.73189593871871739
0.4964957521964628 -0.40699007343626215 1.0961841414028952
-0.16566610605481347 0.74164384680950368 0.59860103035755929
-0.32859842366364078 0.37397963159185499 -0.13346253114023487
0.1356282476511228 0.35079798939426132 0.69075941633053195
-0.529762747448555 -0.69445144949392323 -0.28294626594020061
0.35724859938929998 -0.29858430811297504 0.58303787413605535
0.076966593772175962 0.44211630366192478 0.75069938512541734
0.43054138650241636 -0.022693129776933718 0.33119793904309519
-0.49167152474196929 0.50523509858919458 -0.41213277728179032
-0.83244354142892418 0.30309727966703859 1.6350419578635631
0.32100045673288502 -0.11469847114767107 0.71696807919705163
-0.43290295221303188 -0.34488648571732816 0.68495058653965224
0.63634040501606948 0.086337990941755427 0.58985548587986769
-0.63122022456171334 0.13071793001236043 0.76820859968197475
-0.6483253801140787 -0.52527597719139152 -0.12892692839124509
-0.19227834537304439 0.80993092869020122 -0.14852263143830879
0.098006109618712145 0.59247353490331667 0.64000804618116858
0.070029410690918281 0.96599285768328258 -0.19105045469496829
-0.56929951779358889 0.68911937778931065 -0.39885421249360808
-0.41308414889738859 -0.72038769326302265 -0.39616992780059612
-0.77573320409114854 -0.66454758795314905 -0.42823588577540123
-0.35849044253552154 0.9428573600031126 0.9025019299946333
-0.33755431999031327 0.27637283294966053 0.76098635861065023
0.22852351309303676 -0.032517305247091399 0.78580681135600738
-0.38541375280267909 0.53893528319984063 0.76799243415327156
-0.67784995600920017 -0.91691484018933911 -0.38556563695091339
0.2345395624368663 0.35187900995112475 -0.39410329696108665
0.74568409090601073 -0.2928598809630662 0.62813969425915483
-0.79926582734788576 -0.90522270402960203 -0.45552047559042225
0.33934792446480655 0.7077539021869812 -0.3158923287034715
0.20417328200161355 -0.23983242475312549 0.58896285042657515
0.38216354489737925 -0.38152737328323272 0.72449457475612833
0.80275651737479037 -0.44285562598336692 0.62182421171991586
0.61357600349517205 -0.65156752167532572 0.54829077710908236
0.14475992546633298 0.012081933168243936 -0.051252996221399227
-0.7742051803900265 -0.68146630573336842 -0.42623878335052906
-0.45193843575573667 -0.37164353725861532 -0.071007650964717173
-0.092230175006529524 0.74995650067539277 0.06806862929124291
0.37038241480382061 0.76417492312538504 -0.33304551917364345
0.21798757078213896 0.27425977440355798 -0.65832615781006842
0.25287943801602797 -0.067450156789806842 0.19861646664245558
0.23195825567135775 0.95537586531793495 -0.26636544084965497
-0.36289437456223683 -0.71814128322950843 -0.092951354641072459
0.260287874991874 0.022445929795541608 0.72761919949213816
0.09313263040245906 1.3220552054575894 -0.38377993605775695
0.7455278748126577 -0.3035471206992657 0.61990071978335148
-0.055215338520269275 -0.086704814752458392 0.054895626220523353
-0.51578231807466346 -0.12242577963436707 0.75742615920914003
0.20664431605425926 0.89536218598382589 -0.21702762700265643
0.20307715525036651 0.96703554161808947 -0.22405381288819248
-0.050411891197064906 -0.52594672582764579 -0.16195755383001531
-0.75056736826515291 0.28714076855762061 0.20628786389999743
0.49160245708612393 0.95799198785617523 -0.40368015585122463
-0.46791728607582272 -0.75844476122729021 -0.20997328373507851
-0.8333344948108331 -0.034084447951375191 -0.33744772555914515
-0.35363002038568747 -0.039330486699649225 0.77569440967675618
0.59068011403276688 0.12474866705718496 0.32819025871823176
0.15601175680273194 0.3221725367612005 0.64326654492991309
0.075566794058642417 -0.10912050622974545 0.75493952966835165
-0.30817899143902117 -0.10901793747140709 0.80736573123869304
-0.17678130858623664 -0.92624215560378753 0.74447749068576463
0.84395387973750835 -0.38722492765624772 0.59504937449809514
-0.25998633500762414 -0.46643075844818138 0.43657318568358616
-0.57977190168619086 -0.05333971103498103 0.71490034057653706
-0.31644925787894573 -0.46413769580134168 0.58677727541265845
-0.72104694207707642 -0.28496384052222345 0.63283122980481266
0.055343604762183807 0.78173559503512013 0.64022339847101906
-0.29121599482320359 -0.14570281740954971 0.79011731806568886
-0.38290614958125269 0.042031450145050719 0.76635746148461803
-0.48427212200036496 -0.30961285768143398 0.67567190934518517
0.48884554221290499 -0.14300133575502072 0.69610323634199567
0.050686358409595789 -0.33021164811684639 0.4655792513388306
0.24185281791107727 -0.34929027424847381 0.76192881120043809
-0.78942927965676812 -0.80755764947944542 -0.43810069929011441
-0.29736815072577993 0.20074479879546214 0.28261190463929053
0.71627866747319602 -0.38831543964874554 0.63902629309576287
-0.050866896020811181 -0.72250172174526117 0.48571237699210185
-0.33049286148731416 0.40987271106903678 0.62284276168173558
-0.32989606327692012 -0.19324570062908569 0.80779700912351238
0.15394175610966876 -0.044107240896721578 0.77461817985832171
0.083397559625871365 0.28853247680487615 -0.56873165689285021
0.37518796899204232 -0.53932719924631922 0.47283238292463892
-0.7487511431855729 -0.14939404955844626 0.58231970037140912
-0.47371225448759813 0.57117291381177027 0.49550373901422096
0.042869370896140957 -0.072977010148560839 0.40977548777694395
-0.45677526288931825 -0.76784925175887486 -0.14309357897803737
0.52392186649203409 0.67314002619873814 -0.32269894851861852
0.71831486927021881 -0.43597492210134037 0.69477768514757932
-0.4887885236679288 -0.32331944942104629 0.67853608713510416
-0.10884994777370793 0.28274504502448539 0.74609673119030773
-0.4284673233482561 0.43386978853495511 -0.13047941621291614
0.30722915155755981 0.67529054844604031 -0.25878165570008216
0.017347552226298912 0.30118713994414081 0.75979986869700378
-0.77322705956823889 0.34371663412689646 0.064961356305335283
-0.63682614386101144 -0.56100999113736472 -0.24077452107463843
-1.1549062462287678 0.42414528248458994 -0.35428720547522508
0.83934460280222312 -0.25068397322116404 0.18387816803118509
-0.48998857227879633 -0.2601055160990009 -0.6009516033852017
0.14510241615612496 0.48311429281177931 0.65435638776268634
-0.43438970625824247 -0.20329177733910542 0.79289445172788864
0.30025559953776915 0.26221796626020893 0.4537439093918233
-0.82051463660870372 -0.88112174598827553 -0.47395569816709349
-0.72680880391672942 0.10883109918379119 0.24611529096938889
-0.29984849740430097 -0.053804280353542344 0.76620440942600432
-0.62041945594371173 0.018648427039581361 0.49703103842784291
-0.41578017760998986 -0.6459844941080668 -0.093570426853428312
0.66169023068386101 -0.52195985890115926 0.44671883986426636
0.26339255289642155 1.1587303042496699 -0.31363952500223591
-0.3995525762569464 0.76943335117942868 -0.56737877750570342
-0.15217364337231287 0.0038913709257450968 0.74211509388319064
-0.079565664112797752 0.42399385968097536 0.79363936426626336
0.54832509501439908 -0.49727780420068102 -0.67743864506255425
0.95980717131692794 -0.073736632285367559 -0.38557342323893928
0.15918894204378109 0.40033007468714532 0.67265256867282641
0.10493022788162043 -0.65832142377594915 0.64888823915290406
-0.3421022568654129 -0.25253878877036695 -0.3626978406486252
-0.023821877311643092 0.78968661282395525 0.35599904310993047
-0.59175328885609713 -0.058019163101935278 0.29838603457065638
0.10708611065114615 0.92261597706237009 0.072574422398327343
-0.70395581912275274 -0.93533302836038135 -0.3675006359011721
-0.26196372042556071 0.10508219452047504 -0.11660287474888065
-0.28117301491670421 -0.27644195898741308 -0.17283047715311461
0.29072340296396937 0.17996221638315948 -0.28531214556199097
0.88819353317767624 -0.35780544471232051 0.51012372509312365
-0.27806136989812469 0.011669186123495656 0.76337410462262767
0.20277048519772278 0.94280469684519086 -0.22010724554613659
0.15977849340540162 0.23989406893164522 0.68447695681504395
0.63938634052238252 -0.15274333426475761 0.34257931510213924
0.64927938799611939 -0.33415197309159506 0.69753208610454331
-0.49340993331057648 -0.55407090070745346 0.23950374984165201
-0.45418609912832875 -0.62616897778372538 -0.054044226752729019
0.73032560791167911 -0.46247260417752573 0.68024120913740727
0.2786805025641601 -0.27462504961753942 0.72819463889220337
0.11925389318894619 -0.49969018045085661 -0.041503789084670839
-0.46602859104395611 -0.75050683464772794 -0.22010450098887563
-0.54413272978255378 -0.12443008094079189 -0.62589568212495728
0.25817470901615802 0.79371963717249405 -0.28606477617119741
-0.36327997933027811 0.58692559290115998 0.67571654369935819
-0.03486653083558533 0.26993050949900677 0.74571190070934068
-0.13800500231324145 0.4631104471628974 -0.75209742585181372
0.14355937429601062 -0.16702164747675344 -0.39498961554025075
0.29764776384110181 1.0692154492334611 -0.38307160900174753
0.7915534728692295 -0.26972984221326424 0.64650893954100164
0.32347172640853228 -0.55598352523959904 -0.70262996663465149
-0.22361236695269376 0.13903281926130479 -0.54675832913467326
-0.15241528873293664 -0.44158332993920946 0.084426381101008086
0.36202679883115607 0.009008366700583692 0.65974335491126579
-0.62334548190417682 -0.69185517089325588 -0.32534414500853154
0.47098578181906642 0.82798422783422365 -0.38860850550116677
-0.24997994405448787 -0.52823444748247672 0.23284591264221777
-0.66285939919756431 -0.9395947657180137 -0.31780539945196001
-0.46309356859158646 -0.73593527674736481 -0.21199382294349628
-0.58665479663002484 -0.3091944509763106 0.64795560462216417
0.77227047029805207 -0.23118265043247677 0.34810288088902075
-0.52890823021512845 0.21087042883263052 0.71860935871129783
0.25840628369759155 0.56787703384760468 0.75754718367961593
0.68797359164805538 0.63209643914493419 -0.95512150302616694
0.69252739637450822 -0.53764055892792517 0.47252465181535125
-0.55296664473340651 -0.055775949475649234 0.560695293702967
0.11000606717494166 0.8333514542461703 0.38484182529462485
0.45590933488140029 0.047192175528921187 0.53423225403781638
-0.1410553961431672 0.78429426924341006 0.3149291149281559
0.30246214554992545 0.26162455075521651 0.47422639155140889
-0.058151211397045099 -0.35175351615588296 -0.54900939089831924
0.38785003683331598 0.66307243798076654 -0.29419147198575113
0.12279820904092342 0.54396781849344955 0.63369756045863679
-0.68219198973773454 -0.032898207137238789 0.50119249027054535
0.6259150743989943 -0.65126226200670767 0.57385095107426387
-0.033011352520446513 -0.51382521236641354 0.24371651934711819
0.078611743572992054 -0.14168283836002127 0.75112188527902291
0.72903513784306417 -0.48286362917145131 0.67316478678832015
-0.70924148871716763 -0.4840465515055713 -0.26177178321349692
0.30412015853746022 -0.61456671380568184 0.63621300451513219
0.17367532865112678 -0.16956010382182563 0.76589649064397303
-0.44085699193481842 -0.76100541276053679 -0.12495802385165133
-0.75756540764407643 -0.24644306252739323 0.4910730022657015
-0.41381891000607829 -0.13450185921667865 -0.048294819785868692
0.38318098796525568 -0.034741950273059707 0.41913584960698025
-0.10952672351427295 -0.52546238745603679 0.016115575052944753
0.27976078466878596 -0.11710016200901241 0.72927113111531705
0.33267910100766973 0.63801645663489615 -0.24222811649841225
0.17701539982967884 -0.30822539812244931 -0.18936245264107429
-0.27758043362388735 0.68840548892406828 -0.28870866395077188
0.017551907393035471 0.57469183406640589 0.25041395735630556
-0.1643981202813245 -0.1649475590596895 0.74920950237353401
-0.031048165424488738 -0.30711264458383447 0.51773845102008165
-0.30154061498691265 -0.14499854898083642 0.80604897052626889
-0.34273897493471273 -0.20764515146033724 0.80347410274071263
0.86840507386076116 -0.28732639997531617 0.38007600569049937
0.37369973924942257 -0.017838977847234649 0.67527943892914088
0.51000510897225193 0.79860875886074734 -0.36033363208087943
-0.31598228891034008 0.190978711866293 0.79065654325307944
0.71592350514075376 -0.4542293196913294 0.69227376110440253
-0.57417285394953366 0.21987700950715039 0.68102600155919335
0.088427623825203749 -0.25811600083907127 0.65207359254120156
0.4912984467288648 -0.48841492538252979 0.41155751005358382
-0.36450582588777003 0.62992525535909705 -0.30741382282087826
0.19820665259362613 -0.11811427208528869 0.79125391450130667
-0.31786778434408058 0.62651830174851686 0.18528365374184008
0.62161998795106399 -0.18126644410085391 0.3389804483436813
-0.47837131816461387 -0.11524842510389921 0.34455609216705141
0.28930662159588705 0.6349053498492262 0.48348828978416492
0.41884856875698495 -0.54844813444038665 0.45534226017468715
-0.26311936542197423 0.2188137412906361 0.058827461961841521
-0.21879536982809156 -0.12850679633042783 0.76006682755470456
0.16424258373263501 0.92107549800551536 -0.31331957990726922
0.1345696727035699 -0.079428423834367434 0.79700758546420269
0.68968209609358455 -0.42200395848832256 0.70615974984928975
-0.69047668061634115 -0.098236837640386765 0.4436145220619625
0.35319314978965777 0.65752550284315858 -0.2775234858796316
0.34222462803718812 0.072647746939666691 0.45526268952417548
0.37612277719430542 0.63279511528528876 -0.24659264425744365
-0.80079605186908964 0.060875309318652732 -0.4660471285555462
-0.19541218688668593 0.47980335078954728 0.13515819951505392
0.35613234343805877 0.91000953593410183 -0.36510813273001141
0.11754314448125514 -0.1462676100293363 0.80404547462252196
0.43739058536175879 -0.52795455873191677 0.43722826330168796
-0.13391625014836395 -0.016555862336361471 0.74218537471819745
-0.056753864964223522 0.76628978860795827 0.37482562986233692
0.22651775883116643 -0.059288704735835973 0.78600674483649735
-0.40804130785536097 -0.78885632278040918 -0.23490950721874868
0.78225777307503663 -0.59221906350500841 0.76553766368902443
0.36481239512905694 0.72063614013459909 -0.32532224819983946
-0.51082109107518892 0.75506143113532276 0.58790297705443217
0.022200432185945251 0.60962443745485828 0.67313276982647263
0.82145754402154303 -0.20213264663799407 0.59328578257879339
0.21313742900333202 0.6548903008646626 -0.84431294508993604
0.18637347083095568 0.28243825109990717 0.6610456088022213
-0.070985188499831597 0.1944012796650999 0.74018535534576002
-0.17514726091754595 -0.1451140090774854 0.66991852558814513
-0.37084350308374403 -0.36307074841156972 0.62129983054782567
0.31787669448490341 0.42448998607470428 0.38653203280860282
0.063170410994912274 0.23807139211740441 0.025321437142514447
-0.21993595458597648 0.25232873181149795 0.77785724527235423
-0.67908089555087625 -0.53316606968947167 -0.24863044317575062
-0.41502459090694721 -0.36662983751097111 0.6106437197769865
0.1062926160441986 -0.16419072902127663 0.76523268448281467
-0.078423183232316562 0.22832933117551768 0.7498976744616217
-0.60517388652464033 -0.0009046671411732099 0.72800560603314968
0.73190938200803357 -0.33648589007311391 0.62166921439309597
0.52687174476647347 -0.44040235490129021 0.73129934420750997
-0.77073783561282827 -0.10923119368650314 -0.47544058481031548
-0.43792600750535382 0.59010802894934056 0.42946911685329137
0.48347388999352509 1.1403705744779016 -0.45979441581525327
0.28917147632888907 0.10991249588326002 0.44313573631250791
0.6616980676184121 -0.41772179006356391 0.67088570452885388
0.85006261991382059 -0.4251325566362284 0.52369412115337288
-0.90093603684313284 -0.63103199881601935 -0.46393878503177732
-0.44917100330445137 -0.62189168566654918 -0.35802424958300944
0.3307146951469554 0.15524596292653561 -0.13376345893547537
0.27746364157188119 0.75653915821701556 -0.3599036202250363
-0.51638832000858259 -0.037572904159486331 0.73584871682919761
-0.026043239241069438 0.74627998598712342 0.65562085089620958
0.36338425076274472 0.65177531262733124 -0.29096359655462301
-0.32436250055877247 0.48597641567120009 0.61349608989936799
0.54545015974919187 -0.44953225583027268 0.38725846589430468
0.30854930633223554 1.093274310715646 -0.39197418819966245
-0.42844944618845471 -0.014788343181837083 0.75341331390849309
0.037109747809937366 -0.34724113824967207 0.20051758678733128
-0.16739880895624548 0.28609928358613629 0.42449746229599383
-0.56916602082914514 -0.090631575788105878 0.72174614852734154
0.14202750236128581 -0.055581862439052498 0.7455262267806616
0.28706501341018376 -0.25193803071864296 -0.14825208892890307
-0.19830138147390919 0.38240542079627149 0.76550108307855935
0.23251870091294996 1.0217314533861885 -0.38388613835425556
0.18823236572106627 -0.38666291006209846 0.30621284933588822
-0.29743562744881968 -0.2272249784938801 -0.4823307999860717
0.026732606412980364 -0.49986731375045834 -0.084258080858897605
0.42388045147415876 -0.41069545722180612 0.7254549205986458
0.66100493239840419 -0.31080492974164509 0.70234703121350373
-0.36431046088894914 -0.75027848452111945 -0.097972221134281778
0.52395720416953018 0.21544560523685108 0.31788263079901791
0.86267581851609876 -0.58834382323437961 0.5297085967058649
0.23395003930244052 0.41366969772593654 0.60694010604271742
0.22465459968195844 0.033480730192229746 0.7212493759473122
-0.73918969560073777 -0.91999102142549294 -0.42393718147665105
-0.45452528763400901 0.58982592222166719 0.3945442971978308
0.10786162515038833 0.47139296505959805 0.70145347328429697
0.39031227961786596 1.2067747672179767 -0.46034419498553136
-0.36540488861397025 -0.059905153701391822 0.80801184515256064
-0.89331210613480327 -0.54674470438967082 -0.48941616152012613
0.096377774895010315 -0.027131560006955491 1.1185719912468233
-0.062987979972480845 1.0776911531109146 -0.27928062017109556
0.55475838639338759 0.22237624893465691 0.34438690815043022
-0.16540562518072566 0.29547426826772272 0.76498406076246317
0.21610577175435319 0.88717839219122441 -0.44931550022090105
-0.58480361259894398 0.86748426810305446 -0.073533478814027609
-0.10828147981906938 1.0309136163153585 -0.23256727735290506
0.76804289742753951 -0.36290161842274848 0.66439428874675266
-0.56458785485832386 0.12374625168268483 0.7818232809244583
0.44936759829451128 1.1136215493471109 -0.39878198526067454
0.14474556379713688 -0.31289391713002906 0.65090981571347262
0.36541382761323071 1.1265407147171562 -0.42056456910277173
0.31508005573240822 0.97925885464583273 -0.35675381437588793
0.94589340964702728 0.20758942386316415 0.21805664594661206
-0.3700160016092271 0.24198449718363013 0.63321680642126332
0.59284962072043967 -0.62370049206860645 0.67264430072723758
0.0012391667637513537 1.0138344614577202 -0.21441469653313661
-0.41435400853278503 -0.2548412273531942 0.75626016118058692
-0.73363981710831949 -0.27340357868224374 -0.047158325388900968
0.31488746252769495 0.48196180755177997 0.33052237090492365
0.32633485377427984 0.62520367968847923 -0.054572731537155361
0.17827132196905482 0.0088346704471654602 0.77746253530682896
-0.68349852945544676 -0.82924324305843866 -0.37517433564425084
0.35043143942175603 0.69957993662174933 -0.31720569460656844
0.35020522900882844 -0.11553147343664558 -0.051865812499678698
-0.068380644074908847 0.49890644469330514 0.73654772493982135
0.020282911948512505 -0.57884826264529676 -0.44488917526896266
-0.58553917644026776 0.039437083652499205 0.74148862498259094
-0.11198626590112004 0.29141064501406555 -0.15310478555481366
0.32776430919923127 0.67212549500207364 -0.26553866736539344
-0.22375962456085108 -0.60142618168694206 0.28015154479263349
0.42900657396086717 0.61073887466617771 -0.20351933520917165
-0.33368436436896698 -0.76742665390502329 -0.1380264548815916
0.14554979334847662 0.50242873301801427 0.64325702526765349
0.15106844330753089 -0.37461778955176139 0.39176510746408999
-0.63278010091591663 -0.17838838880111563 0.54268208073307722
0.59937602796867417 -0.24869740083840958 0.3411350003571712
0.73728514391671429 -0.16846166098004084 0.6301154651571651
0.11394822762850221 0.68761000128688599 0.61831892232475583
0.82222639932532071 -0.46258387339800844 0.5171146530117674
-0.27474268272467306 -0.23711481696638037 -0.61920149278355519
0.33413583079911457 0.59185029961528168 -0.19431897010292043
-0.4288779606372552 -0.1020115780172321 -0.31651009722429946
0.63693780932194688 -0.015901548338530302 0.51460625651539238
0.35676677541615653 -0.047145504276890821 -0.051533162371346808
-0.40461075920234357 0.51451501695984903 0.74252202293574743
-0.482657719826451 -0.25526252546279193 0.63839890305874847
0.054582023308212158 0.32834067714420168 0.76431928412976191
-0.63845664097544619 -0.73299046466939266 -0.33530885430408447
0.40852570406102529 1.0358545276184494 0.26100973387869564
-0.52787286700808111 -0.66373774950313047 -0.28644453616413279
0.55602931482693196 -0.41600604662222307 0.73223392222956851
-0.019632695749802531 0.49352034384584453 0.52350252388504659
-0.68668509924379673 0.16133710352228037 0.58565512431299771
-0.55013286211068624 -0.79069944430903971 -0.069181441338259764
0.040396398062904515 0.60976231309295559 0.66284400532881294
0.080909036471021101 0.90612810194689464 0.15311621314755852
0.073583791757757533 -0.24224848984848024 0.65887276409919449
-0.44576820620039559 -0.056889203053630766 0.79661726219804918
-0.82329602913275168 -0.75942753343256875 -0.47191076578104785
0.53557795141192321 0.024998064962297173 0.52638858312600811
0.46177821991072565 -0.80948530717483014 0.70916439313780666
-0.15080859519840228 0.72750157929118131 -0.42769419685246968
0.66750634129912156 -0.55023975827099236 0.68492975995341665
0.10843437268142653 0.33184625613352825 -0.1435435565252442
-0.76230695247062297 -0.51322125525886064 -0.29640051153321179
-0.51233543180719909 -0.03456796435697751 0.71561012269905433
0.29029225629696054 0.65058059844606919 0.3026309372053374
-0.93662018757327692 -0.7909147128619417 -0.49346323735727116
-0.68707775850724206 0.47647097232804414 -0.43036711876729861
-0.20085869554732305 -0.50137970045973557 0.1398300204114144
-0.32183482279201514 0.24497493498627065 0.77959714833851845
0.40554733532765574 -0.030714161938229734 0.6728246491275256
0.35081047097046369 0.52119077871584585 -0.14251534098120033
-0.58237374302113043 -0.17455825541597514 0.69827184869159176
-0.21969560134999622 0.787084032503231 0.30158082749919801
-0.62676992353696026 0.41175568810358987 0.28422957555590034
0.60276176679275806 -0.56711409579950356 0.46431072544216673
-0.25768510513362058 -0.46543422481801444 -0.49357028285833504
0.66635086886994421 -0.34783896272207743 0.49236376856151065
0.47788226381778509 -0.68362852031441212 -0.22621794972697598
0.0049140973702346269 0.78711314641853614 0.51771471260311497
0.37429263264037349 0.83303891975016597 -0.3563364054038668
-0.49216619894967983 0.47031167180645328 0.06329346412939052
0.18525026081555251 -0.42167600378174019 0.02204828263823802
0.40800110648082921 0.69805904318497725 -0.29992208484650806
0.34267182170564892 1.0331827629266079 -0.37978623761703956
-0.58914757195982004 0.042802091422442845 -0.62633807979753064
-0.72462134250447163 0.92411991997483178 -0.48555204650449557
0.67352112423328614 -0.36533577581330329 0.64586707206197791
0.31262786343453891 1.1266787467842809 -0.37589265438024511
-0.55231762910289028 0.53655172393300288 -0.45447763073124614
-0.097956342035009358 -0.35575455524939037 0.20517753929547289
0.36149313422305862 1.1321254183897587 -0.41161762917219558
-0.078832012747712343 0.79373396723735312 0.072753788715848033
0.26843139706041008 0.71586486821805018 -0.27890406800713974
-0.72515351962690011 -0.23929197880355585 0.38346259043000275
-0.17749545780216058 -0.46324122864210415 -0.49002736281514953
0.28480366540682711 0.69044247126440095 -0.27162556984068298
-0.51634167161979216 -0.32627717840996717 0.67049743848070598
-0.099685173989506715 -0.070047623061020858 -0.72059303831358634
0.2552259435184705 0.20478295390859474 0.5902853940484234
-0.083888421495811133 0.93461440360949677 -0.39332416201223297
-0.77058781000389176 -1.0026210977015542 -0.40213747023672192
-0.57729782089196136 0.45373618392277443 -0.095199556751541792
0.019548557583648818 -0.060408403303246871 -0.025888186631356613
-0.80747362877165441 -0.95990929478318088 -0.40321234102332204
0.55388396902806258 -0.23056593019889229 0.16045386269966067
0.072525958044845185 -0.14249715716946365 0.75257508335286771
-0.22900268101211219 -0.24404239149564705 0.73123139570741547
-0.73628850648867183 -0.4754885556883201 -0.33772396671640692
-0.77246576083056118 -0.8516408077373292 -0.43383028235712379
0.24948882125981298 1.0402379444189336 -0.31139519367890189
0.6366338539901939 -0.40500145611347649 0.6610426961512339
0.25481528692449951 -0.099906706015414737 0.76613992711466306
0.10287167339004877 -0.22164083170443061 0.70842278830053651
0.47650653845582913 0.075464926208294564 0.15669476024340762
-0.39934499931801559 -0.20283698519369175 0.80229587089184196
-0.015686197486620812 -0.02717692869542529 -0.42215807334050476
0.057211051057973306 -0.40724591830648899 0.27757738417464273
0.08159769652655724 -0.092847649603971405 0.7520815793200184
0.28308882301063276 0.061588092601944977 -0.16115066479296797
-0.071501355642290099 -1.2724304775770852 -0.06543758573402253
-0.12186904296171505 -0.13635575401429867 -0.76219122910785819
0.507636036562368 -0.28313311892533549 0.72271047651815035
-0.65957119012243348 -0.95822538440335592 -0.30519679545283301
0.27894579300765421 -0.010379164687387976 0.75045015837647855
0.0049345452480923369 -0.085685157190012962 -0.18807911296419128
-0.45647687614722887 -0.078220888414946899 -0.16086531879343791
-0.14940557096834572 -0.41963477148880957 0.41298682937155107
0.25803997097083253 1.1733510630655597 -0.31009700633379433
0.097039664427763517 0.13044675304433773 -0.67582860897084807
-0.70899912509962282 -0.93396514404678121 -0.40385094927994125
-0.19099210906430986 0.43222567427302283 0.69891816316105793
-0.22363176962773679 0.85232884678835741 0.15491765874963903
0.15164055746842386 -0.053421389274355913 0.77666971069399526
-0.11797700019104518 0.39436999279972673 0.77351167202151028
-0.033808446702131234 -0.62647762235195215 -0.42878967934404882
-0.89388336556115022 -0.54402849016274435 -0.46442080271303604
0.45351292599587811 0.0368686935824728 0.5692794710520418
-0.13574979503517626 -0.17816521621889106 0.082909164395598367
-0.58986471373882199 -0.61049508681602627 -0.26705265914475351
0.074202685490499576 -0.30748821170371698 0.52815257905757695
0.32466145365157173 0.21069789274815004 0.24787462594445431
0.20269344516285492 -0.62938126941901162 -0.30149706362071649
-0.87158985493270902 -0.61735861916988033 -0.44117725251519568
-0.2860846810373987 -0.10208439946240006 0.78084296985092805
-0.4130736293549504 -0.51152654894213079 0.47436850732107405
-0.49594369614630729 -0.55701478524455095 -0.41121033680452734
0.2734805035002017 0.43022392501533535 -0.3566377588221642
-0.16760948722975211 0.011323723542883968 -0.17083074388277764
-0.094921555804690971 -0.21890635357711263 -0.24000534930259121
-0.3495068603603233 -0.78406520800680835 -0.33857627134747215
-0.25747160577072326 -1.0539517879209266 -0.66836507802969924
0.2310613145061664 0.32980903865129807 0.53931114236825528
-0.42661333910766208 0.0029749360399118352 0.75241554527289978
0.3589936061526483 0.773860427368249 -0.33346534705080344
-0.56594108874454885 -0.1704785633368604 0.69038448567256117
0.14307562378514804 0.72593275856746065 0.59812623710211943
0.46612713878813206 0.7898656767411516 -0.35392404962556118
-0.16389347359195816 0.50264538668445391 0.74416898310082491
0.088474809014963407 -0.39650589571755213 0.29648774271379641
-0.86691232951054786 -0.78510400176121808 -0.49634709285440182
0.76334569120323792 -0.36347253688670988 0.65953447007074839
0.4717986079539267 0.94360212676069777 -0.44739344297304851
-0.14113330593683582 0.42032263730673958 0.74829843872109647
-0.095510616340383825 0.27478086035743654 0.74377655934939413
0.3984623531082867 0.20610011881944196 0.054792662644271739
0.68431322121871951 -0.17916380298687767 0.34267781860803515
-0.60661960388924863 0.062724955509426694 0.75200082974551297
-0.82865139458549442 -0.69364507022327293 -0.48334246924588781
0.7725482559116541 -0.35163128858868881 0.66161539835137584
-0.60241905223061665 -0.55521395908729632 0.0025344107115741199
0.30894388872217848 -0.31760003882913446 0.1967566410236653
0.35493056788030231 -0.17508880009609867 0.7226553444389362
-0.26520043812225735 -0.31892905873587873 -0.59885685482351492
-0.22225902385089236 0.53058743426084687 0.7773892922471044
0.81025417146120415 0.030228150395201187 -0.067792604062056241
-0.16579179430364688 0.40159931274629368 0.75683720933470577
-0.057587731907680073 -0.74057930399198457 0.3220191503442621
-0.25082482760842395 1.0111578913350721 -0.15675462192342571
0.16307982337915017 -0.056595438731766423 0.791123304457376
-0.34827962335885587 0.28345620363572044 0.59938037855250403
0.19393054664118159 0.78060765635475693 0.52592760167886654
0.6270759078676702 -0.34415548601865731 0.71581304560573322
-0.55768971522403266 0.56548509235792077 -0.77115911677767723
0.15868540082373384 0.98359359513553657 -0.28778629294285374
0.22860969469617487 0.26673635285799024 0.63218695549686177
-0.14522862480093379 0.4916212404997603 0.70468416890259844
0.38237349119038055 0.53393917838072669 -0.31128846317413983
-0.41434178396739818 -0.3514337106845804 0.63681953057558471
-0.35685217722499418 0.1081889684762134 0.5810679411268822
-0.010281953020805007 0.74618115438690147 -0.6295558685818925
-0.37785838381876946 -0.66046154280483282 -0.080620943709794501
0.18150512799691937 0.3096537655018925 -0.50641402351247999
0.35722090688322494 -0.85380909916294712 -0.36938194769152927
-0.46252925391699029 0.33334841767731804 0.4774775780612539
-0.81914970767380968 0.022332313837155948 -0.39675149478174598
-0.20503751096569212 0.33026714413298963 0.45552961996058072
0.2233799558700782 0.82311091689473015 -0.21592462381424271
0.42382844416674925 0.047005826798494577 0.4342553907067489
-0.020566453712069332 0.51030291461790223 0.73479989794434597
0.28268786622286152 0.90159157156418235 -0.32604411182975923
-0.21914023072066158 0.44187816169561833 0.65552297167798823
0.048335005948901166 -0.27190036372865284 0.56289505898756964
-0.28189840187839954 0.48043959380012391 0.16254329766510422
0.035367196964507075 0.22985086412530686 0.2162051146097409
-0.39114802281514183 0.14419821247549791 0.80075125623462684
-0.39261554047383695 0.069380644478696185 0.65971194514066656
-0.51157107279858405 0.039088111611567666 0.74578851784020506
-0.68890633052589811 0.12602667057429107 0.56565090065027235
0.28929937783162862 0.20887539193588323 0.48690083502071224
-0.11969581745035329 -0.54068883195475781 -0.066480455392391002
0.43170101887173062 0.81559529761132421 -0.39162582577225552
-0.51141265031081617 -0.61757156649984979 -0.21572910160453473
0.22368549107451796 0.75414358901353229 0.50212184669551729
0.92907159329390998 -0.008977135947779491 0.088567801432204774
-0.027515274197217332 0.43641887917269506 0.78674183850299428
-0.11658724962455502 0.5744761273549448 0.73275875020493775
-0.77170018275305252 -0.35360368072562259 -0.19204327001500143
0.66453680337908683 -0.62192843423628652 0.59512583536637931
0.51445565487362432 0.0572939049122827 0.28006859985266302
0.16101352994683515 0.099868337886127478 0.17348603112988314
0.71972569306557976 -0.28039292405676736 0.62481631987372821
-0.094921228152562875 -1.0881659234728467 -0.8939233803583464
0.18847375537474687 0.69083304282569147 0.56990785288689416
0.37688259111173261 1.0413932413114557 -0.40040563818633734
0.13536202712579692 0.80847442016113369 0.5803039877043723
0.41477041686119454 -0.3609644653256725 0.21271561798685962
0.21075996186372614 -0.37337263711117219 0.66308788092163651
-0.20559469633520888 -0.24263668274346617 0.72894620266401311
0.16731144517391949 -0.39263205551737174 0.28350426012152774
-0.57522179955251773 -0.27679664777433532 0.66154883505235584
-0.42700337871792948 0.046481569404918099 0.76290929243723316
0.67967465349531753 -0.41675807087541328 0.67498089828024477
0.23367835431505835 0.10230232148647345 -0.42353220946371672
0.27369516568228869 0.77967244720913853 0.071455176707717283
0.10161358148971256 -0.62282496108933094 0.35417225622619242
0.16641239528698781 -0.088318986564739022 0.80171592053584217
0.12702734609743871 0.67613643645663835 -0.44770645846429868
0.54721892860114396 -0.25566023393371146 0.33487523953291654
0.80868550179483845 0.043914318426163057 0.10321675844934292
-0.36333531305619404 -0.69727677089676021 0.52088726159217369
-0.50096383991061044 0.52456557956417937 -0.85777694353497647
-0.73860382102707356 -0.79643697900478327 -0.399666236479857
0.35075431348925612 -0.22685638327099694 -0.48102641847093447
0.61658050498389105 -0.38867229885453358 0.7048708338516374
0.47850928122652636 -0.42125253008779429 0.37920256235526795
-0.20628228458229914 -0.42959988819836037 0.54996247968417999
-0.68240456667525951 -0.45812928277620979 0.39886863197031752
0.092785834630209507 0.43228403019311856 0.74456924798723345
0.018695607694110938 -0.28077567414789945 0.52692706363767239
-0.096311958146364285 0.43066797768945775 0.78666194223547481
0.46351186872011363 -0.6338264474394868 0.55720828188172089
-0.51249224000029203 -0.64338833486296076 -0.25881764009629976
0.86417323699293846 -0.21645345964774398 0.56260433090610618
0.064966637463808263 0.34663685788029397 0.76954118058363497
-0.051052082119385833 0.54496341969913797 0.72009185045992097
0.018827764160253668 -0.9057727114643126 -0.78809927420467485
0.26193200744033224 1.0317518624078181 -0.33788851596154779
-0.19872887091387659 -0.018623525355209392 0.6507816120743688
0.50590098575758347 0.90790929045631397 -0.39450472094656736
0.3842532753882375 -0.56876094599835414 0.58737797957424553
-0.70904401007056728 -0.92178555079508073 -0.40557958631065794
0.31541205274444784 0.8767875071664234 -0.33795243549485376
0.57583258863017228 -0.43663175616669425 -0.13389224825958235
0.26934029163997986 0.71858232665107602 -0.28942846458142468
-0.53764488270080668 0.75477629519546141 0.23016635209624048
-0.54443741167668092 -0.65045058867590544 -0.05323487323858378
0.065215520849438491 0.31308574034368031 0.73610489600731044
0.26852442101035612 -0.61510579054663195 -0.48406335407094653
-0.72485137242056519 -0.4857391434326328 -0.27853327841498299
-0.10286946263656138 -0.47955986656179439 0.3300860629684933
0.101358775927189 0.63643661470319257 0.63169335890728684
0.1648394653963644 0.85129441684564267 0.43480360247782524
-0.11421988638123604 -0.161732938410381 -0.26062962958704494
0.24514667627728537 0.077976119115344689 0.49460379262827014
-0.68714362989469624 -0.12394299984583249 0.15350228664680865
-0.42728206991345763 -0.99099274468063214 0.22806019595531474
0.092266354499186298 -1.2219650970227396 -0.36011916158095109
-0.57143588091851449 -0.54269735590781976 -0.40532803158202957
0.48956838186389851 -0.60734263611725747 0.47876012373501742
0.23722139640900008 0.52255066095080638 -0.51190344015695666
-0.54284984036482908 -0.58423805256207362 -0.12632876945931326
0.088891226341555551 -0.082085831041294854 0.7588964291721142
0.85954571868004681 -0.37567764617684873 0.44246330138058348
-0.13303708819734833 0.18570484389350672 -1.0840371546642091
0.3809277706438623 -0.17982987291582145 0.17592574947539091
-0.25487794640776174 0.20579784636923282 0.71190802749979154
0.64929631185370651 -0.55848564536072032 0.69028522928655334
0.44064145888961026 0.73407709361021189 -0.30845667911746394
0.66665085614217556 -0.47017344094156355 0.71091606834514676
-0.47495222091586653 -0.28760015803333883 0.69299103588238942
-0.13190640984291169 0.21363683251574594 0.75348984313204381
0.26301980002254077 0.75369371906347182 -0.049466436825626903
0.080315649449157256 0.6298057630003836 0.6433945701059034
-0.93203328658619844 -0.5096576708619277 0.29253026361543755
0.0034636458279240223 0.2461791406681989 0.74169723971177137
0.26047771469930275 1.0628128124013854 -0.32717384371059388
-0.093944234334352617 -0.56612963602992461 0.98292128478742957
0.8316142776480997 -0.17815996716648291 0.5696056968637373
0.31761091896630578 0.69556289896621526 -0.28187403622017593
-0.5158527436758884 -0.23123642862142718 0.69525738050061592
-0.14109873602630207 -0.81982906194419192 -0.056119402846477651
0.33596303143605843 -0.074868394759457724 0.70717931836242609
-0.58096910562222503 0.48293232071024261 0.55851959020050712
-0.019134148664541328 0.34310873066454972 -0.16065060131632769
0.19057190559038384 -0.28591442262432554 0.70341390307745799
0.57178419545079329 0.39531333801329832 -0.12762745392852115
-0.0075276421839998164 0.43575823613190567 0.78315793897574082
-0.42744055426356109 -0.029858162444439729 0.76711997599699733
0.52965119141844941 -0.27341249030776194 0.10114687367981398
-0.040322367064493658 0.31571855462549125 0.79434407442740285
-0.083813688367325612 1.3138620405742671 -0.19383715285094505
-0.01320397555815922 -1.1480834540771057 -0.59448635727641308
0.0098451862651927069 -0.085300927284794548 0.44592936654203497
-0.15427479575099068 0.42730709524505339 0.75147027050256598
0.31270749643118811 0.22051981161326714 -0.20677450876782322
0.72778485626301292 -0.56022465272235977 0.60546497748030126
-0.058382491568464978 0.19292602659177949 0.65637501155665512
0.35941155696471494 0.61542831042682078 -0.23313379449718452
-0.66205851167999585 0.17682682390362237 0.73758878026488928
-0.52773134540337785 -0.71087399252926331 -0.28003781506330272
-0.086470326731567848 0.39470150608969767 0.79913205674938026
0.50373036566513352 -0.12315455898050404 0.68645066772182561
-0.33353502930130174 0.58087311529771368 0.62950826005274463
0.069532153996899604 0.65621519647653859 0.63970953379261131
-0.72385473198441708 -0.49783544075967812 -0.26951752374238835
0.068474217674805216 0.27616481968452045 0.72408385670872555
-0.27132228900466759 -0.028197338745091671 0.73437990802179742
-0.22506263679917821 0.80530434841883114 -0.49843488955620008
-0.13054989060760336 -0.64504391347147427 -0.41127213157845721
0.43697010560109062 1.0456373826541294 -0.44495918465755713
0.191736567886092 1.0988162606395144 -0.26146356504553547
0.4375114594609868 -0.4147065128575656 0.37588974716262519
-0.21993213951790125 0.42052505460680556 0.76308203015366871
-0.73587506785979606 -0.38010685514639364 0.38577755091412569
-0.071857710831605193 0.5879909186918566 0.70902836924391699
-0.49720107052942186 0.12649508304248402 0.79316919289644328
-0.015100779230785233 -0.064100847995692878 -0.18244584547618886
-0.14437045149427075 0.36748171464338275 0.75447504679665167
0.65108546865179973 -0.21311689526482414 0.68221993979735962
0.68244187775775833 -0.23197574930897957 0.68149213949093412
0.76821641465703183 -0.27664486853608183 0.66081477724714621
-0.5551612553939711 -0.07247891379036342 0.73063194995833225
-0.66734407396349726 -0.41931753566955726 0.56489538869511469
-0.60534080744738827 -0.25423983077588996 0.65750427898572306
-0.58915677217314155 0.32697825281454962 0.05851558761947695
-0.38588283050696504 -0.72179602511805951 -0.09834959378956909
0.1985570221535824 0.060964637763161633 0.71892445397329074
0.15006041208416532 -0.34736663857908717 0.62306963465645726
0.098771973400618274 0.39730409787707655 0.74603863694222206
-0.68899371267269682 0.24148404540320195 -0.63384878636212272
-0.24742236090711944 -1.2482683190055486 -0.58485681906491804
-0.4077005948484449 0.28062265392157493 0.56351768155317949
-0.39111003153035795 0.007281456558559718 0.75976813121160358
-0.42658833312236699 -0.0025856857300934344 0.74729449476249377
-0.30064139635916343 -0.034868953145891557 0.75537279074834673
0.45213867567153554 -0.62122874541517625 0.59255622509295147
0.076123103248560975 0.38163162664177475 0.76430248986476146
0.66672733475972179 -0.20786586180409816 0.34115736166982269
-0.16572096891205468 -0.53281040791942513 0.095181801209663852
0.11078213381319779 -0.25348122271624002 0.67821655752735777
