# XYZ point cloud file
-0.099952198986742791 1.0344123484909313 -0.23115358896924815
0.76496285132656272 -0.36273722274345427 0.66103428852681967
-0.55797913983413039 0.13089499619639308 0.77973168158465755
0.45007174130564359 1.1043343358072595 -0.39455326277770153
0.13920283593682892 -0.3082244884085128 0.65219998959734693
0.36737825126504159 1.1202159256044457 -0.41644032394560837
0.31571698454290703 0.97257235389062213 -0.35485365385628187
0.94004426520186357 0.1903963724210547 0.21248423659520865
-0.36467690325264834 0.24530602688895231 0.63147844146379073
0.5878483511677679 -0.61584179385085491 0.67489948663079335
0.0070818623161414129 1.0144525956991568 -0.21305890786971493
-0.41612719851092472 -0.24637674330634657 0.75752143336590438
-0.72488887677774494 -0.26819047253982847 -0.048995013193725789
0.31254915897283952 0.47431766849589935 0.32743463782837645
0.32385050699259332 0.61630486879120006 -0.056323474283451302
0.17581915796360015 0.0092045447061094576 0.77499342404373583
-0.68180682302298046 -0.82294097904438401 -0.37249030371082181
0.34865129658873711 0.69090767826937949 -0.31755854377611603
0.3450229314797687 -0.12017152002337603 -0.051142926109121634
-0.064341549546075405 0.49799452738613215 0.7346018149346234
0.016207589809471845 -0.58033343884983168 -0.43766683273335882
-0.57975418550783142 0.047139057727837969 0.73963253160050435
-0.1104966407816269 0.28893786946879396 -0.15350663844575263
0.32587714030503956 0.66366748586180357 -0.26624956685362899
-0.23119268873702126 -0.59396104154613438 0.28742154121032626
0.42573520850530944 0.60005986972279701 -0.204907389088406
-0.33965817561498374 -0.762099145025942 -0.12934432415587471
0.14658858312494105 0.49813548438430011 0.64059265265771148
0.14447083148061302 -0.37119734778579527 0.39494845516010701
-0.62870614406946834 -0.16980337932795714 0.54186467035675079
0.59379549424561318 -0.25106931080235179 0.33993278649301839
0.73371760464577673 -0.17206126912426431 0.62538947360779762
0.11705404065910285 0.68326335136392524 0.61680735358410288
0.81862983085180807 -0.4622870122215057 0.51528605857731691
-0.27169029570744324 -0.23946802894615826 -0.61627762596720048
0.33163372025634469 0.58309102449468186 -0.19563265146041731
-0.42402378981927435 -0.10253478177215614 -0.31566539323282372
0.63248752240636863 -0.02156584604397116 0.51019838236029269
0.35181193371088448 -0.05249473558708298 -0.05146900136378707
-0.39488543259367548 0.51853521882809095 0.74074626758154893
-0.48302085799042982 -0.24701478171507477 0.6394455311708076
0.055528999265229029 0.32664471035709264 0.76162076165458137
-0.63645020786418072 -0.72794545872840988 -0.33249871301703404
0.40897046568791906 1.0244784908873159 0.2628289322670565
-0.52750178875972964 -0.66005614543732727 -0.28223567662162852
0.55181600407810416 -0.41171402485841202 0.73127859260018457
-0.017064015080958894 0.49147783634600667 0.52137415371270535
-0.67601153959797156 0.16915595896949168 0.58241813008208543
-0.55400385544707054 -0.78233665266637653 -0.06267966701349259
0.043903526503929369 0.60685266888651013 0.66105334829206908
0.084768372256888797 0.90281794937446236 0.15310471378136342
0.068853672293698098 -0.23822528354057221 0.65961666409735387
-0.44401669047534265 -0.049992875660137187 0.79600690171301702
-0.81593286356906547 -0.75315121728870871 -0.47382974427198521
0.5312600498970661 0.020097753471766205 0.5224118197599491
0.45457596653844035 -0.79608116284706232 0.71621664151067477
-0.14512101809941325 0.72889332123259531 -0.42715985186286876
0.66357555553621017 -0.54464607176778446 0.6850436225379346
0.10713186383187773 0.32687904965963632 -0.14441847861649693
-0.75430860577239234 -0.50834687523207123 -0.29777269455885969
-0.50889446401927096 -0.027549002317025312 0.71461184818180268
0.28911547552141292 0.64249005593741049 0.30030269032897006
-0.92673281880603398 -0.78242774104021451 -0.49847822220153981
-0.67127521719458916 0.48111459074592333 -0.43247433570664812
-0.20629939627549487 -0.4970677243517887 0.14566628103620216
-0.31733648510438228 0.24827940145142896 0.77785270923101713
0.40192076054943215 -0.032448362867416175 0.66949765524433802
0.34777482404636739 0.5121993655214746 -0.14422732991274922
-0.58014318155272893 -0.16544559947588641 0.697899891555671
-0.21075035767134259 0.78891325322412498 0.30082731605540897
-0.61316411074750288 0.4171529708991244 0.2812150672579295
0.59677242676763798 -0.56248632713864932 0.4668462427855844
-0.25754654875657546 -0.46690294624026796 -0.48887774259147654
0.66150592007374787 -0.3479467558369837 0.49090455126043819
0.47122150273207253 -0.68374219701427796 -0.21856669888235847
0.010410320873058432 0.78489125061789666 0.51706667632809344
0.37315849089072844 0.82424205210938739 -0.35565801106778705
-0.48139179835668977 0.47340568150854323 0.061376128854547018
0.17856920368799734 -0.42129904606233792 0.026955561342251855
0.40560366040923723 0.68803940434183264 -0.30041421080783559
0.34360974876104017 1.026307914774224 -0.37712394474837463
-0.57857853768321343 0.043171051475386912 -0.62680653325457336
-0.70284060728482201 0.93568076291326752 -0.48697051164671112
0.66963571194815752 -0.36399530649134704 0.643627220498453
0.3150340833323188 1.1214512463495629 -0.37218764484445743
-0.53960232852731138 0.54065012049889494 -0.45532343904724937
-0.10280295339084899 -0.35309551063333211 0.20910394977193469
0.36352234547227641 1.1258681236912811 -0.40747850437312039
-0.073563159834056632 0.79301459937894436 0.072092927968637976
0.26744809461220342 0.70873475057575208 -0.27930014424689009
-0.71910122059157455 -0.23017069823107733 0.38193274839580904
-0.17839400434980301 -0.46506242324747504 -0.48485629956209841
0.28347924878501024 0.68290236028745155 -0.27218160029634308
-0.51774015453284306 -0.31647226641080367 0.67212094073896478
-0.097230384670853709 -0.072837950356365977 -0.71765995604710664
0.2529263972566852 0.20119727026529441 0.58703404072293885
-0.077382624400716415 0.93718649724853509 -0.39202521786686118
-0.77045875171563483 -0.99289604021821032 -0.39958391756427458
-0.5645796373139621 0.4573612183100455 -0.097316710256726391
0.016790089837793176 -0.062794688759953726 -0.024689071844915311
-0.8055123944419198 -0.95024098356959574 -0.40222020456256313
0.54793261659609249 -0.2341794208990999 0.16027134311249602
0.069008626929146444 -0.13932150954093148 0.75194014278195298
-0.23221806153037294 -0.23751803133943419 0.73262365462586776
-0.72808599459026879 -0.47171574462224275 -0.33890261344515604
-0.76849590552316593 -0.84454731853625709 -0.43340731072316463
0.25148350530008284 1.0354031385511864 -0.30917509749784511
0.63253035208912545 -0.40230274365280094 0.6595828880730541
0.25137846821165621 -0.098663974145948408 0.76399639607366732
0.098400670865245399 -0.21776770138473492 0.70859986113548656
0.47132318991264821 0.06860774133376818 0.15435104146503065
-0.40057953023747206 -0.19484121888295974 0.80302294337514335
-0.016163224354514644 -0.030898595872417056 -0.42016369302951029
0.050611978212433129 -0.40398110267907994 0.2819282183354388
0.078520155626951471 -0.090438325728254804 0.75096216336364774
0.27920291588375923 0.055648185690874125 -0.16119921325884667
-0.089515093656188482 -1.2579382794060199 -0.043198163662617084
-0.11906353569389255 -0.13903061844195275 -0.75891482667805787
0.50351736581076723 -0.28111624400254126 0.72061349904284433
-0.66205960523860308 -0.94935536904381601 -0.29974972358834995
0.27598539200366567 -0.010784377465819117 0.74755746009164981
0.0027048007973283494 -0.088689049763155836 -0.18623141265656185
-0.45150982893027264 -0.077725535159937076 -0.16053948461558687
-0.15515342902917906 -0.41388139142771341 0.41734369759311196
0.26169851023482849 1.169682567484893 -0.30619720872486145
0.098001524949933194 0.1266971066091731 -0.67378879499473854
-0.70852950566109041 -0.92625459298905921 -0.40070712830662347
-0.18607866993320787 0.43307099859401177 0.69704497820612532
-0.21421478497668778 0.85483815102155114 0.15452507771522733
0.14877204493365359 -0.051972227995400355 0.77477502105169815
-0.11439394845805606 0.39452412447099383 0.77145989788587555
-0.038127351307325502 -0.62725731786556904 -0.4210538500326908
-0.88137334181720106 -0.53858491319550705 -0.4692904058365549
0.44954687363010848 0.033024283699961687 0.56561803072532424
-0.13799041354098851 -0.17800854346580677 0.084987379860635759
-0.58761528247251404 -0.6065438409766597 -0.26431575206348157
0.068588767804408479 -0.303495469965255 0.530195762827673
0.32078521936308269 0.2047616471137981 0.2452785697855151
0.19619111579509618 -0.62974351811220874 -0.29335295470843148
-0.86096529821680112 -0.611389099403711 -0.44506730070888922
-0.28683021755407778 -0.096497934118238232 0.78080753116432278
-0.41807309605093956 -0.50201884209967518 0.47916013956705139
-0.49353333913328384 -0.55585340050676058 -0.4079904635399092
0.27161315261474867 0.42316555834045799 -0.35717621393244325
-0.16707265140621769 0.0093332532534631252 -0.16982130472136392
-0.096700679755651581 -0.22093699960186608 -0.23691993336056827
-0.35341893986052175 -0.78095008891347228 -0.33067217672266969
-0.26205387634054972 -1.0519391344965103 -0.657968082685362
0.22948729578861238 0.32515948991252341 0.53608833747641715
-0.42402118907491071 0.0088638791447018528 0.75149474344478384
0.35756529361749029 0.76516116040760762 -0.33332805410412347
-0.56384719783571047 -0.16169974983685145 0.69009534027939556
0.14607361180528178 0.72098185025560668 0.59682988596618802
0.46391686747103023 0.77875275428467505 -0.35350985848359706
-0.15842357133723994 0.50311801340889173 0.74243805971532029
0.081841499893975822 -0.39335503328100163 0.30054510993123285
-0.85864811883663861 -0.77808073729773597 -0.49940432720470063
0.76019517674318049 -0.36326241489063049 0.65626072624946907
0.47109672053850399 0.93338696410438426 -0.44494058732295672
-0.13699067746875948 0.42064027786311786 0.74633281434794019
-0.093609948621736883 0.27515646440028341 0.74166065709209705
0.39393124439229754 0.19848665737578464 0.052584270170557668
0.67909694173392154 -0.18376535804901512 0.34002000997940796
-0.60011793906162691 0.070682824505142183 0.74988524474312968
-0.81992800527280862 -0.68813814166102971 -0.48589412238885721
0.76947484848203107 -0.3517893982426516 0.65810031716525019
-0.6015116625562491 -0.54860737922369962 0.0052938886872588853
0.30248156664390469 -0.31766331144272936 0.19913791376250356
0.35084195738224744 -0.17369288900002758 0.72066294258572838
-0.26294637044224889 -0.32124864598008696 -0.59540173780315508
-0.21546485028787044 0.53195710222892312 0.77584585433074849
0.80519702312925623 0.017727005433710641 -0.070991301336199575
-0.16151789868366895 0.40231619961850973 0.75489614020883766
-0.068310276389242697 -0.73085395448782453 0.33226228901663535
-0.23938363077380959 1.0169795591648205 -0.15589115799830952
0.16021246035189374 -0.055120521075538498 0.78913698439435043
-0.34275529734573207 0.28626594061491439 0.59759846328910227
0.19636438917979782 0.7745299669129323 0.52491679385292112
0.62341756700195305 -0.34220973589892623 0.71335000299216356
-0.54448986141431666 0.57149194523170166 -0.77052660114534421
0.1613741706311968 0.98045859934919433 -0.28634281175083109
0.22706446950976189 0.26300036398553295 0.62885954203645855
-0.14026601818463558 0.49176466421378967 0.70286420441510722
0.37970218917904269 0.52474596472844637 -0.31224963460030952
-0.41726256121447447 -0.34267265792295798 0.63930258801744411
-0.35345479212470776 0.11163939297311148 0.57985987523337945
-0.0059197116527158755 0.74730350062951001 -0.62779502320526892
-0.3819639565991112 -0.6555871134209007 -0.073862940534344723
0.1809529677962074 0.30442740011655267 -0.50581859853827194
0.35009380939473472 -0.85263370816948569 -0.35848867224458125
-0.45406228953376082 0.33708966027254816 0.47539004235977433
-0.80323506626546703 0.025446737362720295 -0.40087038315780343
-0.20149455484187734 0.3307183548785399 0.45378346860457636
0.22350583783164252 0.81697194490811065 -0.21597563460841473
0.41936922607023142 0.042642238825237738 0.43126483973874719
-0.017040116934570637 0.5086610533673348 0.73276320615188806
0.28293028669707354 0.89505763064230992 -0.32504666762910861
-0.2137393098064273 0.44298613327163294 0.65368570492959022
0.043217283714694466 -0.26801069542298406 0.56445569757441871
-0.27572419223558547 0.48113222902345149 0.16102669205123477
0.034243747031618033 0.22698919938524256 0.21474953181653378
-0.38708774649177546 0.1489490972606424 0.79921033668494457
-0.38930878868215602 0.073879249107809825 0.65856295902204598
-0.50707963531679001 0.045752434458688651 0.74435578393383539
-0.67865163534353468 0.1338456928939388 0.56250641810082125
0.28637400018798953 0.20441451980642242 0.48373192274209298
-0.12531446347916519 -0.53849565821495593 -0.059729344113786276
0.43014621236011075 0.80564541809951251 -0.39081987542023688
-0.51133517669329598 -0.61373624882404831 -0.21154573269237309
0.22527336242758045 0.7474269921278679 0.50076345536835487
0.92402445478227846 -0.022535236618508842 0.084014025584092433
-0.024534585801742725 0.43522712934044461 0.7845141886661684
-0.11095515032803971 0.57419204100532562 0.73121819622927342
-0.7620503230458151 -0.34873561867414749 -0.19429869898999264
0.65976782688644109 -0.61555495437151209 0.59704096546162178
0.50932068804499209 0.050837096882485611 0.27708719131155557
0.15773950552191196 0.096307065223022875 0.17245182818123528
0.71604487939544881 -0.28152889895995792 0.62129545474533199
-0.096669587832090953 -1.0880984654394992 -0.8840052523075308
0.19031643155290179 0.68500917277905404 0.56816834154551099
0.37761732517572449 1.0338101498802665 -0.3974350916340964
0.13932964937166115 0.80370608559945422 0.57978048034107299
0.40809332951943644 -0.36095702375108174 0.21497907296727825
0.20475011096474249 -0.36793235436211591 0.66475905105284705
-0.20895697669046098 -0.23631990134195674 0.73030887380680998
0.16048877257276339 -0.39003809702074038 0.2872856338046057
-0.57477784290829215 -0.26694999625677485 0.66220175818213656
-0.42377366884453138 0.052108966721250094 0.76173743973126851
0.67598063242385531 -0.41421234708384647 0.67313814574558806
0.23160025070429791 0.096361904828821565 -0.42268862356245007
0.27290533106527148 0.77161396226343049 0.070275992350011807
0.092387182629800058 -0.61544493030708658 0.3618079389673361
0.16332365866106469 -0.086353364918333758 0.79991520254531578
0.12818323632771644 0.6725945386580493 -0.44725350611613612
0.54145291166220988 -0.25741439816977429 0.3342162631172394
0.80322471178359667 0.032047477125997426 0.099176559978039869
-0.37283946750767494 -0.68434891462544878 0.52922306741577829
-0.48911124552633101 0.53036172609400989 -0.85633234906543643
-0.73477104015563677 -0.79011321221034247 -0.39873535008492844
0.34786455342082745 -0.23237860057457699 -0.4781622464617592
0.61268088723561198 -0.38576744942642149 0.70312589242907242
0.47199062679082715 -0.41916283458256259 0.38108330121059009
-0.2120859013335411 -0.42205678737525476 0.55414190464954693
-0.68164526614521104 -0.44705039974411798 0.40016399069453423
0.094235859605660388 0.42936114255484092 0.74188347586724779
0.0135693599767992 -0.27687729998624566 0.52882873274306785
-0.092553608132133425 0.43043331241450566 0.78462272363358221
0.45643618051385659 -0.62576452800031179 0.56176824396460256
-0.51237656193630277 -0.63975246377913586 -0.25450325133913876
0.86078259210064978 -0.2215981712140275 0.55748245554984033
0.066004868394609173 0.34469474812475176 0.76680826783712774
-0.046772936875043802 0.54368164800498653 0.71826775598836146
0.016657140260580405 -0.90678350846990141 -0.77863857993364993
0.26373429293821837 1.026724277269456 -0.33562831148022931
-0.19914154274378848 -0.015428706200307368 0.65025850475940405
0.50426685009044836 0.89611541094164138 -0.392672629462128
0.37712457910860486 -0.56121920274840109 0.59130287050763708
-0.7082862381806081 -0.91427607155349966 -0.40260534958137884
0.31511666300138264 0.86942448509831682 -0.33707379270052096
0.5701091153626564 -0.43994661269051383 -0.13071870253735107
0.2683962756744071 0.7114908343634454 -0.28976348091302162
-0.52163662590433912 0.76136132872813478 0.22832116531392593
-0.54584095928128584 -0.64395924822324502 -0.048601461872774476
0.065818328617424204 0.31129183122782494 0.73337853397456043
0.26400757601712066 -0.61734064594769544 -0.4766724476730011
-0.71756042796991149 -0.48143594412721391 -0.27927466786117661
-0.10956157726004978 -0.47399959881938547 0.33554826459315823
0.10416431846985919 0.63240101498612722 0.62986567140282823
0.16799446673488244 0.84585892078984981 0.43441544883494948
-0.11524159095728981 -0.16401071256947031 -0.25805410290678354
0.24177834731221326 0.07545833384623718 0.49224077748202022
-0.67867801951474993 -0.11839352965095232 0.1515791511121688
-0.44090768914390699 -0.97554665540222496 0.24178400348411455
0.079530775158153433 -1.2143741900121028 -0.34141947473193723
-0.5673717664761222 -0.54093648560820629 -0.40331387932050156
0.4824978549810377 -0.60081320974536234 0.48305084049226421
0.23691160868311661 0.51700943745557182 -0.51148901075183684
-0.54246492271630409 -0.57944971972266479 -0.12270526483711242
0.085907622332798583 -0.07984127404838981 0.75762893267699882
0.85574496810144729 -0.37838102039614846 0.43960488371808815
-0.1263607482334933 0.18848460931107591 -1.0799013343840727
0.37512039116746809 -0.18244142599012131 0.17629282546307512
-0.25182465170455592 0.20823685100594241 0.71026121293161593
0.64520543367007743 -0.55246589737643159 0.69069969487880378
0.43814721783747107 0.72332272340130399 -0.30870641285065847
0.66304854746385478 -0.4660774624887839 0.70969270918897753
-0.47629195173951666 -0.2785812681296414 0.69440556879506821
-0.13026020037498987 0.21483408055421588 0.75157675754069875
0.26202646855803607 0.74600152769812211 -0.050525748768996737
0.083396886635992207 0.62616330810498466 0.64159545744969904
-0.92598976442164982 -0.49415463557741068 0.28942503581303192
0.0040367041570753548 0.24562317155733357 0.73927666150655735
0.26262537661129898 1.058008937425208 -0.32461503710520889
-0.10239005539854151 -0.55272456817183646 0.98793419131210136
0.82804345688962888 -0.1834687946906402 0.56444685852841481
0.31599562048548691 0.68739851189538348 -0.28239544025141561
-0.51563728578347456 -0.22240898324116792 0.69585450844114904
-0.15058534364569948 -0.81352787298895923 -0.04474696251467658
0.33234041695436023 -0.075043483468028721 0.70451855092202476
-0.56775269908739423 0.48907181275596984 0.55579031063777551
-0.01870118936536054 0.33966138285081854 -0.16125950984979054
0.18544547836103198 -0.28157737687877221 0.70386449315231792
0.56694513823035741 0.38294192604029964 -0.13015944793695167
-0.0047981366066629505 0.43428837530905429 0.78086106122312327
-0.425395440976015 -0.023600946636301107 0.76639502662914916
0.52354734212849185 -0.27662990053066361 0.10189801205603777
-0.038462823278157754 0.31534407170661638 0.79199763803169521
-0.070284961267951696 1.3222456354431085 -0.18951978583097259
-0.021422789706958184 -1.1448032806114405 -0.57993825444653879
0.0066638148166150435 -0.084352488392410774 0.44599656837807555
-0.14985955130427286 0.42778933071414194 0.74954392124840619
0.3092843772570299 0.21329363907839755 -0.20762541650006638
0.72386117605398659 -0.55581387456192766 0.60556298905812156
-0.057935749610468212 0.19311730271074781 0.65441728460309057
0.35687225766693331 0.60624866335740246 -0.23424932009180155
-0.65247104134601552 0.18512263055280712 0.73458549069173651
-0.52818275754673838 -0.70658512949107011 -0.27526003909748553
-0.083216051264440205 0.39450087243419851 0.79700083179938841
0.4999016808475325 -0.12429941255768043 0.6830209118100683
-0.32425637593350354 0.58375366319486788 0.6279568782018683
0.073032723900762986 0.65272488454264777 0.63810982580562103
-0.71683581647599448 -0.49334943652468255 -0.2701346186536383
0.06867251904818239 0.27457743001003732 0.72137272864287216
-0.27111896150413217 -0.02377705494974458 0.73384922571323918
-0.21711261518108305 0.80933963638576345 -0.49741833490990905
-0.13444107845789649 -0.64517442245895473 -0.40365752281082701
0.43741822127643182 1.036837728359491 -0.44145334920304191
0.19529428526853182 1.0958057428508761 -0.25885788935280968
0.4308550520744957 -0.41245724457112354 0.37801769551664322
-0.21463507859632613 0.42193216714950177 0.76124964933716011
-0.73231037792159548 -0.36929254406508372 0.38538454579558223
-0.066804397611999633 0.58697643871535066 0.70744188860499602
-0.49174610597021307 0.13270143534574055 0.79140186083242847
-0.017004014212654767 -0.067033032950905236 -0.18077952979259893
-0.14079783578415639 0.36802924979287122 0.75245800943018126
0.64750527289185045 -0.21431876985829199 0.67835448099217577
0.67898516263722652 -0.23321390607408676 0.67752118951223306
0.7650683509144216 -0.27831201616171369 0.65657570107994534
-0.5517434407767231 -0.064466173875445051 0.72964754590359027
-0.66758501286909266 -0.40720193995286191 0.56619207922875858
-0.60396387611157332 -0.24427299396850277 0.65767593753216524
-0.57749054675030009 0.33048940827157203 0.056116129505556056
-0.39074175261412786 -0.71625991742024087 -0.090810579442230699
0.19616974573204182 0.060198218374628576 0.71621679537701677
0.14411405219257389 -0.34236964764999556 0.62491422012083375
0.099850114921666511 0.3945184578652241 0.74324534801459885
-0.67481992317885364 0.24398069129684519 -0.63542807597731976
-0.25688067911856516 -1.2426320183209529 -0.57023581229083597
-0.40110743046493669 0.28403437272291832 0.56164980918567187
-0.3889692218726617 0.012769342617612867 0.75889689925872394
-0.42406549648109948 0.0033166769598763357 0.7464103456684531
-0.30023071043271166 -0.029984589287283592 0.75486460707125791
0.44522608170814326 -0.61299723909062254 0.59677931095250814
0.077356580482422665 0.37929463974237398 0.76157016615207485
0.66142794547099948 -0.21174625874466335 0.33894019762062033
-0.17171853249085867 -0.52874974023705157 0.10163891134867797
0.10591141102381063 -0.24937080887629645 0.67883507164748225
0.17825848626863749 0.83984922206827017 -0.34308988867292478
-0.16558100085792737 0.66557583351287375 0.71076755303286421
-0.38295349798723055 -0.32169472338210126 0.39068860804773597
-0.65434512087966423 -0.609185632817977 -0.40682511083925865
0.21144109140307282 1.1292621303633983 -0.27652505072119282
0.10154831821314574 -0.067356835824732397 -0.48564632463584778
-0.15313244517315561 0.36169035652077397 0.74716058447026534
-0.22722520612920616 0.35241308226390577 -1.099345769016177
-0.64990520426528298 0.65980256311286611 0.014968733262737524
0.43815885116556341 -0.59200979437924073 0.49338286613241245
0.79563203665564042 -0.25144746634466653 0.62801577079305715
-0.74559336160282275 -0.23759389732578601 0.60837241423115818
-0.67485107367137775 -0.23766085357270206 0.65199986342041816
-0.56230093676796988 -0.40686104711033932 0.61159834035267613
-0.3250999258585161 -0.15309055221791978 0.81725579828634809
-0.11767164214141812 0.02982955457891534 0.73606619727575806
-0.30342989934925069 0.28262185937700934 -0.45864226576823164
0.070894691007102995 -0.85215762214257085 -0.38509820540085271
-0.78331795120456538 -0.91988434176982481 -0.39296372847081229
0.5238565527044774 0.76370745982364563 -0.40490738080794486
-0.77675237636109173 -0.75737106397288179 -0.4276361226628338
0.30134907817323353 -0.29410130114304606 0.054680332751249505
-0.16472658394937734 0.41658161218231038 0.75680143621205342
0.26740431342827042 -0.021930984269288356 0.23293895730923475
-0.22518116215872663 -0.10840644202290342 0.7359438019754827
0.038407000295790458 0.14659495161246816 -0.37864260695796892
-0.56014967978546737 -0.593985224246111 -0.22775050981499456
0.22607672871815812 0.90868910603949704 -0.24386423683579272
0.73669087353469931 -0.30898114677345045 0.61142009244460005
-0.80071342384612842 -0.20785018208815736 0.12555461273549229
-0.7589358623051683 -0.60490754895357246 -0.38418824350785252
-0.71395315190713871 -0.14450381683670405 0.66329615536656306
-0.2417608589353567 0.46974121967250798 0.77557286526656177
-0.67816278570498778 -0.38099957848382665 0.68687195585149685
-0.34826722969757212 -0.71041689178986012 -0.08998153585808355
0.18403467128914608 0.15573749580989676 0.68889030068457791
0.74641912254497966 -0.46125529506482149 0.66261973378744843
-0.24909011368589251 -0.34993506457285051 0.67554862355457079
-0.03472981654669282 -0.77468416595104839 -0.59025692707207345
0.40389627964047514 -0.1978810018952501 0.26104695109155762
0.12955646949708288 -0.057964191284270689 0.74774958741568187
-0.087800646308050456 0.73543984403672269 0.39918517989530256
-0.037135374354620276 -0.49759169376762702 -0.33208811372359492
0.28588978809553822 0.25412935344394494 0.52922635851210087
0.68857906919170264 -0.39012627847182058 0.63980081947298584
0.63835344064812616 -0.62583067019059613 0.62471583629326499
0.46859717390337496 0.85657925282697855 -0.42762616970009193
-0.37930417071591227 -0.5431751700705727 0.27730164181096861
0.46962857108754563 0.35368741853651819 0.8414768668424939
0.31220403661871987 0.31070348245260515 0.45831320665218966
0.57147245819941372 -0.50490716506448041 0.71911432722604363
0.050323540406396861 0.63582366067405371 0.65148989880515451
-0.73356128632313733 -0.14207800536490378 0.51821942383302588
-0.75676569524471082 -0.062942612000759207 0.131416696064104
0.067847114163746891 0.0052495091480417311 0.35166832408247817
0.057306113316524465 -0.19065989120891139 0.52217712991986898
-0.65520220720409372 0.19013305122226981 0.59175998541629737
0.18404464870723197 -0.15059785752001836 -0.036609701768906877
-0.13655873964199583 0.31966177020916808 0.74354938276624905
0.022383854039588924 0.020138463720191013 -0.67333164201352269
-0.18583373371833334 0.45316847613192635 0.75202049177710717
0.7752978711877172 -0.35119925544246633 0.65955820329458636
-0.50219516092490601 -0.21385720427776972 0.18203882979450847
0.34730548814018614 0.50412194498858709 -0.1001277243903026
-0.038137030578214881 0.93099692804422929 0.16176718703654358
0.42073434229602125 -0.052538627392393566 0.30061610369431935
-0.2229378631618571 0.89211169658525336 -0.34006049574696584
-0.33881293914000843 0.28999175691102053 0.70242903870873807
0.62758548498556666 -0.046997879151366606 0.57426772308109619
0.0008910515950653064 -0.70552757659022192 -0.068529371349629997
0.31797498877497066 0.41851864155051927 0.48981352062977901
-0.16925169041840638 -0.39526613114053005 0.77090384001305945
0.73922475145267708 -0.29621239982305292 0.61930312016455202
0.040015150080748074 0.61143058665843864 -0.52452815062869207
-0.34357412147001209 0.53922283412336336 -0.64974910950531894
-0.83131494863133337 -0.60492002662093314 -0.42384384496627558
0.15998642015329353 0.96961490745635937 -0.22805057278757968
0.59326053631784226 -0.37462576888577082 0.72631244723008104
0.57699402726484328 -0.58377480843718266 0.6944008937521462
0.050903779927744794 -0.2184754063766321 -0.54154449239431912
-0.63131980895383599 -0.76580201158673611 -0.33039128377386251
-0.7023209658943721 -0.16800037884563473 0.30797837363432284
0.28768734487293512 -0.19057345360551442 0.72813671477944086
0.084465321714778607 -0.13102860802686778 0.79287644389704659
-0.7842787974852341 -0.66893446997408801 -0.44728984120981441
-0.079437343354057943 0.15737677843242071 0.16659404447712534
-0.12212236296803614 0.75703099013574149 -0.5235233544395077
0.64387708555392753 -0.40948303038923423 0.65578995264535456
0.8219201228170645 -0.54289288123810353 0.77208317732150911
0.094387879898060911 0.83056224725266647 0.43968239277389809
0.85561826976811606 -0.40444379841928646 0.48073801559784424
-0.46704565872746251 0.62673602336506562 0.093982677437725204
0.098594408609590123 0.45119383353631204 0.72679176991277916
-0.55768066647261028 -0.27651926928186921 0.6052907935017432
-0.0092367801330874855 0.088527321830757039 0.38705781102296355
-0.90760702382515768 -0.17616041334900029 0.28327159444717076
0.022697478929528447 0.24674110151842962 0.73665760578482486
0.42942919616162956 1.2102944755077147 -0.42596907566657305
-0.2151626893867013 0.32346498950591718 -0.071492480133290126
-0.77415286054344867 -0.30969714323425235 0.49719327805819391
0.41775313035193129 -0.371582335007617 0.35372182775630012
-0.31473180147296975 0.95793666818406487 -0.29173162964662924
0.32555621865039597 1.1090206852062805 -0.3945080148415524
0.76703759892251511 -0.4410288653328272 0.65285733526340062
0.17517602390833653 0.54725303871103936 0.61838891297658305
-0.13032033324523462 0.30358124151285248 0.7481817230087856
0.16318804668021136 0.016748079686399991 0.76330012121635826
0.094414607387244498 0.017468696325365185 0.1979545222659731
0.082970563898892014 0.35771839267708438 0.75517084311460025
0.14800640680110477 0.3982703091644067 0.66760332182640736
0.15708904306295701 -0.32535600143726195 0.65585894465941397
0.56799928104437025 -0.046995599607482563 0.37961277604803723
-0.076831254802309012 -0.16394633573386219 -0.15187050624005805
-0.19905232718674243 -0.8224563103662732 -0.7413476671268151
-0.34482980398029606 -0.1016484046171541 0.81996369501793587
0.28960126060353614 0.6913779903948617 -0.29414212789756344
0.87086326432329164 0.16729738155890683 0.71904441050514278
0.92019988505341077 -0.2636866898039163 0.44886964686988873
-0.71947787954112596 -0.43611606297010497 -0.065939387016029638
0.088323152520532494 0.95567664307801103 -0.0041914936142575243
0.34317692426365387 0.53458804548030392 -0.11481179120506413
0.74949604160646155 -0.36490004599037174 0.63972877024408747
-0.59286615004031895 -0.32250581070730877 -0.20900470254390768
-0.12515855124135045 0.37137696166485479 0.76386404231367022
-0.1207551074962977 -0.72550371791653501 0.017449173083565306
-0.76797258633656851 -0.91329681449633182 -0.44096682037536139
-0.38929023938232965 0.49099302978039738 0.6824358458573857
0.071888533916053321 -0.10804700347110507 0.77966169089542092
0.17280469021587141 0.58510659335027293 0.60697529254676597
-0.20687631287903485 0.20096164200420191 0.77337201107604969
0.33600986109529518 0.69210482042122179 -0.30907199923787032
0.64261358682247383 -0.4126182948292999 0.6603567784790223
-0.15847748925924365 0.19348774135652802 -0.61753506917059831
0.45336987471963924 0.74627086067835224 -0.32505092423016246
0.82872516141784114 0.41248125548927583 0.0048877314704141028
-0.62017290205164 -0.77082768536236024 0.31325931753180303
-0.42806662517285488 0.025821860293770704 0.71802899809820209
0.029367710914576906 -0.26680072476808936 -1.1171530147367443
0.22373034824225446 0.14829689784534397 -0.028734061319923843
-0.11457104738883414 1.0352361797446645 -0.11470352065373246
0.62727377673400175 -0.54088017013663681 0.45768412413031001
-0.41431550099049774 -0.10240436607839076 0.81516559730914562
0.6178906885956672 -0.36327338255468478 0.69795682772810408
-0.26726140634537621 -0.068977205799789332 0.75075063001737563
-0.36344965426338094 0.21504011268727302 0.63689562056634352
-0.48842585270906858 -0.16509429064143355 0.77873681181471222
0.24149191427775163 0.64519918848130164 0.5342015590640955
0.046734955341665496 -0.29614391712475824 0.51344963475471439
0.09283775065710187 -0.13059564029210527 0.75647244932222846
0.49957881141165117 0.93458830662930814 -0.48147943120512249
-0.097708698065204547 -0.095047148165194217 -1.089255635641694
-0.78530426958398547 -0.58999268034173347 -0.38326820265742512
0.42108326536844831 0.62144107288539374 -0.21131574147254129
-0.32817786337444399 0.4125913439622923 0.81480960005518621
-0.49365824263046265 -0.78167569284683913 -0.20415642746644069
-0.62756636023962109 -0.00034945330090113691 0.72665509156576125
-0.88250567118891943 -0.89786990733277461 -0.53658346152836622
-0.14208749425332712 -0.54680277382776576 -0.14043723753263393
-0.30744382699504735 -0.12073737994976444 0.81277961388650177
0.043767990835339221 0.29811623544824239 0.74041315987780587
-0.66971902997403876 -0.10494090926017367 0.69716509405535931
-0.09796249902605203 -0.033234146176204266 0.29838714327665949
0.43332787406369411 1.0891360483336734 -0.48062280325578577
-0.76107503707558244 -0.36524412380045052 -0.094429681514113684
0.6507006113050211 -0.42432982701130451 0.71751126620227157
-0.25343759125094711 -0.29471908555018439 0.65140408645497294
0.56461681515300355 0.32884886812020531 0.90657298479810788
0.61637747102202445 -0.10984137266203783 0.35177812046810364
0.049232865296874762 0.2846057027673542 0.72693359751627773
0.57557620646001673 0.72307923140650632 -0.3898187701273822
0.38226908233195023 0.75116785033058064 0.15398627002513443
0.1813789347037264 0.87697091330175991 -0.053132378662509749
-0.23795338392123044 0.64870071204207391 -0.24750389315251564
0.56607019113321777 -0.31711488653878739 0.71976022299713471
0.067046568426634923 0.82046625670398865 0.45452825434861643
-0.2138224758077939 -0.42498372335283385 0.49782398835724062
0.36791655988971295 -0.24865773540976505 -0.25616194009790294
-0.069952079380893428 -0.13149083799027494 0.76278426353054785
-0.13741753686512725 -0.99693132873105417 0.1846449509042305
-0.083613346136393152 0.8063406692900208 -0.36084853142865536
-0.41620823507596594 -0.23610626560424541 0.7741061866002964
0.27384718562894367 0.69635699476162261 -0.29094647755291958
-0.17089301216232178 -0.050433920431208451 0.15178958680739352
-0.61133913029838416 -0.95822733196649668 -0.2694088523885243
-1.0403537230445712 -0.19963172089033515 -0.066368603658026715
-0.7876451964947162 -0.30288905089835638 -0.59595697517117419
0.087420446709662314 0.63783085755978752 0.63574194283149899
-0.18590302646467369 0.44402702838187752 0.11359388730242415
-0.50363639376528468 0.38602193361807557 -0.52952471346187024
-0.79089567496998048 -0.23739333658072231 -0.27650670564061053
0.16511790942361326 -0.067830147857602219 -0.10488221497731431
0.72398170693405084 -0.21027550405861958 0.34144551391107947
-0.45543664729213507 -0.40949058871074806 1.0089273806681223
0.28600377480970574 -0.072687878782955906 0.72699283908821644
-0.51109517028356877 -0.75743896043319558 -0.26212369541111613
0.4865474532129932 -0.43973222213816188 0.14689464049986856
0.87170916228358442 -0.24094198366115654 0.55621856254393554
0.27547548040210335 -0.089280423748073934 0.73855710885666648
-0.48989675202800853 -0.016260921947482632 0.74083835448799351
-0.64502484247483938 -0.30455613424932276 0.62833956136786639
-0.043776856079564275 0.46344777465577602 0.77686387876517493
-0.68784411788583621 -0.19897358501506016 0.66729760855789888
-0.73349404175093202 -0.41050610365198303 -0.15612314929882021
0.30208625374352888 0.32923037924861798 -0.26212550273824564
0.30867021760479296 0.63541247500089726 -0.22792390945784269
0.55009725785495256 -0.14430533182573407 0.67723276675478439
-0.09164422975493991 -0.028485565259528722 -1.0312174844278941
0.16756907655214545 0.81769035858936023 -0.35454133108589381
0.57329297330403173 -0.032689075410571006 0.027775238093729282
0.10726554923964815 -0.083370143974886429 0.79203769693917336
0.072660548853568319 0.60016708415787057 0.64643868979308761
-0.26647475857094449 0.030582705787583875 0.76078838833718598
0.20770823290719864 0.80722196565965243 0.4486316384706267
0.088220641186127435 -0.42521964226587394 -0.75432938060156296
0.095039165231377565 -0.53996568441750237 0.03526426571538166
0.32946351692972486 -0.28676046357248264 0.50716970543676254
-0.23925345968779571 0.95662595307330966 -0.3519666711866819
-0.018752794448801624 -0.043372505588313293 -0.64307142043694498
-0.19347333686968449 0.16987593843789095 -0.72956345694911351
-0.44631934086908376 0.06390457886456602 0.75971540640099255
-0.11204254090995036 0.15449901558803467 0.6466061235487206
0.45060425679217714 0.43747865069576036 -0.36160750938247266
-0.034503740760698842 0.6241021592620899 0.59316442525330304
-0.31223163832263356 -0.77668651288881985 0.27027453168048421
-0.3055379937121202 -0.10230220116083527 0.80033005829525172
-0.43614300137974937 -0.23382171964748416 0.76940287651666717
0.29225659953013156 -0.12580468512860177 -0.39700279991071485
-0.49800105279683127 0.018974258089010002 0.68019691865165199
-0.57720494753476081 -0.87262905164580951 -0.27077405939785804
0.23476500324179683 0.74395696830695135 -0.11014073317051509
-0.48370271379700192 -0.29400912379722144 0.67433787591324346
-0.070008276729841779 0.29346385418966858 -0.78624814913188701
-0.32805171945134737 0.30586371168144438 0.64109919128008197
-0.62180260371312568 -0.14831940718159092 0.4599511779540002
0.90823756863618721 -0.22072154491144017 0.46818175868445966
-0.57763606977901427 -0.29158785372462648 0.65632704805458464
0.58103878212856197 -0.77792679282372412 -0.014145100854960457
-0.59214535068459773 0.70868805473770813 -0.21680332009081654
-0.069959780783451886 0.73427489058081141 0.58581465864298976
0.11490410129919981 0.83513732213339253 0.55994519655916186
0.67084408087426173 -0.59121745180794893 0.63862798956763078
-0.64768319523352091 -0.0040808526141848933 -0.43552208551107197
0.65170185572388983 -0.59149801664041601 0.66067711108605409
0.25060109830217792 0.38796992721178236 -0.37496069308170976
0.091829197823482311 -0.32409818031320031 0.0073654294481937388
-0.57393871929321372 -0.23039045964421986 0.6628261485499507
0.32908895352224754 1.1036697945081375 -0.4014763336372027
-0.74035995622213202 -0.14010787256298859 0.54915922196471212
-0.37748392561257271 -0.28978059752416863 -1.0133158198149066
0.034569340992861353 -0.13916918194599534 0.63612010935516161
0.17576954065994621 0.8250748832656466 0.50553692300737174
-0.35334065693133238 -0.20450221791722581 0.30935938606526492
-0.11923461882966602 0.47942677648147181 0.74211302292837733
0.91879093562005765 -0.26137636073455317 0.47605089148647184
0.11747647271908407 0.028124428220127978 -0.083559757340396779
0.11431343623266332 0.80363619869754888 0.60235997274700048
-0.56386499193720352 -0.57509141151200782 -0.18896916637729089
0.068783954240843548 -0.14997031494402568 -0.57062083214377757
0.31167651887166548 0.53912154594733463 0.25718535748334814
-0.40228487029312276 -0.07654297077361305 0.81507821843450845
-0.054710467018260101 0.2892030411332458 0.50898166315031368
0.787852026647343 -0.30683162540504577 0.65115475149198199
-0.4793444708704927 -0.065910529592155903 0.77989434387255574
-0.84121428321702751 -0.6412119400108176 -0.45391118434584266
-0.46112887072762287 -0.61815895174811053 -0.075780050749947092
-0.47156923234861148 -0.74080390660691708 -0.22073823979578022
0.6872463202471506 -0.42469651191756763 0.39412214114072941
0.31562942631135882 0.029752081323718926 -0.22194735037117042
-0.37195179546297497 0.91273987606998741 -0.31334775584450203
0.062740256191964106 0.75964624911920786 0.65425704991045786
-0.58153556539773943 -0.32120592625301325 0.64294128253294514
-0.39859020581449722 0.14709826594629935 0.12449708143934979
-0.17995015388011359 -0.11733480982217934 0.73967213880928795
-0.44313234321174994 0.19535860243350897 0.66158391665865435
0.45015047373899464 -0.6076125010607164 -0.2023053850856622
-0.17627149847953338 0.42193439945980971 -0.50491611952514037
0.33060388732066226 1.1427627652864096 -0.3734971738866093
-0.26252722560679315 0.81536528201560854 -0.37014206119577558
0.7250765528771661 -0.51638403069443151 0.65230874897136237
0.10921062962388006 0.19356837034999863 0.7973646440606097
-0.56662450059639979 -0.92311531784237033 -0.22541086184378778
0.44896156237640283 1.0054781822891792 -0.44394815532697407
-0.083601688152349918 0.32090344442731494 0.77237147916983862
-0.56736375542967121 -0.023421507677286152 0.71839326633390044
0.48612459292726862 -0.54755598266040095 -0.42732538892128469
-0.15692119420900763 0.13551280514702488 0.75279812166862692
0.23978464075331088 1.1414504133740646 -0.28652036647223272
-0.70228452262383745 -0.41418094147256829 -0.12039257746839493
-0.35898349211190539 0.041492602659837202 0.76595085573157418
0.31517232494435976 0.59268559237052987 -0.056200434650176323
-0.064438358538133733 0.21269027174293517 0.74116146325528121
0.2657093468234637 -0.014877013238821124 0.76122297120233795
-0.80750228238768096 -0.21984780328500431 -0.2498156483680446
-0.20444954381683772 -0.46318155375824277 0.044595911544148104
-0.63712672095377354 -0.91132844041694283 -0.32067705907037647
-0.73975042695020599 -0.55674191738055023 -0.31209585895863934
0.7385357763001088 -0.3474326752673163 0.62145977694531918
-0.27387287613872557 0.058501053298445044 0.13471894626213599
0.057897113342933015 -0.28534264517084967 0.50239269804225373
0.33012132391127902 -0.18636878484682684 -0.050083276765867213
0.0060761993806347503 0.55890331075713229 0.67680884697608845
-0.8011773063267057 0.19477732705878292 -0.17561967487133923
0.1367437133153504 0.71132078873867421 -0.83482039272144482
0.37919637683961716 1.2247697355638492 -0.37627635253754821
-0.2944041364044907 -1.144233176910912 -1.1104760923877637
0.19860214452275804 0.45572331169909241 0.62429485258885509
0.011580404260058075 -0.44633588730635465 -0.046339978301538798
-0.86777917710997132 -0.69477763118547653 -0.48529707589280147
-0.20656751358146219 -0.12312357877010129 0.75536044353203369
-0.60212716991862303 -0.16634068903379048 0.68145260432858745
0.070848277385887837 -0.10748318209298086 0.76235083220902067
-0.20771870935508702 -0.51559533942294722 -0.38048551714857881
-0.16405668511683058 0.51305517414632185 0.66112327334233734
-0.23666538772568113 0.37881231741654064 0.77290601498446665
-0.5522264491065545 -0.65009290261870145 -0.29492460569610079
-0.69466196126067026 -0.47535108116147984 -0.35612844575712144
0.28281239248536477 0.93712075939320649 -0.33294740715809557
0.22304417121830644 0.67903481000228583 0.53907921081338273
0.22062093067267924 1.0044036714272684 -0.25205400067591111
-0.71516252293700533 -0.076352544325064164 0.10829247486431282
-0.39243666397501215 0.14283655949851926 0.022455591605871073
-0.54185774514059259 -0.10639675751461392 0.71331964176667895
0.27543552048959608 0.16052627585573864 0.47410438346369144
-0.1828273051025372 0.36755447463609447 0.76430355419161999
-0.32795428343150212 0.20642659171280645 0.77365575119052932
-0.24100871953273711 -0.24304964433063769 -0.4391429213814031
-0.075055484196840938 -0.88907510928840849 1.0029973596604878
-0.66350771869360414 -0.98520761945853641 -0.31815347950269657
-0.048780354967601025 0.21995584873762439 0.69528614891053953
-0.35056261953392009 0.41845135755723101 0.80812395698370099
0.28666822280491738 1.1919370302252872 -0.32530804893503978
-0.014928618867259824 1.1377151541481509 -0.52739028332231197
0.8936591135068217 -0.22128566237349059 0.40971419319310387
-0.51423348262785507 -0.69140623107839183 0.80620037150383173
-0.65190441124962284 -0.55023379007428175 -0.2476892390995169
-0.16851673178503357 0.3295082019222863 0.72450812612499482
-0.095386958521468834 0.51659293606680323 0.74081927954172389
0.26120247793563556 0.72900621181133962 -0.26543493400804885
-0.55285492246746082 -0.6993887835968976 -0.29174628734967079
0.42617390984055126 -0.49579080637136513 -0.11230993919096788
-0.53059972931703325 -0.51043583091591183 0.40688837743314454
-0.60628235828581967 -0.64869049395039946 -0.31274637882386735
-0.56798078520465434 -0.26255419777415268 0.66177368618802457
0.52206211970838778 -0.16439184633208198 0.32725930186158614
-0.21584084126973974 0.25256053868523465 0.096789630085021172
-0.3366747038127369 -0.3437740329336133 0.68918315187727974
-0.52751172118152434 0.012382501919103395 0.73343484510916523
-0.78423288349784714 -0.068474581066575446 -0.44139459317983165
0.19751840588894776 0.4232886012449677 0.63190968580324336
-0.35760243889929993 -0.28212498088201549 -0.47390041017509499
0.26752553198311491 -0.083710827173366975 0.75372524479339853
-0.36625562499057301 0.43375457140838891 0.2109695171667284
0.18656787538674524 -0.48308800445785094 0.23874934917437862
0.27521535068659975 0.012359968942224714 0.70370514385466232
-0.080727597229539594 -0.65111561529789719 -0.84169559507733682
0.35314265368604064 0.30529409716697042 -0.80522364648198019
0.40668332620894787 0.55274294874556262 -0.31908500815288565
0.17059994114551769 -0.024586072693685318 0.78500451880598165
0.6118996328752988 -0.64246732585183208 0.62879660922535185
-0.53094240673449034 0.76864507462136433 -0.37515197312192655
0.39685244682133392 -0.10611360212148441 0.70025143877971341
-0.06431222562731842 0.35089448092837761 0.3244305225148324
-0.60615135890384264 -0.54993492421350942 -0.18112468030768325
-0.28902034543438571 0.27436256181196195 0.8044825326427234
-0.22069453527406391 -0.011047856592013627 0.75278387166589777
0.3099936753085355 -0.063300987039413059 0.70843132353984395
-0.14599581519701665 0.04917894975587167 0.74098340094296533
0.29762615439755502 0.079289514103747211 0.49579087525273702
0.79051835555873962 -0.39670930544461969 0.41316856353101095
-0.69544748078729857 0.2117214903210545 0.71982469816854788
-0.13869400555149553 0.024481379368993694 -0.21886680585186535
-0.13685515760831846 0.50613151747113794 -0.45585453574109447
0.045212524198361859 0.49382020596241749 -0.55381582080016256
-0.5434142983467305 -0.0516481714511354 0.062310263179532033
-0.23621973397841001 0.40223382892082132 0.77084558383973589
-0.21118301930749817 -0.28336379722061467 1.1176155339324445
-0.30096884825857884 -0.34122497811808816 0.6895750021094571
-0.7271119403280164 -0.033707304271686445 0.57787008031919274
0.41908994353260498 1.1164948876720642 -0.392284642722736
-0.27777965217257194 0.022872366542689287 0.6920497476696994
0.26621106813461037 0.1644883036090708 0.23755469092200499
-0.71758422434642233 -0.74206156341424179 -0.38447066955876519
0.4608409960754839 0.78210750553885999 -0.36502125719213219
-0.54947732856391762 -0.040555214577338405 0.72643033714174554
-0.21362584799602857 -0.29857934999909508 0.70346796053335314
0.1215543124881171 -0.10261029344127448 0.80304439708410902
-0.41736506658800748 -0.62111981724621768 0.05475237675880007
-0.35997335075909542 0.022697756245728784 0.72702947397685946
0.27101741558136361 0.13769527086011929 0.45675056144606951
-0.27363519648620727 -0.17728628374876862 0.74950966314864576
-0.69061550750483225 -0.32046669779351522 -0.46490437513035765
0.76439358112207634 -0.35275494965517906 0.65332434823065832
-0.09484929701680378 0.3592202763676029 1.2041736243148471
-0.71886243624204449 -0.7905217313345021 -0.38963475967830119
0.13154362134583075 0.65426355733633157 0.61084628286359943
-0.10292220436382069 0.39146158697602818 -0.31068301544059906
0.15397343055671764 0.56815249138941371 0.88957274290212685
-0.90120613737231248 -0.65755442154766663 -0.48360856400818697
0.72739671070576217 -0.26517846007705026 0.64802119593049667
-0.33378949368812127 0.11271358398786155 0.78596099306554934
0.25530207418171513 0.26205826673475119 -0.072310083130506242
-0.38628277198516603 -0.3397506109334304 0.083727876758347253
-0.48949653481749067 -0.71553098767369705 -0.22057591837986168
-0.27254069306514839 -0.04219764348024671 0.21551997157304714
0.22905673583494804 1.0989671178337421 -0.27220472978925636
0.61753328357578341 -0.34051588414814016 0.71640303063722333
0.0020527822601149603 0.86134579282550405 0.25409080292202346
-1.0354864924360991 -0.81794129427514672 -0.25272621835575726
-0.63512880932184645 -0.10678787004273685 0.29833409358921359
-0.22387781042140831 -0.18751405631101511 0.74581899934910101
-0.82331153184350159 0.182133875439625 -0.25603238888580138
0.31266073996934907 0.26937468407542692 -0.20269483189768067
0.50121019944495426 0.74642650152478363 0.80265169107503664
0.27713997371470045 0.68578919138891381 -0.11800739744162647
0.19950296380476829 0.63736601517670888 0.57438447169600104
0.23737095879496301 0.55895726574274063 0.055882223925239782
-0.21607938008462052 0.45401291761858964 0.030457872063728852
-0.28387934665443648 -0.33439035230936037 0.61830976587175135
-0.59934605602567426 -0.8937445177946024 -0.27428685814173193
0.091720748483593323 0.6810472778185177 -0.03312106410160276
0.29051067749056236 -0.017298985327330735 0.7117193030971235
-0.066488299205310741 0.39727615738038957 0.79692601215607195
0.33568019787256365 -0.11222231532421675 0.91487700850131415
