# XYZ point cloud file
0.67852410075157543 -0.40554352627009393 0.65548320752382061
-0.16873673929540312 0.31937499979425876 0.76401083687217586
-0.68595923088655075 0.17994132001071339 0.6454696486026883
-0.63596581339312763 0.46170847930591652 -0.26315892304990385
0.38180269699102976 -0.56730642001248466 0.55461148718497988
0.11880913991513298 0.63648602176097313 0.26979998039031017
0.99901120424566781 0.77722644172020594 0.1853390192723392
0.15412540426849475 -0.4761318671653294 -0.89316899940789973
0.1525047212067081 0.15319099237614076 -0.23538596946927015
-0.30211219349668839 0.93494223422943801 0.28755688186753403
0.023267824608696808 0.49566161062981529 0.75717880098910051
0.4452663813450366 -0.19471311206024211 1.1040894223211559
-0.61747356647683294 -0.95364278612073772 -0.32993766910750466
0.14223766624530088 0.92163753070337684 -0.076534421244998541
-0.28116321251243459 -0.54499499442939481 -0.072869998231116284
0.37299205578502193 -0.70064943573814364 0.19502312344212847
0.17796422101132459 0.90268767728614208 -0.18607633467423845
0.73957303691457144 -0.27977417950546446 0.64150429741144954
0.52491275629932543 -0.25104476364662709 0.31966648243472306
-0.32077059575732947 0.53069665127466514 0.80449111635739179
-0.31998938175400538 0.22609729237825338 0.79887982228403942
-0.59950079765547715 0.095131403617439325 0.48960937918455905
-0.3351598323039493 -0.085608911264659859 0.78808363760376743
0.26839648771185676 -1.0484971345068494 -0.21829376356121699
0.34462083936062848 -0.28618111069931906 0.077550675433521121
0.59665549352401737 -0.65811565306383724 0.65197561105834723
0.010069661578463673 0.4675652553576608 0.77446709329107399
-0.052725589095298009 -0.3334382380823806 0.31916385736817787
-0.36989483860742434 -0.04562684139519213 0.25575481713635639
-0.44712118032934711 0.20236352455924145 0.24250812014631151
0.19192694255223097 0.82734376022840816 0.24882960987333291
-0.81339102429399457 -0.93688920414439281 -0.46220454163416314
-0.10608486971859432 0.72868669720222989 0.65017687327901541
-0.23447006542107696 -0.15682131363147533 0.76300143029598644
0.24393073505302665 -0.35183699830314907 0.57019646661415813
0.41638458100962428 -0.12901338222265935 0.36900656785940456
-0.66327280361314855 -0.63583072571665777 -0.31925117490905919
0.55527809357962843 -0.31913020715621432 0.73363265811405221
1.1880354997953568 -0.505991559125337 0.035407720678652055
-0.16981474291090715 0.16152060444738048 0.76455240695016435
-0.36604482468581478 0.2021092049588189 0.73241741914621272
-0.80887039133013605 -0.9276381854651774 -0.4601227467467055
0.36661847222543686 -0.37066674807824729 0.59806124172951236
0.76216136114039523 -0.28446561894323263 0.66916518960257854
0.366299837030307 0.52429518168766709 -0.12647557122761555
0.43501974234301377 0.79594119043988965 -0.34869945489619525
-0.10404444977797755 0.59998036972115099 0.72189641219951284
0.077932449016942851 0.11919712659353188 0.10663742447027502
-0.3174664307851236 0.30154925345148254 0.97262019556951174
-0.89279063602910824 -0.11150390581558867 -0.29771777907645536
-0.14607656413605108 -0.3400135357531564 -0.59186000712279707
-0.1462987353544043 -0.29366871480949186 0.70800741578882942
-0.47976163444650499 -0.82367912907040797 -0.22174404394445624
-0.59828469264864337 0.26255657181763681 -0.33509893267742186
0.083804616480639638 0.3845474049016584 0.76476516737180589
1.0115108166159108 0.34997338587238147 -0.32905028492149491
0.31279796620776645 1.1023650568674821 -0.41286759838872555
-0.072075594784450026 0.64162685604790415 0.71518714375772063
-0.80258039749757826 -0.30717113156572129 0.12994479278518156
-0.7768603037510875 -0.49349772402210679 -0.29852834325338407
0.39023817681776762 -0.26285923608502682 0.24256952967382261
-0.54492044953121699 -0.093433566879943086 0.73739454195661835
0.020217727830600385 -0.075463967372695784 0.7534316927937752
-0.36575579840065142 0.50429739812893803 0.0095711610648514522
0.051918673583851049 0.32532417474209829 0.75982885745093043
0.14551688348269831 -0.23717915719195837 0.71763630491690655
0.061965376106474679 -0.97354956800039361 0.090709429829963995
0.88475968155150087 -0.78790070016310931 0.28033470400830396
-0.42888347444140029 -0.33403431832509956 0.69288702552576176
0.72503840504826789 -1.1795437967087263 -0.13912037680844414
-0.051276474790357796 0.44893118504164953 -0.62326511126609496
-0.33503679055106028 -0.26421745226910698 0.77516167963373128
0.15182642497667853 -0.069704847262714864 0.76677060746596659
0.2597522370765466 0.79597478093816054 -0.28617223768457656
-0.17106433829537249 0.13123184436538793 0.86082945528571564
-0.18591319645178128 0.37841809267770099 0.089991356701236924
-0.50735247630708047 -0.10408182850282621 -0.02420138541782535
0.62272844997114207 0.4982423020781539 -0.16635133112504619
-0.4578774884565151 -0.26110877510705333 0.76452588069298777
-0.032512116167816796 0.15842992318176474 0.73956928148388279
-0.06231259647777021 0.25511240930528345 0.74581732733781614
-0.36323517847214415 -0.029974678820560818 -0.57148483578675524
0.33300979751218485 0.86404177521651349 -0.33881762931143733
-0.64945675029840277 -0.54861961568444784 0.050288525695137309
-0.46054385338937243 -0.41356998185613492 0.64643787378048145
-0.89192693166756687 -0.84097417430397758 -0.46816578334618697
0.20180211728583752 0.87579186360888261 0.4008081342891483
-0.77699991669120072 -0.57928402615676244 -0.43662007899389188
0.18754262215570439 -0.098829604843241547 -0.48035132300341843
-0.034255905336589176 -0.58128643358879639 0.96178537054565894
-0.81434588282762999 0.0103467450725514 0.22121264961523757
0.063005169541673123 -0.13957181879124647 0.75974682505087898
-0.98912380468496419 -0.83858387981286686 -0.49674665543402874
0.2062460428079298 -0.4989785357317551 -0.072364821725514616
-0.84611239235711722 -0.69585479565362274 -0.45250259205641186
-0.37854362150498089 0.22010155670915754 0.62040223537809247
-0.41310998066688676 -0.65142338303941205 0.031577109646200086
-0.30431381584243855 -0.38218010671760982 0.61784443561728963
-0.60177315795356101 -0.63037151936684843 -0.28891951207051925
0.28992652785718454 0.82183510518358194 -0.31696926293165184
0.056189719590326259 0.41244621010086124 0.77672002226126047
-0.63646508747264541 -0.1672812942612758 0.58604803945907236
0.078319611047708015 0.38518059695431273 0.77038118372788666
0.2211350885405694 0.10930157343539104 0.68819161478717739
-0.47486381369554209 -0.77006979610742743 -0.28428463084955702
0.054683615425690668 0.83846603104362316 0.58289948676955738
0.34423439341099416 1.1051749952196195 -0.42286599062104635
-0.57636527570606244 0.14390317962270593 0.78943370201411334
-0.21861792664924629 -0.33840315134244481 0.61149869838628135
0.33707107451283447 -0.40725435593312653 -0.21790265233729755
0.023423872913273414 0.047373146511701769 0.73891470319674823
0.49147756969961032 -0.47257223312610641 1.1221270818642513
-0.20207586565141433 0.73506049891041414 0.60018296598149767
-0.36090530982045754 0.37290855060724137 -0.12525616341304868
0.13022431716843696 0.36020689897586688 0.7056821814317189
-0.53057469629043474 -0.70797368154382401 -0.30422102027384135
0.37995015873158255 -0.30811681780344546 0.57860786577698065
0.065735614427761213 0.4494217614764322 0.76249351334877069
0.45093030114713395 -0.0011730219739884973 0.34106193880596791
-0.54413981653836485 0.49713071026377609 -0.4063924220834032
-0.79495805350659787 0.22092462132679636 1.6525951574716089
0.3326753236783504 -0.12205778565938097 0.72896935616291891
-0.41233986493431996 -0.38334361279280049 0.67507792054311722
0.64734466770855281 0.11195915418544722 0.62476737133791183
-0.65717079005181089 0.096724493127140931 0.77862574663692463
-0.66472105669313697 -0.54502001498558794 -0.12875499836935411
-0.23515458005105661 0.79688513940271122 -0.14484448904566527
0.082879411951173099 0.60511543774208487 0.65086793949107502
0.04204894643183188 0.96756893187540083 -0.19227576566967208
-0.63866689598752835 0.66535263093660468 -0.39233896461665019
-0.4098907188585228 -0.72453559643693843 -0.42945613024256168
-0.80577751546866017 -0.68346439760254363 -0.4186772339970819
-0.40307097661300073 0.9220036610295983 0.89179981411862919
-0.35542078930457199 0.26105564920548296 0.76522723014109317
0.23612076910809732 -0.041531291714653307 0.79921711292664632
-0.41999762563855692 0.52160149238056785 0.77006506231456129
-0.6783632216841311 -0.94660512109417105 -0.40784588303069569
0.23798215670073208 0.38691904420901047 -0.39624465996580582
0.75593345914194598 -0.29055629309109232 0.64825761765401246
-0.81509123287600849 -0.93869172362904951 -0.45872586056953146
0.34472810052821856 0.74570120776248405 -0.31451262028831906
0.22586838523288399 -0.24969535122989406 0.5841398501620283
0.40318948556546941 -0.40765762889250112 0.72057540233962136
0.81302750870843665 -0.44855301300063299 0.63058025883598567
0.64257280229732316 -0.67678041889699259 0.51243108824931305
0.15704856092095776 0.034706038632959846 -0.054349477919476641
-0.80299641896708351 -0.70127193770149798 -0.4177698455620753
-0.45899893021811922 -0.37826877568126527 -0.078488850835068291
-0.12277823589790415 0.74756197339396913 0.075304632117905612
0.37594219324454858 0.80422316857387077 -0.33372306122067386
0.2091305231188727 0.31427864803338412 -0.67609752276651669
0.27243703592806057 -0.049695029609119423 0.19704419709483645
0.21936439473080327 0.97504684148889442 -0.2697494689145703
-0.33983888954523378 -0.7341613081848557 -0.13465550901102752
0.26714461332405959 0.021073904978462288 0.74309210716491947
0.029588130440563187 1.293636982052905 -0.40397107930449927
0.75638975819825172 -0.30146692240197392 0.6385146587736461
-0.047867910704859629 -0.076078634234955089 0.048762904456449263
-0.51560146378540894 -0.15699788060640252 0.75940091406709342
0.19574644204080904 0.91487210747867032 -0.21650829039398012
0.18768128967614039 0.98299484499799661 -0.22615806372999714
-0.0284919606196401 -0.51990378098882228 -0.20338162638627111
-0.81832424907618861 0.25723709419002994 0.23050463859859249
0.49637929314024598 1.007705104834157 -0.41645019901817903
-0.45522066830103247 -0.77575999436655163 -0.24442554850937448
-0.89710541801837529 -0.045137082027201458 -0.30848126104036666
-0.3516581320083465 -0.064205743193801901 0.77623033974207623
0.61223973955784139 0.1608450925656868 0.35294477835214977
0.15305393566286218 0.33312561404192209 0.65885683345162249
0.088598966519853217 -0.12440190502418691 0.75824229435523982
-0.29868561986207842 -0.13691947411014826 0.80565924285494184
-0.083236749539359778 -1.0152741861548025 0.66654097631806764
0.85387072177518242 -0.38400514353246606 0.61104489020952002
-0.23041241999503725 -0.49170307910381617 0.41143957895465988
-0.59117964578829074 -0.087059505712003826 0.72133209134044485
-0.28397990406380647 -0.49997819494219176 0.56466343175286227
-0.72723964945087749 -0.3334679404679628 0.64156246094758806
0.029819714518375617 0.7911551165943127 0.64396717283367799
-0.27903234317361481 -0.1740272727712151 0.7870079417393967
-0.3881175574022615 0.019245152555506628 0.76892493931387484
-0.46987853377385358 -0.34772581794061086 0.66958933320119129
0.49918802301043774 -0.14568664799985775 0.71470516705991649
0.07797676151353361 -0.34143673488513482 0.44781740992072017
0.26502601263191927 -0.37886155667371479 0.75651437614395256
-0.81140281749458154 -0.83497317102260915 -0.43535524604059717
-0.31667265315574467 0.19674318503691968 0.28981504872700725
0.7282156617554989 -0.39583223005296642 0.64862719140353242
0.0083455835821251156 -0.7639230842691056 0.42730230659308077
-0.35888388942367166 0.39767875259537977 0.62847333700429431
-0.31442534039251324 -0.22635594475699516 0.80328438884133035
0.16300457253246714 -0.054963507446208482 0.78397551851017511
0.073950354181772315 0.31994135326678208 -0.57983151947107991
0.41170423399249634 -0.55738723408975499 0.43859534824141733
-0.77305969680222075 -0.19241452027420802 0.59792807286898864
-0.5246531208993912 0.54809486640070837 0.5034929426074779
0.055813947219768512 -0.070398848077302567 0.40828364208723045
-0.43854129079196014 -0.78839054084417715 -0.1807742909669301
0.54220855911388366 0.72859846324341682 -0.31988271588665818
0.72765791634278454 -0.45189444311928462 0.70348624683815864
-0.4731861895842906 -0.36255145730458338 0.67194629587240584
-0.1183639994220842 0.27818992589786085 0.75291906422823196
-0.47250244111146067 0.42511078078294773 -0.12010131244021238
0.31244468987652096 0.71049600649688838 -0.25423620253486412
0.010333056492783932 0.30193744244787712 0.77022975649389913
-0.84810886021251708 0.3145249878139138 0.090884850959968233
-0.65397939839941355 -0.57626878065471221 -0.24260055221790111
-1.2745070832097725 0.38902926380679004 -0.30120437644860409
0.86571769882132887 -0.21592724378425387 0.18917724929427138
-0.51782933038322954 -0.24382100896077752 -0.60399109281534002
0.13582865567864566 0.49697238105939867 0.66882935996510717
-0.42196915000624546 -0.23984164212492232 0.7897615535461
0.30799156556527452 0.28410496381063144 0.47280777085413561
-0.84113056039646183 -0.91347098489325074 -0.47186257352236183
-0.78088531119620486 0.081613354419042494 0.26816425419052869
-0.29525132285261568 -0.076877418250795415 0.76598988011618907
-0.65011299600771721 -0.0088450599749378966 0.50910787706982497
-0.40217312554788132 -0.66053519222879675 -0.12364735363515322
0.68776938396739418 -0.52760565900553846 0.42469681005000481
0.23799153778971682 1.1704861503669912 -0.32764915945168482
-0.45900704283136173 0.75233566472428537 -0.57394796449168695
-0.14775728878588312 -0.01088072422862485 0.74410986726217487
-0.094558787332465144 0.4224041543892243 0.80012340705299323
0.53205104617639298 -0.46259754069833825 -0.7314604509894842
0.97531921169554403 -0.0069069595875266288 -0.38826315987965287
0.15298078828894335 0.41271176650806218 0.68840460967564887
0.1566367881062809 -0.70592457659569074 0.60322421195545139
-0.35494766199695871 -0.24119235666093886 -0.37114865693790122
-0.053020745734583041 0.79176214305405956 0.36220861872353005
-0.62026275185688462 -0.07884887108376315 0.30944538551565692
0.084663046017416033 0.93098453317409913 0.077637510686404454
-0.70374326492252059 -0.96903464162380537 -0.38874050457771325
-0.2778087715528148 0.11242132567681384 -0.11329482419275294
-0.28375587854525142 -0.27007397222848262 -0.18445553062713671
0.30205630759645841 0.21580620537714612 -0.28646836319404301
0.90176145315487632 -0.34361916295012485 0.52675040553654817
-0.27725906001448619 -0.007903522980416966 0.76476054797038096
0.18884648425111594 0.95986827488833359 -0.22123382598026176
0.15907162534678099 0.24702634599677875 0.69978636142434247
0.6627824548615715 -0.12923970389212691 0.35298942860180738
0.65929655380451857 -0.34530164711665901 0.71170803747591016
-0.47711981931448122 -0.58338208204953546 0.220123584693102
-0.44298683903658009 -0.64332983745245276 -0.079572675606616627
0.74054796734823514 -0.47866319690908554 0.68583550053527453
0.29778245665800585 -0.29497855183121668 0.72854064259685281
0.14928334221183581 -0.49303126013065235 -0.085159103219151433
-0.45442922942164499 -0.76681368607743661 -0.25378199817907721
-0.57927695156032799 -0.10804409197200648 -0.62383751454133574
0.25527679878981635 0.82204977427762316 -0.28548220680918668
-0.40213708706676776 0.5705243104909048 0.67861588166713105
-0.041683948375830226 0.26811674537433383 0.75442262975125374
-0.16932043445801703 0.48414592619381303 -0.77152233815186655
0.15025781719458031 -0.13843513667705842 -0.41547368528404149
0.2805617230178199 1.0905868374319638 -0.39722600675792386
0.79918310570191986 -0.26437865213110712 0.67317642289981272
0.31182417066394086 -0.52618915783840059 -0.7611779048397338
-0.24462384819890204 0.15990325216359214 -0.55317687811916372
-0.13077643615458356 -0.44517155212319626 0.055965249985881371
0.37118601351411362 0.014007014237240156 0.67794619108675036
-0.63399537174520404 -0.70819043911211566 -0.33603184861805246
0.47980146529014789 0.87765954451631156 -0.39482193955167055
-0.22159457460561116 -0.54577800166263923 0.20106877383499011
-0.65551622306874879 -0.97355940597015689 -0.34635614744191656
-0.4519959614596547 -0.75170999196899579 -0.24466708230968237
-0.57968788147042272 -0.35102891416726578 0.64690482468090948
0.79515327545452363 -0.20602680349012825 0.35946223612563521
-0.5554069244526274 0.18553358628565864 0.7262173609111322
0.24767984187922543 0.58812544433481229 0.77475994319893537
0.65094647722056642 0.71032638935799985 -1.0216202950549906
0.71678223072435232 -0.54491425295249929 0.451796262574927
-0.56922477938282467 -0.082586446971199656 0.56739767231945848
0.088382820980444032 0.84603533529183217 0.39213933637302567
0.4689900154762503 0.064413470849005172 0.55520586165800445
-0.17920124439597562 0.77669611391419568 0.32029797980097641
0.30973018646364947 0.28299976408013627 0.49366382806040576
-0.06135869697377494 -0.32700501127654658 -0.57810919693450558
0.39823053385309137 0.70573806251088289 -0.29049077420531866
0.11074040544582298 0.55779020148960612 0.64649855510088194
-0.71367979479570431 -0.06537845789292529 0.51579706766782074
0.65311110456137067 -0.67814971646848754 0.54054174019279522
0.0023264224388572785 -0.52488184614924194 0.20561797844629837
0.093448526017203104 -0.15862196217251956 0.75289828496682532
0.74018903125756275 -0.50016137881795419 0.67582131084922992
-0.73871787400513078 -0.49961527686626983 -0.25233630593442413
0.34458652807908052 -0.65382098532619448 0.59895320514934269
0.18875376290196355 -0.18736763819059554 0.76999082528932306
-0.42104097434661281 -0.78128581383602924 -0.16375986583285496
-0.77942545090079784 -0.28986552208800198 0.50583424474100624
-0.43003597586233067 -0.13587154547309854 -0.046940261078148637
0.40114681245292871 -0.019305265912610281 0.42904354971094705
-0.082853226692911175 -0.52835910857683199 -0.022238533994155318
0.29175173483346484 -0.12652210843627376 0.73958273487779813
0.340910862568228 0.6757411221487386 -0.23615920670813395
0.19591359336763459 -0.28783835698127991 -0.2170382163561051
-0.32104790041503684 0.67837238898099272 -0.28577415010435736
0.0033099951887121115 0.58526196506071404 0.26164256354572935
-0.14914045094990058 -0.18850157136091017 0.74513437686859874
-0.0061279451851623534 -0.32195921069775402 0.50251941992086913
-0.28921000632353122 -0.17447237775615854 0.80310388038351022
-0.32656943755820045 -0.24173690439934248 0.79850863897554269
0.88883630739992414 -0.26187907436527702 0.39421109825901723
0.38302710357595071 -0.014896761638094169 0.6933810294845415
0.52361842905495815 0.85270836827635144 -0.36362609412553404
-0.32706553892528856 0.17434559308335995 0.79437988804128601
0.72592085687177477 -0.47154919112159721 0.69865266130713621
-0.60613670145423315 0.19269211734354741 0.69065909772781531
0.11089708882630722 -0.27565258307103235 0.64477207452807761
0.52318532560756248 -0.49537937018711364 0.3842683440241732
-0.41250284566298845 0.61843151618110159 -0.30297473726495738
0.20982415771289809 -0.13373010757359971 0.79976942426556796
-0.36189710708162792 0.61243786169068937 0.19408402792823054
0.64545895173749779 -0.16005835883816388 0.34595724197385458
-0.49189772704085399 -0.13217437877040084 0.34812307152560962
0.28554742213104545 0.6631919142800804 0.50179021381890365
0.45478791879083413 -0.5647651888022267 0.42029591301529834
-0.28232621779988154 0.22086881085543109 0.065876848174237779
-0.20690911341138385 -0.15219127740717564 0.75732707868136906
0.14660031429050946 0.93510193461383029 -0.31771445967739353
0.14506915735779735 -0.094287558143177463 0.80470923004711459
0.69936517670265452 -0.43920260870565642 0.71514639986191675
-0.72039340888104952 -0.13069728225101684 0.45812086541348584
0.36171397447762565 0.69707628007262201 -0.27318587160046448
0.35585204537056425 0.089662714011379485 0.46998526366759563
0.3873823102997549 0.67428656970121903 -0.24015507309289674
-0.86311243755021971 0.057618902569716468 -0.44235013246434463
-0.22104096090997594 0.47928936603796046 0.14443077807838733
0.35409649348890637 0.94520611143372157 -0.37224083924188811
0.13155411072200396 -0.16627382319172224 0.80829706811535296
0.47208403288428435 -0.54099640210087774 0.40446578007847123
-0.12787275805909948 -0.031643392559185024 0.74384578187344275
-0.087326456895066684 0.76642371678692989 0.38089970645164151
0.23524127123863137 -0.070056300734670174 0.79826644626656851
-0.3902613852955561 -0.80392340845460808 -0.27800494626941941
0.78644211924240803 -0.62409899641015176 0.76664901250085471
0.3714040856420322 0.76078900760376289 -0.32457576656699239
-0.57248735809923268 0.72379173083498216 0.59235589007618827
0.0026820592980665303 0.61717626511510204 0.68067977136895763
0.83171789416567554 -0.18601581596065575 0.62436121735051664
0.18274879045309733 0.69034039497635602 -0.88233313072994513
0.18518281120840818 0.2929948503206381 0.67774274566307291
-0.075091153344246653 0.18920450997184002 0.74736776645450398
-0.16264061049310019 -0.163685338148988 0.66589624009406734
-0.34862859119060019 -0.39658373661792812 0.60815071167534462
0.32412794755548457 0.45304313412870645 0.40754946359559518
0.065435960890638967 0.25706181837949416 0.031864490646867694
-0.23115844583907164 0.24155511531151319 0.78250426528254735
-0.70224348264697589 -0.54941353191127718 -0.24464049987524206
-0.39482929988830184 -0.40142508876046801 0.59877495415273607
0.12197901569256508 -0.1829237848172145 0.76712788799584608
-0.084368056936656721 0.22351721609888386 0.75719164193386312
-0.62173589083845338 -0.035036484479340047 0.73636965284033629
0.74349257642653166 -0.33780144254601119 0.63635070526717463
0.54364493624237875 -0.46801138243337537 0.72971875741848713
-0.8245348614312169 -0.10979743979741929 -0.45381593860314062
-0.48830821470696106 0.56883040331329582 0.43758921783706661
0.47331661406229841 1.1819894668215314 -0.48590065070695054
0.30098424424130821 0.12660502339540614 0.45704442622967889
0.67468676849172171 -0.43281941756982878 0.6759333545030799
0.86409018002571347 -0.41932662394775821 0.53097291935263868
-0.94603672656544635 -0.6552295994447821 -0.43725105193107439
-0.45229681255586174 -0.62485399374021622 -0.38036532960928504
0.34717738660157282 0.18992309013962938 -0.1303405230237793
0.27559055317626857 0.78809529117156885 -0.36223390560874336
-0.52399444818525476 -0.068092535766109741 0.74003980650421042
-0.054221027695541713 0.74998688931114188 0.6582503817608174
0.37241140970484521 0.6923684205587417 -0.28714115152596342
-0.35674603946672745 0.47358779575282917 0.61866778447860504
0.57497972714133949 -0.45055716143779545 0.36555741489936366
0.29032841555214262 1.1145913504209926 -0.40782872530196634
-0.43226600578862406 -0.040958766050597895 0.75567618796315728
0.06280882433301338 -0.34644218227738133 0.17667057431512134
-0.18133218415540808 0.28586891757993449 0.43209578052670494
-0.57654204512306606 -0.12528158475962581 0.72683328629432964
0.15222406281334111 -0.065640838233818499 0.75328267771707758
0.30829153692248035 -0.22796552028514672 -0.17106742752605086
-0.21574376245933991 0.37505852915986893 0.77019845063008141
0.21282329655035248 1.0378992028393803 -0.39558127952607869
0.21971253091622911 -0.38892229423359481 0.28030053445255021
-0.31168188801578856 -0.20953782714916436 -0.49342311326909005
0.052981119730775461 -0.49379980656084754 -0.12567831535160323
0.44449934073319985 -0.43828533448280282 0.72089794116803496
0.6698093685567752 -0.31994326435958698 0.71970490348799032
-0.33885648826971382 -0.76788468315519687 -0.14301316609043724
0.54349152189580829 0.25191447545063461 0.34260679685409734
0.87711122780437245 -0.59428876979626111 0.51790908648441025
0.23110414683867386 0.432043292786636 0.62579353458866294
0.23135899349921019 0.031990866740875923 0.73529050683053399
-0.7468296228939546 -0.95190499207453438 -0.43740515634302923
-0.50691261416734523 0.5675297567619717 0.40347866668058607
0.097009848966921108 0.48200537554875744 0.71435437318535477
0.3664598943535271 1.2311069673960402 -0.48748609790943398
-0.36128274032946406 -0.087547512092815083 0.80813299474849565
-0.94246389885427417 -0.5645964114615003 -0.46097185003407937
0.10012526889187923 -0.063115450150925234 1.1347128380335612
-0.11410502721782034 1.0564366187593404 -0.28582878648484922
0.57432513615976966 0.26018245403294049 0.37154932559896103
-0.17721448261325135 0.28827307825481707 0.77056610816455517
0.20079086154483505 0.90855440911430918 -0.46032947403417346
-0.6703797736057675 0.82294315904716342 -0.062445514638870492
-0.15954650903373091 1.0091154714873127 -0.23609966989840991
0.77605041211530512 -0.3676748297050132 0.68200750555627287
-0.58472752674023143 0.093360358081715056 0.78936663838520893
0.44194841247309524 1.1524730255719993 -0.41823382776122209
0.170088022745011 -0.33282860100076128 0.64093576484336978
0.34849268644644837 1.1531418320436613 -0.44061308691138201
0.30631580511424694 1.0072445333834965 -0.36581441712640839
0.98284316429334551 0.2775560509064654 0.26048282592028649
-0.39104625681639016 0.2273595858714712 0.6389635614772935
0.61629240001515972 -0.65882606371783137 0.64880168083393563
-0.037337749468229653 1.0048340140315455 -0.21766656661141326
-0.39824164290492359 -0.2914312751627639 0.75046369535944635
-0.77250586898781659 -0.2941710038344425 -0.029243309663637973
0.32107943804436223 0.51229791242705858 0.35097214171349655
0.33581064872581212 0.66112010248527309 -0.041437262684093312
0.18478741952700073 0.0015018562914566047 0.78981428404576448
-0.69141031913109963 -0.85427891768650976 -0.3887875689446556
0.35677390444397883 0.73866051600407268 -0.31567373950714384
0.37224284551054199 -0.088053520828069942 -0.061190304461035794
-0.08671975368069007 0.49982520874610614 0.74289713539370084
0.031437810812411815 -0.56270793346243497 -0.49504983674393976
-0.6030755755036501 0.007106293430152455 0.74944821676937678
-0.12399545142869295 0.30426540763214227 -0.14853554062299068
0.33440921083593222 0.70920733349535681 -0.26106657239841269
-0.18604786960514907 -0.62470480121494187 0.23993725077603756
0.44496884538231685 0.65648987797028191 -0.19406389943016222
-0.30728263580841331 -0.78283679719987731 -0.18713226622578283
0.13578850304414747 0.51686377551927709 0.6575410154038277
0.1817776047214994 -0.38178021721409117 0.36897296175607863
-0.64657824120428931 -0.21280192511318852 0.55024458892700068
0.62423666155325241 -0.23249505245637092 0.34109103956494913
0.74663100034936969 -0.15728582161718307 0.65975474888692887
0.095934690678608492 0.70190258172268116 0.62746700309856962
0.8378560416183185 -0.4607980878038429 0.51747416866542473
-0.29190060538881291 -0.2134036798186143 -0.63432049826258918
0.344158735387321 0.62967920267846367 -0.18573907999080852
-0.45244646486931828 -0.094676154805394042 -0.31481505242787478
0.65242237946001369 0.0072631305053763029 0.54176826089868868
0.37785798346946597 -0.017460354954117463 -0.056022549548828238
-0.43994938850116538 0.49632592440750933 0.74562812739868534
-0.4748484954325578 -0.28863284973880887 0.63490103229809947
0.04720352812611095 0.33129608129299548 0.77606946613046546
-0.64792247682659365 -0.75183631594165767 -0.34721862272535553
0.40400402300051486 1.0756690015835195 0.26655606824978939
-0.53085363336339908 -0.67551246185098091 -0.30541055282802532
0.570434890572868 -0.44063999560240141 0.73491347048695133
-0.035132992948382125 0.49990245047293502 0.53336689998642051
-0.72851776263253987 0.12849689442422907 0.60156480108532584
-0.53220251333063917 -0.82115239403107854 -0.10112772763356936
0.021746904697769853 0.61856559761244423 0.67109371139883223
0.056096903047135438 0.91284206449951988 0.15867615822030956
0.095088454707102255 -0.25954241971982572 0.65247715927247185
-0.44552534517543219 -0.087188735364495784 0.79812218952937641
-0.85310339829700998 -0.78439075291944516 -0.46116826966291313
0.54980575940322041 0.04498582426232911 0.55030524643962409
0.50289152773700518 -0.86926449586723642 0.65382039255764646
-0.18651659746022009 0.72594582583539946 -0.4316655239087499
0.68305365389364647 -0.57716794972545493 0.67620135986311602
0.11003494544386339 0.35581560482210595 -0.13785975935791583
-0.79631503907352119 -0.53155536109540691 -0.2824487495486494
-0.52083986424208994 -0.064017569709897693 0.71988657911475862
0.29107940865297444 0.68084928433638758 0.32044631674661694
-0.97567111955655772 -0.82564103364019026 -0.46904847119381721
-0.75530595687159741 0.46255962465428802 -0.41710667338580798
-0.17554360639809063 -0.51153008356569707 0.10814366029102374
-0.33664157346050816 0.22948179653340794 0.78360611432166394
0.41510302838474189 -0.027310966286179017 0.69194578732479251
0.36372823842058599 0.56005102114724448 -0.13145382003359174
-0.58476903927955259 -0.21223672424125883 0.70181148783351333
-0.26466473600994123 0.773002294397787 0.30669760194896867
-0.68696555657526304 0.38521746494674858 0.30099342386517947
0.63214102978962217 -0.57965188243362409 0.43432824383789992
-0.26277408931361279 -0.45053228959327818 -0.51910744865616287
0.68662175691475857 -0.34399689357793761 0.49375170251221867
0.50475149011405884 -0.67118396600024166 -0.30056564906443839
-0.023240377364155629 0.79218387701675397 0.52226188184339506
0.3771369956138102 0.87222992622301199 -0.360355013899472
-0.54405048871407846 0.45299311371750406 0.076309353153936499
0.21466281079865857 -0.41258865193031991 -0.013400251671232155
0.4188887955281384 0.74231676389920764 -0.29699530455026846
0.33221526647561106 1.0620228239255018 -0.39266300335782667
-0.63167322974490459 0.056360681957463576 -0.620993747755195
-0.82125368403060062 0.8793977976397338 -0.47826592505204069
0.68627221196822408 -0.37365359204375359 0.65534964020630504
0.29278959457635789 1.1466140308482435 -0.39234121732979155
-0.61123286900973195 0.52542858396480874 -0.44844162335758142
-0.076260376283939113 -0.35938002344406961 0.18298323209028311
0.34420908209513534 1.1579478341324956 -0.43127511215374881
-0.11074697775962328 0.79043816105209164 0.079289607901671388
0.26921350075744277 0.74705930650381713 -0.27629203916659151
-0.75008617263837829 -0.27573933784434335 0.39730722683503572
-0.17892005986462456 -0.44623318232464282 -0.52015837421072675
0.28771709132453926 0.72353757024210719 -0.26811567203553466
-0.5023046790635024 -0.36652860904763429 0.66497714230804483
-0.1171716372016145 -0.037291731230508773 -0.74111028725027595
0.25975344861533411 0.21811806729839844 0.60812605313153156
-0.12655997937447916 0.92362703616197717 -0.40036969467443662
-0.77147823712170371 -1.0439451281283727 -0.42045287621833438
-0.63681495887077499 0.4353477416718663 -0.080072738200716032
0.028577163497161884 -0.044297790662490399 -0.032210696732423827
-0.81598048767603837 -1.0009774180176372 -0.41174312789117451
0.58150734642341817 -0.20715962814356814 0.15286153618179554
0.08742569572975345 -0.15970536594234996 0.7541569696195829
-0.20932335163228011 -0.27267424858022604 0.72309840927106706
-0.77084869033350989 -0.48857742636067591 -0.32481946572673692
-0.78929829940303664 -0.88085475764236953 -0.43668824142528528
0.23217474743546918 1.0576072189187355 -0.32009719483836996
0.65094663605045877 -0.41934471473837132 0.66512535277364115
0.26538226823859645 -0.11130303702526589 0.7773337562529079
0.12254705754898954 -0.24031626525900407 0.70539525529779823
0.49940461526147262 0.10872790767827034 0.16863356745600022
-0.38531313338657913 -0.23853729349627351 0.79842205471484284
-0.01865057544241866 -0.0014586354357026821 -0.43368408299807726
0.087971698549214938 -0.41228782503994132 0.24923223067231959
0.093774585356566131 -0.10686604966288993 0.75624019413431931
0.29839143430737902 0.093185150374811343 -0.16333494760565515
0.021546347600417626 -1.3184014648883 -0.23182537691689298
-0.14108926857308957 -0.10260936955455158 -0.7852214992784603
0.52018084100637108 -0.2977328112745834 0.73381836037384751
-0.64915686545791029 -0.99394552547528292 -0.33669059022831327
0.2861885212705344 -0.014462561092540405 0.766216640598822
0.011020771157473686 -0.066016712301865788 -0.19795320062261723
-0.48083669376569649 -0.077519242190420279 -0.15595491503198389
-0.12056642552918406 -0.43775980301711481 0.38852475597355252
0.23085216760734051 1.1833652737250313 -0.32454163885120479
0.085075331693589717 0.16686751150644863 -0.69480041213610022
-0.71164373527684432 -0.96586820936172479 -0.42326573578543325
-0.21164398562364051 0.42670966756948303 0.70410926933016071
-0.27321075143599671 0.83376033279346018 0.15984295800976867
0.1611126909483005 -0.065013927418969608 0.78561735839544333
-0.13297854523153663 0.39087945754849063 0.77953827828408606
-0.021024734739325979 -0.61391624119183774 -0.48106436869829672
-0.94295017297793171 -0.56337005686282193 -0.43582776508332977
0.46543638629027839 0.051732946367782695 0.59074296292782869
-0.12813208193349279 -0.17306912966521271 0.073138730457710466
-0.60064675219856367 -0.62398641264949806 -0.27632154188511393
0.1003034773145024 -0.32054151033925304 0.51383448314747326
0.33905431209476777 0.23798385989591786 0.26284328376096866
0.2269984269792098 -0.61680119488741436 -0.3646307029165623
-0.91406940853009822 -0.63998689328563962 -0.41777855517098317
-0.27724688626162308 -0.12757630200812464 0.77916486943874652
-0.3845987062447449 -0.54710447686856245 0.45216978126479468
-0.50808825914191091 -0.55696436763909318 -0.42468709344389133
0.2790421050200691 0.46655416756148771 -0.35607680339868963
-0.17413095460950467 0.024541443243319527 -0.17305665146695759
-0.090894016761654317 -0.20290371134648133 -0.25587017945501955
-0.33497713427518239 -0.79161722227847431 -0.38496125927671798
-0.24815933037899285 -1.0588019350358779 -0.74894633838579061
0.2324204457971728 0.34762316128115422 0.5574654453411636
-0.43165470500479897 -0.022479610030728736 0.75500876240353065
0.36340921249068714 0.8126270034716212 -0.33445266579700039
-0.56803916903159113 -0.20672182238968162 0.69334727138530816
0.12524813489748698 0.74249183699796095 0.60730567426625193
0.47714374182608976 0.83933681417753636 -0.35644442519518194
-0.18621188278123935 0.49829739759017233 0.74828691129998859
0.11934014525116643 -0.40119685910251945 0.26932516379467941
-0.89983068196835436 -0.81345793636364672 -0.48106056708958711
0.77184794880862695 -0.36816515065247746 0.67640494370072268
0.47330869372590456 0.99119518582268906 -0.46265975531164649
-0.15847133834575322 0.41652306494793212 0.75384758745864566
-0.10424009256040456 0.27066564843005914 0.75089859818029581
0.418092897228449 0.24154012865725427 0.067198820095409673
0.70778532369026648 -0.15506405845765681 0.3532815891982608
-0.62679006611116028 0.029347189921983485 0.76099558780580878
-0.86348783987995903 -0.71454259604472004 -0.46829329315473345
0.78044267932550326 -0.35502644536772987 0.68046162988556524
-0.60661162908684885 -0.57951851627892825 -0.0051160598565562765
0.33789100601772315 -0.30793919007395765 0.17593037713562865
0.36806888443099828 -0.18604784570983846 0.7330575093021281
-0.27929913078333435 -0.29680670782892093 -0.61720683044947755
-0.24789615048127756 0.52273814258950413 0.77967815878836078
0.8410998415653399 0.085844371296855293 -0.053844829596435773
-0.18305845407964139 0.39622056575260078 0.76200038107211832
-0.001149523375233219 -0.77136505014439116 0.25804465651163966
-0.31473408985257523 0.97762095745139899 -0.15665941326364319
0.17231376971330281 -0.069022097009013628 0.8007758549133932
-0.37116027426374387 0.27080093215458145 0.60551063018701434
0.17802581363765757 0.80137602242744777 0.53584533632547959
0.63712650185043307 -0.35862164211311409 0.72877919959387683
-0.61558794584410048 0.56584927545144126 -0.78039267258972167
0.13707662485645322 0.99366569712222574 -0.2930312430514217
0.22954467358696062 0.27963368718161341 0.65034951918424966
-0.16666437435251558 0.48870426225226549 0.7098574654454346
0.39404336152500141 0.57692293873885792 -0.30731952784916494
-0.39443584555233402 -0.38679648006923451 0.62585466662472022
-0.37025395753896051 0.093957565829954959 0.58563299685815196
-0.041837185743082816 0.7570327336676268 -0.64697613139140664
-0.35986277387839527 -0.67468249462466723 -0.11533002422222083
0.17874293857308299 0.34422735800762982 -0.51463468442247873
0.38137178908661129 -0.84777852148381339 -0.46883319383403155
-0.49919227628075369 0.31593778762963254 0.48686586421419875
-0.88292399263783716 0.014882438072744364 -0.36999884274203509
-0.22338312863158327 0.32750637800081783 0.46312227106392534
0.2174524949232346 0.84692570232480779 -0.21324515447864378
0.43996788499248263 0.067226618089504697 0.4507340042766188
-0.037635611972245187 0.51395251394407282 0.7423209200014913
0.27617675085377824 0.92901554148384058 -0.33049741221025641
-0.24227622067949595 0.43540864228818155 0.6608669912821501
0.072011891804552253 -0.28556820241069847 0.55173068235094291
-0.31478086066007105 0.47423094633136742 0.1720553786946013
0.036020410388699187 0.24368674070126506 0.22448556693435862
-0.40226686797225186 0.12276532654614147 0.80443665658645358
-0.40353702257134572 0.050473361062918443 0.6635410422000998
-0.52412119940092206 0.010767429708319121 0.75110596058730827
-0.72944862552588274 0.093286796403090122 0.58175959335557614
0.29725562868753297 0.22750972316192897 0.50477418102172322
-0.095658458222365184 -0.54103233623541946 -0.10604947169679591
0.43797066087621817 0.86126101321505555 -0.39750293737892228
-0.51298947410735307 -0.62971998449585787 -0.23358017858035396
0.21127910330904576 0.77759250141622349 0.51430658706032695
0.96186036471449032 0.049378441680869578 0.11389591219610651
-0.041562740617678173 0.43769012590506495 0.7946580750266552
-0.14044209684551312 0.57304265519261044 0.73661793543615595
-0.81334911897829798 -0.37236773465017414 -0.17215532498640407
0.68738954535844465 -0.64666653941173191 0.56982795283561671
0.53625078683768646 0.087946502991152364 0.29637782253329981
0.17239580211099526 0.11895753976826473 0.17873170871762767
0.73077908990832086 -0.27825707190776505 0.64400966502212142
-0.11068373936136311 -1.0817616029551163 -0.98598053978322575
0.17504222223824728 0.71098454999390448 0.58219956466020228
0.36800113819868452 1.0740302479319883 -0.41534779355838936
0.11367511097816174 0.82404831080958729 0.58642743212798543
0.44545582974044029 -0.3511603788074833 0.18981483553032952
0.23841041767067495 -0.39728243658284956 0.65038833923450667
-0.18563749585782174 -0.27044267189182403 0.72079482635452408
0.19884156570186473 -0.39453329018505912 0.25635844542619424
-0.56986594064928431 -0.31703674720463582 0.66122255075546121
-0.43472474013583584 0.021980689854212976 0.76621295625258057
0.69159968364921287 -0.43129904015202669 0.68161366374739707
0.23875292953270311 0.13778411569840898 -0.43270868912751581
0.27332901572094137 0.80875126536516362 0.083718808929589272
0.14875125185680238 -0.64412013174319238 0.30284361939182247
0.17687024623552983 -0.1033674358932215 0.81048963092274384
0.11446402558723223 0.69820413058940378 -0.45354758843678589
0.57278199188376577 -0.24161008872872713 0.33156284192304319
0.83997452444008003 0.096234294208348281 0.12580200119351304
-0.30966780704436836 -0.74724136419378695 0.47827163652875271
-0.55361461207822593 0.53341979403357209 -0.874241076035565
-0.75512521823417789 -0.8217941942818543 -0.40329383852437495
0.35717043728341258 -0.19166314744118029 -0.50943214644557955
0.62886337148865623 -0.40627552359830776 0.71222715790582569
0.50881020278241129 -0.42207607509135769 0.35792508825256775
-0.17496226230424172 -0.45776561922855841 0.52736845262415422
-0.68230856478602586 -0.50135641970863087 0.39916457794186577
0.082425615117280415 0.44029605855148546 0.75713911206972995
0.042635920472176903 -0.29353793224599745 0.51405232692326308
-0.11218708195848714 0.42851768215428532 0.7926951403745246
0.49957174771347335 -0.66363126092666569 0.51780680823980596
-0.51436265428929673 -0.65475985727619079 -0.27803414485619626
0.87564931297156567 -0.19663308984168104 0.59387851214302501
0.057020744693093484 0.3504147156566928 0.7816228690111533
-0.070858272980877546 0.54737618788688014 0.72629268271188607
0.0089426319470411464 -0.89183519710414316 -0.86986608471766225
0.24567354289087406 1.0509850718068812 -0.34766779708011697
-0.19544153386229723 -0.031882467159434213 0.65138242648680844
0.51428150266970851 0.96036810559140218 -0.40450909669091217
0.41953191183427219 -0.59806690723579781 0.55565068191434008
-0.71291160571373124 -0.95277003717518127 -0.4237223339054168
0.31244928025277297 0.90856522123777061 -0.34225926912368188
0.60133806531679435 -0.41230454803909389 -0.17235793418805123
0.26989248536480082 0.74986613929635482 -0.28735902129013624
-0.61007509249680725 0.71947710940591936 0.24096836993529713
-0.53827897935435676 -0.67345940339559185 -0.072775990640201016
0.058957818241301752 0.31691533979059106 0.74827945565202469
0.27890134335246719 -0.59482628677315841 -0.54727649366587094
-0.75623492680266846 -0.5015098230646382 -0.26748549670623589
-0.069891823096600803 -0.49517474413489904 0.29822797278815116
0.084695258100615511 0.64963064113120339 0.64169415631523918
0.14548111541791298 0.86875282715806268 0.44225640686009626
-0.1137163402359076 -0.14493853581720462 -0.27296007842228676
0.2558496320265915 0.08975303479444996 0.50661364281626398
-0.72504316322570928 -0.1467687310429362 0.17020074497810178
-0.35464256416755191 -1.0470247115334388 0.15036045860401615
0.14517054248679218 -1.2437584116276224 -0.51786052610371947
-0.58980938311652853 -0.54582585578281329 -0.41121898907563903
0.52520427987197982 -0.62780726624446892 0.43933534048446887
0.23336293415974119 0.55767487356797663 -0.52017956105440177
-0.54537354947613004 -0.60060974221358698 -0.1398740519572037
0.10040326618342243 -0.095727179516106098 0.76390758462677688
0.87721290113394002 -0.36045604285759936 0.45055058327235464
-0.1727800614472641 0.22976716652647955 -1.1266133879686784
0.40626857642152547 -0.16094085560468585 0.16824028369006427
-0.26610179648573462 0.19434880174322533 0.71646453155720202
0.66586561102006003 -0.58743769291841996 0.67975713232044832
0.45278231292309945 0.78122365556090134 -0.3066065603273227
0.67837491481295853 -0.49288906827847168 0.71350762202119533
-0.4613186660887294 -0.32502708103128874 0.68758009661345021
-0.13856098732398792 0.20623213669422036 0.75946825096301396
0.26378493810911996 0.78253816969532686 -0.039338223220410029
0.062806064260414018 0.64145715041294338 0.65270305354929192
-0.95840574787294885 -0.57146330747511431 0.31721888074259574
-0.0013486042304493573 0.24532601918193553 0.75146752331173339
0.24219223679629565 1.0801948017438816 -0.33764862237869586
-0.043140909784999515 -0.64181118270130266 0.96010200858646932
0.84325365538304764 -0.15806877956806975 0.60186131293327882
0.32257625201828022 0.73152459381315804 -0.27866530262322797
-0.50937252337717309 -0.26781582673790894 0.69387610268695354
-0.096552672293635844 -0.83580021507952296 -0.12819063714311874
0.34632578172577677 -0.078592499965545848 0.72166040434987622
-0.63413628108345232 0.45493225900088952 0.5693773312124879
-0.026368018615612332 0.36016577735879718 -0.1557041120770073
0.21282071780351108 -0.3069259866394729 0.69861840928930619
0.5982451141786802 0.4490368666700526 -0.11199057959392178
-0.020987106016055801 0.43805710295748579 0.79175990658816175
-0.429580127320766 -0.057062566647609891 0.76897512560829639
0.5580056124584245 -0.25074042069893832 0.086507077222702122
-0.049353098077307145 0.31346251380287082 0.80278880220607896
-0.16235657452139551 1.2654865367024275 -0.2040115757766312
0.0093349695444362446 -1.1568685615573449 -0.71731388688765918
0.022383638298983044 -0.085669386845154349 0.44386064617274812
-0.17242659376870861 0.42286769040559147 0.75665802741124466
0.32643908357683182 0.25642024976513955 -0.20361906017759424
0.74472959719933218 -0.57792669824354892 0.59337416714076419
-0.062155762345283971 0.19091799442512336 0.66379522775314825
0.37011416082712767 0.65550623102698857 -0.22608270781577922
-0.69525435877513564 0.14226626162738398 0.75007321739530397
-0.52704967536678193 -0.72525789122231554 -0.30292845992274486
-0.10028919970006389 0.39213921305288579 0.80570602606383268
0.513741119110811 -0.12322723969490568 0.70671536861143025
-0.37135955778150853 0.56647182990657807 0.63321746196364614
0.05042333750768857 0.66722493576284325 0.64800630087525768
-0.75418040446642598 -0.5144487955219148 -0.25914165340931739
0.06392456828895865 0.27940494374839009 0.73626211173253431
-0.26833287353768354 -0.047822157977221558 0.73475965051489922
-0.27249449350615995 0.79430997362282518 -0.50595548249823885
-0.1186900401369253 -0.63617770585624012 -0.45971758614784974
0.43051911402544185 1.0854988673162715 -0.46415438449748336
0.16526167295501315 1.105760504924195 -0.27002922132594875
0.46839943163920417 -0.41612891140197839 0.35387098464331679
-0.24024284361470549 0.41251421885933848 0.76718260815905026
-0.74921513193895084 -0.42280307301284381 0.39491224646814871
-0.094566306874513284 0.58940363915990268 0.71397063120452842
-0.51288685393251399 0.099612062734189877 0.79860295756015098
-0.010531315451653089 -0.045074089612903379 -0.1908249379202509
-0.15918070318475319 0.36272608078692592 0.76031233197785753
0.65970575875138637 -0.21343995579872743 0.70558177222247842
0.69051753082171352 -0.2322093699605805 0.70552954515138389
0.77561169228772808 -0.27427147216083902 0.68608393423538594
-0.56265838330854212 -0.10605909062048813 0.73550001397646803
-0.65980314172349974 -0.46773818389633437 0.56421286202779797
-0.60431484049184592 -0.29491320442552738 0.65973450608102269
-0.64315070680011877 0.30914010634641986 0.075055658433194949
-0.364276890559184 -0.7387221927859855 -0.13840315445507478
0.20423732138840966 0.060233915396620041 0.73263230680944602
0.1777690260892526 -0.36757085152015545 0.60953682743057414
0.089877765445774305 0.40469205944161324 0.75919377146506406
-0.7446633221261787 0.24739086267205312 -0.62465456987465728
-0.21532965446601038 -1.2701886557009345 -0.70247239545426687
-0.43516322801628649 0.26538591212422702 0.57070605169782951
-0.39451740517198175 -0.016744199064273602 0.76182911052421964
-0.43142419845893798 -0.028027361838675269 0.7498046037435504
-0.29767406596597379 -0.056708392236125782 0.75566532406197595
0.48699420582291664 -0.65347565123477391 0.55668265056106492
0.067089490707751942 0.38704457035932549 0.7766240294386435
0.69055593319828024 -0.18626547595521803 0.34823717287925327
-0.13805888450077708 -0.54125921842798075 0.058796475161901895
0.13259676124692898 -0.27201909151659009 0.67249890472960061
0.16398183352948426 0.86308860250121544 -0.34743682869970804
-0.20449496110189136 0.65947586267557678 0.71297947035598241
-0.37092205393173305 -0.34807301026460191 0.37750455610627753
-0.68145911418216087 -0.6227839500919421 -0.40874611221603097
0.17964830552552069 1.1387394688879793 -0.29042284632236992
0.10252373610289167 -0.031671290563217269 -0.50484090277563176
-0.17178634064819054 0.3556506311399561 0.75483950180082182
-0.27968667427821936 0.38427090287078647 -1.1468284330163723
-0.74809391264665459 0.61735187630771637 0.035339158435114371
0.48232166182975567 -0.62067678252203962 0.44972668787473324
0.80709184612664986 -0.24008757335615805 0.66074553502346767
-0.76363494478643501 -0.2974875726477908 0.622348813086532
-0.6826182017859872 -0.29335941068850069 0.65942427384354474
-0.54266256755975117 -0.46226634035150305 0.60114566912278455
-0.31050522888455268 -0.19149382250411584 0.81357759522010831
-0.11327774543525759 0.014800748665920516 0.74033643680894023
-0.33824924994904482 0.29428397879620416 -0.45906813173131944
0.10538348456602309 -0.85114217432550987 -0.48419581472244033
-0.79444774737657164 -0.96651512171475229 -0.40304002800228034
0.53927020400993664 0.83206968916782831 -0.41158915960194875
-0.80663849653694397 -0.78851901233316646 -0.42239323983840116
0.33446184299994375 -0.27590521690587266 0.030025675761489623
-0.18730500810191764 0.41042877060006067 0.7636655768944749
0.29047269022615785 0.00012484111357480288 0.23639074991316988
-0.21352127657474096 -0.13511904906384853 0.73350478087053439
0.03630407640868194 0.17722300619527065 -0.38469456101215016
