# XYZ point cloud file
-0.13503239012770235 0.15701874210072841 0.61245716395358873
-0.13743498061057258 -0.11942537812931842 0.54531636826933672
-0.2525391321150573 0.22249021869462027 0.46627938821833698
-0.42433596977961702 -0.26761018474569465 -0.16340273030816105
0.028252795914975648 0.36608673711898265 0.52626612913622139
0.0062423710946444277 0.32978727842241951 0.54306113940813516
0.29788452586131825 -0.26147552742815927 0.69213652045752871
0.014565719610996231 -0.026340746273248561 0.70159046262482638
0.4026799754382005 -0.27983263694000587 0.45959175842970607
-0.70329941976328181 -0.66463181682110117 -0.26979883295023854
0.33079986792549632 -0.42229416239124384 0.35977775897669168
0.14855659481436689 0.059130193466554459 0.42359975810756334
0.3486378349906652 0.67476168901589739 -0.27539956100116098
-0.16989756984301352 0.28471643192813301 0.38528306454406364
-0.30938830389313932 -0.20830291015437641 0.35154878242986332
-0.19008231495915173 -0.090913623440298075 0.42462580536081607
0.089987354196492009 -0.070092015229397009 0.6922187683370753
0.20441011287912697 -0.28030840183326661 0.69262238659220399
0.052153838234750449 0.21067316124745927 0.60837805327857342
0.41315827699453478 -0.26422126931939333 0.47238375387633957
0.41179785667392177 0.66954673398066089 -0.34451181712049472
0.18967332966157069 0.29549513428212137 -0.12958371550271947
0.11622613943044269 -0.08894708149768038 0.66535207205884994
0.10879172877111498 0.91320067067872568 -0.82615112187822826
-0.17226729355503051 -0.44902653301115825 0.26200244303858078
-0.21903994594662107 0.076029079447532566 0.67543309587687927
0.011268504258677314 -0.050454842711529668 0.71089008593418312
0.18934464280282168 0.19214785120938127 0.11827773236909006
-0.15883826143205776 -0.33752187479060802 0.40970425740463268
0.10480804636068106 0.25313569307215977 0.55831225662570672
0.0075843063614189909 0.6433535652219885 0.18247174031286173
0.17202308802701827 0.38688492302667976 0.19313002828698461
0.1964616012564151 -0.33542458308301687 0.65446104558463947
0.14016796807931392 0.32004514020719776 0.46400846717632238
-0.025778343297390871 0.0042924484616581049 -0.24408528712323652
0.056778692627856647 0.67689117765486539 -0.5232599488296894
0.2987264460080995 0.55821804100141459 -0.21599099035358893
-0.080616438907333998 -0.095897182570768291 0.58210795735030374
-0.35062832511273806 -0.19507231734737562 0.40331235086221578
-0.18790633712000893 -0.17754147648556229 -0.12129654954326491
-0.032510666618506379 0.12278244073292033 0.83551586548373935
-0.060888500937768875 -0.48433879628237519 0.090207833956771233
0.2057255599058434 0.75394314830139841 -0.12538630482698332
-0.1239451744945127 0.24770204486120506 0.5978171286479026
-0.011282340598710972 -0.058997190251058318 1.4117120417272491
0.23273624514298277 0.32036163213115165 -0.056725295640319251
0.51263092817250633 -0.34750154213487011 0.58053173136071412
0.12379974324757276 0.22043592108762899 0.53201392911377376
0.46147972985612196 0.68003285476893227 -0.34395814372088646
0.24739768155887953 0.33398882890301906 -0.069555931099000434
-0.43606450778965444 -0.40010270554665656 0.020174012025901689
-0.61520397027432239 -0.57039910158590401 -0.26960573296798884
-0.12817070821363191 -0.12403875457592772 0.52057110217153069
0.12724439056215547 -0.21212749709050793 0.28384769061777765
-0.048323497719767905 -0.13422890554096678 0.5857809222275917
0.21581225468487625 0.33587301672299752 0.37841569031930727
0.01966789291665505 0.31275547108471891 0.5604673309409568
-0.0050966378954652725 -0.033159872123308398 0.67317134574960313
0.40311978887142641 0.59385427500044752 -0.26552366046461451
0.22590198752803586 -0.011837905235124402 0.74576487899051036
-0.33288716656574302 0.013080966197950183 0.53022675685758558
0.04191280981151857 0.39782882934214492 0.50312587428205369
0.11744093004699166 0.5022195740881803 -0.087835599687090149
0.38257086883942026 0.92765921654316985 -0.33728833938937941
-0.35698409099709288 -0.31896630143567856 -0.047256415531308271
-0.31130175748016836 -0.044287934626701331 0.073035250434526189
-0.39822808397767012 -0.012470538717826996 0.47646768614057161
-0.25475009479521465 0.1093630522847836 0.30081545414762584
-0.21080828663585399 0.015320293589690892 0.66929124851609556
-0.77064453163172764 -0.68860300286063891 -0.35720692514617713
-0.40673874098269835 -0.2746236139182659 -0.31007194324752874
0.37735428531607079 0.96876863963866966 -0.35554721166292336
-0.73740862027095622 -0.66690171436462253 -0.39665678121320797
0.09456847931836343 0.30667156248066674 0.53030544998877849
-0.05707322488838551 0.29960473054782144 -0.18465444004964315
0.20755909292665609 0.36233994477980447 -0.0064942012760279555
0.15323407679489054 -0.24301304113012612 0.69287126419592981
-0.16975861699476358 0.024337939724559776 0.65949638957983781
-0.46120497177054504 -0.43716275317570652 -0.028235563599424751
-0.72460040322685804 -0.67048645462705381 -0.27597840708517535
0.085121410602672365 0.45340439187778714 0.47336050518465211
-0.25105691711231787 -0.11752534560606009 0.58958606544254422
0.20905220861100834 0.22963678422895584 0.19304649170822041
0.23897195504029378 0.65621051394945618 -0.16205706447353674
-0.1857139446952058 -0.35623538637834817 0.19270548022112283
-0.72163786562870902 -0.83930916977374093 -0.72921203205628515
0.44924684729167258 -0.27581512396427693 0.62607297394020445
0.28002154401860951 0.7253132914831244 -0.23514782869622053
-0.0142797392781987 0.64023412252518264 -0.17415003135926999
0.3886657159621793 -0.30910321614062486 0.66647420094637755
-0.52003550807175491 -0.46876026705410573 -0.21165857901224694
0.013982329687143524 0.076007030423023925 -0.23005014878021091
0.040121124447578815 0.12676166191936222 -0.052602146685280071
-0.56696945746257676 -0.41858456724980181 -0.44144292615474245
0.19821789535789752 -0.36573720218278932 0.5507257760571751
-0.20237677624757888 0.20658436467229335 0.55905019112288423
0.40325693873755425 -0.31036671940753935 0.65774558065816313
0.01224976459496202 0.36782345583482279 0.52768317180653401
0.31274624096158649 -0.13433920661210896 0.55578783455428415
0.21617788173485936 0.44544596320740171 -0.14746801475273952
0.0029923746603643386 -0.057453887129679915 0.68412841527283175
0.36474253917724886 -0.26175314151763129 0.64426951909342578
0.27192822613698253 0.70444106795549311 -0.22138755953218436
-0.26880055506324463 -0.13971693685481545 -0.31182888789533902
0.019884164014705163 0.53255695379739088 0.3782336585230533
-0.56413747963749472 -0.40892632582604022 -0.47362515795749949
0.31492039477094813 0.81611604529825632 -0.33372310199387539
-0.41617010132098681 -0.6088686404534891 -0.48194370702939948
-0.49528584362594225 -0.34079147588114783 -0.38035263532043301
0.17620631079012095 -0.29148381322306177 0.4605920396293926
-0.077500550381220834 0.040523060448035331 0.13055016074159764
-0.26932322764944699 0.054358883719181184 0.61335010995291961
-0.57199055296892287 -0.51943683633425097 -0.25417929788444676
-0.49917057041032059 -0.42966545937667211 -0.21336184730752622
-0.068414009122360564 -0.15243516732791917 0.42008015073432042
-0.13700368927170264 -0.32767063822424453 0.44396353994615445
-0.17337652934552827 0.060510895193101044 0.67838862059189031
-0.017889801103514513 0.48447409365194349 0.084762037264006107
0.12039372260882503 -0.060661415740825286 0.67576272950345762
0.28032735013693766 0.55545383562327588 -0.2042091372270925
0.30962005050068236 -0.27992759576023535 0.6696003908511865
0.083253292936923518 0.22622187550741768 0.58826009044823713
-0.031177304938680206 0.075745258547414318 0.40351725415253786
-0.012732676462629544 0.18990721945760292 0.59283597500834517
-0.38599223343692501 -0.20773757382105595 -0.53173727607856702
-0.16768989024096204 -0.092014985333933597 -0.55521687200539316
-0.42565623803398356 -0.38022649168799877 0.078945555320889205
-0.3236133173766706 -0.41162576387852934 -0.18358196277107192
-0.31418203359250474 -0.067940707285790825 -0.38009229651052762
-0.056224900493922592 0.32899451819576786 0.42910045698091587
-0.028044215468918332 -0.080424235461010296 0.64674850215408841
0.59108746022510772 -0.43341696369381044 0.19636732579869726
-0.14525753526530427 0.1462082220950407 0.61670965491746332
-0.23380606981012508 0.1509758637240346 0.34454322211692973
-0.19201409644432293 0.15838557028767608 0.58826887181578646
0.028496407236761889 0.21051718434954536 0.47203444394326205
0.12808383781515678 0.39452066852583634 0.44348672144556311
0.092831371666510926 0.18374074514392591 0.55386864333812724
-0.021710530109471715 0.16393774833409858 0.59791060643261651
-0.012243196598132222 -0.24150313612285185 -0.13369772389233325
0.16100528486671559 0.24401080520597673 0.48154392483013697
-0.44372155769822963 -0.31499343844338312 -0.13641297711811196
0.051564121498455462 -0.22066925219494882 0.36867001692248363
0.019668085949313185 -0.0062966304057854305 0.54790286169711921
-0.17905291365860276 0.21325292639735915 0.57533494150091369
-0.54239985072654362 -0.49923762480015688 -0.2098570305882112
-0.2163990755824679 -0.24833854855513204 -0.17658864007983049
-0.61426501616976448 -0.51237821598423361 -0.52921071563785183
0.035053310067620858 0.58022990341026293 0.071015911007044852
-0.0365486110856591 0.37086412625524368 0.5613921570207101
0.15840741997538074 0.33247520752579263 0.39037650860492595
-0.13461697117033006 -0.60314628484888988 -0.27760320566926522
0.08291618396611683 -0.31327502820791064 0.59093563505379199
-0.26166342061900877 -0.0065059334871280239 0.6309894115697563
-0.11038178582628061 0.13798680814805075 -0.40269945973303573
-0.031433276814714639 0.28463942490345528 0.57142549197731229
0.075104145758853713 0.0071605234050472477 0.65342438776541911
-0.076898131168686767 0.054376337434573818 0.63982285943070605
0.41089812789926972 0.68629567823434812 -0.31153988202548516
-0.74766888334232817 -0.68856035319589703 -0.27044838019230644
-0.026590706316806156 -0.11825141085701096 0.626592162181691
0.069406731901848262 0.3294375871856704 0.53901127657209869
-0.57703530817800885 -0.5700531573934533 -0.23818406776799272
-0.1441518072535885 0.11295160873823951 0.62525338080143911
-0.19862188587786261 -0.0048105964125402245 0.6537774212563916
0.49783915275788432 -0.22666487945629105 0.3622305653613061
-0.72809017077718485 -0.65864656599223903 -0.43032729238862044
-0.056632336415202766 0.50237422239944085 0.43556873153421938
-0.22713257913697132 -0.047752306830038616 0.63514543540583102
0.54759788954170396 -0.51452934491678792 0.67380996754378664
0.13583218351178317 0.2869497910737675 0.4774727241591043
0.49251669784394297 -0.36940420647139116 0.50377276638037172
0.12969942437956955 0.9739980921235063 -0.16927710477827673
-0.35291023048347225 -0.039273615915173532 0.2557086797863859
-0.23347406332319148 -0.50594740467816735 -0.18478608539996927
-0.48395887434694901 -0.71036459259278606 0.15517051447100541
-0.066786165002322873 0.30119043716514626 0.45307501405603628
-0.43528866110819675 -0.24478862009461966 0.59733753609583951
-0.039556746443311475 0.48634485221931922 0.15176220955723546
0.099586244346347413 0.55653136209764897 -0.25205330952590232
0.2750290309563842 0.73554962257753598 -0.2204269349451855
-0.12618469206095617 0.064763923741111507 0.64514177818829122
0.14060019404509397 0.33926254799083944 -0.19739646439221087
0.28747847453823805 0.50471929728869236 0.56568944998786097
-0.21100619560444261 0.1303145840101535 0.63427150593821757
-0.35670676401594559 -0.015666103532781972 0.52435205730878365
0.057210358939127376 0.58036815848142231 -0.076656670464473664
-0.068058936456757257 -0.19579298435946413 0.46031799109637106
-0.059567961528136315 0.29354209623676997 0.25619134718407727
-0.47365495817076197 -0.43635064905094834 -0.14499734621489496
0.42701735465319857 -0.36458220467564889 0.60690893132450185
-0.41926692015894251 -0.43624933872672317 0.039365630846277144
-0.23493050375772589 0.12951703263959746 0.57566047694130917
-0.30227707356574057 0.016489143369120995 0.55149246026293353
-0.1663201512046657 0.17659881580286896 0.59800120662716472
0.01148825912500312 0.27110473259905321 0.58564223571524854
-0.065021488852067044 0.013511854417000868 0.66532404764399988
-0.40528340513894967 -0.51506128346330371 -0.24000662506209169
0.21793701343027319 0.63946868961103243 -0.10799434977104461
0.17168232366506692 -0.18435429647014867 0.48256341381791634
-0.50224149547852759 -0.46536007887751163 -0.17817719831350787
-0.26256470158758549 -0.27038973132747068 0.42598928040571604
0.11802912544487784 0.2056795833332874 0.5416824609865476
-0.27298517618988843 -0.053320118897125846 -0.21322323430049578
-0.12733106169488428 0.29248638829786933 0.47591750711194553
0.084789928524840463 -0.21344409146094412 0.67946793737239508
-0.21178302157672757 0.1764983125295857 0.56323441437789024
0.10998547948075349 -0.25614338804679615 0.67350754200561402
0.0035022058360112407 0.52461509907359949 0.12218462791179246
-0.42461312138803642 -0.12573544568651152 0.37255310093199523
0.089092924843485244 0.83418512861187488 0.23399317226940625
0.46053817366031402 -0.30950617251515489 0.47369203593326953
-0.023891149104613485 0.54957421372650872 0.12328884577365701
0.12383365798006662 0.91078620176344538 -0.41024706876713024
-0.16155262499216078 0.10306050323563876 0.12334344669910891
-0.34078149945483704 0.076985759981182067 0.45503813979644414
0.068427474216870621 -0.3117676767460465 0.56574214990970262
0.40907884822645418 -0.30593167704851709 0.63446068702960956
0.25229321379149622 0.35213163194429298 -0.10319298310348329
0.10850117090552752 -0.16677473631631146 0.35049529289308212
0.39444401400819273 -0.32767979714116297 0.65725481870874358
0.11624514316833379 -0.082810961507301495 0.46976913884519889
0.064897002873607751 0.45283821605390195 0.48730898433715292
0.037676205767809556 -0.22611988623025803 0.34267419800713766
0.31705703556618636 -0.35883385759300318 0.50046918514481864
-0.30030862506831008 -0.40986567729115914 -0.24595856925603327
-0.70637828327793128 -0.67356782378143265 -0.29773099770458261
-0.050319182672406038 0.36032738156198429 -0.207666686603177
0.22025780617785934 0.60399568335011089 -0.12145990967313047
0.06662931365040492 0.4846743381149341 0.47317720498718496
0.1125594081009732 -0.18899324971734988 0.55209503061525078
0.27638033239108695 -0.1959248569835268 0.6677110392542891
-0.48135523118067636 -0.38834049879806598 -0.18896883170985573
-0.041691613533427152 -0.2068334415939862 0.5052069988947554
0.48725634562909659 -0.35070426780017766 0.59692663250196021
-0.25658934470875328 -0.14018559066625547 0.55774405906751023
-0.29014475998794914 -0.072478392642234435 0.50861625872914229
-0.059419359242256498 -0.25203621187915259 0.62860722042069872
0.35989247676339686 0.70692048288079512 -0.29086727269060642
0.18563011496521839 0.29431043864865813 -0.023641391801552503
0.21403069021231613 0.69480726032487139 -0.18528405444090035
0.36015584039805826 0.80780316679674968 -0.33188285799013739
-0.0041965564852500248 0.61099266946205755 0.043981743921424399
0.13274915946621102 -0.065110130624482232 0.65321358650336125
0.087317755407769371 -0.036186575751450345 0.69517377761604404
-0.17175876433803661 0.10172666322594515 0.65985147587083959
0.31915967213657659 0.50543694617511981 -0.21823404701960958
0.030967855558766744 0.57248240062009048 -0.065675861519248202
0.32038292715913463 -0.20388390172016535 0.45753065494582035
-0.44965268440503192 -0.11037279293709967 0.099995077552771261
-0.20813664766320533 0.14237415692778921 -0.87335212092412295
-0.4421364232706344 -0.32586147949920119 -0.038243149465824189
0.27309715708864024 0.79795327156866513 -0.28779251443623538
0.36214053046745687 0.95248872954359509 -0.36819530597265931
0.43934241556813025 0.71612648976978988 -0.30792589649117597
-0.19415770592440312 0.12998476084733812 0.63898968089958419
0.11842653796171421 -0.18313953744579248 0.23193408256279041
0.10452967904108038 0.2797719863508441 0.54053984017563872
0.15089855654163223 0.23333627698165393 0.47830821802824891
0.11245515814134344 -0.036259534469752386 0.68476479346472907
-0.20684292204412541 -0.32945511986631848 -0.066300006221151009
0.014115102367677157 0.41898257144480455 0.51713712227069097
0.114867919948278 -0.099837939210507542 0.6691849945840268
-0.10594448763140685 -0.19917500304526903 0.42722735826278097
-0.017190039854528272 0.27006202997257578 0.57373316390527962
0.22409595924446546 -0.12129579772818677 0.45634342936023697
-0.22210887816044333 0.037410683385307286 0.68329934637286827
-0.27483895074883169 0.10312044437294909 0.54597486328109868
0.4695621324135878 0.80877761121030578 -0.38173276194998157
-0.35439136229987694 -0.076069596276877816 0.0079122802943116244
0.12322114730272127 -0.026914863304663306 0.67518025552582084
-0.4628098110627325 -0.33861280749924538 -0.19711503765756089
-0.531372696473557 -0.51998243903949271 -0.13082325514720039
-0.14031370126775394 0.081154445911104101 0.6334132619108338
-0.26712768946833026 0.047977207820665502 0.63340238055390974
-0.31607374246528297 -0.62986489523070044 -0.00053785059337063679
0.16394567744396488 0.68315843952788868 -0.33105199590932344
0.03781467946175332 -0.014536723184188527 0.65425496011596118
-0.53573376447251553 -0.51616053076204915 -0.15325874043810661
0.078500584805262841 0.53372722016658514 0.39072869344960171
-0.27913755699466869 -0.27092005923971485 0.12374017908950891
-0.098502211956152219 0.4719809317779422 -0.039459980992559818
-0.50538180883854578 -0.43991778823063227 -0.21929267946145437
-0.0078189343546323786 0.3293147416184472 -0.4265696881262061
0.041084721793347656 0.20383827888195583 0.6052505563815721
0.54982707373626916 -0.23148850863277831 0.22806703680768325
-0.68849994301378281 -0.60323121339356534 -0.47125129949432693
0.12869797917012143 -0.046399742404391153 0.66841307310603315
-0.15427132927723858 -0.083359085582159653 -0.38300627299091122
-0.073358280805042753 0.2653843984527039 0.6012253178054825
-0.13566477432405794 0.058202852625288348 0.65278638730416261
-0.33433621413920284 -0.11464998933459181 0.55998040717330455
0.030903090763100161 0.26103876271554904 -0.043247989803230469
-0.3911449379029453 -0.40219658124922203 -0.13399218925756923
0.21059481805849514 -0.0026651495761089716 0.32996136939199416
-0.59041799675186324 -0.59872574293853509 -0.099251833693072056
0.12146439488895802 0.24168848551074917 0.27495207684303341
-0.34557239162705111 -0.18055783109210688 0.44076296794824904
-0.54449599388644143 -0.470761307592307 -0.28128315194758957
0.052990584511643346 0.38388381863573628 0.36296652205019142
-0.045851196459001597 0.00040628922199803519 0.18899017330633278
0.39916308264483197 -0.26928771486815672 0.63186664444973628
0.44082707499115892 0.77575946540095619 -0.32307569530622288
-0.40667526935185744 -0.17272967408225892 0.37330068083411816
-0.020879481644595355 0.22739142055392081 0.58610765764986827
0.028771373057508265 -0.017723483463392919 0.67075762398246308
-0.035329923138976704 0.55011062969924651 0.033571760256750682
0.31646912506240588 -0.27706703395341925 0.68278031247961979
0.053360702499435086 0.0061679656842028585 0.64007731039904958
-0.010382658665214706 0.28302531828834943 0.56441082541333687
0.12883236369182699 -0.23201565104288313 0.42917013577667507
-0.59442561866701638 -0.5492067339482769 -0.25264976534444261
0.24334975767106468 0.1531486724789396 0.073646800595948692
0.41524813090240431 0.74032784215736891 -0.31525461669414656
0.15577151560281566 -0.028482633985756456 0.57583010507502741
-0.22716847311509908 0.13738087310135694 0.57600573379347242
-0.29867945052980577 -0.026936899835113826 0.56281270367860137
0.17465632052635452 0.35992220190576052 -0.17136882405450676
0.060759084343700531 0.53658466191384135 0.40102136523028348
0.37781455335260594 0.567024534967005 -0.27730304834040442
-0.28106475760778049 0.11567766750229769 0.53902901608353671
0.063307271461508108 -0.044212878572299497 0.70524010828315631
0.084731336255241152 0.73523989126808931 -0.49745936990882311
-0.28675047843989704 0.038292645304137007 0.11282166360231438
0.18532911272574193 -0.18017044413746142 0.42244476820945015
0.2609851927443898 0.13604607782849054 0.12514677696436866
-0.0098836571610296797 -0.2851526022304357 0.49357487497062602
-0.1764807191106687 0.1003583805111572 0.6677009363108074
-0.35405786386329224 -0.27883821047955704 -0.37650836388533299
-0.48657411912729071 -0.46679459549606972 0.002978364622098495
-0.19013969334466096 -0.35831026371632924 -0.090871764884909279
0.30308525563900446 0.032693216950223092 0.30565062528759235
-0.19436598753028639 -0.13869684246829628 0.59128466560922754
0.1395788088309256 -0.29533392473156578 0.47385923937400298
0.086079323956637643 0.83710738929390138 -0.24513101309070939
-0.34272452479646714 -0.67100330527497642 -0.11291679634885393
0.23488311188174027 0.77353264535152322 0.039348025886048854
0.094799812450420878 0.53549371115850564 -0.20725345388622307
0.11621228385951432 0.050748609951833501 0.57567560349091185
-0.43044039842389231 -0.39700436164984221 0.049644074206327216
-0.55296636128547272 -0.52697336541920103 -0.17433350517023
-0.13199697492761409 0.076803384300669353 0.01062785766112545
-0.07366516963606845 -0.4439082411450756 0.49370115386852587
-0.21671479064264543 0.0085422430209622924 -0.48878753816299558
-0.16908488808633526 0.12535586379399322 -0.19372871404943764
0.13106965001445275 -0.0022624227294091304 0.53851480357410653
-0.24072192192542002 0.04244669760532227 0.67161157073225974
-0.44783757689738618 -0.67985059746402976 -0.55858919566838117
0.48274259520359758 -0.3431025976076813 0.60699196534702504
-0.32146892424657347 0.0188363066504601 0.5435957757117913
0.090834912492469527 0.8918031066479849 -0.78125931307857566
-0.5357381329141031 -0.43968220207148029 -0.32206533943340682
0.48998559474459702 -0.29505643022327016 0.5969781733647046
0.022485609350216151 0.54492622813342007 0.38549863015974606
-0.17527594448590544 0.48594910343250086 0.79182385801028254
0.057472225682879241 0.12994354218281112 0.53411898464520946
-0.014861029760828592 0.30738780256085663 0.51924011387444913
0.26582014062828019 0.42112529430938273 -0.15154987770972816
0.039235356614848449 0.70138015828538181 -0.57642203375939793
0.24492394121971428 -0.12410301507211652 -0.01078696049413419
-0.0094858658975626731 0.22417750624054922 0.22134405020872799
0.15526252793462841 0.068120567216364503 0.40386704280404195
-0.33076358039720555 -0.03689566261660393 0.56488788804975609
-0.41061355001729244 -0.038138627635410427 0.38481817920088041
0.11219882004981283 -0.18578582384130071 0.026115690975261896
-0.023926369799121994 0.47471944410800138 0.26855969280588504
-0.017750545008195784 -0.16416193660729617 0.62449161290369659
0.077349124722954132 0.29550572212447168 0.55948466191446999
0.020562863878016868 0.17662515021665304 0.59270071660369583
0.11433380176051897 0.29234616132389346 0.44168271106618956
0.21037604429367007 -0.22672764606625406 0.69773477815424734
0.13671517892565466 0.31932686155108503 0.46398121799329439
-0.39030358738927168 -0.12612678969465718 0.20587891106222794
-0.49137941969636362 -0.43388432824974543 -0.19156910655285403
0.22144872959521067 0.3450491983662175 0.22269636919384278
0.11713723642419147 0.37291534848046748 0.45782841562379728
0.037075781031115251 0.36311382122159341 0.52239941653513688
-0.075308887517264722 0.42442008474526249 0.28865568274789616
0.37351003644051056 -0.26013225866744627 0.64028967585534091
0.038893082156895908 -0.02349402440930759 0.69505262308924998
-0.70787370226443014 -0.67386264615301472 -0.29082063980500772
-0.19454566798092077 -0.038358416315756205 -0.030511877515217778
0.26568195752467749 0.60087415366967079 -0.20834000674572478
0.25989048292733541 -0.17424173743164872 0.66167632944819343
-0.086673509782306923 0.2633812042539927 0.58252728961795763
0.36385859794537678 -0.2715256317981079 0.63226753057652996
0.32172363708231455 0.55071627770519993 -0.23204447342637879
-0.21347218472492291 -0.32488050909219951 0.17319095261067052
-0.19614204584003098 -0.0096985887903721091 0.65709444287963403
-0.13196659451650378 -0.32311609220037574 -0.030045757304064225
-0.61775369916963341 -0.59041943094739602 -0.21932525285921933
0.15102155073422296 -0.029371833348707521 0.59515866994714417
0.040572248737675565 0.5193625768731408 0.36430259106580831
0.007944241669141261 -0.051884347381718876 0.70678432257547463
-0.59257766574532189 -0.44200005882452381 -0.48545795070783959
-0.26424423967509031 0.068898046530004087 0.61693953042986938
0.32669722079893715 -0.28822548517789537 0.64354055577773484
-0.010954357066502662 0.27104012033744107 0.56825779163600387
-0.15651010029456919 0.34484815287965165 0.42061227273344798
-0.012108491624855833 0.54793204225633607 -0.29942034514915317
0.045249369966637865 -0.26637556461486034 0.61039825342006959
0.14312602405825525 0.38129061144902054 0.21447434697112477
0.69400638889972954 0.069497711233175941 0.22096967911153464
-0.25190518202232515 -0.5810189028520385 -0.43960674049510695
0.00039732081001847552 0.018854418825253849 -0.0043517205280306781
0.13422284359121606 0.85588763614518659 0.049032103146970152
0.089737946149544334 0.29888615534973517 0.54630316232648479
0.25592691071818052 -0.13071938083767121 0.89764230082761232
-0.67769096825185871 -0.63988561629493379 -0.20514469447099271
0.21569348345468686 0.64476477065147697 -0.076122086511748455
-0.34332886660259537 -0.32584240504346118 0.098814960326531809
-0.07132936797413636 -0.39370583426080996 0.39607178783036762
0.22315191792964081 0.62585338168967386 -0.1335605925057452
0.39251531624845404 -0.27523738501813966 0.62086713303609509
0.16202667242824148 -0.2365853004024846 0.43606111272939624
-0.0080545180422619822 0.47451584729053609 0.52740124005264466
-0.078296370948350791 0.27084824752007908 0.59354812140872704
-0.15496624176482299 0.24561863449474486 0.34161960951147291
-0.16663578721329719 0.10241166583046035 0.64764005730840246
-0.3439936753080855 -0.66494485130566039 0.11847141901578953
0.0023650189405333699 -0.249890991861353 0.28235300918199796
0.21526123142119652 -0.32731263315041453 0.66729371407112192
0.0794503032966698 0.28716570548658693 0.56272375651434459
-0.15356341255429984 -0.14750719255244071 0.40334007139364331
-0.15611680436587866 0.067577496459998221 0.25506469395406728
-0.089966190510250288 0.26467357918862433 0.17986159430692827
0.21039518103598251 0.49103745155440737 0.16460446917876714
-0.74097230881341014 -0.6773852789325232 -0.41308766370315081
0.095185857878223756 0.52626604271332722 0.40053907953474649
-0.15116878583837495 0.040508554149113474 0.65575493025932796
0.011686574130960914 -0.1675763367567954 0.59400321146738166
0.12955695938782646 -0.15086778430090464 0.4478013542393906
-0.5026061246298712 -0.4276276486502813 -0.22469264819850676
0.25888428524939772 -0.21798531978849434 0.68569881162849078
0.62807372051596411 -0.69251236007206518 0.25223387708129891
-0.04613847932810472 0.18139104296379827 0.60232701570174152
-0.091478613569096923 0.26795417626127238 0.5439849428932837
-0.73299346219890071 -0.67053259366725759 -0.4090619889305297
0.087615841460641775 -0.19756596946497085 0.61531165316620218
0.4183521901397339 -0.28250656663674889 0.63576899768960005
0.19122925291028525 0.21810581014638664 0.031157297971945941
0.2998158545864546 0.4223499440426145 -0.16758562175687008
0.066840277252003005 0.42608728501100357 0.48259285685763292
-0.0019053470261382044 0.046259210671879214 0.21382147103147175
-0.076720097912431007 0.32444575731475644 0.70538475350550667
-0.27449298422334145 0.031144016139477593 -0.33910695741484176
-0.28120795453707215 -0.34265098076067918 -0.27800831649648694
-0.15642327114989846 -0.045439246992025617 0.65069618405522167
-0.54906963307817702 -0.52445797778675463 -0.063792718196804654
-0.088878318692457992 0.32942265125816506 -0.29841795937833338
0.09535535565283032 0.21003481247500544 0.58102260917856485
0.5899567930813846 -0.18825120988474275 -0.043499935590235572
0.35381811955134179 0.79178137867282139 -0.3214226869827882
0.084636713798226709 0.44039626641348961 0.47229112185202138
-0.34567852444826819 -0.060821084747805343 0.067086241542267944
-0.44913321238967857 -0.30656249370482264 -0.26163772459590995
0.06234968936323354 -0.21887670720378904 0.38635954902073227
-0.2284320108157713 0.14267969707135553 0.57710564938146125
-0.02391894181115739 0.01098942704702599 0.65750321968540315
0.0097678819184091603 0.49068881048551105 -0.028429971017167044
0.071136940877397969 0.19078272563811305 0.58731687079281936
0.0002949667826999125 -0.086314339824495656 0.66726733667087967
-0.36937393024948145 -0.48444205238679111 0.32011550217656154
0.34189764829122055 -0.55495773764695788 0.43407844520341404
-0.2773195324198392 -0.012724458027280838 0.60846834399928695
-0.0083536129799496317 -0.80311348993191511 0.17653743842859226
0.03275633395478858 0.33876660296228212 -0.37433828443598294
-0.22266498575309429 0.016239408545554945 0.67115526444729712
0.044032591697395207 -0.021582141172032165 0.67193362640275434
0.22159001662257855 0.50118754328279236 -0.15345484601982984
-0.056949975762049521 0.17092063895118126 0.67520864792675517
-0.0024102350507152481 0.31497760789793738 0.10145998365476866
-0.2104066143543688 0.01416430804871327 0.022330273766723086
0.31864972112480072 0.092250645453841429 0.037173945864082014
-0.26450089383921038 0.040754043396935113 0.6443477645975586
0.0038880459581192017 0.1338020172229446 0.60035308652090102
0.012349756361667963 0.19496598165842693 0.5818018939061893
-0.19417002416621376 -0.029309330060729666 -0.35456034082704796
0.27395799740535698 0.53314701156743205 -0.19435843420044224
-0.43116691593300166 -0.25942157843132296 0.082707141254104166
-0.31769822342818377 -0.054000543751447472 0.58110514556073711
-0.70248136959948271 -0.60929999094458798 -0.45771565651871599
0.22750379878715482 0.5022914682531352 0.24824651236163786
-0.50680643452771212 -0.41086683186744266 -0.37750833879155493
-0.08514672248023486 -0.20941466266238873 -0.13715865503923785
-0.18006475867706312 -0.11335689975925278 0.87493774624581955
-0.2071080101262967 0.19851843145221615 0.089840032893636401
-0.017535220624067649 -0.025488253382260684 0.67511728376994062
-0.73718475519813442 -0.61165121543944978 -0.53396443360080414
-0.15208105641631342 -0.36261439671389201 0.18911808024045301
-0.59398029551459131 -0.49989681304914058 -0.42211641048086307
-0.082591276093436139 0.277387229172397 0.45773021850736817
-0.41939110338308327 -0.34283110937703498 0.15228840890089562
-0.24884584449745201 -0.070423315118651186 0.58170947301254339
-0.48287933357769641 -0.41894833514670965 -0.17438628340537304
0.24208339373727678 0.51358508742252817 -0.17557796905977696
0.088408929257667079 0.2361475677127205 0.58058531701906702
-0.2665679342736183 0.094792571741460163 0.45529331438392245
0.093132316750863892 0.21242137660473082 0.58409916052481226
0.10919804806678912 0.027889854049496732 0.59502930654909925
-0.52475931290227396 -0.5160810332900061 -0.11685866234704584
0.16644740472109726 0.53148547630958742 0.3520675183542275
0.3693249164499155 0.77826255664874977 -0.32322992296795861
-0.16381698335948364 0.30183002574143125 0.56238735502008352
-0.20146013272485891 -0.067011142986127648 0.58252306996230585
-0.086780504112017987 -0.38215396392835038 0.096768813913156893
0.0040411681758226181 0.062859165376530801 0.62603239190269389
0.26182396418864784 -0.20382110483630822 0.93703113208173916
0.077573728491094424 0.58455849474943022 0.3477263335319058
-0.032382318402565058 0.36933264828699475 -0.089404442757518132
0.11046758507337873 0.18039546666924622 0.55181545376883512
-0.50820512558259012 -0.48079625227607775 -0.15657778265127031
0.10616601331634651 -0.18328857289338385 0.59593423174892357
0.098766874182411923 0.25346586467948495 0.56417993860829951
0.17118895336662676 -0.10777324406591104 0.41498019624819371
0.0030457430038471345 0.56078491970863009 -0.37957683487064631
-0.49693613650972224 0.56855681177635153 1.2771468318438424
0.13545241842541111 -0.0936954980586715 0.66100080003489592
-0.28974465476051126 -0.041648555393939413 0.60627075187740909
0.37142631330954379 -0.11423874455573901 0.56769364467796923
-0.19703279731227574 0.29337380947486025 0.54813286745877199
-0.44113879743313034 -0.30738810255935062 -0.070097669107377025
0.11148072246815635 0.7328564170619265 -0.17782832338159971
0.13255127333475442 0.346155001127194 0.45801575461004146
0.20712509892884839 0.76583326688654341 -0.18922360691201839
0.071729320971413546 0.78526594611725498 -0.4480537134918402
-0.49974463003083541 -0.54250645560076816 -0.21667294131884568
-0.57288869779781382 -0.48294111691644881 -0.37290207605653025
0.051245810296498384 0.84565521935968935 0.49188987262552275
-0.076149714974487415 0.30326666534057367 0.55630075130677925
0.099376748213317101 -0.033198191952435563 0.69024180497637833
-0.026076221641705477 0.51131033544202442 0.48822500505396721
-0.69924825319904749 -0.66628350011007331 -0.30101533993606239
0.090648723467646158 0.16520641090187582 -0.1391542378070606
0.40670147849349236 -0.28368107976861068 0.62488766088329406
-0.74248663014211025 -0.67718899144925615 -0.41067180856702401
0.24110364716617388 0.41881596153445599 -0.14506320144997981
0.027224837274873515 -0.12531096365993832 0.58814038549736569
0.1267380997749013 -0.20123853288070848 0.69315736862051769
0.43140343288825467 -0.35125935615130732 0.62457408373986367
0.21271349094877107 -0.37184735359301724 0.58396093191240062
-0.013241199935995207 -0.04560185459005861 0.13465739512909014
-0.58279419312928282 -0.49607857963076102 -0.3704729633678478
-0.31571436729911251 -0.20234943487590429 0.028044454864415702
0.1070305506889685 0.60367154017877789 0.012111000968905217
0.27360794711546743 0.45695865917323542 -0.16805553186372368
0.062055088433605299 0.11226786569127556 -0.3331256938758464
0.044762472590106239 -0.095364159145534866 0.32203783938219482
0.26250695868521512 0.68658839478503675 -0.20187435772408924
-0.45259273556814145 -0.44820050325085503 0.047885156656883976
0.12352191009109104 -0.021188176586019458 0.6459650712838807
0.34881552979684594 1.2049657455278853 -0.46229126299208201
0.40305143815426392 -0.2878394652930823 0.62038553924762341
-0.10026555758308181 -0.051668328892530146 0.18501521296361079
-0.24471367523655824 0.10455692329054267 0.61136390138146657
0.23342161780065263 0.63267360476444023 -0.1533570955175797
0.25245772305105563 0.7038556497642986 -0.18224053893625558
-0.27226546954246061 -0.37826472594437532 0.058610404995890375
-0.10960545035953856 0.40967048532463313 0.04899421701310458
0.40829648101304383 0.59286752426365974 -0.26362527742365416
-0.51835510038732568 -0.50589417584149055 -0.076376864221647189
-0.24334047882658055 0.092123507830047413 -0.35654789617821697
-0.16488800670830001 0.11603310620838458 0.63265070364878917
0.30452621093393295 -0.086604005848628707 0.40450109212872154
0.11423360340489194 0.1585996202890082 0.52954851391787816
-0.0012575960163303535 -0.02634679337451018 0.67288197590733667
-0.17034476532091347 0.070750483519779528 0.67471004122411848
-0.3983346960481175 -0.27828098646040278 0.72382019293561062
0.47092864890430464 -0.35156484363958862 0.60618472322715866
-0.26749384893817646 -0.17441502384484653 0.46143151714334152
-0.23718085081512369 0.15477026340181677 0.55439766800300083
-0.28590747143088918 -0.1348423295414416 0.56426889584490203
-0.37046770827951303 0.026861410590182211 0.50486439807761196
0.14757544659448271 0.50274800394926911 0.40136606905086369
-0.17357174804105835 0.046357233331180914 0.6706145139712395
-0.15074300348313652 0.16967555546413582 0.60542370617855168
-0.29538507175101009 -0.01683954704622459 0.58599259761439826
0.24125537400235469 -0.15114520250110841 0.65527418059283127
-0.087737445075387943 -0.15034801900658035 0.50494058655665441
0.044191201534025559 -0.15502044146306615 0.71366229089768085
-0.67026937713219248 -0.59767568324201914 -0.38841846692661969
-0.071108495990370058 0.22515859193320131 0.2454734995874136
0.3685164690534356 -0.30334537901850483 0.63599063876911255
-0.26322274459059658 -0.29687413250554473 0.5356235180233716
-0.032822616220153977 0.39347694669244626 0.42596715078091768
-0.20380545514212811 0.033243918255374205 0.68742994895859788
0.054281853170095873 -0.017945143711489586 0.68079837915488706
0.0161751474513675 0.16634197274080276 -0.28873676124932579
0.044275013767417826 -0.29330559176553017 0.53815948378257805
-0.31492458184491567 0.10784835327106834 0.43391394871967565
-0.0064059148064108951 0.57844733813688143 0.26337806100137356
-0.029684379127357274 -0.027784209689744044 0.43650504224017705
-0.51400552916736175 -0.4905049276830219 -0.0173174353220375
0.33508092291448399 0.31021379911719194 -0.11893619192221538
0.37515730892983024 -0.31220263338917531 0.67179330693798689
-0.30258539770616677 -0.022799428793315424 0.5896184773978721
-0.0028916849667253164 0.22812732902110266 0.57559965021338411
-0.022407061276686124 0.45620990829357133 -0.13146262153289801
0.21616231601963967 0.39758054782135266 -0.10143103728302255
0.049606289496073264 0.19391406151285429 0.59533003580345456
-0.082940335320259739 0.46182205255190822 -0.079851517691367613
-0.46256535797454829 -0.36310774505429777 -0.15880583880964161
-0.11014497378325822 0.58364249116929878 -0.58406591020537779
0.39017457665026456 -0.35886457455841275 0.35328907403628729
-0.30703657721906397 -0.19877678769659424 -0.42019573108026809
0.13556817453997638 0.25550967176513983 0.49985557344367043
-0.24635921324785548 0.047960022417845916 0.66507536156623337
0.16608842029548804 0.080469101896145645 0.43758031588738083
-0.73505875373209362 -0.66405967609387884 -0.43564813725462603
-0.17524711684578437 0.25490638894355278 0.12472835679292377
-0.14962623627244515 0.093920001193388725 0.63547051472144611
-0.20274365271713962 0.18760975704955873 0.36388951823762478
-0.43372176680549673 -0.39901141232825021 0.033121361236278013
0.25281214777044597 -0.36104130530584588 0.520320990616015
0.34116688825760588 0.88852075894129123 -0.30202584145398259
0.11142348865881521 0.84222338802998509 -0.54102625040918384
-0.079143690890385865 0.084910512813774486 0.6250719617210112
0.032494272525633694 0.30371323699085973 0.57900542804313193
-0.038654145755916081 -0.62544380927406662 -0.26038985123439035
0.46193725623559467 -0.41299512495100682 -0.040196570509284546
0.12928611414539248 0.2002221830016373 0.53192254350384105
-0.13332947423251912 -0.25190712265151427 0.65511822910067696
-0.26406379151155118 -0.18127547469171401 -0.17695743495808408
0.12989241659123615 0.57577912111546159 0.20032953166998341
-0.21405256343535062 0.10489503184210724 0.23397786586651248
0.20053609171180764 0.66025671632165339 0.006508881802067823
-0.72042337393887113 -0.67194261988289083 -0.2945180024151236
-0.10547959791257611 0.12112947052829781 -0.0084306804489560072
-0.24529271606213032 -0.17682163611643209 -0.011187866952256209
0.069996012802103658 0.012420381732222929 -0.025238289964183036
0.49479512587254604 -0.36893483800578714 0.55323939936853084
-0.12417655752501311 0.12400468485381144 0.62359242678595705
0.24531022248831874 0.67995211727275506 -0.17154601578423589
0.10367117945924575 0.11232521409288387 0.57291510276417634
0.28725320245956221 -0.22671855739941205 0.44289668457066528
0.33366195572750296 -0.25994355716447526 0.67099937187523162
-0.39574922421953357 -0.24443080388697669 0.27522300805302213
-0.43256224816255806 -0.37187438459965849 0.054427927389883612
0.37807474930124441 -0.32566848288800104 0.66302808639400845
0.079466997000555872 -0.14112959447087314 0.68508984804166229
-0.17737516891979827 -0.35416994325274376 0.17227535366110613
-0.51434703143537419 -0.50400311834766343 -0.084293024433913233
-0.25371582372913443 -0.064194824856883104 -0.4703349452995268
0.22786965155651306 0.52683507096362314 -0.16083577166409702
-0.0012378444246220477 0.54264631335885016 0.41108101768677369
0.02264364703523758 0.19475153599189254 0.58692865445724773
0.035383479141473856 0.43243060130392008 -0.52660013334084987
-0.10612796294391685 -0.21731095694813274 -0.092882072352437672
0.33490046406883978 0.79508292641425171 -0.3131288296164339
0.45421618831746385 -0.29030256141483901 0.63424354609613576
-0.19767273137066688 -0.61888278272645547 -0.30361361941003912
-0.10483101491418545 0.12002163246280118 -0.32580010490189271
-0.24547691414840589 -0.25174350307108984 0.21977394543882323
0.17699686929338665 -0.05809484101217588 0.61017096301674856
-0.53694581979658773 -0.48534341408733933 -0.22439377885683515
0.35263879759079342 0.47845659298215049 -0.21460730941440759
-0.2997202621390519 -0.25432148647322972 0.31741129690279041
-0.70414243986746938 -0.65795007385176962 -0.23517440317853122
-0.50483652855677386 -0.49176433595899544 -0.076565093021016328
-0.33130470705930437 -0.0051465433043775821 0.54695390591279047
0.37670879149049841 -0.30141692929234271 0.45252744278489432
-0.13836485697494477 0.31725382237306698 0.50922982811655382
0.2056469080340364 0.25153442281149629 0.55916544034417481
0.56799941665099685 0.36851215585324132 -0.66752642508108118
0.28135212136066889 -0.37072195301096089 0.53574699583346463
-0.21646533032972021 0.12951386247971053 0.44163985775331033
0.1808214502735126 0.54137919049921646 0.23125655331720452
0.22912324756010766 -0.073124159141698564 0.53204292701984979
0.10259940976969639 0.63268582594748413 0.15045227581475912
0.16887564513478243 0.079106920773469813 0.45047785640974169
-0.25333864789773408 -0.34514602614199558 -0.24504430051830645
0.25256645153525203 0.35687442770783073 -0.11135564586177332
0.13519987065117672 0.30406500449547713 0.46930552742974491
-0.23828885814958789 0.16409997118182451 0.36273759852500559
0.22939437423049158 -0.36999290091667375 0.59978537653759534
-0.20697285449953207 -0.26903486600464477 0.35637866164049276
-0.006768985773619729 -0.041170602614335361 0.67531662066965259
0.37199734823789621 -0.33225593221035554 0.65902051948294738
-0.44127340834913648 -0.30258013365313691 -0.20585575127374839
0.0067510319746206249 -0.27282110983712571 0.64676745905359356
0.040461302589880399 -0.074263086541887846 0.69399154102196015
-0.50347352001075052 -0.48095208765162956 0.002037991179974219
-0.35110793021777953 0.029908681045761276 0.37456766585790591
-0.21165785994759917 -0.028125321162469019 0.033316577853108098
0.15282299257870818 -0.094143460032863335 0.46772477780911265
-0.26954652825452408 -0.32299530451196257 0.18087651618052786
0.11055292718398008 -0.083073570214724057 0.66766697333240621
0.21801845489726335 0.35372726807987309 -0.07675061901334046
-0.11294789347079937 -0.28399696538221059 0.069316324246777916
0.070663256615057402 0.66354406686545242 -0.26465648583574164
0.096219325314295834 0.39507554047335325 0.20202274310919016
-0.12663013927544264 0.0043136046263249073 0.65807995736906488
-0.11498552162146203 -0.11727454765331846 0.53036098198237358
-0.17812662512750932 0.050798128223639605 0.68096893359088639
-0.21313340187064256 0.028299676110325356 0.68520148981514084
0.45620168732641042 -0.35358642162159204 0.47352588011386199
0.18146584185653697 -0.072019578128608264 0.62409992166640982
0.36599069872934109 0.42891383800523708 -0.18107854020377734
-0.092901740463364857 0.2420812344244766 0.60051402318435521
0.36960836449635243 -0.31714791623124933 0.67075515034888111
-0.14234654304475602 0.33465489764782475 0.47031819918188494
-0.034136514708190069 -0.10122380128618413 0.62506271317577866
0.12353163933464334 -0.31145885594587364 0.49880757843358581
0.047255760586941309 0.639159402126244 -0.28949217474891198
0.066434517073069299 -0.058758560170445562 0.70479253375625195
0.040303483760178171 0.58063985884762992 0.069289689070184068
0.26768250229551938 -0.23387513750004463 0.4422821373600328
-0.20990819756377888 0.049328919032595619 0.30646125560088266
0.22595351566003816 0.30236618752427602 0.3746235079423838
0.068137410058159709 -0.30909802875736508 0.52740524399859989
-0.064132425860123576 0.22112923457115208 0.095321052940108619
-0.1393062415082888 0.035351595980865347 0.65405409968798611
0.22946054503433166 0.69727399946345348 -0.23758129547688295
0.038049755399809149 -0.026393579609910844 0.69992625368145367
0.35522686584790447 -0.29778815915601453 0.67923653422528663
-0.26163267648957073 0.11225503824943361 0.32771267177132002
0.23324537839848333 0.36510543969129428 -0.10306486417481114
0.1543690684460457 -0.029715393634495046 0.47305793914543581
0.23812186356341947 0.33151167350378996 -0.072242908248686399
-0.19523254262652362 0.17143291069604338 -0.46183224263482081
0.020202415415373376 0.40924030752146356 0.10585607353603899
0.3118958244562926 0.60316051412796579 -0.23654512115518717
0.015780964805767961 -0.048629789166729775 0.71354810422173265
0.082119527814180415 -0.30916314363694469 0.51553111176907751
-0.076760930316251752 0.069511328975548126 0.63086977934851973
0.11601522265146791 0.5704681053808982 0.21283667704350118
0.093484390621891345 -0.043387306637497347 0.69422973102485153
-0.51818031254489094 -0.53775474701717507 -0.080996800954045933
0.42624468501065865 -0.37012565618116466 0.71507288052064155
0.25775196468295469 0.42013689561374745 -0.15151097812019532
0.029789391087899963 0.75472553665099784 0.27143375467064401
0.10524613975855232 0.38959357416894358 0.46474530903765437
0.47943672047796115 -0.28290779385818776 0.59812999998295202
0.2254202012756906 0.52707107370573492 -0.57975936052461863
0.12320125085922837 0.12592478122643136 0.55200880303347044
-0.0060776088664432626 0.16407111240246608 0.59519198680526952
-0.12563290125916876 0.0082022686243928833 0.59797572571800583
-0.27022539949779989 -0.07177438443676798 0.5698716242237778
0.19947406501176862 0.16798628975193197 0.36683621156996432
0.022993618332050325 0.13787806015547233 0.13881197463346234
-0.048103691823943195 0.24821248143357466 0.59039277406377932
-0.45924763391967394 -0.34043867304399217 -0.1814975485929512
-0.2882117499080914 -0.068886684656913055 0.55573440282953745
0.0038827032538640838 -0.055976589478692773 0.68953911668937407
-0.0023905286337081444 0.18581502858839183 0.59376220052474271
-0.22825897132048389 0.19532378233796588 0.54946815325630483
0.38646130345077218 -0.29381343602788607 0.62312140507949298
0.22402658206105031 -0.25398804133719333 0.6995232760531882
-0.2716411600157036 -0.00084062798745920819 -0.43727533867508467
0.0077390129638665872 0.58353341104021395 0.21878332178911392
0.47126437343255828 0.79771866155485904 -0.37126971908276563
0.13069823327722363 0.0041627023888943793 0.4557017083820834
0.32466153896473654 -0.29196456026353262 0.65785551230776718
0.45202038618327045 -0.37581212614224069 0.56326857562198374
-0.59602665951404576 -0.45652583565571286 -0.45819635519756985
-0.45464870059852663 -0.45561688539806128 -0.19436552801914408
0.095964061279920188 -0.0091528605725516021 0.087323072833447812
0.2279425784387836 0.49644653236734482 -0.19976806321717377
-0.21406177953262862 0.15242239189461126 0.57817908219127856
0.1132036785970304 0.51498649655911921 0.40878766898848812
0.23675427687380335 0.35752204497828277 -0.109633101783432
-0.012871028595936695 0.44867874590477641 0.40075793779174346
0.16564177358691828 -0.31429807942219062 0.48301069587602191
0.348780268565691 0.81701836024916985 -0.32660628082106397
-0.18072865935740812 0.14666499662168409 0.60069646391257403
-0.12823564273382038 -0.20221464786242638 0.32462461492206479
-0.017375182722761617 0.24949485376637481 0.34953355742432735
-0.24773403354997686 0.13031541907333122 0.56889917714394955
0.044084608149818516 -0.02102334623806168 0.66271390404258013
-0.040161790499756989 -0.26375275889753158 0.10968747572079351
-0.013246617350751666 0.32365621646082232 0.55405061092451924
0.29150918974534312 0.78036616582289464 -0.30903501926021976
-0.054437972994243522 -0.22799977474991018 0.41402758781927929
-0.25400552082367589 -0.18655504329737915 -0.26040112888444894
-0.22251999514081261 -0.35189129437250433 0.12859924062648836
0.15093428517734137 -0.22008296540779371 0.69557372413031993
0.34800787339389477 -0.25591989377537683 0.67252710406485483
-0.46974668433715211 -0.46959000806691165 0.043526298865247837
