# XYZ point cloud file
0.18330179998999999 0.197767253477 -0.144872135772
0.47176635505199999 0.26805356793200003 -0.089101024839099999
-0.13830700000000001 -0.50728499999999999 0.762764
0.226326 -0.49940200000000001 0.87403500000000001
0.393353527137 0.029018646893399998 1.14205077865
0.42725567857800001 -0.024455761396399999 0.37668879704899999
0.36823800000000001 0.65923600000000004 0.58323999999999998
-0.010839129283400001 -0.23640396295300001 0.545598459112
-0.29909105524700003 -0.079747474766600004 0.21227877333100001
-0.142685451529 -0.21766258902999999 0.74242423761700005
-0.23567883827899999 -0.207096269168 0.83442545271500002
0.31834000000000001 -0.35208 0.86688399999999999
-0.35018199999999999 0.71037499999999998 0.49933100000000002
0.17218700000000001 -0.428512 0.93396699999999999
0.70214299999999996 -0.091940999999999995 -0.113204
-0.078666 0.060748999999999997 -0.85207900000000003
-0.67647100000000004 0.71696300000000002 0.35330600000000001
0.87085452163699995 -0.57131582935500003 0.78818268676600001
0.830708 -0.091753000000000001 -0.33759299999999998
0.150393 0.075631000000000004 0.83326999999999996
0.48407101422600002 -0.32887751759299999 -0.19092663208899999
0.473746803286 -0.57461062929499995 0.60823096003699995
-0.23661499999999999 0.7238 0.42814600000000003
-0.74627699999999997 0.0092300000000000004 -0.21315799999999999
0.691581 0.54532700000000001 0.174318
-0.31052133115800001 -0.48977817912600002 -0.060834368632099997
-0.43330572969199999 0.064375066546400003 0.375560789334
0.64935223058299996 0.61189264212299999 -0.031716761651
1.2686569999999999 0.30374899999999999 -0.31985799999999998
-0.42971529299299999 0.96523964028099996 -0.11854429663299999
0.113676 0.155914 0.81035100000000004
0.462420263552 -0.083826992370199999 0.31451108876299999
-0.0302673612445 0.35961845123899999 0.283871654162
-1.0206230000000001 0.20008200000000001 -0.745305
0.96412399999999998 -0.197047 -0.25494600000000001
-1.0534832844799999 0.34869286536100003 -0.041438576130099998
0.74860599999999999 0.42683700000000002 0.164385
-0.67002399999999995 0.26016600000000001 0.48138999999999998
0.59816720728799999 -0.70391570480099996 -0.68091320590000004
-0.00018362580609999999 0.051513799388500002 -0.80601059758000004
-0.30397200000000002 0.62391700000000005 0.53692899999999999
0.81966399999999995 0.39317600000000003 -0.320604
-1.064551 0.160278 -0.80881800000000004
0.54328699999999996 0.12875800000000001 0.48641699999999999
0.34262680721 0.16689784244899999 -0.20073260598199999
0.116822 0.058734000000000001 0.83871399999999996
-0.20677699999999999 0.69859599999999999 0.44528200000000001
-0.610398 0.58708199999999999 -0.424736
-0.026263999999999999 0.153169 0.82055800000000001
-0.92221969104900003 0.0232081231969 -1.37976717789
-0.65231799999999995 0.465449 0.36590899999999998
0.81132800000000005 -0.0049919999999999999 -0.29098200000000002
-0.567357 0.52957500000000002 0.50440300000000005
-0.017111999999999999 -0.062150999999999998 0.82683600000000002
-0.18373637178499999 0.35064498060400001 -0.028309776072600001
-0.76386600000000004 0.65555399999999997 0.314191
-0.499336 -0.065646999999999997 -0.62509499999999996
-0.19447400000000001 0.68143200000000004 0.55888099999999996
-0.76606691367599999 -0.189320552615 -0.328031250808
0.11478184516999999 0.19910408441999999 0.38289108792999998
0.117301 -0.043964999999999997 0.81763399999999997
-0.34885500000000003 0.64454 0.51547699999999996
0.38403900000000002 0.37837799999999999 0.63695599999999997
-0.57393099999999997 0.402472 0.51791399999999999
0.78422199999999997 0.052431999999999999 -0.204953
0.26693930893599999 -0.177072823953 0.39418168225599998
0.14744099999999999 0.39935900000000002 0.66224400000000005
-0.73038199999999998 0.56081599999999998 0.380915
0.20169000000000001 0.49679600000000002 0.69870200000000005
-0.31969700000000001 0.18429400000000001 0.64840900000000001
-1.1722300000000001 -0.068253999999999995 -0.51692499999999997
-0.50271912075799996 0.94453905386899994 0.36452279753099998
-0.16559599999999999 -0.26066299999999998 0.73626999999999998
0.22753399999999999 -0.46896900000000002 0.88639900000000005
-0.87764978432899998 0.37437891080699998 -0.089451369282899998
0.020683 -0.43367899999999998 0.95789899999999994
-0.34588984721400001 -0.14710393578700001 -0.52335025476599994
0.83605600000000002 -0.102433 -0.272976
0.31626799999999999 0.79026799999999997 0.41346699999999997
0.215587 -0.14994299999999999 0.83617300000000006
-0.71230300000000002 0.51306700000000005 -0.25313400000000003
0.1517 0.112843 0.82984899999999995
-0.28822525409999999 0.50825421033100004 -0.52579989188499998
-0.84082699999999999 -0.118918 -0.27856900000000001
0.66234199999999999 0.23011200000000001 0.47056500000000001
0.27099600000000001 0.48558299999999999 0.70642499999999997
0.50087000000000004 0.48572199999999999 0.53279200000000004
1.2666790000000001 0.12707299999999999 -0.394957
0.17560999999999999 0.81493599999999999 -0.47375099999999998
-0.56904511463200003 0.30094729099 0.15406146319899999
0.069757 -0.49170900000000001 0.57166600000000001
0.069702 0.15059 0.77646999999999999
0.080258999999999997 0.16231400000000001 0.77868599999999999
-0.54009405442000002 0.39189324464199998 -0.055869968556899997
-0.61767300000000003 -0.023257 0.13136600000000001
0.14376230725399999 -0.149965426412 0.42661395480999997
-0.80388099999999996 0.028191999999999998 -0.52154599999999995
-0.61368500000000004 0.48956100000000002 0.448573
0.313448 0.035589000000000003 0.503834
-0.53678599999999999 0.71096199999999998 0.41631400000000002
-0.41758499999999998 0.323465 0.62940499999999999
-0.40947699999999998 0.65172399999999997 0.49213699999999999
0.388928 0.49333500000000002 0.66061700000000001
0.39737600000000001 0.60792100000000004 0.55686899999999995
0.31283266439599999 0.72837135186799995 0.98954485057700003
-0.47016148632100002 -0.0077508946050800004 0.92904717096800005
0.162685 -0.51230200000000004 0.96199599999999996
0.42734614226200002 0.36858020523000001 -0.0041591438390500002
-0.18887044865700001 -0.36159413371400001 1.17928943914
0.73934599999999995 0.40389900000000001 0.368834
0.29895500000000003 -0.327291 0.49152800000000002
1.1249199999999999 0.21024999999999999 -0.35942400000000002
-0.83488499999999999 0.045169000000000001 -0.422178
0.47426299999999999 -0.72074700000000003 0.66503599999999996
-0.54813800000000001 0.37790899999999999 0.54216600000000004
-0.46240101179999998 0.39496718385200003 0.0128586666244
0.012479000000000001 0.051560000000000002 0.82919900000000002
-0.32567299999999999 0.26664199999999999 0.65956300000000001
0.938994 0.14650199999999999 -0.28973500000000002
-0.210005 0.46906300000000001 0.61423000000000005
0.17853805100799999 0.61430927824199999 -0.139005581096
0.409539818858 -0.072510814184900005 0.53798604293499996
-0.87224299999999999 0.107861 -0.46582299999999999
0.92370699999999994 -0.12428699999999999 -0.25415500000000002
0.124059 0.46016299999999999 0.65317599999999998
0.054526999999999999 -0.53026099999999998 0.96801199999999998
0.51428498523699995 0.55667583893499994 -0.95511463206000002
0.20960799999999999 0.71008099999999996 0.46288000000000001
-1.0853930000000001 0.13453000000000001 -0.69615000000000005
0.44775902177600002 -0.075489726136700006 -0.87933400198300005
0.22477937345099999 0.071169224632799996 -0.0076992561923100002
0.046962999999999998 0.57535899999999995 0.53037000000000001
0.162471 0.43296499999999999 0.646814
0.73977899999999996 0.428205 0.21083099999999999
0.15181735346700001 0.805075733292 0.82712813890699999
0.86469600000000002 -0.118382 -0.231151
0.83860017299800005 -0.397750008825 -1.01789077087
-0.468634 0.80723100000000003 0.21556500000000001
-0.81110099999999996 0.018461999999999999 -0.39556000000000002
0.67142100000000005 0.59797299999999998 0.13059699999999999
-0.69475949654299995 -0.39093182222599998 -0.46077041533200003
-0.42485200000000001 0.886019 0.32714700000000002
-0.038913000000000003 0.16495499999999999 0.80163399999999996
0.86290699999999998 -0.046404000000000001 -0.29810799999999998
0.78096968691400004 -0.24084429320699999 -0.19681433854200001
0.14508399999999999 0.92115999999999998 0.43811600000000001
0.65579699999999996 0.66549100000000005 0.52620299999999998
-0.25829600000000003 0.72702900000000004 0.53045399999999998
-0.25049900000000003 0.52730500000000002 0.59194199999999997
1.2149840000000001 0.15810099999999999 -0.386407
-0.40369701615100001 -0.37005326420599999 -0.27741991787699999
0.106429 0.63658400000000004 0.59175999999999995
0.388098 -0.690693 0.80456499999999997
-0.30485499999999999 0.59620200000000001 0.55071499999999995
0.097235000000000002 0.60721899999999995 0.59857800000000005
1.03579 0.30453799999999998 -0.26064500000000002
-0.61544200000000004 0.79102899999999998 0.32996500000000001
0.29425487708699999 -0.77562862485200001 -0.48284143682500003
0.42954547908899998 -0.39633816584300002 -0.14386336408200001
0.11842999999999999 0.682701 0.58640599999999998
-0.357209 -0.25429800000000002 -0.533613
0.127884 -0.006829 0.80962599999999996
-0.85196300000000003 0.14930399999999999 -0.44850699999999999
0.046262547073800002 -0.080479574316500005 -0.25425904088700002
-0.010965000000000001 0.422958 0.63702000000000003
-0.241757 0.44944400000000001 0.62751400000000002
1.0923830000000001 0.20813000000000001 -0.34800500000000001
0.29896499999999998 0.014801999999999999 0.49635000000000001
-0.196206059613 -0.196195875189 0.159593052751
0.97380800000000001 -0.041068 -0.32055699999999998
-0.11447617759500001 -0.301805081089 0.18560305461500001
0.449293 0.40704499999999999 0.62094499999999997
-0.49615684851500003 0.10435122580300001 -0.220172233138
-0.50091300000000005 0.26141599999999998 0.51688599999999996
0.80630407915900004 -0.65727757793999997 0.22418683932
-0.59038199999999996 0.55005499999999996 0.44462299999999999
-0.235322 0.37891200000000003 0.649478
0.054017000000000003 -0.41678199999999999 0.95729900000000001
-1.04700805957 -0.15985395882 0.44995637425599999
-0.53234099999999995 0.504583 0.57679199999999997
-0.026221000000000001 0.025107000000000001 0.79774500000000004
0.85422100000000001 0.11375300000000001 -0.242483
-1.00830518741 -0.106153491366 0.142409429861
-0.31896000000000002 0.34718700000000002 0.64944400000000002
0.16867199999999999 0.13480800000000001 0.809172
-0.86079011998199995 0.38508712015300001 -0.094484142914300004
1.097478 0.197933 -0.35376999999999997
0.21001800000000001 0.40671099999999999 0.66819499999999998
0.36359900000000001 -0.28334799999999999 0.80205499999999996
-0.11723600000000001 -0.57738199999999995 0.77322299999999999
1.027253 0.019848000000000001 -0.336731
0.23896400000000001 0.066231999999999999 0.66449999999999998
0.30792900000000001 -0.45555699999999999 0.88125500000000001
-0.60713782855099996 -0.18743147622100001 0.40065930852699999
0.50258100000000006 -0.58338199999999996 0.70093399999999995
0.286553 -0.210449 0.82770200000000005
0.035834999999999999 -0.058323 0.83138100000000004
-0.78075600000000001 -0.042971000000000002 -0.32367899999999999
-0.02622 -0.35294199999999998 0.51618600000000003
0.14971999999999999 -0.456675 0.93611999999999995
0.16505 0.12317599999999999 0.82117399999999996
0.027505999999999999 -0.66739700000000002 0.78782799999999997
-0.18340799999999999 0.69081099999999995 0.48613600000000001
-0.0050726818743699999 -0.544041442524 0.060443337873799997
0.654416 0.69849099999999997 -0.24268200000000001
0.49571100000000001 0.316631 0.54883300000000002
0.16456000000000001 0.139652 0.75048300000000001
-0.89325699999999997 0.13567299999999999 -0.49919200000000002
-0.43504748446300001 -0.91840583573800005 -1.2551926044699999
-0.237703 -0.035698000000000001 0.48444999999999999
-0.57816900000000004 0.60092900000000005 0.37005700000000002
-0.36120999999999998 0.57535000000000003 0.57010400000000006
0.46952300000000002 -0.52973499999999996 0.62718700000000005
-0.051654600565500003 -0.80061438517000005 0.18041057565999999
0.73957499999999998 0.0098379999999999995 -0.049028000000000002
0.36327100000000001 0.56079500000000004 0.65629599999999999
-0.35570800000000002 0.258739 0.58458699999999997
0.407833 0.576318 0.58338800000000002
0.17668500000000001 0.029045000000000001 0.79813999999999996
0.84142399999999995 0.040531999999999999 -0.28832099999999999
-1.19417574863 1.7915398118700001 0.47910017819599998
-0.030320867900099999 -0.083467639574499999 0.68763623999599999
-0.75651999999999997 -0.16150900000000001 -0.092274999999999996
-0.25944309276400002 -0.92925605002 -0.48824784903200003
-0.13478399999999999 -0.30492200000000003 0.29052
-0.63944000000000001 0.613533 0.39832299999999998
-0.28356729158499999 0.47616257640100002 -0.81549777801599999
-1.1912940000000001 -0.092701000000000006 -0.44734400000000002
0.111016 -0.40381099999999998 -0.038872999999999998
-0.76029199999999997 0.31919799999999998 0.40721499999999999
-1.26169 -0.085314000000000001 -0.53242999999999996
0.219833 0.61831000000000003 0.66698100000000005
-0.081818000000000002 -0.44966099999999998 0.92307399999999995
-1.0643009999999999 -0.041292000000000002 -0.50899099999999997
0.076266 0.86798299999999995 0.55879100000000004
0.11964 0.046816999999999998 0.83686700000000003
-0.70572100000000004 0.45169599999999999 0.43620999999999999
-0.122354679762 -0.0093820131518100001 1.12138104622
0.11917 0.45633000000000001 0.65255200000000002
1.0527690000000001 0.228098 -0.314664
0.137096 0.53274200000000005 0.64486299999999996
0.16903199999999999 0.52682399999999996 0.68349499999999996
0.15772 -0.50621300000000002 0.90555099999999999
0.81873499999999999 0.027470000000000001 -0.279279
-0.0765131179795 -0.54760265594699997 1.0472967316299999
-0.20388608034299999 0.201111167206 -0.49120547236599998
-0.92557840808900005 -0.018213097816000001 0.37417864806399997
0.188753 0.112263 0.79291
0.084541000000000005 0.16369800000000001 0.78730500000000003
-0.85121999999999998 0.58194500000000005 0.296097
0.54385799999999995 0.065465999999999996 0.33247100000000002
-0.021505404420600002 0.44226747293399998 0.22434153278399999
0.083948269762200003 0.82682606350700005 0.48538622291799999
-0.17254165683600001 -0.042377549336700002 -0.164312645398
1.2420899999999999 0.24498600000000001 -0.34135700000000002
-0.74103554968100005 -0.574427864191 -0.87931337462500003
0.39661400000000002 0.48702200000000001 0.65235299999999996
-0.86747113963300004 -0.15087419060500001 -0.0136881637272
-0.49756631829499998 -0.116722300298 -0.49305948501899999
-0.84901908865499998 0.74906892499300004 -0.71018539972899997
1.042864 0.32826300000000003 -0.33118500000000001
0.80953799999999998 -0.112538 -0.18316399999999999
0.070026873516399996 0.174382224383 -0.18247555906400001
0.10725700000000001 -0.41672500000000001 -0.14369000000000001
0.097820000000000004 0.30269499999999999 0.69639700000000004
0.35393999999999998 0.64038200000000001 0.58446200000000004
-0.551589 0.25895099999999999 0.56383300000000003
0.39309339288200001 -0.086647472661200001 0.0139233267471
0.31624200000000002 -0.55199900000000002 0.902196
-0.79914604159000002 -0.66573396940100005 -0.0322507144707
0.75651599999999997 0.30454799999999999 0.21541099999999999
-0.62304899999999996 0.52837100000000004 0.428817
0.71992500000000004 -0.034981999999999999 -0.067067000000000002
0.19888182318 -0.52541041819000001 0.90799894746900001
-0.026932000000000001 0.16000400000000001 0.81410199999999999
-0.054788999999999997 -0.31127500000000002 0.46431299999999998
0.19368013332199999 -0.073812066633300005 -0.15886720192600001
-0.0099469999999999992 0.14441699999999999 0.82972400000000002
-0.16795599999999999 0.66469400000000001 0.34220699999999998
-0.80441099999999999 -0.054688000000000001 -0.31720100000000001
-0.75875499999999996 0.135493 0.079125000000000001
0.210926 -0.53601699999999997 0.56214900000000001
0.36006835915500002 0.27125858025400001 -0.120645160507
-0.24914 0.32087700000000002 0.60400799999999999
-0.27965699999999999 0.349408 0.65232000000000001
-0.50067300000000003 0.461177 0.613429
0.29088269141700002 0.10065642178 0.17253341442699999
-0.0079550000000000003 0.17636299999999999 0.78405400000000003
0.43220965261900002 -0.095469917489200001 0.069539221178100005
-0.39129999999999998 -0.21526899999999999 -0.55344099999999996
-0.75922100000000003 0.048626000000000003 -0.054776999999999999
-1.1096729999999999 0.01035 -0.61560800000000004
-0.26393899999999998 0.41885299999999998 0.63727100000000003
0.40289789905899998 -0.62727203495100003 0.071868521990900006
0.52444843110899997 -0.33616472067199998 -0.50373361152600005
-0.074042999999999998 -0.351993 0.56473700000000004
-0.84638100000000005 -0.118119 -0.11806899999999999
-0.97057499999999997 0.031343999999999997 -0.52621200000000001
-0.092714000000000005 0.676064 0.44622099999999998
-0.14890300000000001 -0.31592599999999998 0.80654499999999996
0.65346300000000002 -0.14788899999999999 -0.122304
0.40115970470599999 -1.0427715201100001 0.13022170676700001
-1.0411900000000001 -0.040438000000000002 -0.61605200000000004
-0.75461900000000004 0.069736999999999993 -0.54525900000000005
0.62122673414899998 0.261064418036 0.53668384418100001
0.70642300000000002 -0.184804 -0.28131800000000001
-0.87118634079199997 -1.2812345913200001 0.13244302906700001
0.41164800000000001 0.64779600000000004 0.57330999999999999
-0.068391999999999994 -0.10885300000000001 0.82333699999999999
-0.16728000000000001 -0.21160000000000001 0.61853199999999997
-0.70649200000000001 0.21434900000000001 -0.60234699999999997
-0.41705199999999998 0.588889 0.58377900000000005
-1.015174 0.057960999999999999 -0.60638800000000004
-0.61278699999999997 0.25850899999999999 0.52698900000000004
-0.218057 0.10477300000000001 0.63752900000000001
0.14785000000000001 -0.700318 0.76018200000000002
-1.0325820000000001 -0.140345 -0.26096799999999998
-0.13027643414100001 -0.700300653858 -0.76780228781100002
-0.77631267983499996 -0.23674428071600001 0.64040130295800002
0.36141200972199999 -0.77395142784299997 0.88347241838599999
-0.0170668014546 -0.54776633801200003 -0.77468011705299999
0.85066200000000003 0.074076000000000003 -0.26771499999999998
-0.41318000261799998 0.80184734875999997 -0.85451028643500004
0.11343399999999999 0.168263 0.75969399999999998
0.81525173644299997 -0.32744742572500002 -0.264737162538
0.78537900000000005 0.54997300000000005 -0.1724
0.269197230535 -0.38071263713300002 -0.14894213631600001
-0.525884445566 -0.19450005515300001 -0.37331431112300001
-0.62331199999999998 0.44451200000000002 0.48571900000000001
0.79894900000000002 0.12470299999999999 -0.159973
-0.42400100000000002 0.35878700000000002 0.61760800000000005
0.305836 0.43217899999999998 0.69030000000000002
-0.43305700000000003 0.655721 0.34477600000000003
0.81096100000000004 0.0071440000000000002 -0.287323
0.0038579999999999999 0.69529099999999999 0.58471799999999996
0.28281400000000001 0.52676199999999995 -0.75112999999999996
0.090269710951599996 0.56706843385500005 0.203486187328
0.31575900000000001 0.039828000000000002 0.51294700000000004
0.92486500000000005 0.106256 -0.365342
-0.18375115405299999 -0.073068818161699994 -0.095771561736500005
-0.30253200000000002 0.57279000000000002 0.55556399999999995
1.044044 -0.13236999999999999 -0.34853699999999999
0.83445199999999997 0.26618999999999998 -0.122305
0.267802027567 -0.021745549260799999 -0.76263717150300003
0.12573409148299999 0.54146519338300003 -0.15528894522
-0.33386100000000002 0.59635300000000002 0.53234099999999995
0.46105299999999999 0.560284 0.57299299999999997
-0.58718400000000004 0.33338800000000002 0.54057299999999997
-1.2184942379699999 0.131061045042 -0.55377336502899999
1.063377 0.20468 -0.336233
0.34459800000000002 -0.49583500000000003 0.89318399999999998
-0.35252 0.63485800000000003 0.41723700000000002
0.29883300000000002 0.84512200000000004 0.49327399999999999
-0.46035900000000002 0.57869899999999996 0.577901
1.0928800000000001 0.1174 -0.34185500000000002
1.3588899999999999 0.15571099999999999 -0.428371
1.027663 -0.22444700000000001 -0.36119899999999999
0.81701900000000005 -0.028028999999999998 -0.27828900000000001
-0.070525000000000004 0.77763099999999996 0.45428600000000002
0.078340999999999994 0.71981799999999996 0.56869099999999995
0.057838488830999998 0.51273235652799998 0.148524991671
0.75277600285900004 -0.322396872419 -1.9597290523199999
0.22284899999999999 0.58052400000000004 0.68313800000000002
-0.62017891364 -1.37926074634 0.42590493679800001
1.284416 0.350439 -0.34996699999999997
0.089269377894899998 0.0093830313295300005 0.62827830433700005
0.26123172557300001 -0.185337091541 -0.69268902273099997
-0.58912100000000001 0.82104299999999997 0.26688299999999998
0.082036999999999999 -0.56545000000000001 0.96453100000000003
0.78551199999999999 -0.21674599999999999 -0.23926800000000001
-0.77351599999999998 0.282281 0.36442000000000002
0.129166 0.76557699999999995 0.374722
0.331565 0.034299999999999997 0.486902
-0.71390500000000001 -0.097767000000000007 -0.103522
0.20356199999999999 0.52333499999999999 0.69699599999999995
-0.74627500000000002 0.43820900000000002 -0.41949900000000001
1.2509570000000001 0.038664999999999998 -0.36935499999999999
0.67261230386100002 1.2554856997699999 0.083798112181000001
0.120875 0.49270000000000003 0.63099099999999997
-1.013171 -0.114011 -0.49756800000000001
0.96532700000000005 -0.12805 -0.30308800000000002
0.44906200000000002 0.37625799999999998 0.61101799999999995
0.35771399999999998 -0.654864 0.58854200000000001
0.91056700000000002 -0.10660799999999999 -0.28348600000000002
0.389116321835 1.1644696562300001 0.034969858056299999
0.182423 0.67776000000000003 0.56507499999999999
0.055226999999999998 0.61140099999999997 0.51785300000000001
-0.14166631145899999 0.19443144876499999 0.93780128061599999
0.17042499999999999 -0.50675199999999998 0.93506100000000003
0.031613000000000002 -0.13897300000000001 0.86322699999999997
0.1258 0.49247400000000002 0.62411399999999995
-0.61633300000000002 0.161831 0.39403700000000003
0.10364304078100001 0.168877972859 -0.63842755009999996
0.055359296508399998 1.12802425868 0.097991389117099995
-0.056724999999999998 0.86926499999999995 0.51712599999999997
-0.016997476836699998 0.14030975276499999 0.40476431005899999
0.041322999999999999 0.091407000000000002 0.84555000000000002
0.692222 0.62858800000000004 -0.35239799999999999
0.82852800000000004 -0.097365999999999994 -0.26136199999999998
0.54732400000000003 -0.108071 0.057714000000000001
-0.85993200000000003 0.13497999999999999 -0.45222299999999999
0.37691999999999998 0.343754 0.65264200000000006
0.77357200000000004 0.35910799999999998 0.13175500000000001
0.21060400000000001 0.085980000000000001 0.73948899999999995
0.086424055613399997 -0.31762018634299999 -0.34155132386499998
-0.47034199999999998 0.77751000000000003 0.21332499999999999
-0.59209999999999996 0.62362600000000001 -0.343109
-0.65418230692400003 0.208645123317 0.43052026630200002
0.14371164450099999 0.00079845400349499995 -0.14180660559300001
0.038037000000000001 0.40384900000000001 0.64602499999999996
-0.89214199999999999 0.21430299999999999 -0.58076700000000003
-0.098821000000000006 0.65617599999999998 0.59442799999999996
-0.262382 0.14510200000000001 0.64988999999999997
-0.56939899999999999 0.64127800000000001 0.42298799999999998
-0.39710499999999999 0.36078300000000002 0.62587000000000004
1.0635680000000001 0.16192599999999999 -0.33932499999999999
0.067523116803800007 -1.1163556475800001 -0.59663073518700005
-0.47917436030100002 0.26888264334799999 -0.12949638758199999
0.13264999999999999 0.087721999999999994 0.83672800000000003
0.87233499999999997 -0.12023300000000001 -0.25664199999999998
0.14999840164299999 -1.0675996891199999 0.88671645358399998
-0.70496599999999998 0.61751100000000003 0.38354700000000003
-0.77293599999999996 0.077162999999999995 -0.19505700000000001
0.023807012662600002 -0.13595691987799999 -0.00322951281215
-1.165238 0.062435999999999998 -0.65433200000000002
-0.50429800000000002 0.43262600000000001 -0.74672099999999997
-1.019155 0.067114999999999994 -0.63640699999999994
-0.60633199999999998 0.56428199999999995 0.43561100000000003
0.181643 0.57929399999999998 0.67873899999999998
-0.101004677859 -0.16787647739100001 -0.18757739058799999
0.69464800000000004 -0.19836999999999999 -0.23657600000000001
-0.66024300000000002 0.47677999999999998 0.45613999999999999
-0.74093782582300005 -0.34568445623799998 0.220273143108
-0.153531 -0.33162599999999998 0.67830100000000004
-0.22189347855700001 0.30529563153299999 0.92637014724099997
1.2536210000000001 0.16275400000000001 -0.43586399999999997
-1.1157999999999999 0.114398 -0.69335599999999997
0.39559912116000001 0.41541574316000002 -0.42604202073800002
-0.71136200000000005 -0.15795999999999999 -0.095120999999999997
0.52444115881700004 0.287101050154 0.091647407418200003
0.20121700000000001 0.53538200000000002 0.69415700000000002
-1.49759553944 0.72816759835599998 -0.74967925876200003
0.96335700000000002 0.196051 -0.274758
-0.86234 -0.16319700000000001 -0.31005300000000002
-0.44831700000000002 0.61608099999999999 0.50435399999999997
-0.22609899999999999 0.018418 0.52509300000000003
0.86966699999999997 -0.025898999999999998 -0.30165199999999998
0.29008 -0.17102600000000001 0.47018199999999999
-0.46138099999999999 0.69167900000000004 0.44447799999999998
-0.76556100000000005 0.260687 0.31515799999999999
0.23563212777 -0.032623326533799998 -0.066843370736300006
-0.144854987549 -0.24246257063599999 1.40664579577
-0.040863351556600001 -0.36218631465399997 -0.16262577953999999
-0.13519794500400001 -0.70361141730099996 0.75879800889399995
0.16928299999999999 0.14641199999999999 0.74950300000000003
0.75142850283999996 0.502604449964 0.81133582509199997
-0.604912917484 -0.72563588996100004 0.44007640648700003
-0.005437 0.06361 0.82873200000000002
0.01915 0.149256 0.82506400000000002
0.87634403661899996 -0.61375553279799999 0.119636102235
-0.0102489791659 -0.87320042437099998 0.35249669097699998
-0.318666 0.67414700000000005 0.277945
-0.85007699999999997 0.515046 0.16057199999999999
0.028943 0.070805000000000007 -0.86264399999999997
0.380245013006 -0.39552064178399998 0.085858643360900003
0.23885700000000001 0.676346 0.58797900000000003
-0.18528800000000001 0.63612500000000005 0.58360400000000001
-0.89238195820199995 0.0198737546274 0.23736377654800001
0.386438 0.72700600000000004 0.18352299999999999
0.76498500000000003 0.14649599999999999 0.085873000000000005
-0.0038019999999999998 0.069857000000000002 0.83446299999999995
0.168310142011 -0.62547591604599995 0.056377163215199998
-0.55965699999999996 0.85151399999999999 0.269758
0.78835500000000003 0.52902700000000003 -0.28908099999999998
0.29884300000000003 -0.549844 0.87748499999999996
-0.82156499999999999 0.28153800000000001 -0.16387199999999999
-1.0371079999999999 -0.13650100000000001 -0.37377500000000002
-0.96543000000000001 0.13872599999999999 -0.60372000000000003
-0.815662 0.59995699999999996 0.32893299999999998
0.88966100000000004 0.24262900000000001 -0.21138899999999999
0.26672200000000001 0.024837000000000001 0.56271000000000004
-0.071844000000000005 -0.310784 0.50007800000000002
-0.61038499999999996 0.020150000000000001 0.19600200000000001
-0.0471594224566 -1.3590669454099999 1.2094815861299999
0.121914485686 -0.75434339236600001 0.75461129181300002
0.53208299999999997 0.478242 0.58200799999999997
0.37972600000000001 -0.65413399999999999 0.83990799999999999
0.120435 0.72277000000000002 0.29930200000000001
0.25132300000000002 0.86502599999999996 0.45780700000000002
-0.050050999999999998 0.27195200000000003 -0.87678400000000001
-0.052840999999999999 -0.19897200000000001 -0.72828199999999998
-0.37386799999999998 0.52755099999999999 0.63236199999999998
0.997004 0.35278599999999999 -0.24923799999999999
0.30835699999999999 0.42213699999999998 0.68324200000000002
-0.45352518020499999 -0.28235816808500003 0.17835888341
1.2607820000000001 -0.077424999999999994 -0.37959799999999999
1.100528 -0.190245 -0.41063300000000003
0.90422000000000002 -0.043587000000000001 -0.30502200000000002
0.086485449871200007 -0.73076728532099999 -0.61245966896600001
-0.17170099999999999 -0.15231900000000001 0.58816299999999999
0.72160599999999997 0.31560100000000002 0.44418800000000003
0.42751800000000001 0.35533999999999999 0.62020399999999998
-0.58561700000000005 0.60166299999999995 0.33777000000000001
0.53635114494799996 -0.91754745235500001 -0.10055976689
-0.78394900000000001 0.081331000000000001 -0.325071
-0.75247299999999995 0.562392 0.13739899999999999
-0.114896 0.80888800000000005 0.074229000000000003
-0.051919 0.13293199999999999 0.79439199999999999
0.061744 -0.632193 0.93261700000000003
1.0170060000000001 -0.016865999999999999 -0.33746999999999999
-0.61378699999999997 0.393654 0.51695500000000005
0.27435799999999999 -0.30222199999999999 0.86991399999999997
-0.30175400000000002 0.74493200000000004 0.52248099999999997
0.25777600000000001 -0.71530300000000002 0.71158999999999994
-0.73890299999999998 0.48863099999999998 -0.31090099999999998
0.017662459413999999 -0.027066261766100001 0.253933036986
1.114225 0.086116999999999999 -0.348769
-0.038841552787400001 0.35641752627000001 -0.0325935123573
0.082575999999999997 0.54258499999999998 0.62775000000000003
-0.47536099999999998 0.54327999999999999 0.59397500000000003
0.31466499999999997 -0.097965999999999998 0.57030199999999998
0.053942999999999998 0.89654500000000004 0.38042599999999999
0.149282 0.58541900000000002 0.65858499999999998
0.18368499999999999 0.40936299999999998 -0.83644099999999999
0.81479999999999997 0.30416399999999999 -0.375579
0.22411300000000001 -0.55502200000000002 0.90600700000000001
0.092002 -0.33285799999999999 0.36192999999999997
-0.53092499999999998 0.48485200000000001 0.58301199999999997
0.107545 -0.41937600000000003 -0.24011199999999999
0.77257900000000002 -0.0054660000000000004 -0.22464400000000001
-0.33552900000000002 0.32987100000000003 0.63120200000000004
-0.94441299999999995 0.211816 -0.67381500000000005
0.32768199999999997 0.43321500000000002 0.68700000000000006
0.26389499999999999 -0.71557999999999999 0.80820599999999998
0.78743799999999997 -0.00068800000000000003 -0.25517200000000001
0.50830299999999995 0.48389100000000002 0.58951200000000004
0.041862999999999997 0.67365299999999995 0.58264000000000005
-0.67964999999999998 0.19438900000000001 -0.63838099999999998
-0.33294385908399998 0.36218787435499999 -0.19482654034300001
0.47277576048199998 0.10798449872800001 0.25405738764000002
0.32720700000000003 0.086402000000000007 -0.79066400000000003
-0.80772902934199997 -0.24502600878700001 -0.403093849738
0.59109699999999998 0.51535699999999995 -0.55610400000000004
-0.057403999999999997 0.733213 0.58409299999999997
-0.62293200000000004 -0.16952500000000001 -0.15573100000000001
0.47063150986500002 -0.0088405534344699992 0.55384577544699998
0.39965499999999998 0.63861100000000004 0.58291300000000001
0.27610299999999999 -0.040625000000000001 0.73133099999999995
0.332256 -0.1053 0.64371900000000004
-0.82172699999999999 0.55014700000000005 0.34409000000000001
0.207569 0.71025000000000005 0.57911900000000005
0.93994866409800004 -0.211464292611 -0.074877232772800006
-0.302374429685 0.301092189555 0.63748848858100005
0.23932400000000001 0.46997899999999998 0.70554799999999995
-0.91059741057300003 0.175369090921 0.42827916965099999
0.258907 -0.44533899999999998 0.90773599999999999
0.15396399999999999 0.41055999999999998 0.66349999999999998
0.63831800000000005 0.62602199999999997 0.122324
0.20838799999999999 -0.33302999999999999 0.44682100000000002
1.374576 0.140126 -0.408918
0.86236999999999997 0.20565900000000001 -0.33379300000000001
-1.156417 0.015367 -0.66238300000000006
0.57425513661500005 0.025962700872000002 -0.0472754485803
-1.129848 0.081915000000000002 -0.80251499999999998
0.29609799999999997 -0.193634 0.47698200000000002
-0.425403991142 0.47264671196899999 0.16338818753199999
0.50699300000000003 0.81314699999999995 -0.13333800000000001
0.83939299999999994 -0.22576399999999999 -0.26136199999999998
0.40771299999999999 0.085868 -0.74313099999999999
0.30091800000000002 0.245976 0.57366700000000004
0.034979999999999997 0.054627000000000002 0.83862599999999998
1.0956079999999999 0.15581 -0.34652500000000003
-0.77267598621199995 -0.42574835464600003 0.167001424432
-0.47397748113100002 -0.22696019764799999 -0.091423113404500003
0.012832 -0.32976 0.43011500000000003
-0.936025 0.17435400000000001 -0.57230800000000004
-0.34874701759799998 -1.1609566389799999 1.08120836555
0.33266499999999999 -0.546018 0.90062799999999998
0.23602100000000001 -0.294686 0.428651
-0.86182937807899995 0.68210367772900005 0.63536727716800001
1.0476253686300001 0.27633738533300001 0.057311037346699997
0.32294299999999998 -0.103839 -0.69768300000000005
0.140494179577 -0.29324014104899998 0.028545690874699998
0.159329 0.72537300000000005 0.56756099999999998
-0.52352900000000002 0.62286200000000003 0.46532000000000001
-0.086533546656400007 -0.96209649508299999 0.14728153287000001
0.0021474468092499998 0.213893556309 0.41204328266000001
0.19303899999999999 0.099388000000000004 0.80753600000000003
-0.24439 0.57041200000000003 0.57142599999999999
-0.28703000000000001 0.070351999999999998 0.55082600000000004
-0.61952700000000005 0.79213699999999998 0.29756199999999999
-0.793381 0.21750800000000001 -0.40129999999999999
0.21290300000000001 0.69665699999999997 0.58743400000000001
0.1459 0.67132599999999998 0.58609500000000003
0.14669499999999999 -0.42969000000000002 0.95327799999999996
-0.010805 0.166015 0.81114299999999995
0.42874099999999998 -0.58552199999999999 0.57546200000000003
-1.105551 -0.123684 -0.41077900000000001
0.27598369233199999 -0.80504647245200001 0.43050842176600002
0.36094100000000001 0.036519000000000003 0.46933799999999998
1.1316809999999999 0.069806000000000007 -0.35714800000000002
-0.430419 0.775038 0.229682
-0.57730908930299996 0.099970237630900002 0.256800984309
-0.352013372188 0.16380481776 0.35048850496299999
0.079307000000000002 0.038478999999999999 0.83871799999999996
-0.012396000000000001 -0.451768 0.95485699999999996
0.225387 0.49332999999999999 0.70418099999999995
0.45097999999999999 -0.55861000000000005 0.59650099999999995
1.2427859999999999 -0.018128999999999999 -0.451241
0.72627299999999995 -0.15006700000000001 -0.32090999999999997
0.11068600000000001 -0.023040000000000001 0.81278099999999998
-0.00295776547907 0.79237073979600003 -1.10594601462
-0.34740888268499998 -0.52769453372999997 0.27685714182400001
-0.43816500000000003 0.523872 0.62358000000000002
-0.038324999999999998 0.12582399999999999 0.82787100000000002
0.608379 -0.082874000000000003 0.037723
-0.365261852921 -0.34125696825399998 0.45586335270799999
0.36944199999999999 0.48943799999999998 0.681087
-0.023523626552599999 0.958365247162 0.091508867520300005
0.62651314421000004 0.27679016131799999 0.21508511389500001
-0.073482000000000006 -0.57940499999999995 0.93017099999999997
0.48961900000000003 0.48730299999999999 0.58816199999999996
0.29671199999999998 -0.27307900000000002 -0.55515999999999999
0.287908 0.42068 -0.79689600000000005
1.0085569999999999 0.0049870000000000001 -0.33188699999999999
-0.188225 0.068350999999999995 0.61723700000000004
-0.67164500000000005 0.17183699999999999 0.31157800000000002
-0.131974065202 -0.16554331731999999 -0.37762054624500002
-0.015721379515100001 0.51864783095699996 0.95175352350300002
-0.062889766010900003 -0.69580096424600002 -0.00848773929832
0.81317399999999995 0.443187 -0.13137299999999999
-0.22553599999999999 0.70153600000000005 0.546462
-0.287964161178 0.037835448427500001 1.86169133606
0.79079699999999997 -0.107613 -0.18959799999999999
0.41136299999999998 -0.67427700000000002 0.80811599999999995
0.395316 0.40192499999999998 0.64948399999999995
1.326662 -0.025250999999999999 -0.42712
0.82514900000000002 -0.113257 -0.201622
-0.72483200000000003 -0.047946000000000003 -0.139649
-0.995112 -0.047927999999999998 -0.452073
-0.264708 0.048363999999999997 0.52057200000000003
0.21803300409000001 -0.42455081401200001 0.246022230698
-0.15898000000000001 -0.029316999999999999 0.64863400000000004
0.66971800000000004 0.37611600000000001 0.51657500000000001
0.18079500000000001 0.64505199999999996 0.62143400000000004
-0.043582000000000003 0.154308 0.76276600000000006
1.2049369999999999 -0.048314999999999997 -0.36166900000000002
0.35834701833999999 0.13181949068900001 0.97488007934499998
-0.70174899999999996 0.52908100000000002 0.40009299999999998
0.25579499999999999 0.71685399999999999 0.57260200000000006
0.576683844103 0.23262003892999999 -0.21060995038899999
1.2379709999999999 0.331424 -0.31156099999999998
-0.56222213292699996 -0.028389393987700001 -0.25247941273000002
-0.66989196914399995 0.42644547155599999 -0.14907830086500001
-0.84545800000000004 0.55567900000000003 0.32087500000000002
-0.59725300000000003 0.60800799999999999 0.113413
-0.41966599999999998 0.40657599999999999 0.63993199999999995
-1.223794 -0.065743999999999997 -0.50044599999999995
-0.71811899999999995 0.161527 -0.57874300000000001
1.2297750000000001 0.37462499999999999 -0.32294400000000001
-1.176803 -0.047499 -0.56195399999999995
0.37192599999999998 0.557141 0.64440799999999998
0.070510586078499998 0.26849602770699998 -0.43474277175499998
0.74147700000000005 0.0083899999999999999 -0.100844
-0.030397 -0.348852 0.92306999999999995
-0.33189600000000002 0.38537199999999999 0.644787
-0.75331000000000004 -0.074007000000000003 -0.19237099999999999
-1.144439 -0.108652 -0.412609
0.38806499999999999 0.74430200000000002 0.58419699999999997
-0.50367276550999995 0.188031137036 0.56927535178900002
0.63611442452900002 0.019094041740000001 0.17499167283799999
0.89831799999999995 0.22626299999999999 -0.21969
-0.28675066340100003 -0.349347601387 0.112522210242
-0.94760967471000002 -0.34423553370299997 -0.96568594517100004
0.38614100000000001 -0.51114599999999999 0.86482400000000004
1.003271 0.21640100000000001 -0.29128199999999999
-0.264284616458 0.91667009982100001 -0.38791228023399998
0.22200300000000001 -0.55533100000000002 0.94089199999999995
-0.85683200000000004 -0.0052709999999999996 -0.41743000000000002
0.37841900000000001 -0.24197099999999999 -0.52837900000000004
0.36565339870000002 -0.119606976942 -0.26425592420999999
-1.0202720000000001 0.189085 -0.68502200000000002
-0.022981999999999999 -0.63428700000000005 0.762679
-0.44543500000000003 0.71507600000000004 0.44615700000000003
0.24738399999999999 -0.562052 0.92713699999999999
0.166071 0.71461300000000005 0.57341299999999995
0.402895 -0.25816099999999997 0.71031299999999997
0.81386700000000001 -0.011851 -0.29269099999999998
-0.050881999999999997 0.10786 0.78751700000000002
0.27199000000000001 -0.45892899999999998 0.88212900000000005
0.98242099999999999 0.20741799999999999 -0.28182800000000002
-0.35374659255200003 0.048860392626100001 -0.61466349179099999
0.15641099999999999 0.85937399999999997 0.38323200000000002
-1.021004 0.20232600000000001 -0.72274300000000002
1.089518 0.22528799999999999 -0.39680799999999999
-0.39214492890300001 -0.49000955541899999 -0.79170084539800001
-0.91247599999999995 0.21321499999999999 -0.63663700000000001
0.101663 -0.49840400000000001 0.56203199999999998
0.00109738477348 0.079842230879600004 -0.030580219050699999
-0.55680499999999999 0.53191999999999995 0.52148899999999998
-0.93901199999999996 -0.014093 -0.451596
-0.838727 0.037393000000000003 -0.42980299999999999
-0.134367288685 -0.090341030917800005 0.40469406396500002
-0.34886714297499999 -0.34537728239999999 0.51055744347099996
-0.33585399999999999 0.45628800000000003 0.65787700000000005
0.0082380952122499997 0.67587795488400004 -0.054007244391500002
0.143012 0.033153000000000002 0.82590799999999998
0.97179099999999996 0.024055 -0.31984800000000002
0.15060899999999999 -0.47742499999999999 0.92603899999999995
0.30495 0.48371700000000001 0.70195600000000002
0.022567270171499999 0.22433395833399999 0.361452845573
0.066128000000000006 0.49822 0.63181500000000002
-0.69990570348199999 0.219881513833 -0.84093663248100003
0.047328789920699998 -0.22777664585499999 -0.95410904838800004
-0.721109 -0.034692000000000001 -0.066373000000000001
-0.37274600000000002 -0.29222199999999998 -0.42444199999999999
-0.63991699999999996 0.343219 -0.67678099999999997
-0.050982 0.67738100000000001 0.37225200000000003
-0.10945100000000001 0.073006000000000001 0.7268
0.78850503494000002 -0.96867984859400003 0.11399863586800001
-0.26971699999999998 0.56408999999999998 0.57208700000000001
-0.55489999999999995 0.64831399999999995 0.167768
-0.39605099999999999 0.62847200000000003 0.50123799999999996
0.18361201959199999 0.41242659816299998 0.49578273716799998
0.49170599999999998 0.59339600000000003 0.56926100000000002
0.30585200000000001 0.38094800000000001 0.65229300000000001
0.036393000000000002 0.46685700000000002 0.63206700000000005
0.25052904492 -0.52665311530799996 -0.40862112199400002
0.49280099999999999 0.37005700000000002 0.60650599999999999
-0.80228600000000005 0.159137 -0.36051899999999998
0.044483000000000002 -0.33308500000000002 0.37268699999999999
0.0508726001894 0.12388913004800001 0.59272572303500004
-0.37856099999999998 0.70181499999999997 0.48133300000000001
-0.88600999999999996 -0.029739000000000002 -0.40532299999999999
-0.158907374431 -0.239306751885 -0.44754974125300001
-1.0385219999999999 0.094019000000000005 -0.76953899999999997
0.19564799999599999 0.686687628218 -0.019128980045999999
0.017728000000000001 0.78696900000000003 0.56908099999999995
0.54375300000000004 0.41894300000000001 0.49495499999999998
0.062222921923400003 -0.84089094139999998 -0.57701500788600002
-0.143959 -0.47817599999999999 0.78906200000000004
-0.52727500000000005 0.412964 0.57131699999999996
0.053843832098399998 0.0342980370342 -0.74040112075099995
0.035619999999999999 0.65331399999999995 0.58826199999999995
0.133711 0.167292 0.76878999999999997
-0.12695799999999999 0.35127700000000001 0.66276299999999999
1.2448760000000001 0.024917000000000002 -0.38858900000000002
-1.1748190000000001 -0.122903 -0.39524199999999998
-0.12801499999999999 -0.0055209999999999999 0.71064499999999997
0.31697199999999998 0.61742300000000006 0.63928300000000005
-0.90551000000000004 -0.11366900000000001 -0.41988900000000001
-0.26617499999999999 0.50928700000000005 0.59079099999999996
-0.39545000000000002 0.35731000000000002 0.63197599999999998
0.68458209103699996 -0.60272731036500005 0.41267670123700001
-1.164766 -0.034322999999999999 -0.60683500000000001
-0.129958472135 0.95646802602900005 0.36745830405699997
-0.45596500000000001 0.30144599999999999 0.61000600000000005
0.14288177299400001 -1.0139477480400001 1.07071387965
0.46271600000000002 0.45028600000000002 0.59532700000000005
0.41942400000000002 -0.73484799999999995 0.67520599999999997
0.21801209367900001 1.0275021424299999 -0.24116967287800001
-0.76932199999999995 0.49410500000000002 0.063657000000000005
-0.159012449153 -0.58786747663700001 -0.42765016805799999
-0.81604230711500003 -0.80704019979499997 0.317259302533
-0.077295000000000003 0.65988000000000002 0.39632400000000001
-0.82599089965500005 0.053272596675999997 0.61754285852599999
-0.108469721734 0.78178802363 0.0118288738419
0.55195543436799999 0.21528577896600001 -0.44576477867699998
0.99260700000000002 0.24809600000000001 -0.263542
-0.23036300000000001 0.41462700000000002 0.63897700000000002
0.65501699999999996 -0.089852000000000001 -0.419541
0.88038093532499995 0.84277761363100001 0.90652525284100005
-0.43139 0.60663 0.55749899999999997
-0.74365899999999996 0.501973 0.39495599999999997
0.33650617370699998 0.497535050092 -0.20401503585299999
-0.17447099999999999 -0.15380199999999999 0.47937000000000002
-0.045649063542899999 0.53389387066100003 0.14186197925800001
-0.77009399999999995 -0.031865999999999998 -0.34593099999999999
0.24262300000000001 -0.68684999999999996 0.863209
-0.67022099999999996 -0.15498700000000001 -0.098914000000000002
-0.50151599999999996 0.62570000000000003 0.46673100000000001
-0.62984499999999999 0.50156800000000001 0.43812499999999999
-0.33024700000000001 0.632274 0.52704499999999999
0.14954799999999999 0.60323300000000002 0.64540699999999995
-0.123962 0.27892899999999998 0.71216800000000002
-0.50726026969799998 -0.32405143376399997 -0.470190616359
0.8407 0.27687600000000001 -0.14708299999999999
0.18195437665200001 -0.312031288184 0.56695996635300006
-0.81612600000000002 -0.035047000000000002 -0.37851000000000001
-0.507330315669 -0.096711754711300002 0.41277674331699998
0.37340699999999999 0.39013500000000001 0.65619000000000005
-0.50869271923600001 0.281176482974 -0.48902613131700001
-0.27098 0.74193600000000004 0.37605699999999997
-0.079800999999999997 -0.256023 0.86945099999999997
-0.45926600000000001 0.67722700000000002 0.45229900000000001
-0.094922000000000006 -0.36436600000000002 0.89242999999999995
0.078640239007900001 0.71046938151200001 0.015678105291
-0.86236000000000002 0.40259099999999998 0.222611
0.24975679790300001 1.13816148635 0.27410435648600001
0.46769100000000002 -0.64361599999999997 0.60788200000000003
-0.103364 0.84603899999999999 -0.015044
0.33740300000000001 0.712588 -0.57348299999999997
-0.28508363348799998 0.37313825526799999 -0.070356071836600004
-0.76836099999999996 0.65486599999999995 0.28295100000000001
-0.14238300000000001 -0.465285 0.74169499999999999
0.27893200000000001 -0.55999699999999997 0.88540200000000002
0.84848800000000002 -0.12112299999999999 -0.24756800000000001
0.17760799999999999 -0.31038100000000002 0.34367500000000001
0.209069 -0.59785100000000002 0.93438500000000002
0.18925380489800001 -0.121395865201 0.52062732128699996
0.32827800000000001 0.77068999999999999 0.582009
0.036068999999999997 -0.34015099999999998 0.33089099999999999
0.18954599999999999 -0.666906 0.66740600000000005
-0.28616775057299998 -0.34925586749699999 -0.51660664066100004
-1.104565 -0.12772 -0.44392599999999999
0.043329275622900003 0.35557793597600001 -0.45616350760399998
0.84413700000000003 0.21127299999999999 -0.18421799999999999
0.33438099999999998 0.80683199999999999 0.56845199999999996
0.054096659585399998 -0.253034437133 0.66434710589400003
0.222747 -0.293825 0.88582000000000005
-0.83229399999999998 0.086073999999999998 -0.40890500000000002
-0.16283400000000001 -0.18768599999999999 0.55959000000000003
0.35689399999999999 -0.67111900000000002 0.83847899999999997
-0.51138300000000003 0.15070500000000001 0.53340399999999999
-0.57975912534200003 0.326961618181 0.41944386473599998
-0.291433110055 -0.26631807499400001 0.78019715447799998
1.1597280000000001 0.091216000000000005 -0.36249399999999998
0.68491002036100002 -0.070385722260099995 -0.157272428592
0.84479000000000004 0.284474 -0.25151400000000002
1.1790560000000001 0.186164 -0.37897700000000001
-0.086767999999999998 0.87340399999999996 -0.10285900000000001
0.16514000000000001 0.0065449999999999996 0.79828100000000002
0.107006 0.105198 0.83726199999999995
-0.330816 0.52387399999999995 0.62272700000000003
1.0327249999999999 -0.072763999999999995 -0.35250500000000001
0.205149094999 0.57946660953999996 -0.209130251367
0.39147300000000002 -0.436612 0.55475600000000003
-0.97658927748900004 0.51162031069000002 -0.11562335976099999
-0.39435942859799999 0.31986126355900002 -1.2502194745799999
-0.79144099999999995 0.124669 -0.23719499999999999
0.996228 0.27436300000000002 -0.346918
1.196841 0.34800300000000001 -0.36194999999999999
1.300206 0.052636000000000002 -0.35569200000000001
-0.38885399999999998 0.59014999999999995 0.57399199999999995
0.25585539698199999 -0.40788830930300002 0.15901306214700001
0.383104 0.51692499999999997 0.66128100000000001
0.465748 0.355742 0.59187100000000004
0.151812 0.087196999999999997 0.83352400000000004
-0.17702308343199999 -0.34244363802 -0.28406961918599999
0.17148099999999999 0.78477600000000003 0.56410800000000005
0.095984 -0.041168000000000003 0.81989699999999999
-0.221941 -0.129385 0.42064299999999999
0.073426000000000005 0.61841599999999997 0.60389499999999996
0.32953955480500002 -0.26098203226400002 0.53052960576800001
-0.44295800000000002 0.45764700000000003 0.64549599999999996
-0.59839699999999996 0.62359299999999995 0.41552600000000001
1.371362 0.099515000000000006 -0.41832200000000003
-0.77437599999999995 0.44732699999999997 -0.22514200000000001
0.18140100000000001 0.093697000000000003 0.82399699999999998
