# XYZ point cloud file
-0.24962333046690421 -0.14884476252736567 0.43982452343038292
0.13855107233216796 -0.076838872045906115 0.73153992649168353
0.37711154943785707 -0.36665347986325925 0.69695864507036109
0.01114440832586 0.26720556862261202 0.71524495527324361
0.6367245551571552 -0.26505035190510595 0.37723763461942805
0.44669923646038356 0.82379618746325978 -0.43977339154822148
0.26060235761646 0.40132676810436574 -0.28489140644142924
0.18201285983198656 -0.095379320106736332 0.6913544324828258
-0.1480213323315151 0.88349455692750967 -0.82428587746888538
-0.015502641436054843 -0.55188862833836638 0.19014267971842003
-0.35299998880918793 0.013627576149033871 0.77630050446262988
0.025329770108446781 -0.070539132163442764 0.76452727528274578
0.26363619189919291 0.28595061474581307 0.017111022730001701
-0.061824820699349803 -0.4391295174049612 0.37955579749479662
0.078772418714702086 0.33580167424992946 0.66583772673583264
-0.18825986697764063 0.64428172897387204 0.32931568020917057
0.1738212325488982 0.49907586214217114 0.20421995027598716
0.39879740066439173 -0.44719548106206342 0.65130136960063278
0.11953553602806294 0.42270192779690241 0.5655606672739345
0.049848879371210408 0.05256955930100693 -0.44559969943572358
-0.085473718943215093 0.70685777032222119 -0.58548280638530392
0.33651049019560419 0.6980610254878632 -0.31690851150859378
-0.08088950895827246 -0.14193268168559148 0.60692760608573049
-0.4454886100837499 -0.29705645454872287 0.43697690083433172
-0.16125420369104598 -0.18578437961523986 -0.26022185622687777
-0.086523424577604313 0.13520934645415705 0.96316573551732354
0.16704095693273951 -0.53984860392012135 -0.072975789003825731
0.16066301024248505 0.87669168943572373 -0.097312021044222818
-0.26889377053896713 0.22728016007951424 0.72347751345345812
0.038578424005601797 -0.1442113279302788 1.5353641166838343
0.30395283068612461 0.43753071887805017 -0.1858744317075266
0.76660226216251948 -0.38546330899063574 0.51384884602423331
0.11340933573855877 0.30351823992401772 0.61770698366287902
0.4988273794585848 0.84190071570928637 -0.43074850146696808
0.31997867343155045 0.4551349116772192 -0.19984659464264354
-0.4803773919321751 -0.48782426831612624 -0.011082946542560257
-0.66989338957219979 -0.65393213140215622 -0.28981554054925052
-0.13673218084069177 -0.1812477760274176 0.53442328097601699
0.29256921419959497 -0.21567497596362051 0.15948500466249194
-0.017017005650427741 -0.18446589073656061 0.59964541565523366
0.22493400974875194 0.46330689040391504 0.4520367273139333
-0.058206104002728687 0.36535754769960871 0.69066491455315338
-0.0023295050996621214 -0.050167048251361201 0.72368376126587186
0.45125293592487559 0.750373186970968 -0.36621343943912787
0.2863288562923737 0.039920329739775884 0.81419647472337187
-0.51078254089221453 -0.084169576238873445 0.61944289477391323
-0.041094629660704651 0.46409371293144885 0.64758061203969908
0.090510949379309646 0.59530904915245619 -0.13979862869767878
0.3652284567749417 1.0818701970765339 -0.3236524782867084
-0.40063962530911118 -0.38143777545448188 -0.10765667262310774
-0.49284866412361988 -0.1181457774600605 0.097544507260089341
-0.5966876217630902 -0.12428446929545234 0.56812198161492011
-0.45820749612084827 0.035059845110654742 0.37498918672725423
-0.31816357057692912 -0.04948289077255108 0.75369574409723916
-0.81806535589880491 -0.77832445682294682 -0.34703103135386726
-0.5251767166774115 -0.32912938991985929 -0.35552612313867527
0.35211509468789848 1.1193986708178381 -0.3309658419662575
-0.78979504063405437 -0.74893189468656907 -0.39661712270245975
0.054808954405610399 0.39183427771714685 0.64943452645136768
-0.15440723567714093 0.32121541573793078 -0.25515381421342942
0.254286623832783 0.47798723774460594 -0.098798495965508493
0.29585889603634402 -0.31751427069921889 0.70206362092954966
-0.26201844622331089 -0.026714576870244588 0.73943263344438681
-0.49914508240883138 -0.52442617440338379 -0.06343181360406791
-0.76075364112797761 -0.76615222252165138 -0.27439410341343518
0.016048709808610617 0.54329602812235422 0.63062791365288107
-0.3210833743505509 -0.20589971284143616 0.64058779361776819
0.26786016857947831 0.33275334246380761 0.1346091122401038
0.23385561109646166 0.78842641956708714 -0.19936079778149468
-0.087618789582641798 -0.42389902072116248 0.1048176583601691
-0.67000678696417415 -0.8791593720525015 -0.80441302791402891
0.66165595145195111 -0.2972631205886811 0.58677915109356915
0.27593929428221858 0.86460380245835133 -0.27412825154687032
-0.27420109503285423 0.60071200906217226 -0.087971102792507694
0.60524677782458336 -0.3696492004009031 0.64493866236085584
-0.58661705543347087 -0.54561304818516265 -0.24565611789857467
0.084745666959973209 0.13484310904885799 -0.42611486051179337
0.090833118879314612 0.18513811369170474 -0.1985242727107222
-0.69405127054616633 -0.48355359352461558 -0.45339294201253055
0.42022089136251306 -0.46685715859432109 0.5124293293485247
-0.38428467724085297 0.14981184919694845 0.67716827384463907
0.62288624070929643 -0.3667972934929653 0.63175734668176842
-0.081756594207809452 0.41806252044025127 0.66836576252023261
0.45778608640752444 -0.11022685728765036 0.52302180776841234
0.25595416151692757 0.56522139043110942 -0.2619646071742377
0.017687784705296306 -0.080445136261164452 0.73065826319841776
0.55876109929820661 -0.29652979875558927 0.61901918198464845
0.26953773499181322 0.84240540389683649 -0.2637293792693774
-0.3380163058206605 -0.16050225394474671 -0.4159160276138234
-0.11189903036906645 0.57524749269737763 0.5351540654243423
-0.69460918242889513 -0.47116059834633583 -0.48648940019737408
0.30379918075097784 0.95601712031533803 -0.37170430068097687
-0.30318926837702836 -0.63031734963084429 -0.65591506857177284
-0.6315037280372775 -0.40428604211454522 -0.40034129577390076
0.365864795528481 -0.34215276494237812 0.38821241939937068
-0.099950653941469181 0.047106688368982574 0.065370412923770216
-0.42564076525737593 -0.025018136476678832 0.70895229562653772
-0.63718863919757196 -0.59919826093892414 -0.27990909073185044
-0.57938951251515236 -0.50373139569043279 -0.24662285454247446
-0.028433758445469304 -0.19334291375968804 0.39089408545426552
-0.03579819367186543 -0.4307269905216764 0.41947035259804799
-0.27969377335321199 0.012113669790068782 0.7706122236754448
-0.18501705821662673 0.49434370083096191 0.15147214732836312
0.17600653025396013 -0.055646234445800857 0.71130963643751488
0.31397940219984333 0.69207035153016405 -0.30170613349272735
0.50148840049624877 -0.34073003561985571 0.65666443160976185
0.052787542341764249 0.29703532787903697 0.69481763218928116
-0.064864025358435773 0.083948569833137032 0.41599804368301041
-0.079789797815799757 0.21667529413173403 0.69078317748417739
-0.52424653029679225 -0.24698134835247298 -0.58865564059745601
-0.14198173278185089 -0.064612077345847174 -0.75619584030897169
-0.4728138609074759 -0.47249336928146013 0.055877366487773306
-0.26892400726336774 -0.44999964650137003 -0.31614980914431845
-0.48648816745744239 -0.11400063423052753 -0.41485553744278825
-0.19191285150168447 0.33691618935210088 0.53779170852834401
-0.014587104502249093 -0.11549864397983622 0.68260685414926103
0.9002737407228385 -0.40286841039354482 -0.038871922064619813
-0.27099143217019572 0.11447028265350423 0.71915468309351693
-0.43764262870418924 0.081099077365457406 0.42922604678835186
-0.34988049410809197 0.10750999887997259 0.69598148528676185
-0.019374015895214869 0.25512586470523235 0.53923243023332446
0.089521222972022807 0.49989775838006745 0.56842556540779243
0.077266553835700025 0.24945848597829823 0.63341181429473492
-0.086580980260549556 0.18382201926582242 0.68929966028151413
0.15460130754057361 -0.21425093717216459 -0.36010624206045294
0.16277267864913031 0.3425721410748972 0.55789122522322421
-0.56111287463911164 -0.39019591623382144 -0.15518635392886715
0.18133783264029774 -0.25135753153175711 0.28879182648329826
0.029968599356108183 -0.0041162840573791826 0.57034453208151348
-0.34837332085466116 0.16684976341747837 0.69420547818056733
-0.60154002248744198 -0.57949211515933552 -0.24101471040126821
-0.16916160293956234 -0.25891954787120142 -0.33044034739865291
-0.71019141821642218 -0.57086287912576994 -0.55210798892896984
-0.10795805966585242 0.61804604740237234 0.14848732276724391
-0.15950012292600002 0.39513001301068384 0.71190662462200793
0.14738759119965439 0.440567537481656 0.46745922790535649
0.12098723850691961 -0.60949487388121792 -0.52842692222618293
0.24974542716726955 -0.41559750778893279 0.57814138842549112
-0.38725676239293599 -0.086947226183861082 0.71295357252501812
-0.1583054885885295 0.16132294794045898 -0.54775223921183414
-0.13202363962263253 0.3104000985512767 0.69640287447611848
0.094704572741074355 0.024395239911475741 0.70409909475762034
-0.13583235493905443 0.037779977341120929 0.71301713767234787
0.44206190543937396 0.84404651534005892 -0.39048381620096334
-0.77958974079792831 -0.78743978131083625 -0.2636406351777304
0.0046350541620841512 -0.16315237911419911 0.65019728272699484
0.013763413108978606 0.40637402511692855 0.66926352017766411
-0.60834150825978539 -0.65184259474428541 -0.27455527207177799
-0.2578008966526435 0.079735273409503593 0.71978033271798192
-0.2931478366138151 -0.067930687698947834 0.72968942924721081
0.72998944667301879 -0.18330682544412968 0.22084888969530753
-0.78381427572251683 -0.73595951245461566 -0.43414485517376011
-0.23758936369178646 0.49574239995132929 0.60054282949408666
-0.3173385282847177 -0.12334521831357326 0.70290704562500794
0.86769241549104759 -0.66201774411951764 0.65929874912418751
0.11936717076337067 0.38371347784517762 0.57023021936338181
0.76200441741333269 -0.40595487347643056 0.40667236449022304
-0.074104751475244091 0.98617236374975548 -0.025676787715495752
-0.54708762958887225 -0.13293094719238607 0.31522255479852168
-0.06223450186635332 -0.53322233207263925 -0.37599233276083366
-0.28036684625751496 -0.88769772222693299 0.15529699930187268
-0.20075532297136323 0.30472410691992313 0.5598348183280033
-0.49958401041155753 -0.38710040965813164 0.66060228723874814
-0.23180723070275061 0.47818370224526818 0.24809676657832269
0.055589431569100289 0.63807154115314102 -0.33276402224621066
0.26652868752488895 0.87478867210520894 -0.24864444594807497
-0.21286087373423751 0.03317113133680416 0.72777386804138633
0.18513292125423436 0.43575686593449459 -0.34984225629350385
0.28483204673541707 0.68212258622004684 0.78911692891495688
-0.3643843338187624 0.072608245446011743 0.74289997627034432
-0.53292922083570882 -0.11895430563936249 0.61093379885249754
-0.051048854611207783 0.63662256310389465 -0.064343184062309766
-0.0096916950537831448 -0.25223426713151387 0.4358006829078086
-0.1893211449346025 0.29947275543964835 0.3098876746553213
-0.52822577632626544 -0.51236151837716937 -0.18768403588564486
0.67871607612087081 -0.43624188876601011 0.56035241299460425
-0.42347399133886887 -0.52523441234795132 -0.0054487480319731496
-0.40674637459998852 0.062124081117945984 0.68064698261058421
-0.46579650175202336 -0.072685119932448972 0.63773781223047421
-0.31494415608847548 0.1366297294372234 0.70853650233965759
-0.061778406868208902 0.31720078508771143 0.70815037786655144
-0.1040493955111641 -0.007876123235520005 0.73154592255421813
-0.34745193593513612 -0.56517447913006391 -0.36030368237123356
0.20518839203052883 0.76815960259896188 -0.12745365470804393
0.31259544823645175 -0.19935177851874863 0.42763263913169081
-0.55760944055983452 -0.54265540566834325 -0.21756109782420219
-0.25878359960885777 -0.37044750392192927 0.42719892805603366
0.10809916399122199 0.28422246370857551 0.62499735117885369
-0.41836164059658298 -0.095612882342023697 -0.25496186501921081
-0.29964923053604481 0.26397079516638056 0.59474647873320441
0.19593651085489672 -0.28262892935760386 0.6926410935882461
-0.38881330740089998 0.11688983430159294 0.67538644732209574
0.2503129275887892 -0.34201407522509153 0.68111924565916171
-0.15460057252015069 0.54569412539321061 0.20594429657948338
-0.59625913144515152 -0.23840353655157798 0.4387693400975653
-0.062856000184203231 0.87705931552863148 0.45122818596509007
0.70687920944603533 -0.32012128289931274 0.37014325344342769
-0.227000601918669 0.53970812450458028 0.23188094699817924
-0.055583788598773942 0.93749241818219464 -0.37570490435928861
-0.29584427944664021 0.073779530753268485 0.12479802865633816
-0.55459417621387685 -0.022900506134999388 0.55481548772321632
0.2311058468022219 -0.40960148710142419 0.5463883992121602
0.62967039740244146 -0.35425771740970136 0.59959884161253829
0.32391385662621319 0.47507290117608969 -0.2390330194765552
0.24022692440949106 -0.170972669469589 0.26030114003693439
0.62130059753049527 -0.39623902758199159 0.63205792556199658
0.20161133977715001 -0.074338710512099393 0.43600951487931539
-0.014790164003664119 0.53245060369810759 0.64774763379572065
0.16744745050620691 -0.25655174323883201 0.25600665266804179
0.56138437655590934 -0.42352233130824657 0.42436333571228213
-0.2238142949802775 -0.43479303022767091 -0.404468459983927
-0.73548537708004269 -0.76475445651680296 -0.30564274340033926
-0.17475370613833285 0.37660922678426778 -0.25930328710591605
0.21832429629230135 0.73194741801030339 -0.16302198090714165
-0.017654232462217423 0.56489540652296943 0.64106891808178856
0.22939196272674856 -0.22481631913791178 0.52737907484841229
0.42425607460491488 -0.21697169021351548 0.66386115689355885
-0.57704557559003056 -0.46302333122478279 -0.21630771245740021
0.031242608492277002 -0.26836847241678363 0.48705464178568125
0.73906270643687777 -0.39935068311311162 0.53934583961377358
-0.31958777291411194 -0.23063408904157012 0.60085284416778917
-0.41137006478527699 -0.16001850774429949 0.56687980454270248
0.030117356887898183 -0.35337512083858025 0.64298042547313805
0.3794370712007088 0.85849274707465439 -0.35770975437577673
0.24604178368725627 0.39912606445974563 -0.14397719992204838
0.19116990637122971 0.81824133859087045 -0.21279738437546147
0.36054854110957735 0.95764087165678258 -0.3713129637247235
-0.2168860025445507 0.60010179614444925 0.15089540506743448
0.1956687391886277 -0.057854047894654093 0.68052218948030241
0.1226025208515667 -0.031151269159082506 0.74411183011639503
-0.29326017566849799 0.057536357491720036 0.75988761224691714
0.37334695749535551 0.64645718404360242 -0.33960630180667983
-0.10880236312593067 0.60826367136716919 -0.035695203575418721
0.50813722163816677 -0.19639481368874323 0.37337104067547555
-0.66177628935997823 -0.21389143458557447 0.16025010131542072
-0.37659913910866016 0.12745701512370178 -0.96106158158771038
-0.54680323277976717 -0.40898646842289677 -0.051711281301429546
0.25271008111790505 0.93131562725210193 -0.31557889267233252
0.33654521765771095 1.0986478587957607 -0.35766465559742655
0.46759335482393527 0.87970308855097246 -0.37118337523726397
-0.33844884674084608 0.078683800437050699 0.74611885293788194
0.27704624343172324 -0.17405390504188434 0.093994465908561753
0.073822584871754249 0.36578309786411278 0.6526355177622416
0.15174714144730905 0.32638639554182114 0.54900621467059862
0.15635940698157341 -0.024417326484897028 0.72972590190321796
-0.11720623282701825 -0.35541275286327623 -0.21551187677465133
-0.088943564122591467 0.47055453473764919 0.67259617784925974
0.18415619848149539 -0.11115660836304819 0.693896022739389
-0.062339228543715819 -0.25848830723853267 0.40121174983571883
-0.10615076489413655 0.30207421350729891 0.69378516006810032
0.35918581084216367 -0.10256794243881351 0.39648182829930823
-0.34215898165316933 -0.028930509823269501 0.77609852596967521
-0.45997681823239212 0.022027403803783985 0.64775033581452368
0.48444116665462117 0.97174275330620974 -0.42875267539275042
-0.54862579207282258 -0.15649620674465448 0.036251908791518295
0.16801656260192449 -0.008626437761554584 0.71965368992291756
-0.57935486079648779 -0.4113313324489134 -0.21891039675165491
-0.56255910304221601 -0.60770077560968705 -0.16558548467352741
-0.2405439303288725 0.046621304296092791 0.72016749734479268
-0.41752215116977198 -0.031054945125550848 0.72915197933962628
-0.12456809064408492 -0.72499517445477657 -0.11321882607807088
0.12547644279129283 0.78127420491639277 -0.40603051049807182
0.051083271328986823 -0.013985574192986405 0.70150075927765931
-0.57443764046946455 -0.60176295473571184 -0.18719521054538768
-0.010029664657136339 0.61642422936530905 0.55146070552004889
-0.29285554263335162 -0.33387033170899438 0.067779987943860087
-0.3603185230587711 0.41704191142717373 0.049490408433654709
-0.58285813958359722 -0.51418748063381625 -0.25295910460112547
-0.043849295710772673 0.37948834141566867 -0.57694484237413612
-0.0033250189478573611 0.25476004480002667 0.70897046152050414
0.79701423193289633 -0.16385747459700939 0.031778519966085439
-0.76304692198683566 -0.67297577469368375 -0.48057045362718787
0.18237014896665005 -0.033674814567904887 0.70525694806274086
-0.12570102071326794 -0.060766562853129757 -0.56947024001100599
-0.19247080550723833 0.27039456467298684 0.72887420028100314
-0.22437018911506085 0.022482779168123468 0.73611018557369479
-0.44821936369435228 -0.21848167431917931 0.62365782872724851
0.024157060261426444 0.32062335168138811 -0.14048353320561052
-0.40385040389454935 -0.46214847173487084 -0.21365807329960007
0.32065741892826272 0.054475593466671191 0.25134415852263142
-0.59301626857104672 -0.70162060835917484 -0.12231435958443237
0.13073480991652647 0.32271117647407088 0.26793769069777373
-0.44221369517423192 -0.2835957249329466 0.48053531431986618
-0.62778900337575028 -0.5446696582942312 -0.30878895206330981
-0.020559576042900318 0.45071513933458607 0.45643755136760039
-0.034415179926431283 0.0094785176942779881 0.11755592639292933
0.60246380360581386 -0.29898912440427483 0.59896481871642437
0.45837173830918398 0.93996522390993165 -0.36656327693231811
-0.54627731239532551 -0.28246936176479931 0.42433078159545168
-0.10159037150699812 0.25456530423077162 0.6952384482873919
0.038904117415487938 -0.021125847254736874 0.72197590828745983
-0.26067194074315569 0.52561654850754969 0.1300933074889275
0.50685026814200218 -0.33705315255481705 0.67365197024154311
0.06630658054106281 0.017420361440260601 0.68820332941785822
-0.098673542564350236 0.31891761016341569 0.68619272763550287
0.28315773088594565 -0.26313823620341625 0.35596105913414144
-0.6515343821216435 -0.63199950475986777 -0.27564867396048676
0.35137840720275187 0.25392534902839237 -0.064315633941249506
0.43650936280799418 0.90024176237737352 -0.37325129496106763
0.22120746137158931 -5.0563130478131768e-06 0.58753517501596952
-0.39774549338007426 0.072773051916149578 0.68185741189993376
-0.44010453958486195 -0.11660894241770459 0.6392747092007226
0.22505497912143368 0.46555630057403086 -0.31646037452225512
-0.039552564238411969 0.60852958332503726 0.56564338546457726
0.42888104802228044 0.71731737007411422 -0.39281915558443092
-0.4741556485291501 0.032214427976613891 0.64420217375949784
0.093053013616916203 -0.048622720279032139 0.75585693137381227
-0.047467962131851671 0.7756971596708031 -0.55155724236775339
-0.49165109710550092 -0.036831786490867824 0.15759224309615505
0.33689841595575232 -0.18398612334467646 0.34442031581303534
0.37207938181680572 0.23668475015887203 -0.00022568585148047271
0.1162180120441636 -0.36713165319328156 0.46185851940157008
-0.29918357414036612 0.054384495370554786 0.76899498512400666
-0.41497796616822291 -0.31059420902492962 -0.47554675615092057
-0.5163505809495087 -0.56322142136772979 -0.023781151746525397
-0.071863087138878012 -0.37973109008249761 -0.25861348726358657
0.42909916162837664 0.11736459195774951 0.21866795047575505
-0.22584629461308819 -0.21946797117442873 0.6286587945028822
0.31970544668273027 -0.35582591968452493 0.4118202894389541
-0.12259148119214969 0.84345992819390592 -0.16456115928807302
-0.14399597761435839 -0.74894161575910623 -0.25114573708886057
0.19025172584767558 0.91585458083373483 0.16017558132388726
0.051526653006360335 0.61682512805221368 -0.2804277306819748
0.14334898394449885 0.093017742557360394 0.61424298049494797
-0.47091165832187665 -0.48720404371293968 0.020572756761865763
-0.59617100558826241 -0.61278813981924374 -0.20472749154373804
-0.2115420040801031 0.070404104149942359 -0.045176456482496574
0.12784514563988958 -0.60256614097828709 0.48917944046057926
-0.31627981016618995 0.0013872766624631883 -0.60118927579308501
-0.31198491044926285 0.10530011777114523 -0.24178490551621479
0.18420832739850934 0.029453877658545791 0.54720360050156858
-0.37249303441571263 -0.029100437312143512 0.76653942858435997
-0.31596896775921673 -0.69830533634201397 -0.73803593389758326
0.72983611346213351 -0.3906753552318446 0.55392889881870488
-0.49526990832080192 -0.075537905135284245 0.63315606692696125
-0.18391260086345068 0.85266920855292261 -0.76118063115117385
-0.635107576058493 -0.50950097667778749 -0.34771985499704461
0.71799150795473077 -0.31349752469677872 0.54189157783252129
-0.10929628534324731 0.58881911035724088 0.5485862389561843
-0.3576660026511771 0.44812745155915179 0.99691406010457317
0.042089041121830428 0.17289481545475804 0.59000626688712188
-0.112768410583651 0.34078503861769205 0.63801081545085314
0.32608534422408209 0.55015771675121639 -0.28024012835500012
-0.16910204566536324 0.69694460116898727 -0.59921793884293573
0.44293906647367431 -0.055536121365636459 -0.24050141623035376
-0.066816516300893747 0.25742088045047851 0.21915132512613211
0.21235824743278231 0.12696313699319317 0.38273249001078946
-0.48159862934235792 -0.13530295765625788 0.64516203079298651
-0.61405622318024822 -0.14952793284689769 0.46811597630190604
0.29391497056453164 -0.15086617321154128 -0.18071564326171891
-0.18703580695933958 0.48560295638092099 0.38241523739991129
0.03843729333032242 -0.22290139085453697 0.63934070763901452
0.031470978238257397 0.37303640956716189 0.68332903610520934
-0.026723098917120935 0.21490477291288879 0.68425452472881909
0.09011464368952804 0.38047534387169057 0.52335605737297142
0.35663827247938873 -0.2818654945911172 0.70429175279591383
0.11485355482158649 0.42055589767457846 0.56517984014355949
-0.56510880860507418 -0.22279464213230393 0.25036110915382104
-0.56246411802157481 -0.50849278441532964 -0.22847704217913811
0.24819161831485265 0.46831324064791402 0.22574955139046776
0.077161708617732416 0.47214488938459653 0.5788201848602158
-0.041769935038004191 0.42614302842547902 0.65984439163860031
-0.26838496960856389 0.40542113465397289 0.40401870746017299
0.56845737518762829 -0.29156661987927568 0.61311285990896103
0.053529411032720409 -0.026865602546085832 0.75001016121566944
-0.73671114352528344 -0.7660920218894125 -0.2977026236902125
-0.26898983029566226 -0.061151816151417071 -0.096853625565224921
0.28493116176709554 0.7356892771200505 -0.2888540777832091
0.39598951678763572 -0.18717591800573419 0.6603939179938646
-0.21471366762177302 0.26094261464064594 0.70685591327642983
0.56348994386964169 -0.31003349694681992 0.60217583378564943
0.36649006519868754 0.69365801142300176 -0.3411912389192816
-0.14918712572699444 -0.38815086237092333 0.09256012444059325
-0.28714906557030151 -0.072860931632738213 0.73197961950671164
-0.00023003560218909369 -0.33966096677714352 -0.19972039270952824
-0.65574504222679053 -0.68027844765067358 -0.23968012076108758
0.21304109779754832 -0.0028906422350356564 0.61324799257268781
-0.072789918522669639 0.57703710339042313 0.51148777366355969
0.021503428617663856 -0.073068884379980936 0.75939342682185929
-0.71708768464952333 -0.50521317439300417 -0.49520652954941269
-0.42334636064535397 -0.0085515472328141495 0.71562168256659264
0.52743334772425854 -0.34559053353045954 0.62001079243004042
-0.096780093873289286 0.30594971661124815 0.68699537202076932
-0.36947213531356132 0.2938978022060339 0.55110830100790065
-0.20370888170300594 0.5469079866864075 -0.30182562918280209
0.17553584908588205 -0.3555374167027624 0.60676782022747411
0.1312336293414596 0.48367228603933121 0.23593305543776238
0.84410192260101147 0.2272474960239188 0.11871531927976492
-0.055521581800101971 -0.57887943935175745 -0.6783366136536324
0.062156032905552272 0.057343820000728352 -0.15040600265908327
0.0061159707398898977 0.9281362777010751 0.21357794172098538
0.048960260157552116 0.38164356106629094 0.66751824483070943
0.35178091387988047 -0.1352003232877077 0.96786049313029099
-0.70767816484447099 -0.73945223410701821 -0.210463483523186
0.19821800158828254 0.77449576327101899 -0.078189870947858897
-0.36932989393235111 -0.40236921331198638 0.054661648896457415
0.094518332042110242 -0.50168120755057055 0.34617573049339978
0.21774456324669031 0.75452079141664274 -0.17090302090611437
0.59891503454938488 -0.30793363200206558 0.58405510512377379
0.32746267567641729 -0.26498759653266402 0.35984058120728868
-0.13481786496845477 0.51150478959306489 0.70288150888928003
-0.20226855107291764 0.27320847009370675 0.72165025086917478
-0.34367189223876066 0.2025573522225137 0.43101895453883066
-0.28680020732613981 0.06010862098733849 0.74551059179889789
-0.13153856259366381 -0.806105660693899 0.060390046298011479
0.13489212734624373 -0.28230822846042924 0.18025204523892147
0.41611841752745238 -0.43408197079781907 0.66540585629643423
0.036017919518272046 0.36466406010986852 0.68443525395864202
-0.16153340568852614 -0.20268515330263992 0.39158406163991255
-0.26926741892021733 0.036809723652241555 0.26875048840436289
-0.23590712529087909 0.25606779427701309 0.21709074959373842
0.20475995134910985 0.62378807842680795 0.20821570855709332
-0.78926425840015391 -0.75781084519248343 -0.41506107256403058
0.01836630667156286 0.61930773453438492 0.56229591439677895
-0.24085007903184463 -0.0025668378607963671 0.73684427335165692
0.081537556603269279 -0.218536141677667 0.59687166555140792
0.24869255494205461 -0.1582244422790644 0.39142870288462739
-0.58691908062639098 -0.50131302332625305 -0.25641293053630398
0.41146970916810638 -0.25663044347118236 0.68581990879627774
1.0136229321023504 -0.74138033874422471 0.034489918368095063
-0.12843180111322072 0.19338619584237948 0.70220958177112436
-0.22675333685901922 0.26169518598649621 0.66270953216445394
-0.78242854313852994 -0.750703317502038 -0.41241299019008248
0.19527219606070845 -0.24961984293524808 0.61167519833246053
0.62930033083478221 -0.31589374086657696 0.60175702885016802
0.26974867250006801 0.31671586852387401 -0.095356226985115755
0.36800978584096511 0.5573705703909313 -0.30238175858057637
-0.0075233667115330305 0.50579918182737638 0.63175520302206123
0.015767726162944196 0.070182590346236973 0.14836906173382614
-0.19995662736919129 0.33487901036458001 0.86926389182722286
-0.4737350774358407 -0.018215048022039548 -0.35529842024920599
-0.22741682333241064 -0.35863844170402448 -0.43810793094832523
-0.21359532679198773 -0.10328241876205979 0.71090969202956245
-0.58085336642248753 -0.62352260169863527 -0.084227271914659285
-0.25133922870614034 0.32430294611999089 -0.34270790317436933
0.073471560008186998 0.28237209206197389 0.6792209829558904
0.82339884930990603 -0.080442445073866997 -0.30336901227902158
0.35595432476244226 0.94117027417128574 -0.36412002469076477
0.017339373135400071 0.52951627642018573 0.62422886869032579
-0.53973514516383481 -0.14312278642607312 0.10165345899482769
-0.57819138496243805 -0.37296292963946232 -0.2861948860116208
0.19334621438717514 -0.24998628552944391 0.3107418292082853
-0.40128992112882628 0.07755960550923513 0.68461086919074665
-0.04416419261816068 0.0012534344909069794 0.7174859781397841
-0.11922492653942784 0.52398567594055012 -0.012277290171266053
0.043297946474149085 0.25069039053532594 0.68054327367189749
0.026283723810314852 -0.11830674496529325 0.70375863482626788
-0.27063800662975646 -0.63045136903064047 0.31452822594837548
0.67457489005765514 -0.68348086759520987 0.34940845779108498
-0.40993715238915213 -0.097275610905227072 0.68908617093378233
0.36799781079465188 -0.97475294916538535 0.095806571241107141
0.025230780260801056 0.40377900450197313 -0.53325843119066074
-0.33571594127842974 -0.052035903639312098 0.75754249541719842
0.061023609973858806 -0.022158464109075737 0.72135136798146726
0.24891181375157473 0.62454349451418967 -0.24993541306073991
-0.13980862861657101 0.17851006863530738 0.78807858475715675
-0.076997269565072912 0.35481744946121974 0.090198126861570138
-0.33950201861496321 -0.023805238554118091 0.00015188662846687961
0.46380238121960765 0.19898418515264193 -0.13781905266058608
-0.40954653787936685 -0.037878876043790921 0.73912494499053671
-0.040279075732359892 0.15890658458276175 0.68074080259767433
-0.043250361694064321 0.23249110486310243 0.67707662276837932
-0.24349790820882095 -0.027514919949970684 -0.48726412284569343
0.31088681571102939 0.66797757300057992 -0.29675433083032954
-0.56324184919337772 -0.35254314130004283 0.095481483519265886
-0.4526512486379457 -0.15059199894250352 0.6566742520469635
-0.77814865638527553 -0.68177404232902139 -0.46174086902231437
0.21791374734992661 0.64598086359157247 0.33982854370088045
-0.60772353662527601 -0.4718387374984061 -0.41492474209901753
0.033572054418734398 -0.19274591218759562 -0.33568073075183952
-0.19352798547894567 -0.21311349593452822 0.95642657256632202
-0.43296306341192842 0.1354839424633465 0.14983531870085776
-0.022548093866101404 -0.043646882673851195 0.72905538463262443
-0.82219929061969599 -0.67916392116242585 -0.52935510988402756
-0.031632894131887856 -0.42604878764993548 0.089178783853755883
-0.688220841100605 -0.56646981089067006 -0.44364787008855977
-0.22046604747004972 0.27305579486257514 0.56052888864654293
-0.48271698835551236 -0.44098190407284021 0.14521081690085291
-0.34322133647341524 -0.15139225395346201 0.64104925833905979
-0.5579002007408822 -0.49414054535267349 -0.20950914660553033
0.27411150401580758 0.64140989853714414 -0.27698954592998104
0.058295680933372895 0.31039305021990327 0.68854631780490383
-0.45534443302020861 0.016447334068564023 0.54466118854572509
0.069722958260203249 0.28445926006268163 0.68417618122008972
0.13899709652194919 0.061600986653057799 0.63286377935269811
-0.55339036987897927 -0.60446199808064716 -0.15230106872245264
0.12429108450316362 0.65830565220123449 0.50174679840716685
0.37692487390645435 0.930291711770598 -0.37151073798849454
-0.35048344889158606 0.25839144338289688 0.70119368254424708
-0.27383778770949724 -0.13578891821254713 0.63398322741598723
0.084006599903596491 -0.42202874672940438 -0.054554073372228506
-0.020214891032683202 0.074196108984738052 0.69082932272239195
0.39239683330674846 -0.26344774666875037 1.0015504300872433
-0.022529333432899423 0.66242887454539989 0.51349591287167495
-0.14712553780457222 0.39280735857963189 -0.11983067347492726
0.10280366543577352 0.2515772190058978 0.62897223831523719
-0.5551217775023416 -0.56140988013680126 -0.1950624198853731
0.21439244574815775 -0.22349361171350024 0.5861680767353129
0.069999140136356108 0.33403549551401102 0.67367575789250567
0.29226545557270556 -0.091344878652706685 0.34884290053345823
-0.16085813986095149 0.57461257648597042 -0.41583175983363685
-0.68065530720692768 0.46853858271871962 1.4698969101268546
0.20907221056067937 -0.097372385817344975 0.68343037527860084
-0.41496002819401884 -0.13140975318658454 0.68218335044927259
0.51720202588848796 -0.069935542021685837 0.54186981529767531
-0.40133146830583594 0.2341384315817141 0.68621543035968247
-0.55898140696245491 -0.3881597642239738 -0.081335733595140347
0.0069734056178915593 0.80525024931598166 -0.1577474845344794
0.10412628880233021 0.44892122840361903 0.56819387025653767
0.16340754414992911 0.88519721646252458 -0.18491159953023606
-0.13121286969855001 0.79030987711641321 -0.43670040872323679
-0.49738036533514418 -0.61417505139746353 -0.2849570455242284
-0.66635355964677057 -0.55191467794119942 -0.39642781661527682
-0.084978945739711542 0.88194960178146187 0.76286748101158541
-0.20980233322897834 0.30542089549388085 0.68674536099416772
0.13777929133510813 -0.023795489766877953 0.73812479460074432
-0.17755405279392189 0.53023973598916796 0.66573559633855162
-0.73061847493937293 -0.7562138448140926 -0.31042781204406145
0.16306207426030794 0.24182982779988271 -0.31425081216511985
0.61810027055959238 -0.31854549681321243 0.58778171931106171
-0.79126633736879004 -0.75803505930588699 -0.41184395503827498
0.29518688103823193 0.54281540169669062 -0.27068244422216226
0.084147738556233254 -0.15800527035364831 0.59404775607766236
0.24200156549588531 -0.25851684862501711 0.7072418440710565
0.67592818379853103 -0.41848960678429026 0.58388391832454822
0.43919641134528109 -0.48276789706574397 0.55735749812789281
0.046230291010298075 -0.0281826962169196 0.022409940084668345
-0.6731942567667295 -0.56623453124288226 -0.3927156784909962
-0.40478102882500211 -0.2639215197040532 -0.0064935356427281432
0.031162931462732357 0.69010535462413425 0.049970066173166017
0.32768364147535212 0.58906368115443297 -0.28980435145783157
0.14735392777364875 0.18612973301746938 -0.55308550040761095
0.1267036082554715 -0.091386841504974115 0.24707376362984868
0.26035586459479065 0.82320320312282225 -0.24373391536681599
-0.46979431057242149 -0.54446138989664661 0.01651048836035085
0.16906033442670021 -0.0001072216647013402 0.68365988290542234
0.27468116124547065 1.3229910183465978 -0.37507848980887237
0.6163764140265382 -0.32502187230988999 0.58168321025413761
-0.1034229492867853 -0.061730715420177384 0.11946394701104002
-0.4083538605729275 0.034103427296142241 0.71537320069126653
0.23149527805125303 0.76336212273896198 -0.19696629319796349
0.24194457097324956 0.83930350988086788 -0.2075965090633754
-0.2101472547567208 -0.43997804299802157 -0.03685158581032788
-0.34992821023128473 0.3621387746892466 0.13258292319885201
0.45713946234628738 0.75029070026132949 -0.36375862225390831
-0.54681484725849738 -0.59824259167665583 -0.10765657277441654
-0.45009799744844287 0.045905272426375765 -0.37210040153533597
-0.28998908376566335 0.07517960686003744 0.73172096929481134
0.45464132595315981 -0.037906420658867512 0.32447254919692897
0.11505614551446863 0.22603766619483512 0.59069544160795773
0.0004866117019356464 -0.040352199807774936 0.72470837483543804
-0.27916853083652071 0.024438378573762742 0.76868437301613857
-0.380418521825028 -0.44972727636326693 0.79761185439180293
0.72087827291912687 -0.40625597173421879 0.55400164371108274
-0.32421256607075766 -0.26308285353010774 0.48556143270449836
-0.42110449784788839 0.085731405882149891 0.66379486066968529
-0.36545199983750132 -0.23107381086089651 0.61500927300133434
-0.57093177829721231 -0.079666656711748551 0.60188895621552529
0.10098358468541008 0.6221062398525401 0.55686231473265546
-0.27535328655744706 -0.0035230325127333373 0.75816962957321854
-0.28783586995856209 0.13634123394484088 0.71325136631914743
-0.43709523013404539 -0.10587410769572991 0.66646165602236418
0.36466855501793605 -0.1563402401096845 0.65732590779976829
-0.063191372039881122 -0.20396055432275917 0.50265978608421136
0.11359612818218012 -0.20874037992811645 0.74509844703705552
-0.73892101226571527 -0.67442314681061521 -0.39895063688383048
-0.18256383996449821 0.22868834936825833 0.27519197085851088
0.58285651104728975 -0.35916486768229428 0.60554977628636741
-0.22926199331636554 -0.42251962612650718 0.5572359631029864
-0.16895598780424392 0.41251361376617401 0.55214738317043743
-0.31341042117921902 -0.027908855186117743 0.77758685278606143
0.073152746981480721 -0.014939516417276755 0.73279054168561875
0.058616018113741286 0.22903900038918001 -0.47474181637885288
0.19091779605711379 -0.38012545658350017 0.51245190988542588
-0.53193478899953683 0.0138306424234651 0.53455496281017278
-0.18615969249063591 0.58621669282636835 0.40948814433802233
-0.025428376258647079 -0.036517890544974119 0.42972482238445631
-0.54517320952117265 -0.58939673903733347 -0.039986907927341941
0.43464708335833979 0.44427171343837535 -0.27723362311488814
0.5911835948533648 -0.37861384854249136 0.65340459862185873
-0.44438567497509274 -0.1141450704618503 0.67031905122535163
-0.074272453806267735 0.26311572142933892 0.68132245871755881
-0.17227174435610842 0.47131142353390798 -0.13716880837838025
0.26525384034563332 0.51595004767001318 -0.21735802350864347
0.01147053947653176 0.24633981303545549 0.69253187791498483
-0.32921818857935098 0.41866159628902055 -0.010561587377394654
-0.56157708775206139 -0.43790493809116771 -0.1854133013213467
-0.42044017729895417 0.51518503979259589 -0.52228861196386367
0.65969168348760365 -0.3761914316457915 0.20441463261013154
-0.37155594169304434 -0.219065922668357 -0.5325838964316717
0.12416372625405714 0.34794749947923376 0.58801183321914674
-0.38357768931600544 -0.024913931507390519 0.7613073849860611
0.2182478905715125 0.14447361798410374 0.43275979993122676
-0.79020088225966312 -0.74137895645866236 -0.43823439254200236
-0.39972943410195944 0.19840674484416243 0.19402619249536179
-0.25900325280123421 0.057191910516652289 0.72716065898923166
-0.39999155508422313 0.1276022332625153 0.45272023283740037
-0.47624905776368931 -0.48784286516278974 0.0027926007839992328
0.48510523535608852 -0.44288589387540722 0.46161208251162855
0.32164550309810896 1.0374357236196972 -0.29400319278463161
-0.04577325327388948 0.87399166931786354 -0.56898407475309631
-0.14956766945682787 0.072506437058485362 0.70404410969321918
-0.036470806023358338 0.36249939470370918 0.7110159573645477
0.25101634194864642 -0.62439078334951792 -0.53215250056376751
0.75571859495352534 -0.35441378370195509 -0.32822611965338711
0.12552448971976832 0.28131321863538328 0.60952910720968023
-0.067043822586568602 -0.36841072029081379 0.6849982011421053
-0.30742012681999398 -0.20810830357247334 -0.27732863549790343
0.065585136221639251 0.67989226071652453 0.3045596172499932
-0.39393565698730393 0.047782089680387552 0.28321541933889882
0.1662867025788663 0.78881127090822289 0.053705306066965608
-0.75590673427036181 -0.76487594054865482 -0.29610726201390436
-0.17881953910204068 0.12545296491731195 -0.070277614180651149
-0.2842261174838015 -0.2138857445245268 -0.088227349256324583
0.17326410796856545 0.067825536822923915 -0.20075823671024162
0.75935793751864389 -0.41596435397312426 0.47690559814102851
-0.23087680829158935 0.099282238466056105 0.7184970983332708
0.23732363202317849 0.8137653598972574 -0.2027012012260305
0.10902185351860655 0.16665519734306611 0.63225166079998052
0.47920317858913852 -0.23154424766981041 0.35352404153074635
0.5195512131018043 -0.30432895482323397 0.65736123769396471
-0.49875056410655583 -0.34662274168530827 0.29712515556665597
-0.49243603755440668 -0.46225363525841412 0.033380522525288558
0.6016493404071388 -0.39780038066313972 0.64152899962160326
0.15430044552111194 -0.17856997923943441 0.70873801099353895
-0.07448701913244149 -0.41653617151182964 0.075790604337750866
-0.54241255555036427 -0.59465574595626469 -0.11792542769714009
-0.35012878379189205 -0.078019279607460801 -0.57763069365135711
0.25115042947703403 0.65245059201884592 -0.25070624261611651
-0.14941494541137634 0.57060087236024737 0.58058942670606639
-0.027964301571593742 0.23649183776438121 0.68301186262284341
-0.0063562015551293927 0.48954458997196126 -0.67924888088079205
-0.00075537746470749623 -0.21071116399904244 -0.27334963985432637
0.3323593643682865 0.94134716189298184 -0.35203584678106842
0.67247722210475369 -0.31982724267771989 0.59633525391771025
0.041029502572214271 -0.63126725436495812 -0.54131740566425712
-0.14118616536215395 0.14444434644190696 -0.46826622991634037
-0.24837591708092671 -0.3180409376849882 0.1748812221235605
0.25477000627357599 -0.036075862518730295 0.6235304271143044
-0.60329053209071781 -0.56338408535549744 -0.25556382638977471
0.41830011941177536 0.62395378496575438 -0.34423672953196705
-0.33486340748814647 -0.34334033883125681 0.31091668526384775
-0.73626717988394486 -0.75669528175703882 -0.23611344148053492
-0.53524794231723805 -0.58159539513568026 -0.11073415793884478
-0.49879972523827842 -0.10241765665923319 0.63302888186900841
0.61221062569652129 -0.32050732084846811 0.34978649120320171
-0.32098356447304222 0.28285622189554238 0.64200230081641618
0.21420048640620026 0.37014194236581122 0.66997810574370809
0.64966588437965977 0.50368578973021294 -0.86833509826919231
0.52202527950142597 -0.45630701650411354 0.47997682911724671
-0.39269105250527891 0.067972417019614317 0.52718042118809239
0.14757958411679145 0.66942411342917474 0.33250918086379966
0.33662865253887475 -0.041831335873980136 0.51107324682858479
0.0077063998894338903 0.71684577712142383 0.26149380223333007
0.22058405001435122 0.14342442234098662 0.45000817041294977
-0.17651447182149543 -0.35825971789698396 -0.4155563691528209
0.32358570376945944 0.48004996601382555 -0.24827744910053323
0.11547863515642226 0.40280042585649922 0.56610964474694625
-0.44760474960088176 0.091590570148516015 0.45435463810579479
0.45730592000219972 -0.48137663406725517 0.57674973298226939
-0.17648287575076926 -0.35002628337376374 0.32822284072959218
-0.0017035786075026982 -0.061080531199948718 0.72450749202991116
0.59836144311737116 -0.40881038063985664 0.63696198004142868
-0.56685064115838979 -0.37211489696617683 -0.22841722693030153
0.12971296906613794 -0.37827161367256634 0.65831294992314693
0.074511345515237859 -0.094534345972016043 0.73606512041461969
-0.53321233667889179 -0.58044887331705963 -0.020710383754570127
-0.56107705996776924 -0.069774430676230237 0.45995768822918937
-0.31547666918725542 -0.063568644925741769 -0.002927259620658762
0.25515422319685049 -0.081521685183651771 0.4260436533442169
-0.24365722115121213 -0.39660865288016267 0.12316765544853658
0.17219603270432854 -0.088649466433642354 0.69604633564707552
0.27754125469335084 0.47004962309125764 -0.19978438966590079
0.0012356558926261418 -0.30772567010196616 -0.072705458222296238
-0.047294486894444321 0.71545389102695145 -0.28445458528113954
0.05724449022436251 0.47999673816237065 0.23082989878290705
-0.190507269737137 -0.036709975108766724 0.72740781055185288
-0.12044506779951458 -0.17116411215165628 0.54515908089724363
-0.28294260287977108 -0.00022505924372606678 0.77163945296811554
-0.32529485096811728 -0.036189899811989834 0.77498940981607733
0.71933749195504015 -0.38364774797917622 0.36799014909427008
0.26378359089778208 -0.054758784631672386 0.63795273666107621
0.44370035504283434 0.57509857677096865 -0.31784322737573406
-0.21777161700123115 0.23676515631044648 0.72238730434442455
0.58745344095814755 -0.38756385806871085 0.65262216457169131
-0.33720375069927572 0.29470195384880471 0.60270911603594313
-0.013426090150693015 -0.14224734506626646 0.65238872684515392
0.30461163926902224 -0.38621238215880405 0.44830310103289328
-0.091969644963959152 0.67540027943337022 -0.30866035288927107
0.10253426488443046 -0.067636725775769957 0.75145366074698594
-0.096442726044133509 0.6229814489879435 0.14384423275980823
0.45826833993305444 -0.24460564733157475 0.35421613932044949
-0.3562009104632779 -0.0043135821965838428 0.34654415266919891
0.24590314791037093 0.42725580436940813 0.43103712285427248
0.23064133121895114 -0.39712912890682284 0.49504614305290506
-0.15662670243097682 0.2337764301543459 0.076956857334474216
-0.22134423122488794 -0.0045834782825808773 0.73208078004567412
0.21506282705671281 0.82231252615509853 -0.28656116962889244
0.053177905294584327 -0.031106311833920319 0.75534171911282844
0.56123451582556294 -0.36124772121798376 0.66521835531277373
-0.46753400560893305 0.035099415523277333 0.40762079721721789
0.2963327315719857 0.48506820834744269 -0.23276165788438674
0.23335607514549467 0.0018715573897121196 0.4488185689705948
0.30913291055064901 0.45051079775537017 -0.20348044196023801
-0.39640015227099173 0.13776818098822718 -0.49719441425078009
-0.071500764148960894 0.45689586593850495 0.12529869055994242
0.34303891847995815 0.74619124963793437 -0.32719356307873881
0.030651283375606408 -0.067092052705360006 0.76791596833815068
0.24931488557885018 -0.39262442747632664 0.47704034179705068
-0.14082997662228891 0.055565533288028934 0.70641790266583815
0.043904385694852222 0.66763635387133702 0.32095705297242211
0.13329458246111253 -0.039341582393935148 0.74068348560418951
-0.5224564438523609 -0.6306484832986432 -0.12061054817705452
0.67253687099666537 -0.47101341490303394 0.71012645938548735
0.31628542076959232 0.54747873719869755 -0.28002138366531026
-0.15956173043685384 0.75996800194896186 0.47196171907061135
0.05670313425742235 0.48531690216872869 0.59477341099858816
0.70123775616840156 -0.29750697837639506 0.54545256509466233
0.2479879091297732 0.62844642631562775 -0.75719014641707671
0.13389744258999076 0.18931523926001503 0.60847020820185505
-0.063107662102294404 0.19010783865806591 0.68480988185455749
-0.19220344783782428 -0.029671128201019803 0.6570891910540122
-0.37554508328396069 -0.15750375313904619 0.63145125524165879
0.24703193439600973 0.25966267671276322 0.36244669291542508
0.032109783647641721 0.18172571572892005 0.066702701584815394
-0.14894927611491104 0.26445974536926298 0.70889442415390536
-0.57184036937558713 -0.41365551538321133 -0.20449345658795359
-0.40524297681461885 -0.15807554011495695 0.61981423199450281
0.018135653854850609 -0.078577511433870928 0.73758292027894767
-0.063165404154632454 0.2163155155450418 0.68995191892118335
-0.42113390594492783 0.12820075015057042 0.66719543619530952
0.60009938409434782 -0.33823383146584163 0.58659303070336666
0.38634219260197278 -0.32226443230369739 0.70414254031775125
-0.44340973331014277 -0.037601540551621904 -0.48475437345010652
-0.16322654936480824 0.60023607998169926 0.35228812583190033
0.48815380863238184 0.96181627061316211 -0.41912551897004208
0.19234049574154261 0.040241813832146534 0.43727885773521569
0.5255661418019355 -0.35450783883320391 0.63940478961193969
0.71495739486343357 -0.43779662811304532 0.49633387179450894
-0.7148005009333569 -0.52197901036935135 -0.46851754063224171
-0.48197932084535783 -0.52177901191401022 -0.2605015608581962
0.20405217194691888 0.040583102721781339 -0.063670811854471099
0.26139209476761205 0.61925302660615067 -0.31422960536189959
-0.38272593204253408 0.092673867035518942 0.68620685496145539
0.048256039868612044 0.61815101133562012 0.56987421569104812
0.30333877050129737 0.47756244527677216 -0.24442582388302225
-0.14939332035591163 0.47620012998276318 0.53714401967830716
0.36047919067407608 -0.38044887420472306 0.42046117560114304
0.34508161716867014 0.96513972181591923 -0.3606457137142019
-0.32738435507613206 0.10042909644817755 0.70541814086221721
-0.089003531520947754 -0.25263864898393229 0.27587763861410219
-0.099349928385626174 0.2774564467684657 0.4003543108240295
-0.42685623663041494 0.058215206194476288 0.67529823334048789
0.06142528897427485 -0.021081262572774984 0.70993143920801816
0.099528895616760205 -0.27817019467793735 -0.040945935434217651
-0.11241208768255745 0.35981136003303527 0.68700020471588652
0.2811151313755248 0.91683829640900316 -0.35300794249755957
0.02917730830580878 -0.28435060769622589 0.36965110195113948
-0.27544612405727331 -0.20160104882025487 -0.38736129245933493
-0.14593470856388557 -0.41332776916921499 0.035527465822176141
0.28119600401684097 -0.28293702762137141 0.70680573998854246
0.5339385842371045 -0.29511104893074069 0.65859991271287066
-0.4821751942269813 -0.56924562880160223 0.01430156226049506
0.39979255859315249 0.044690385958896295 0.31298386312754234
0.72487887196217227 -0.53187662046086426 0.50602327051531537
0.18327776257817424 0.27069216403065921 0.55168538258228073
0.13971954918763552 0.015016340434956588 0.67885289376413338
-0.76563933341867241 -0.76539083605100433 -0.36350328335095061
-0.16752642955624369 0.60489854697813672 0.31892098530745994
0.095848805571608853 0.34859060644491735 0.62928734026518141
0.43162762846713654 1.0755656610636515 -0.42283649449025146
-0.30440254426305374 0.065053731194014253 0.7617998261087503
-0.67057531922622382 -0.45047628216603242 -0.49886183020980801
0.026385164066177302 0.024497769703766936 1.0216857885192629
0.13025250072404923 1.0752734543290972 -0.28265456356220742
0.43042782402820806 0.040142360926959997 0.33299145480906284
-0.10800278693087773 0.28537529211088697 0.69528235662134297
0.25036231232043471 0.79259590121297219 -0.40538282689338156
-0.10138568612098475 0.95143048233169858 -0.15643887151411018
